ply
format ascii 1.0
comment KinectMotionCapture
element vertex 799
property float x
property float y
property float z
property uchar red
property uchar green
property uchar blue
end_header
308.40859427454 341.924798908322 3587.94480473985 21 24 17
315.778739766776 341.347903540122 3594.16972166612 18 21 14
341.340938849459 339.262404507888 3578.64228677962 16 19 12
353.317006077919 338.288199396301 3572.70984279844 17 20 13
313.122404693101 341.870332760726 3731.18770470074 16 19 10
311.793306307069 342.046016121882 3761.93598172952 15 18 7
427.432693507841 332.536279133199 3662.10117920165 124 124 116
435.624672564979 331.887611366519 3666.50177845457 83 79 70
443.497339295455 331.266599110108 3671.8519461534 126 113 104
452.343055942934 330.560999106527 3674.35979715075 144 130 121
462.776003725584 329.717243430613 3672.11731327479 131 112 105
472.229577647726 328.958355731603 3672.71406900315 133 116 106
-69.6221224516711 362.561487251158 3803.70555718981 181 182 177
-54.2389859364161 361.349504320988 3794.83866673162 157 157 155
-40.6480041519623 360.278204497023 3789.56082618456 148 148 146
-25.8230932782513 359.109914062289 3781.54664830474 28 28 26
76.3650224463672 351.076381483792 3609.36333966434 39 40 35
114.997909799021 348.025512988787 3615.31860231402 29 32 25
137.24223085955 346.274313166903 3588.735203214 32 35 28
180.109620320729 342.903863785937 3515.49113841686 27 30 23
170.697029518126 343.638158197172 3559.14538347223 25 28 21
165.533921399501 344.038594740669 3593.73389145099 27 30 23
189.746239853781 342.132727379866 3561.47538682839 27 30 23
200.643637520247 341.27210748241 3559.42082602535 27 30 23
207.166391998136 340.754799671117 3567.46006217878 28 31 24
215.676861805879 340.081345548958 3570.91099581459 28 31 24
218.339308454657 339.866795076668 3588.17403615111 33 36 29
223.402205659184 339.463693626602 3599.93706779261 32 35 28
241.97922303164 337.999862254046 3579.41879664771 28 31 24
256.983951980086 336.816361690475 3567.16205132312 27 30 23
263.928209287614 336.265336452435 3574.2933984168 25 28 21
275.419171492328 335.357415996573 3570.32165270946 24 27 20
279.001805319786 335.069918898669 3585.79994972903 21 24 17
280.821390749225 334.913827077769 3630.77234795893 22 25 18
312.901900645681 332.39034855632 3574.73178110587 20 23 16
320.600419291353 331.779517272042 3580.01136030778 17 20 13
345.013046459947 329.850445231359 3567.25396786611 18 21 14
324.484353298025 331.452903766383 3646.31953204232 17 20 13
329.17075423622 331.077683716536 3660.08752796165 17 20 11
338.134338730137 330.366954065677 3662.64339892431 14 17 6
333.471034563626 330.724461209306 3701.7503464084 13 16 5
335.934958701493 330.522968075959 3722.16933184338 18 21 10
342.964299365747 329.963419341042 3730.4142585622 21 24 15
430.079800784108 323.073347993891 3680.5069170823 134 130 119
438.638063182593 322.393320293555 3683.97725142604 95 78 68
447.517029492954 321.688082258656 3686.49856223312 110 90 79
459.578391858382 320.733554103648 3679.5216963603 129 105 95
469.68547412496 319.932018461022 3678.22575996854 136 112 102
478.197725034989 319.255255092021 3681.67743984326 131 113 101
-71.6430935832291 352.591726226101 3806.19927277226 185 181 178
-58.8489377420096 351.604797448724 3802.75603703994 133 129 126
-45.2331384412064 350.558766866272 3797.48805339577 101 97 96
80.7739443675446 341.288528018609 3598.27594360322 33 34 28
131.610479625214 337.507914155303 3532.57712831457 35 38 31
122.657950389438 338.090806803241 3574.26118034198 31 34 27
118.461258596301 338.330348516556 3606.0055213384 32 35 28
121.398749508422 338.056361551061 3622.30156752098 34 37 30
139.090240444056 336.722957624094 3605.73925418013 32 35 28
148.564444955743 335.979614810703 3607.4230534057 31 34 27
165.278710351164 334.717347756949 3592.62240267002 32 35 28
183.892941032077 333.319672527569 3573.19776285495 31 34 27
201.585314812012 331.988827551993 3555.55697943196 29 32 25
200.984220015424 331.967273619115 3580.12815165691 29 32 25
198.929734662803 332.048607112957 3608.42556626595 28 31 24
216.906514477089 330.697997988038 3589.82102127179 24 27 20
232.436338173704 329.522904082697 3576.69801123357 24 27 20
242.484988225447 328.73938901298 3576.45708760364 22 25 18
258.250441073766 327.548470179413 3562.3505367212 21 24 17
273.919546137526 326.36510260809 3548.20491806569 21 24 17
277.415939445879 326.048707019452 3563.64851595167 21 24 17
271.982101785247 326.366745261744 3601.36471366694 21 24 17
278.277611012292 325.849706416327 3610.39100315669 21 24 17
298.65472150812 324.332500668742 3584.12887546302 20 23 16
328.710087144604 322.060316510579 3557.4753803328 17 20 13
354.103022775706 320.19110011911 3517.06312739775 18 21 14
329.270616991329 321.878161083473 3606.25342599023 18 21 14
325.615462126353 322.063747131149 3641.45437931153 17 20 13
326.741750036172 321.909956519949 3664.56808538249 17 20 11
328.678322467987 321.697951165026 3685.85269489096 16 19 8
337.001393848576 321.034638151946 3690.30648350551 16 19 8
333.186793132848 321.226358646415 3727.60044811885 13 16 5
354.350390914959 319.658137020486 3697.34140322493 26 29 20
357.896502668936 319.330409599979 3714.96309116347 22 25 16
426.815340652784 314.016805147261 3687.88478598825 151 145 133
437.014390791564 313.222262079042 3686.62603373572 111 95 82
447.508998199695 312.407258170354 3684.40804024894 124 105 91
458.291472835004 311.57241969089 3681.22794436383 127 100 89
466.822328433786 310.894555907913 3684.68716548629 136 109 98
474.096641417243 310.303953770217 3691.95244977103 131 109 96
-71.4853990733102 342.461579035645 3804.18228963131 9 4 0
-57.8278787626936 341.439553182729 3798.93101657965 76 66 64
-42.9276091385169 340.336380945641 3790.94685734676 80 70 69
59.9144011721486 333.340640325685 3619.02043981963 22 19 14
76.2992659640316 332.148494930083 3606.24350189293 18 19 13
94.2763827360562 330.853309740048 3589.79654674561 24 27 20
92.9058820747433 330.824098470842 3615.13531538782 32 35 28
121.168926538747 328.858798153749 3575.88587751111 32 35 28
122.341700396584 328.662750264621 3595.78230128209 37 40 33
119.090089987193 328.753372273946 3625.75281153092 36 39 32
126.595124112433 328.142479310144 3632.03285882979 31 34 27
144.658799879571 326.845717675215 3614.54215461305 32 35 28
154.144068151812 326.106758597855 3616.2304002495 27 30 23
198.456316502381 323.112848708017 3538.1739393615 26 29 22
202.130763581758 322.752923951224 3552.61115175596 25 28 21
184.51777426209 323.766436586893 3616.67857678952 24 27 20
204.949699690255 322.322203373921 3592.59570644917 24 27 20
227.57124268625 320.739168062441 3562.92708554513 24 27 20
219.379413149087 321.139390371675 3605.99933223543 24 27 20
241.066032354903 319.618676345608 3578.10931120919 23 26 19
254.544370618065 318.626468654195 3569.54858094344 22 25 18
262.255031607535 318.004203328776 3574.8331631614 23 26 19
272.241413741863 317.236329023852 3574.56690913935 23 26 19
277.707112797299 316.756998256871 3585.41454482907 18 21 14
290.61002429513 315.670853574713 3602.5149936064 17 20 13
343.215070502058 312.198476222676 3494.37422986387 16 19 12
353.613810315908 311.409153730885 3492.11722560803 15 18 11
355.285570749673 311.172047779984 3512.21599672358 21 24 17
308.834239050985 313.970782428931 3657.37763760585 21 24 17
314.732962033704 313.316877283712 3694.2953781015 19 22 13
337.52660784559 311.742219548388 3660.38088711057 18 21 10
348.228625997558 310.928379465466 3658.24686394563 18 21 10
347.444938658687 310.833129308084 3687.060154139 13 16 5
369.888448193404 309.140094116565 3679.9767968854 32 35 26
371.037014776147 308.920495358846 3704.17908761122 23 26 19
427.469326390882 304.6750976998 3683.90489798405 136 128 117
439.929331926171 303.756036327818 3676.01010571291 134 116 104
447.823288927808 303.117451783821 3681.36902688511 133 111 98
457.961222389319 302.341616873188 3680.0851298929 130 104 91
463.956178679533 301.818517990372 3691.14764707089 134 108 95
471.561709835408 301.196763694212 3697.46846723267 135 113 100
-72.6349519764491 332.420088486982 3804.871763695 140 129 123
-58.1057045473219 331.373316748446 3797.81576084229 107 89 87
-41.4811801090813 330.203245587912 3786.21475746474 84 66 64
48.1682345943602 324.532163777458 3642.38233543557 35 28 22
76.9027620686902 322.658980047723 3603.32309947668 21 24 15
80.144476111103 322.292192794669 3618.66396148411 14 22 11
105.956416169424 320.420552948814 3607.55151375825 16 19 12
115.480648506174 319.684127833354 3609.25577368866 28 31 24
127.460016686855 318.804438706489 3605.48156612109 25 28 21
151.237866563353 317.237936295019 3575.20219223701 19 22 15
152.921054799247 316.96003602714 3594.22683422868 21 24 17
158.319386775398 316.464710030913 3605.04731470391 24 27 20
179.783275363988 315.038551108519 3579.22452566394 24 27 20
177.598533127218 314.981399475358 3607.4702498613 25 28 21
181.088725620538 314.594298091287 3622.91187301178 27 30 23
212.941385730597 312.575732257474 3572.1697794612 28 31 24
226.923879406223 311.588094543166 3562.73433537388 27 30 23
227.258178942825 311.382419801291 3585.5277642212 25 28 21
235.792370776531 310.70659307463 3588.98832072126 21 24 17
248.538020541015 309.791097095855 3582.28822212362 19 22 15
262.36896860203 308.81519874205 3572.79107208101 17 20 13
278.39546938117 307.716591833415 3557.71070981695 16 19 12
278.185453702166 307.536614519993 3582.44142801684 20 23 16
281.819162967766 307.137556018042 3597.94125072513 20 23 16
298.474253372875 306.006050058514 3580.95803303413 20 23 16
308.768190551168 305.233094435996 3579.73727901933 20 23 16
327.068324037839 304.013883466499 3558.02623724789 20 23 16
298.096541977083 305.222657237285 3683.30527145831 17 20 13
341.824363868076 302.595802702424 3595.29935328025 16 19 12
348.142152591629 302.043479244639 3604.33493102831 16 19 10
342.156626673051 302.166555269457 3646.14472163022 18 21 10
354.571008629403 301.276453208755 3639.3103025609 18 21 10
342.617440092969 301.718279458078 3698.12134881492 13 16 5
370.036486736427 299.577700342907 3704.92360486651 31 34 27
430.086707032074 295.250951121623 3674.24723624316 126 118 105
441.225854653995 294.435608170968 3670.13234158711 156 138 124
448.782374798721 293.809951087976 3676.43334711914 158 135 121
456.992174829661 293.149580759293 3680.8415078871 147 118 102
463.938893397746 292.554997944683 3689.05298982573 145 116 102
472.167531434512 291.893013505859 3693.46853297699 140 114 99
478.217772670992 291.343652710758 3704.55363369687 159 143 127
-57.0815284811637 321.24315319823 3793.99173656616 100 81 77
66.9164440453174 313.742094468209 3623.08287723701 25 28 19
84.5291902204441 312.585148838694 3607.56640856369 18 26 15
84.0374767105383 312.376295847356 3631.1042228039 17 22 15
85.3220392716743 312.071893825759 3651.04673032505 20 23 16
114.816474473729 310.301334117875 3609.05797333856 24 27 20
119.811096471302 309.804661908304 3620.79381284592 24 27 20
158.342582777524 307.578029198568 3557.65316296436 26 29 22
177.021539229519 306.381477516165 3538.25294846804 31 34 27
154.029096294788 307.321844125098 3613.08955183154 25 28 21
181.13349418341 305.695085321717 3574.44748546823 26 29 22
189.285962650549 305.038399661864 3578.83214793613 26 29 22
206.149939716275 303.940198524462 3563.01206267865 26 29 22
209.145799320697 303.54497682639 3579.33240363162 27 30 23
228.620542328094 302.318951939384 3557.01819645225 25 28 21
237.086066195862 301.64855443894 3560.45090862648 24 27 20
244.009466376396 301.05506317214 3567.57413269787 23 26 19
247.122906913701 300.65031654078 3583.9421535354 22 25 18
260.200559931212 299.750011138845 3576.29755742308 22 25 18
267.547939117445 299.134075802226 3582.51380957193 22 25 18
262.52151119024 299.125362457733 3619.31863315152 21 24 17
278.559699058734 298.080795407361 3604.24233607334 20 23 16
291.533382029546 297.188518140993 3596.55558237333 18 21 14
305.181733418482 296.265345343078 3586.98435781077 17 20 13
309.261902590757 295.806246236056 3601.58633869927 17 20 13
295.992680328419 295.907379959352 3686.83952981817 19 22 15
322.582091451952 294.36570215008 3643.67281426489 21 24 17
333.292231038393 293.584611046528 3641.541831183 23 26 17
337.977774625168 293.088587907253 3655.31039562128 28 31 20
340.618574341788 292.686671961861 3674.72370773407 29 32 21
347.192796685544 291.814167837568 3710.83780192099 20 23 14
371.754468938625 290.104274981222 3698.13883823493 37 40 33
430.74446688532 285.969094361489 3670.2684226996 127 119 106
440.251718426791 285.248775990918 3670.88661977141 155 138 122
447.488152907661 284.629164792961 3678.13678719911 158 135 119
456.661758245836 283.923872073138 3679.69858753589 157 128 112
464.87321161617 283.260834005113 3684.10743795001 154 125 111
473.71811489804 282.570175220538 3686.61484637101 141 113 99
479.749146132373 282.00061899257 3697.69232217276 160 143 127
-62.1313664841765 311.419197563797 3802.81040889153 71 52 46
45.5390205430162 305.521180482466 3644.69830776143 40 33 25
70.4847223631977 304.079961141801 3613.81203111512 38 41 32
82.1779689934228 303.252727641366 3611.00064272589 17 25 14
86.7173246424167 302.753191981423 3623.63123518259 11 16 9
88.8106096234562 302.363048604956 3641.74396507482 15 18 11
100.500625333008 301.535953400108 3638.93126746042 31 34 27
120.78999023528 300.322793674251 3616.94654018413 27 30 23
172.33380983475 297.126479356628 3569.8706950627 25 28 21
206.563924167043 295.019929852096 3537.35409923221 27 30 23
200.749919262775 294.974741345367 3573.84031493549 29 32 25
211.247986828754 294.213616090974 3572.70212220005 29 32 25
227.192828957135 293.21776071672 3558.66672624059 29 32 25
244.59466322711 292.162666136393 3540.90621531195 23 26 19
240.66228860915 292.024486795106 3573.83950485587 24 27 20
240.724883581695 291.71036073822 3597.60280984811 25 28 21
250.036094753469 291.000892445681 3599.22035746344 24 27 20
268.413026805281 289.910557616836 3578.61824218528 25 28 21
281.399245063524 289.050436788123 3570.93632019747 27 30 23
288.72836997851 288.427577180813 3577.14523380507 25 28 21
295.702184391625 287.818767853393 3584.28898634942 26 29 22
292.392070678264 287.631017086482 3617.47460067073 27 30 23
288.878890680036 287.445250839496 3651.6567879907 26 29 22
290.977069316279 287.025766332188 3671.9293379739 23 26 19
297.130711575171 286.439594017625 3681.97751868781 21 24 17
319.065100273467 285.221752944352 3650.94909765217 18 21 14
327.309583278109 284.55420739102 3655.37109847059 19 22 13
329.914448754281 284.108470123925 3674.77019321723 19 22 11
327.701938436251 283.847511153869 3707.32196614562 19 22 11
339.206775402865 283.048077835003 3703.35501592832 18 21 10
348.944686597052 282.318285085643 3704.066934502 18 21 12
354.555610109055 281.746697797386 3716.0528779698 16 19 10
361.912135042376 281.107072011919 3723.35182087751 20 23 16
433.36796455313 276.637743751104 3660.61253433139 140 132 119
439.601878816839 276.044651235091 3670.69326906559 135 118 102
448.126881812102 275.368433588953 3674.15010803301 148 127 110
456.971040625729 274.68095708857 3676.65719090324 154 125 109
464.54028405454 274.038199115965 3682.9634776231 150 118 103
472.438674928063 273.383385257314 3688.32431705245 151 122 106
478.161118435068 272.802484430093 3700.35574199817 142 121 104
-65.4480429737243 301.469988897722 3808.01628564007 75 58 51
52.5418948821836 295.672031992785 3628.18854320196 38 31 23
63.8803100379128 294.875159583903 3626.31206407276 37 40 31
91.914216989432 293.075504486934 3610.70443145936 10 15 8
100.631717594264 292.385302122168 3614.23931734786 12 15 8
126.319195325309 291.040011555165 3580.41571452459 28 31 24
118.89116677789 290.973124570506 3619.48526959482 24 27 20
117.384891673329 290.672466857883 3645.84992975863 23 26 19
114.380999022341 290.423183972924 3675.9230583358 22 25 18
190.259163903817 286.850323860333 3550.23417321283 26 29 22
206.318511479501 285.897724808059 3536.24481182804 27 30 23
205.644606587574 285.564616173096 3560.78886526003 28 31 24
215.71447253297 284.834274122183 3560.55612875841 32 35 28
231.238920099591 283.907152075068 3547.42906240409 29 32 25
242.787223534028 283.126881564287 3543.47956620334 23 26 19
245.031794490423 282.68014416687 3561.65397968432 24 27 20
243.523457217981 282.362571933617 3589.0967412418 25 28 21
265.00069311262 281.232746420292 3561.11923679185 23 26 19
268.522842100222 280.735151937493 3576.57463640843 24 27 20
281.882213475579 279.895329923364 3567.96458224928 24 27 20
298.161848491317 278.958628415335 3551.90641967865 25 28 21
304.6955805537 278.356869124961 3559.95099792413 24 27 20
285.849034167753 278.605706708775 3632.15574005429 23 26 19
286.392346612967 278.192653442962 3656.11443399275 20 23 16
289.58904788731 277.687044746491 3673.59599639078 20 23 16
319.184364375422 276.317378387909 3623.0138100344 18 21 14
323.063819088777 275.791252949781 3638.61409646925 16 19 12
315.277336038378 275.634481609491 3685.09136860211 16 19 10
307.018123482627 275.481503148101 3733.53508066587 17 20 11
322.831610819009 274.564674424704 3718.36683570968 16 19 8
347.936192279216 273.36570532863 3677.8330071449 19 22 11
353.807337211462 272.765714286607 3688.84597680128 18 21 12
351.49118925471 272.410798825786 3722.43505066414 17 20 11
363.628632750272 271.616957839046 3716.56657968132 19 22 15
367.271302714997 271.075728206627 3734.22898164508 14 17 10
438.626763278601 266.849359679305 3671.44695762699 124 108 93
447.799419607929 266.155718163573 3673.00828540385 140 119 102
455.361286332089 265.505585071768 3679.31164124956 151 122 106
462.937612077428 264.854284002777 3685.62086030364 143 111 96
471.158162800186 264.185543204007 3690.03343739657 145 116 100
478.133542783116 263.548165137559 3698.25684851571 134 111 95
-85.5355112791654 292.483298821664 3824.76551633129 138 129 122
-71.3730195256987 291.576878718274 3818.6390182421 59 46 38
-53.8106897047612 290.557645389922 3805.25870880863 47 34 28
36.5067743743572 286.690406614236 3660.60403723869 29 24 18
56.4222037431841 285.621663655239 3640.6246849831 24 25 19
79.1582815413141 284.466415678139 3614.2358775558 19 21 16
79.9314961271864 284.033590508828 3635.05112545398 18 21 14
99.1329530131893 283.00179493074 3615.86121888179 13 16 9
106.613867164835 282.350620358709 3622.13180549755 26 29 22
128.514584849322 281.241919330958 3596.48322199831 22 25 18
119.168906379773 281.121498843382 3640.17129511658 20 23 16
157.295330778005 279.099230064408 3600.60041202441 28 31 24
193.224083513276 277.583541622001 3541.79510013347 28 31 24
209.264288113854 276.68466805351 3527.79758066893 22 25 18
214.11157010403 276.124635363583 3539.47424350449 18 21 14
221.367427644902 275.491172052791 3545.65357204366 18 21 14
239.202200930845 274.547917571876 3526.98869919988 21 24 17
241.367352653863 274.063352043622 3545.13124312185 17 20 13
250.17865483117 273.384887088005 3547.6252114939 20 23 16
252.847139258188 272.879987863545 3564.89264002196 21 24 17
254.448539903741 272.400906733257 3584.96475706276 20 23 16
273.554639978594 271.435132521963 3562.49905911141 22 25 18
280.862330723857 270.797463559369 3568.69940642615 18 21 14
290.426097369319 270.098449783356 3569.34032458086 19 22 15
289.217606221127 269.685379706363 3596.90521556109 19 22 15
293.666979792537 269.117573393191 3610.57870052729 19 22 15
291.952529098035 268.705420207491 3640.09659862904 20 23 16
298.009769545291 268.088471075742 3650.10598021108 21 24 17
329.717466443199 266.828684248911 3593.90514279954 19 22 15
329.933358937674 266.361396537318 3618.81048594125 17 20 13
327.775901532833 265.945144397622 3650.30666111479 18 21 12
310.584520984209 265.878503014539 3722.10515128793 19 22 13
350.062294727894 263.983338801843 3670.13398717025 18 21 10
360.749338142374 263.25387759631 3667.99326127113 22 25 16
347.73785307221 263.051695692777 3730.69633580885 23 26 17
339.131275705366 262.735329507259 3782.2373224084 20 23 16
386.880203463203 261.202569786053 3677.51020404665 21 24 17
440.252986087979 257.598938999169 3664.6233479515 100 86 73
447.149322703109 256.954418599557 3672.81480910698 143 124 109
454.710627366097 256.296334985062 3679.11799764089 144 115 101
461.333497332861 255.653878516809 3688.27778381037 145 113 98
468.301080397431 255.003665016501 3696.49839252805 148 119 103
476.543581657386 254.330713559524 3700.91963192734 138 112 97
486.340387834819 253.632452330184 3700.57609229294 148 125 111
-74.6949617954551 281.545348017369 3823.84338689206 50 41 32
-51.0653194383357 280.4099503849 3797.816226975 42 33 26
43.9406570237748 276.878875751774 3643.18943439454 34 29 23
59.5687308172757 275.997912693951 3632.26159198086 27 26 21
71.7411824903604 275.212135535898 3628.56510795326 30 31 26
83.8737709438613 274.429520211984 3624.85220239758 20 23 16
82.6283006093735 273.99244969126 3650.24468639682 13 16 9
92.2764510263243 273.272723828111 3651.99873607919 25 28 21
106.85578984004 272.430190330153 3642.80385051686 22 25 18
145.50732248097 270.997569673305 3579.70578815232 20 23 16
197.848029140392 267.855370665313 3552.37201950038 19 22 15
212.278300780879 267.046963073383 3542.03745365882 17 20 13
197.87277099228 266.893514890242 3598.78142201718 16 19 12
222.122345799019 265.865231823012 3565.45228500857 20 23 16
229.057772528 265.226467471135 3572.58072170201 18 21 14
253.399638472231 264.2131907019 3538.21003083521 20 23 16
245.676792005462 263.887467030413 3580.39860255663 22 25 18
246.174027013012 263.379273209024 3603.26055306253 20 23 16
262.306353496702 262.547618946714 3588.22101544953 21 24 17
279.089624186465 261.709039433434 3571.28721952011 19 22 15
287.540599371668 261.039484392557 3574.71403465005 18 21 14
293.393692746737 260.419486413408 3584.64078163576 17 20 13
304.073888816479 259.707254816349 3582.49715269944 18 21 14
323.142525697526 258.843863747583 3558.93695921271 20 23 16
312.256175646761 258.523198735983 3611.71253084634 20 23 16
327.989540265564 257.723140982176 3596.51121690288 19 22 15
339.320054837286 257.004028453751 3592.47307597105 17 20 13
338.865147462711 256.481958876813 3619.26510573479 18 21 12
337.12348060647 255.972540507972 3649.8515295921 19 22 11
336.581270399878 255.435066893905 3677.68687873184 19 22 11
361.246709694271 254.507750063721 3638.05199370313 15 18 7
333.471375645247 254.364311042426 3740.0901309156 18 21 12
349.815317627881 253.56051042216 3722.97844751171 21 24 15
333.814664118133 252.618097830647 3823.31676228964 22 25 18
434.721994304051 248.462960435482 3678.63628777873 96 82 69
444.884419570627 247.769392057826 3677.36194101384 133 116 100
451.817169313811 247.108469142592 3685.56826991394 141 113 99
460.363641089934 246.43130909124 3689.03380858207 142 113 97
467.33285200005 245.767488626362 3697.25517953998 147 118 102
475.890437564508 245.089445014886 3700.72522479955 138 112 97
485.067649415879 244.406957879475 3702.28831252791 146 123 109
-74.9755086144763 271.415350624066 3822.7275127178 93 89 80
-50.0453446013329 270.34270484624 3793.98976752298 49 44 38
55.6536993972501 267.083733046417 3616.71845572803 31 28 21
66.1158327985667 266.354924914264 3616.64453391843 31 30 26
72.7596643437625 265.702944022893 3624.7340713319 46 45 41
81.1077227786392 265.016266431576 3629.19815412514 18 21 14
97.8015818430997 264.16993676041 3615.46489646182 9 12 5
97.8208296818031 263.641591502523 3638.13346608587 23 26 19
129.704043068275 261.992957404922 3613.2941353866 23 26 19
144.902885508416 261.189890044653 3602.19190980541 26 29 22
181.4867000765 259.494929498855 3565.23063565228 19 22 15
192.010776938931 258.786406210655 3564.10283241501 16 19 12
184.261586173515 258.372053591604 3605.20260115608 19 22 15
193.669801165167 257.676723005783 3606.85957499863 21 24 17
211.684024013984 256.851300029297 3588.26620965652 22 25 18
233.46740794124 255.978041507891 3560.41071767198 19 22 15
232.271959778039 255.445737971432 3586.9029852783 20 23 16
241.187969347481 254.764379320639 3589.43911363978 20 23 16
253.532206458294 254.037120891975 3583.65386725165 16 19 12
267.341471764924 253.29411441558 3574.14642998473 16 19 12
286.349214774223 252.490351649373 3551.63993717711 15 18 11
276.801816373701 252.043012444523 3599.5640458503 13 16 9
301.287971253686 251.181406175122 3563.09275341875 18 21 14
314.492382137386 250.461289320967 3554.41904951996 20 23 16
309.318681058414 249.943324687837 3592.24691137129 16 19 12
317.789660647242 249.272229684383 3595.68183781528 20 23 16
323.371117238371 248.62944760165 3606.5778390555 18 21 14
334.372418418252 247.933450983677 3603.48529210723 16 19 12
324.684946073825 247.422055342798 3654.58985301825 17 20 11
335.761884638159 246.720088532662 3651.52797636444 19 22 11
338.729735630761 246.0837979903 3669.99667757804 18 21 10
356.6698772485 244.712830229951 3675.1130320908 13 16 7
433.092554323135 239.23617676148 3681.28315721585 101 87 74
441.648120025395 238.558554817099 3684.75238145138 115 98 82
450.20299785007 237.880997645988 3688.22132667918 131 103 89
459.075075684088 237.203396278765 3690.73989613905 127 98 84
466.679424595602 236.52593465769 3697.06065986478 133 104 90
474.298166032118 235.847343951854 3703.38725958025 124 98 83
482.241654532438 235.168111110926 3708.76654380897 123 100 86
-72.6457074914393 261.251066239783 3816.19570376339 126 123 116
-56.3747342687246 260.406664502084 3805.52788965703 61 56 52
69.0875387385856 257.423335421937 3586.62770445281 26 23 16
55.2526518090339 257.043889659148 3638.20987989902 20 20 12
64.9122223899683 256.333778847933 3639.96873787211 33 33 25
86.3149625534845 255.47260467757 3616.27452412369 16 19 12
107.566102804393 254.623473240191 3592.51883736218 12 15 8
112.908523028064 253.977166632171 3603.31782395613 24 27 20
132.716344578321 253.158943133899 3582.21419504321 21 24 17
140.986838135371 251.89073457612 3609.30779458289 30 33 26
152.083095367087 251.17830489989 3607.33288459651 22 25 18
171.992819891017 250.379949838976 3585.19129950966 16 19 12
204.542603378277 249.470821089619 3533.64424891024 20 23 16
194.320298278219 248.972363660768 3580.21667195268 22 25 18
210.758837743042 248.226439665724 3565.30046799809 23 26 19
207.896924840743 247.645861323279 3595.43385152719 21 24 17
227.371563292961 246.882108076563 3573.11584089461 20 23 16
237.422355476301 246.197018367257 3572.87503856122 18 21 14
235.158422484297 245.596964310253 3602.17187940416 17 20 13
258.226807207945 244.826888740426 3570.5201460289 15 18 11
260.250318637878 244.193365082799 3589.68527800333 15 18 11
273.281191315604 243.494923780131 3582.02021078744 16 19 12
281.762609556267 242.822960645786 3585.45937034792 19 22 15
276.126616253318 242.21186483506 3624.17956739953 22 25 18
290.976950400904 241.508510938507 3611.85666933115 21 24 17
306.473784543596 240.809631618728 3597.63762710916 18 21 14
295.67350670886 240.190265694043 3650.45031284584 19 22 13
318.38695226661 239.476326540228 3617.57589069694 18 21 12
320.090833407497 238.812656870022 3638.7694514132 15 18 9
331.866678033309 238.130341955512 3633.83279163805 15 18 9
325.909520208599 237.461367463776 3675.66007180753 21 24 15
347.90535116031 236.776548519477 3643.57342277339 23 26 17
366.221202071373 236.104970156381 3620.78578582666 16 19 10
372.280110831435 235.430370226462 3630.79627987409 12 15 6
357.758713102543 234.716385545573 3697.20737058043 13 16 7
435.37165224174 230.017212493063 3672.56603733697 140 124 111
437.76185482703 229.29952178181 3694.03789421701 101 83 69
446.662817585739 228.622642203317 3696.56815350764 123 101 88
456.512634379489 227.954103046515 3696.24585221167 98 74 62
465.394319493873 227.278795631727 3698.76829420388 113 90 76
472.39129510276 226.585850183733 3707.00087042485 93 74 60
478.791518380655 225.88454665288 3717.14976271271 94 76 62
-76.840153362838 251.183539205783 3823.20494823133 125 122 117
57.3096062152698 248.13770229349 3609.98035497887 25 22 15
38.4302841765651 247.644671539786 3672.46766189506 19 19 11
65.9301982168155 246.810964734228 3636.13759961977 28 28 18
97.4069053478373 245.968108625284 3590.62867175117 16 19 12
108.992762798633 245.263662200696 3587.77287155011 11 14 7
94.4078220149456 244.705776081174 3642.28938968134 23 26 19
125.462516578946 243.896486187193 3596.60959471271 22 25 18
160.751269181091 243.08824606778 3540.77621345887 28 31 24
158.303165834331 241.813137064089 3591.5810507609 20 23 16
166.914430030428 241.13048112137 3595.07286507901 15 18 11
181.520422386303 240.431714621706 3584.80887348934 20 23 16
232.185822950802 239.659514616376 3490.966894476 22 25 18
204.981348141142 239.061730748874 3577.05620408354 23 26 19
219.787418964961 238.377822806928 3565.79404485678 24 27 20
224.775578813956 237.707114683273 3577.52884425722 22 25 18
235.613706400144 237.03177798561 3575.4488810217 18 21 14
242.193096748951 236.35742338821 3583.51249623709 16 19 12
260.253858087601 235.691087001176 3563.857960024 14 17 10
271.359956424635 235.025220732931 3560.80761632368 14 17 10
276.778877493404 234.351159985051 3571.63778793759 19 22 15
275.876211832202 233.657984267065 3598.24982047563 21 24 17
285.879924581338 232.987798968297 3597.98984304091 22 25 18
279.250831731602 232.258999734827 3639.54551492607 21 24 17
280.528970223136 231.546098671211 3661.64613398504 19 22 15
294.287528576316 230.884414122581 3652.11754943325 20 23 14
318.8213844867 230.286677640999 3614.58476260709 19 22 13
316.923821290917 229.55021568814 3645.10952884099 16 19 10
329.432134881718 228.895926714247 3638.31135462723 16 19 10
331.974159389841 228.174844449398 3657.68709255035 20 23 14
353.929016826885 227.598046382011 3625.58329208765 22 25 16
373.597554715432 227.018904735977 3599.02690085978 15 18 9
346.003426605855 226.02449401484 3700.06604906569 12 15 6
350.221159264299 225.293148858466 3715.80485735765 12 15 6
353.480750813069 224.546007693798 3734.39226525013 21 24 15
429.503433666381 220.728750648768 3687.52265757294 141 124 114
434.841875814999 220.000674375173 3700.47852677756 113 95 83
445.365564717332 219.351182198677 3698.27105364831 122 100 87
453.947572113909 218.672045343414 3701.75099542148 95 73 60
463.16060242755 218.004119894282 3703.32847541828 116 97 83
468.602523834246 217.267990857273 3716.32630368042 104 88 73
475.648320912426 216.557748490729 3724.57903570151 101 85 70
35.8502453852014 239.410395673055 3631.56670520343 24 21 14
48.9436512785213 238.70536984818 3626.08462343996 25 25 17
48.3808992573735 238.015492908398 3649.59732071976 24 25 17
64.8367028905898 237.310889539128 3636.84566721913 21 22 14
94.6457791682243 236.615270491204 3594.97615842177 16 19 12
84.9488075153575 235.915733312743 3638.52612773463 10 13 6
108.679509454621 235.235049919275 3609.29975786095 21 24 17
181.223222262242 233.286347044691 3515.69383349058 25 28 21
144.284915174259 232.478091911825 3621.57941553056 15 18 11
155.796477538559 231.798902750948 3618.69308510468 14 17 10
188.063529423314 231.209105865975 3568.10794617388 21 24 17
209.304689395909 230.592701395973 3542.18883817449 22 25 18
230.383791288836 229.989197937943 3516.20375899205 24 27 20
221.492997138848 229.226218467698 3560.08062474964 21 24 17
207.760008019608 228.413467061618 3616.02308926395 20 23 16
233.029662084987 227.844865944656 3579.8668092123 17 20 13
226.544740752422 227.058128300047 3619.32342076916 16 19 12
244.709213329318 226.452396230334 3599.71067436531 18 21 14
273.373298645424 225.948437488612 3554.13943243565 19 22 15
271.23334747854 225.184360464882 3583.48745866557 21 24 17
279.345275442933 224.508327068335 3587.85611044774 21 24 17
291.553208849738 223.874591314863 3582.01496677744 19 22 15
292.260182740639 223.118501323014 3604.96346083273 18 21 14
291.239533903411 222.332627294543 3632.60723358852 18 21 14
294.296517708305 220.790547041583 3675.9332775706 18 21 12
324.889390059607 220.400904811059 3622.51088455581 17 20 11
325.925480678047 219.618984416214 3645.59308866045 18 21 12
333.088180358613 218.918536003284 3652.81401411303 21 24 15
344.841584027578 218.287868935411 3647.86761945001 21 24 15
359.341353964281 217.706386509968 3635.40185665939 16 19 10
342.568063185073 216.601939415068 3707.37749470771 14 17 8
356.778939963928 216.010107454939 3695.87364771064 12 15 6
350.38759995816 214.183995429594 3768.82165257028 19 22 13
425.259932308819 211.390250372573 3697.74293842759 135 121 110
432.566418970701 210.679004011637 3705.02216405752 110 92 82
442.461629683874 210.029417046443 3704.71809878604 102 82 71
450.742775154671 209.341061983857 3709.15510170813 102 83 69
459.976382751551 208.677306575151 3710.74113892016 118 100 86
466.690828817998 207.946486748702 3719.93841614838 99 86 70
474.056778894808 207.230759167288 3727.24200928744 83 70 54
19.8682505639816 230.564894471274 3641.34590607352 129 130 124
34.7480080072586 229.889900922036 3632.27138798253 21 21 13
55.1205589291932 229.249012535872 3611.3950698465 25 26 18
57.4906140891709 228.51859089258 3628.54337587335 27 28 20
58.2459656686412 227.771771435606 3649.35377115767 21 22 14
72.9687690610337 227.109485790106 3640.21560715904 15 18 11
95.5589968903918 226.509743625698 3613.76353552825 10 13 6
86.8392225682015 225.683616587725 3655.55250835917 20 23 16
128.270373703015 225.251648366137 3587.09894587854 24 27 20
151.724058325275 223.17446923291 3603.08402745078 15 18 11
168.01662990719 222.56877016187 3589.18672463596 15 18 11
194.213631283338 222.080833899506 3552.32624416448 22 25 18
212.238009351261 221.518552585798 3533.73525328324 22 25 18
226.191461165907 220.917912384984 3524.28511701615 23 26 19
222.416145332093 220.097616450391 3556.20810343888 20 23 16
224.256480036638 219.337806667356 3575.30002566707 19 22 15
211.4649698214 218.365636802429 3629.46702316637 17 20 13
223.194304166717 217.724868750382 3625.59002493709 17 20 13
231.060776777869 217.029247719303 3630.93799296843 18 21 14
252.227227247066 216.543351112323 3603.90858103551 19 22 15
271.340292089022 216.039701660951 3581.44245751595 17 20 13
282.443998369836 215.412662689253 3578.39085098866 17 20 13
280.116898983431 214.550302988778 3608.74265532735 17 20 13
279.415088057617 213.703622414057 3635.43717605222 17 20 13
292.052679482464 213.099625511737 3628.690964319 17 20 13
297.70930480838 212.362951509839 3639.61785529693 17 20 11
321.865206687674 212.001593903619 3603.00905401253 16 19 10
323.519784035174 211.185054765097 3624.18406790698 17 20 11
329.9097998816 210.462647021209 3633.2501790988 20 23 14
335.621400484845 209.721875215572 3644.19936023796 22 25 16
349.112544806466 209.158908852719 3634.56175337907 22 25 16
339.831254603749 208.053997197148 3685.83527325623 17 20 11
357.83786992564 206.701015943821 3690.97866339542 13 16 7
366.14968078459 206.007223834839 3695.42812372762 11 14 5
399.559218875225 205.996051480823 3630.19684065164 15 18 9
424.602446858746 202.104223548499 3697.54711277054 123 109 98
431.908136048509 201.382284407295 3704.826096558 93 76 66
441.482764570454 200.733287000622 3705.47103349923 86 68 56
447.534540443067 199.966440029533 3716.55840406835 101 83 71
455.840085225276 199.273734659081 3721.00531907322 99 83 70
462.581149438675 198.52459371691 3730.2137698965 86 72 59
43.1200410632024 220.468085047373 3613.076065383 26 29 22
52.313454155815 219.776982722411 3615.72458632354 21 24 17
54.693084464895 219.00421902856 3632.87734742829 20 23 16
46.1504391725462 218.086850507763 3673.65966476631 21 24 17
64.3083972416949 217.501493519552 3657.28080790354 14 17 10
88.6251066113166 217.011028401461 3627.21120112141 13 16 9
123.897000203877 215.884649573526 3595.10898491918 20 23 16
125.981575843048 215.096853877152 3613.22120255667 22 25 18
144.868488759394 214.570734128667 3593.90036369731 13 16 9
151.875804528735 213.859265131679 3601.05845883617 17 20 13
177.430177861141 213.465518071218 3566.09494239946 19 22 15
200.370446807386 213.045863559317 3536.54655326927 22 25 18
211.198219652331 212.420445844794 3534.46201909997 19 22 15
212.117489020879 211.608873383641 3555.33927434794 15 18 11
214.311264115571 210.812934115953 3573.49576779873 18 21 14
217.366644594584 210.02651056219 3589.8431735363 18 21 14
214.680492068918 209.112279624932 3620.05025019459 18 21 14
220.996244114809 208.378491577091 3629.0863787584 17 20 13
225.430434030747 207.599605549576 3642.75531589657 15 18 11
236.758749908802 206.973892061347 3639.7946421599 14 17 10
272.202881082054 206.924099847631 3577.54506044877 13 16 9
269.429141231412 205.978319524871 3608.79597812431 14 17 10
272.764378875403 205.170253925379 3625.25686008957 18 21 14
278.75886264077 204.423518202265 3635.24181568192 19 22 15
289.562525485186 203.800911055441 3633.14749824058 19 22 15
299.606220461379 203.160885085052 3632.90348072735 19 22 13
326.649733768291 203.000069377359 3588.83109600837 18 21 12
325.32975781142 201.124247229231 3643.33419623737 22 25 16
337.094466538455 200.542418200287 3638.39200873339 21 24 15
337.549819787817 199.61347532495 3663.39780706152 19 22 13
350.002573894207 199.054978413968 3656.57641112774 18 21 12
333.259262292351 197.54632995431 3728.5672512691 17 20 11
332.03812133139 196.517373858987 3759.36837033448 15 18 9
378.819690964222 197.124233613244 3658.54884757712 11 14 5
424.924575763589 192.85731316072 3694.51094788905 92 82 72
429.62922714521 192.019907479517 3709.36890189488 83 71 59
438.574057009269 191.351653127251 3711.91660006282 84 70 59
443.366020637491 190.507494244684 3726.80995736723 87 73 62
452.332089795489 189.837689961234 3729.36652414968 72 60 48
460.036562032243 189.112540912425 3735.72818855941 79 69 57
43.5082118669479 210.170437090382 3632.73111907436 22 25 18
38.277013558524 208.33495044209 3688.88696895893 23 26 19
67.4206251753455 208.021214523827 3648.90273994352 14 17 10
84.61266462898 207.489650624065 3634.28999801438 13 16 9
108.353862644029 207.104950148401 3605.06563445773 20 23 16
123.651129191336 206.557312635079 3594.00132401285 19 22 15
134.351556870882 205.916317448273 3592.94441212964 20 23 16
143.395141467262 205.240276303727 3595.53215441204 11 14 7
154.461457251323 204.612095090979 3593.54422553832 18 21 14
200.928359759881 203.965895922458 3533.60459030062 21 24 17
206.577360440568 203.22633532588 3543.44960784982 17 20 13
209.341475491978 201.5082675218 3583.42172362575 14 17 10
210.860920821169 200.638469222825 3603.46361906818 15 18 11
213.247396307275 199.783271188687 3621.69858470993 18 21 14
217.64117141582 198.97716111431 3635.35136452926 18 21 14
227.065165658698 198.313472912493 3637.01423021184 17 20 13
238.379527563489 197.70813155653 3634.04775219488 16 19 12
266.648496533146 197.63185746676 3589.39209686123 14 17 10
271.777314772333 196.851060848406 3601.18468228986 16 19 12
274.716916085927 195.994180593098 3618.56480927471 19 22 15
281.80203307719 195.266602302026 3625.75452768215 20 23 16
293.316236818197 194.68747703116 3621.78970013062 20 23 16
298.951771375017 193.90850327382 3632.70862945246 21 24 15
304.990154165744 193.139310600583 3642.71152966728 19 22 13
301.709371771449 192.026820969664 3676.99483744413 19 22 13
312.528646598329 191.419893551812 3674.90672233601 22 25 16
332.184920253966 191.153035226167 3649.42206375448 19 22 13
331.96190786734 190.131400247034 3676.31151550184 16 19 10
347.249300229142 189.711580456205 3662.00581381538 17 20 11
331.54831002454 188.04426124396 3731.18320354326 16 19 10
334.044988335203 186.018179190011 3779.68035033859 13 16 7
350.397354747969 185.63914884925 3762.56885828397 11 14 5
422.633278066029 183.501396437271 3699.04843089762 66 57 48
427.348226636924 182.630398944721 3713.91080877934 66 56 46
434.375453482904 181.867480053789 3722.15642111843 83 70 61
438.873760811598 180.972237996654 3738.01007440391 83 71 59
446.920521601146 180.253527303981 3743.43121485699 79 69 59
23.2507789450853 201.102890862275 3651.57001867536 19 24 17
29.5538018431951 200.335235701004 3660.60125000074 23 28 21
46.5372877389221 199.83035829724 3646.98267207798 10 15 8
50.7221447784398 199.008962163164 3660.55097831285 16 21 14
61.6976969086289 198.359312652397 3659.60552797138 15 18 11
84.3625864750852 198.025617765993 3633.18166978408 13 16 9
103.568274616752 196.678270143448 3636.65238258658 18 21 14
134.926126106032 196.632064144465 3590.0107416017 15 18 11
150.901735299077 196.163478338925 3577.06261459294 15 18 11
148.125457672258 195.140215473782 3606.15521852406 20 23 16
164.439062957405 194.689435120986 3592.26500063872 21 24 17
186.665456577534 194.435663457167 3564.58418460426 13 16 9
199.651723999657 191.984927812833 3604.38498397749 10 13 6
205.911312837387 191.222223197351 3613.3985916352 11 14 7
202.503923336671 190.116541470573 3645.4729692012 13 16 9
228.319375920277 189.046459152159 3632.19799457109 12 15 8
248.749313473838 188.802811293199 3607.02615387475 14 17 10
256.178339109812 188.081055642616 3613.2762661828 14 17 10
268.875562754896 187.563040691178 3606.55354739408 14 17 10
264.373938357924 186.367205134448 3642.50105013086 14 17 10
278.186675441344 185.894117928103 3632.99271542079 13 16 9
278.69467818853 184.878261146473 3656.94168179855 13 16 9
302.312901286534 184.826198464854 3622.27070732034 14 17 8
301.796596953219 183.758646978063 3649.04175526732 15 18 9
301.406933005256 182.681153733101 3675.86441159307 21 24 15
312.939667231869 182.12304361324 3671.90692761499 20 23 14
336.49818178158 182.120437745843 3636.13259455527 14 17 8
347.862828668023 181.57583914323 3632.10695078829 15 18 9
338.546528339207 180.052681560647 3683.36972272966 16 19 10
337.129234850024 178.879740466226 3714.09225516408 16 19 10
330.342575173008 177.422582135858 3759.90539714532 17 20 11
422.793816012482 173.083251023065 3725.08585153287 54 47 37
429.850510121954 172.304515926865 3733.34325761453 59 50 41
434.057218321035 171.352511686002 3750.15834008651 78 69 60
451.641930184914 171.203479007857 3727.07045212998 122 115 105
14.8134694888389 191.289387274827 3667.64802814294 16 23 15
35.7365688669804 190.948243857582 3645.91354305467 27 34 26
51.4045453362781 190.458344417706 3634.9988927966 10 15 9
73.3464484703088 190.178114694739 3610.43951355138 16 18 13
73.6562022820477 189.209350170537 3632.14997987742 15 18 11
83.2760846333673 188.539446835076 3633.89246360531 13 16 9
96.6306782511752 187.997771171636 3627.43583138467 15 18 11
76.0247883435903 186.283756754325 3695.70668121825 16 19 12
125.228601053694 187.00069394426 3609.89260796569 14 17 10
149.431346365222 186.871922854117 3578.69556548344 15 18 11
167.353760351209 186.534181690628 3561.14039625682 19 22 15
160.766738883823 184.274063064586 3622.1447994712 15 18 11
169.446771133432 183.585336712811 3625.66450349988 11 14 7
189.207103975852 183.338033613713 3603.45825395407 11 14 7
195.488559044969 181.519718567032 3636.2242960742 11 14 7
199.900566223276 180.651356759415 3649.88492978081 12 15 8
204.36857822153 179.778669875077 3663.56827222584 11 14 7
213.852855875505 178.037284669251 3690.07835999535 11 14 7
241.918699981653 178.216411188089 3646.41733311742 13 16 9
259.214239512148 177.929755795189 3628.60795964096 12 15 8
261.478319728601 176.949565656361 3647.87312385311 11 14 7
284.566979584491 176.957979485779 3615.14514808125 11 14 7
294.355479524299 175.241003788779 3640.69916291539 12 15 6
309.388937721934 173.768552105763 3653.27037068886 20 23 14
317.643370122923 173.068268143524 3657.69690532226 19 22 13
348.984161661741 173.601361946499 3601.33366375271 13 16 7
333.109106142536 171.60936511403 3669.36422849018 13 16 7
339.285409439628 170.791399512524 3679.42334142811 14 17 8
343.411958363408 169.85326714866 3695.12679746144 14 17 8
361.746875501371 169.721140726041 3672.3427913965 15 18 9
341.246948035515 167.342370409379 3755.76592625566 18 21 12
425.96484098021 162.719316864538 3742.63148396884 50 43 35
438.183663450936 162.271909741688 3735.71452873988 98 91 83
22.196824746985 180.918708287216 3672.87397690303 8 13 7
69.2916204262146 180.62293302969 3617.50140485197 17 18 13
85.2050510550171 180.20752361126 3605.60676448972 16 19 12
99.3578892500648 179.732301223013 3597.31521586852 12 15 8
72.6570184111157 177.60731462701 3678.22570899898 11 14 7
98.924178564757 177.618584995979 3643.5477249835 12 15 8
131.145746546557 177.90624985558 3595.09513530806 11 14 7
113.229821856397 176.082806979928 3657.9825991585 13 16 9
163.861923375286 177.205962296219 3567.34945297721 16 19 12
182.093587955768 176.95691953132 3548.84001667613 15 18 11
171.33320011829 175.414611668618 3596.28129406876 9 12 5
155.636922089702 173.615187101715 3655.75180530224 10 13 6
166.380463917595 173.012325867129 3654.71180376127 11 14 7
208.568303349087 173.907708708546 3580.08119474779 11 14 7
211.241867525151 172.94712346251 3597.35439123268 11 14 7
182.151983634739 170.414062596448 3690.24715236643 11 14 7
187.115161139721 169.521652851613 3703.05232517372 12 15 8
200.943174314264 169.073996384063 3694.62904825679 10 13 6
257.806762995712 168.607788617757 3630.26661383667 11 14 7
258.207168981058 167.479096093283 3654.17287031068 12 15 8
269.09389084428 166.916050593775 3652.1117314176 14 17 10
292.461501304919 167.059795691173 3618.41660962873 14 17 10
296.257299648356 166.111300045 3633.98622564207 13 16 7
303.74809455809 165.36888252549 3640.26124727701 12 15 6
305.127495711958 164.263017511271 3662.40610265797 14 17 8
313.049295027824 163.536558387602 3667.7767058251 14 17 8
328.086744748973 163.243810551143 3654.44764910373 13 16 7
338.094061244925 162.651586462735 3654.18828264935 16 19 10
337.924347675493 161.419652662015 3681.10116594513 13 16 7
350.745359491295 161.00367545702 3673.34872932302 12 15 6
329.335965893156 158.363145351671 3758.56348535835 13 16 7
329.266548643626 157.073861563617 3786.59622076542 17 20 11
377.958162300447 159.052098249113 3680.06630334832 18 21 12
371.038215442847 157.308526112781 3726.90645737474 20 21 16
-2.08128371232319 170.259800606032 3722.46329761447 10 15 9
4.85061045113722 169.444643698074 3730.67070637456 15 17 12
52.5137014560362 170.453635602397 3651.78276356169 16 17 12
98.0298542800384 171.422546793656 3576.34159149059 16 19 12
92.4138680470807 170.076176252927 3610.7599726452 13 16 9
88.6365405373821 168.794693959575 3641.60683207806 12 15 8
92.0477027143496 167.838303529987 3657.02077146814 12 15 8
128.502182842387 167.366744870934 3622.15573117548 11 14 7
120.554933716146 165.837295962834 3663.1840168394 12 15 8
136.635382693594 165.508902680944 3650.27727609678 12 15 8
179.102309427549 166.563037338451 3576.83752963276 9 12 5
178.887775720421 165.421157648764 3600.49464410285 11 14 7
178.785119868235 164.270520752547 3624.19738072897 11 14 7
200.4403018583 164.290351079096 3597.36201946014 11 14 7
198.354176690227 159.454088831506 3699.04825287559 13 16 9
260.532311840893 159.526564282753 3621.72895752287 13 16 9
269.490347705581 158.869616939082 3624.28217422958 16 19 12
280.2968805145 158.329467704485 3622.18839380807 16 19 12
280.027548307856 157.0883197552 3647.98194669296 15 18 11
298.161891450454 157.020318779267 3627.2738598692 14 17 8
287.115920016492 155.054616515235 3681.07633623751 12 15 6
297.97774117121 154.510647289591 3679.0049706307 13 16 7
311.315050759833 154.139034139307 3670.38243491459 12 15 6
324.378761114888 152.475005224642 3688.63117836034 17 20 11
334.810396865794 151.913047575759 3687.46457821664 15 18 9
345.216199486882 151.353273191605 3686.28775909938 12 15 6
-13.5021402208664 159.940811579502 3744.88955010618 6 11 4
70.5060357239831 161.86095993771 3611.66196034509 17 20 13
58.5804857576473 160.089971323883 3659.71227053974 16 19 12
66.6033758560618 159.340969902007 3665.12397551426 13 16 9
66.7216164071103 158.166337367598 3687.83752526881 12 15 8
90.9622897190967 158.292205038978 3657.73271761672 12 15 8
117.484845234684 158.569716633525 3622.07731519777 9 12 5
107.390337091373 156.82036027544 3667.63215565366 10 13 6
100.781338227313 155.237942673413 3705.96575198927 10 13 6
109.714024526651 154.528511589651 3709.58791079209 11 14 7
158.689328675178 154.964560499481 3645.26115132292 11 14 7
203.88403129761 156.477150667278 3564.29115023004 10 13 6
198.211421658943 154.932039575609 3600.84598488068 11 14 7
188.027160039069 153.079990076593 3648.52313668803 10 13 6
