ply
format ascii 1.0
comment KinectMotionCapture
element vertex 758
property float x
property float y
property float z
property uchar red
property uchar green
property uchar blue
end_header
3.84427890118633 774.623040972228 2752.52073715557 219 220 222
19.0921239037709 771.108029546735 2742.53771630545 214 215 217
30.305847905262 769.002367251481 2738.46305459348 215 216 218
36.9754166299239 768.502313583061 2741.16730607186 210 212 211
43.6457544852653 768.002169089807 2743.87186965425 209 211 210
53.6654923299136 766.302136588567 2741.46831311506 206 208 207
64.2113782271345 764.404483676213 2738.20047996676 208 210 209
74.1700491639403 762.708870958903 2735.77216436771 210 212 211
82.4476256970692 761.613649086525 2735.89531639152 207 207 209
91.8070910911284 760.120991253602 2734.30191373318 206 206 208
101.142333247265 758.629989003925 2732.69843348171 206 206 208
109.910172439482 757.339661084334 2731.94276009618 204 204 206
118.118395753657 756.24918673622 2732.03779550718 194 194 196
125.236390368843 755.556594468059 2733.84626270396 191 191 193
133.421260806978 754.467641555978 2733.93183116854 211 211 213
141.058971556024 753.577644999025 2734.87315865311 201 201 203
149.217946665984 752.490295404489 2734.94823012974 209 209 211
158.418333800979 751.008507536888 2733.29033541797 216 216 218
166.01845796125 750.120861245835 2734.2164265442 241 241 243
173.086460913244 749.431064089445 2736.00463128392 236 236 238
178.069035660301 749.529836290649 2741.25797355149 233 233 235
183.067579620611 749.627253616863 2746.51779191015 230 230 232
188.082192464336 749.723158731152 2751.78412790822 229 229 231
191.061665904508 750.603947796071 2760.53599094854 225 225 227
194.587664189729 751.285328120463 2768.43158412742 224 224 226
196.113634280506 752.748889436409 2779.82745556959 220 221 223
199.20670358472 753.620349745369 2788.62538348131 212 213 215
200.325204830197 755.271924938892 2800.93339949266 211 212 214
198.498996473395 758.092700129917 2818.51362450797 203 204 206
-166.739261774116 801.400954413624 2831.05696059273 230 231 235
-148.260712674866 797.06192304932 2818.07304225596 230 231 235
-133.46749398922 793.931616854283 2810.06090397792 216 217 221
-124.10252138737 792.607010364262 2809.54726550911 217 218 222
-114.163441626088 791.084097524297 2808.18851670705 224 225 229
-104.248708654679 789.563143522911 2806.8198952145 225 226 230
-91.4163880417929 787.046609405961 2801.24583260644 229 230 234
-80.3912616083455 785.131789247928 2798.172170685 228 229 233
-68.8172439174299 783.020565470473 2794.24343149432 218 219 223
-57.8634648340925 781.111278477056 2791.14083959553 217 218 222
-42.8953208060383 777.813306053547 2782.12173284587 221 222 224
-26.8451455367587 774.123529816707 2771.38634359924 225 226 228
-12.0210944202759 770.836435619581 2762.30881219475 211 212 214
3.30413934298823 767.356383484302 2752.35711775118 214 215 217
18.5549647105605 763.881963008257 2742.37499596144 201 202 204
30.9020056400475 761.402173072128 2736.60416853071 209 210 212
38.1298116697992 760.704706321989 2738.45713453988 204 204 206
44.7926470528517 760.205006795296 2741.15865705157 204 204 206
53.6894954486056 758.916114058349 2740.45520770188 202 202 204
62.0112878933889 757.825727808499 2740.59622578291 209 209 211
71.9787040054574 756.145681327294 2738.17133305565 203 203 205
80.2645559687671 755.057813805863 2738.29777999864 209 209 209
90.7290491114117 753.185020528546 2734.99680307038 190 190 190
98.976424444601 752.099842781786 2735.1076507102 190 190 190
107.75278325968 750.819539790836 2734.35535087349 185 185 185
116.509850772874 749.54061577332 2733.59522967283 194 194 194
123.633346821465 748.85013353524 2735.40565114109 205 205 205
132.895161431525 747.377645820277 2733.77255748693 188 188 190
140.533436894428 746.492894707197 2734.71407386111 207 207 209
148.693114937275 745.413529306426 2734.78936943228 230 230 232
156.310369818887 744.530079544014 2735.72262208443 228 228 230
166.020901506739 742.867904825992 2733.19358320746 228 228 230
173.609892816779 741.986161762428 2734.1151219765 228 226 229
179.107455098237 741.882638601898 2738.49970425493 228 226 229
183.580080096382 742.166420281505 2744.62397729764 227 225 228
188.073689415922 742.448479636557 2750.75675979843 229 229 231
190.536417710028 743.504051453993 2760.37713694798 224 224 226
194.571865689603 743.975326067159 2767.40178710577 217 217 219
198.633244863624 744.444421234215 2774.43721036695 220 220 222
203.226320206958 744.7178827694 2780.61033112646 209 209 211
203.81712650851 746.534318660853 2793.78250295779 212 212 214
201.967552360466 749.310200167371 2811.35360761136 208 209 211
-163.68387038551 792.576062170847 2825.88785114797 227 228 230
-150.025831139491 789.871414154278 2819.57047665692 222 223 225
-136.4224268826 787.170969799317 2813.23120620911 210 211 213
-125.258288719569 785.264294243433 2810.21376741999 215 216 218
-113.534895414511 783.163149071678 2806.34517573942 221 222 224
-103.033363763929 781.459041802877 2804.13698221708 225 226 228
-90.2066314636032 778.970029012004 2798.56044833664 227 228 230
-78.6015267785762 776.878046409544 2794.64389298061 228 229 231
-68.203155251497 775.181908521585 2792.39361302154 219 220 222
-57.2530570376317 773.29186218113 2789.28938492583 217 218 220
-42.2872814210074 770.032179253954 2780.26928622574 220 221 223
-25.0865792023458 765.994175175328 2767.84424593633 222 223 225
-10.2699116054341 762.745737924101 2758.76368921443 208 209 211
2.7640553305226 760.088944506255 2752.19352676035 209 210 212
15.7437760746777 757.43618533402 2745.60111260183 195 196 198
26.9707952299674 755.372837251197 2741.53151327341 206 207 209
35.3409902735515 754.286954920501 2741.69209508591 201 201 203
44.8188085685477 752.812686208796 2740.14647329562 200 200 202
52.5971051745537 751.923715734808 2741.14471522199 197 197 199
61.4780099238303 750.646726329378 2740.43472017859 199 199 201
69.2328264396409 749.759436810619 2741.42344244131 204 204 206
79.7331494077405 747.902933156269 2738.13684928509 206 206 206
89.650724847887 746.242706013364 2735.69162619707 194 194 194
96.8094664335397 745.552504392765 2737.51657343356 177 177 177
106.137724166927 744.088865087897 2735.91005783505 168 168 168
114.900775154337 742.820137045275 2735.15228201808 198 198 198
124.721309357684 741.166761432237 2732.66771568685 198 198 198
132.905096196285 740.093824703099 2732.75272401134 196 196 198
140.008000259574 739.40718023125 2734.5550360677 219 219 221
148.168379134146 738.335769302663 2734.63055510795 228 228 230
156.314583586299 737.265242282587 2734.70032832502 224 224 226
165.498036613082 735.81151599057 2733.03536441351 225 225 227
173.610872909928 734.743064793921 2733.09161136631 225 223 226
179.105784206439 734.634078350168 2737.47490446333 226 224 227
184.611608916967 734.524012626748 2741.8628817317 227 225 228
189.612785930603 734.604215039849 2747.12389667938 227 227 229
192.064103356356 735.638549286898 2756.73955739749 223 223 225
195.57790806025 736.287804199039 2764.63071420993 218 218 220
198.614772224439 737.125102173519 2773.40614399914 220 220 222
203.204611878256 737.387756073338 2779.57829379632 210 210 212
203.287664629821 739.361889091821 2793.62249264838 210 210 212
204.938984530345 740.760142032057 2805.06935513516 209 210 212
-168.867524554657 784.702419006145 2819.53295927686 218 219 221
-158.814041271829 783.197365909914 2818.22065350615 212 213 215
-148.784817404443 781.694240255671 2816.89825343366 207 208 210
-136.384772813129 779.413851653811 2812.22644077295 208 209 211
-124.625373184902 777.331492717755 2808.37228540344 214 215 217
-112.905508133392 775.252230730089 2804.50235651594 217 218 220
-102.999126278635 773.758897394365 2803.13014435821 223 224 226
-90.1729629804029 771.297097923163 2797.5531738233 221 222 224
-77.3963342898905 768.839073545831 2791.95611846186 227 228 230
-65.8367941961695 766.772244811609 2788.02118089214 220 221 223
-54.8979302097277 764.901947898354 2784.91225444192 216 217 219
-40.5206796432374 761.874356789655 2776.7309150619 220 221 223
-22.750182672296 757.692719088451 2763.45886119828 219 220 222
-9.09075985473518 754.868908622424 2756.06414198104 198 199 201
5.08045788917455 751.856804242648 2747.79926398309 199 200 202
15.2060586173419 750.19752038003 2745.43826171318 185 186 188
27.0008948725415 747.96334779331 2740.52105417255 195 196 198
33.6779791342161 747.462250362208 2743.22835655015 194 194 196
43.7231728681562 745.808858786213 2740.83475339501 189 189 191
50.9456027425033 745.116839171421 2742.68550134908 190 190 192
58.7200824660963 744.233431398915 2743.68215568299 171 171 173
65.931751272164 743.541995370931 2745.52854213319 190 190 192
76.4460787163494 741.703361080814 2742.24748384538 158 158 158
85.8290242797022 740.24928690557 2740.66303846138 189 189 189
93.0030448766444 739.560504906065 2742.49416130115 160 160 160
103.434583936106 737.727772247367 2739.1795378491 137 137 137
114.373038972705 735.706988198637 2734.99252109949 202 202 202
124.194981142992 734.069610694709 2732.50840358281 166 166 166
133.987457231527 732.434353102878 2730.01259661622 214 214 216
141.61669418589 731.560838687973 2730.95036819111 226 226 228
149.236824812801 730.687806645914 2731.88444902216 227 227 229
156.319164974904 730.004913465059 2733.67840646661 229 229 231
166.027372375501 728.375291655601 2731.14817975999 224 224 226
174.135847712595 727.315285631542 2731.20259697892 233 231 234
180.146334557971 727.012021598672 2734.71756462372 231 229 232
185.126111032077 727.085616072098 2739.96970750412 224 222 225
189.605804229567 727.346446187067 2746.09727360391 220 220 222
193.079883296878 727.982290506473 2753.97244743569 221 221 223
196.585274122435 728.615480139625 2761.86006207219 224 224 226
199.613369499506 729.434135279432 2770.63208274911 222 222 224
203.689255394523 729.874135778136 2777.67360020869 214 214 216
204.771598248092 731.437775833195 2789.96764246724 207 207 209
207.412505316999 732.434518355407 2799.66060885261 210 211 213
-176.710829071539 779.403149141219 2829.34415439553 197 201 202
-161.793629654263 776.369272207838 2821.38148413139 203 204 206
-151.152008794027 774.686499883242 2819.22959279968 202 203 205
-139.341752967453 772.621894681394 2815.3961514033 206 207 209
-126.37781802337 770.17655727598 2809.87483885547 211 212 214
-116.433526604683 768.693670059679 2808.51789683333 216 217 219
-107.10527863791 767.404371841355 2807.98912119243 221 222 224
-93.6731991960298 764.777038228713 2801.57992837917 216 217 219
-76.7764532091031 761.006826512616 2790.10885393803 223 224 226
-64.0522990130843 758.579948501522 2784.49031594392 219 220 222
-54.2850793007721 757.110821352167 2783.0615745426 215 216 218
-40.4891424583316 754.309191544539 2775.72196076524 218 219 221
-21.5646180375511 749.798465068911 2760.7620425709 217 218 220
-6.188374555123 746.436888065754 2750.82984636611 191 192 194
5.68443693622189 744.22119528961 2745.94407037521 194 195 197
15.8062185758858 742.578413330063 2743.58139670345 180 181 183
27.0315749349812 740.558450411779 2739.51053804635 185 186 188
33.7062122123541 740.057218082092 2742.21685067981 191 191 193
41.5044035707826 739.177455556735 2743.22333528354 181 181 183
48.1757292653393 738.676395933393 2745.92830577147 182 182 184
56.5171146417323 737.608487365603 2746.07708651725 165 165 167
64.290470490872 736.730339268452 2747.07324593544 176 176 178
73.7085536404174 735.287164521672 2745.50320212344 140 140 140
83.6513847363425 733.657424732343 2743.06797378601 170 170 170
91.3796958777189 732.782307458035 2744.04587194778 165 165 165
101.817800433619 730.968003651933 2740.73376713313 138 138 138
111.138927079511 729.531703609823 2739.12441421011 193 193 193
123.129813649228 727.159125235861 2733.2085697635 157 157 157
132.390064634196 725.727115687313 2731.57427896858 219 219 221
141.626000264363 724.29681796842 2729.93038730982 231 231 233
149.775269525445 723.242217565072 2730.00128072693 222 222 224
158.439137935994 722.001676861023 2729.20287570715 225 225 227
167.609877389196 720.575767423697 2727.53255331543 227 227 229
175.709070025067 719.524327520117 2727.58314710542 234 232 235
181.188325620629 719.40515879861 2731.96043572529 225 223 226
186.67867568256 719.28493716899 2736.34196717034 219 217 220
191.147837213428 719.535399082871 2742.46509043438 224 224 226
194.610775006836 720.15547845991 2750.33587273712 223 223 225
198.616041908444 720.587415129621 2757.34885818732 220 220 222
201.6303237451 721.387767345 2766.1154245906 222 222 224
204.174867734609 722.370301781794 2775.76922471349 216 216 218
206.257072165526 723.534367097391 2786.31351623425 205 205 207
208.886563623633 724.509896899032 2796.00202130618 210 211 213
-177.277364898447 771.758406966676 2829.17271310747 197 201 202
-165.379091282653 769.708586781763 2825.37479742507 192 193 195
-151.113089404566 766.903398436313 2818.22553662898 197 198 200
-138.105377631617 764.481760913502 2812.72176937091 200 201 203
-126.34064990758 762.442341990977 2808.86970306267 203 204 206
-118.775001643362 761.729202514856 2810.85932057172 214 215 217
-111.213737616698 761.016434867739 2812.84741734218 215 216 218
-98.942885618625 758.79500489061 2808.12259139729 206 207 209
-81.4359903274224 754.880741925195 2795.82084582014 215 216 218
-68.1080631778108 752.291224800238 2789.36893861511 214 215 217
-55.4163314483733 749.893904470795 2783.73704895441 212 213 215
-41.036433730959 746.93666932259 2775.55624810808 210 212 211
-19.8010361625767 741.731920870343 2757.22175680541 212 214 213
-6.15433884223981 738.974155021406 2749.82138452415 178 180 179
6.28954197765097 736.595544925382 2744.08899996457 183 185 184
15.838204837473 735.156430633668 2742.57179617663 173 175 174
25.9293799179485 733.532063681925 2740.19659054477 166 168 167
32.6065407369882 733.030481976505 2742.90392759058 193 193 193
38.7229727893914 732.715362503469 2746.46162433489 171 171 171
45.4043690800767 732.213355565415 2749.17067951636 157 157 157
53.7565109473084 731.152634666837 2749.32376100863 160 160 160
63.2024351658191 729.720883075773 2747.76490326415 138 138 138
72.6241996390493 728.290901589761 2746.19599276621 169 169 169
82.5708095865947 726.677001956844 2743.762174395 139 139 139
90.84864451821 725.621480832318 2743.88513012168 161 161 161
98.5681401670886 724.752227211875 2744.85967173454 133 133 133
107.361557386253 723.513402293165 2744.11396433253 158 158 158
118.291749262572 721.536371489221 2739.92327025009 165 165 165
131.32840215396 718.82341152691 2732.27555567752 217 217 219
142.70374181061 716.668293252184 2727.18789772078 224 224 226
151.377684914687 715.437833599751 2726.39349546153 222 222 224
161.09005293357 713.840514490436 2723.86496574072 232 232 234
168.667726010971 712.980858777656 2724.78175442131 237 237 239
176.760152954926 711.937935016884 2724.82954428046 216 214 217
182.231650880642 711.813642415154 2729.20373071229 222 220 223
187.195310812429 711.871711273175 2734.44972302517 226 224 227
190.626214587298 712.477776078969 2742.30738398043 230 230 232
195.115705480862 712.715384014258 2748.43909311586 222 222 224
199.626397385571 712.951108430783 2754.57914344077 218 218 220
203.649521575056 713.367558442819 2761.59921933864 223 223 225
206.179912052383 714.329031887762 2771.24770566767 217 217 219
208.247998960827 715.469318961407 2781.78646133602 204 204 206
209.360010654064 716.969935665613 2794.09299399775 210 211 213
-180.878721862298 765.049187404645 2833.15995836776 195 199 200
-169.570892720676 763.206958882163 2830.19995332217 187 189 188
-152.879783407583 759.685601611141 2819.72279716721 202 204 203
-140.464587753876 757.477213870799 2815.05631609105 204 206 205
-127.496843400807 755.085761690197 2809.53613751067 204 206 205
-119.928737229789 754.374962549123 2811.52698969625 212 214 213
-109.405038598913 752.73396151748 2809.32703587283 212 214 213
-98.3214582626781 750.909404729411 2806.2763573515 201 203 202
-81.4027564544966 747.229872763576 2794.81322811278 206 208 207
-66.9064809742019 744.299133444741 2786.67934696842 215 217 216
-53.056624437384 741.55859143518 2779.36135909167 208 210 209
-38.1074287577066 738.452262622684 2770.33338490998 209 211 210
-22.0737824002808 734.981117376081 2759.58938883399 204 206 205
-7.84288211345152 732.070387042681 2751.34790748794 176 178 177
2.32062649063303 730.456787445798 2749.00190757462 168 170 169
13.593608326347 728.476568253072 2744.95003088957 181 183 182
23.1265696312102 727.051998148991 2743.4263594121 152 154 153
31.5067252379084 725.997306876521 2743.59073776644 201 201 201
37.6254833226322 725.679044199218 2747.14940012941 165 165 165
44.3095091286356 725.176619713234 2749.85952314794 166 166 166
52.1078173193483 724.307129421147 2750.86597719551 144 144 144
61.5600077946894 722.88830651534 2749.30930139165 153 153 153
71.539610037209 721.288171616884 2746.88873703441 167 167 167
79.8423165917677 720.238899174419 2747.02171574202 148 148 148
88.1307104638132 719.190605844734 2747.14914915085 141 141 141
94.772488442501 718.69081126169 2749.84214638893 138 138 138
103.582061814584 717.46141165763 2749.10265183111 157 157 157
115.068075402169 715.32263085795 2744.05968113269 187 187 187
129.193155726403 712.277207030833 2734.69730960218 226 226 228
141.646230046576 709.78216318109 2727.89072181855 224 224 226
151.918434749667 708.017406955954 2724.51106976962 227 227 229
162.685509695711 706.073653363651 2720.25407856353 243 243 245
169.727010601424 705.401168932865 2722.0314215864 237 237 239
176.764449932983 704.728826964679 2723.80711902679 215 213 216
180.668619392369 705.141491018313 2730.77905969224 226 224 227
186.155905561111 705.010149261714 2735.15969210268 236 234 237
190.621266459479 705.238585918205 2741.28144346295 229 229 231
195.621687950813 705.284985027713 2746.54240872482 222 222 224
201.149563690334 705.149889450573 2750.93950401835 220 220 222
206.179591002176 705.193494625642 2756.21247764483 224 224 226
208.693669881313 706.134148663888 2765.85426010199 217 217 219
209.737250499359 707.609850661773 2778.13327435202 207 207 209
210.335745708158 709.260396451403 2791.30981676926 212 213 215
209.499227725286 711.443298337337 2807.13797903661 212 213 215
-183.267352915412 757.942996210381 2835.48310596948 196 200 201
-170.741559741643 755.750348823977 2830.86154296599 181 183 182
-154.044822699757 752.272068095326 2820.38608170362 201 203 202
-140.42612417388 749.71979248488 2814.05188071846 200 202 201
-127.459061100044 747.355532631405 2808.53122018251 201 203 202
-116.919962153081 745.729421121276 2806.33738897965 211 213 212
-105.225981765482 743.738801025825 2802.45605046687 206 208 207
-94.7506789118411 742.117684184493 2800.23635081878 195 197 196
-80.7821038716792 739.400702851096 2792.96625264092 199 201 200
-67.4573687930262 736.871035402383 2786.51259934471 212 214 213
-51.2768228687228 733.432331040241 2775.82809319793 206 208 207
-38.653186263786 731.094383580666 2770.16818227274 205 207 206
-22.6164255246675 727.666508590243 2759.42511921113 198 200 199
-11.255688732698 725.701274566524 2755.40866030375 179 181 180
0.63763385400617 723.557092796457 2750.53064707637 158 160 159
10.2085517173853 722.143149830786 2749.02200616364 177 179 178
18.6211684824975 721.093926607398 2749.19948636513 149 151 150
28.7130745579327 719.501840611885 2746.82433202711 202 202 202
36.5276834879495 718.636468580075 2747.83735491345 172 172 172
44.3332818695974 717.771666410838 2748.84646794654 155 155 155
51.0155810374797 717.269109730694 2751.55589286349 146 146 146
58.8079456948434 716.40517671632 2752.55964106725 144 144 144
68.2468812882779 715.000728626905 2750.9977467248 155 155 155
76.0134479575914 714.138600434359 2751.99103582559 143 143 143
84.8645887744792 712.917020460699 2751.26856958807 137 137 137
92.0633867122052 712.236287896136 2753.10966358537 131 131 131
101.967606824227 710.657487840997 2750.65841582432 146 146 146
115.078856856371 708.004162183712 2743.0404530947 193 193 193
132.425404728199 703.921230515921 2728.51718893088 220 220 222
143.794588713362 701.815292993173 2723.42640858305 213 213 215
154.055722351833 700.070243380104 2720.04212456761 243 243 245
163.223882714356 698.685036588914 2718.37044940536 236 236 238
171.841110569472 697.479896937192 2717.55314885075 215 215 217
177.817806238857 697.16753963759 2721.0542463853 225 223 226
182.757065729627 697.210744611944 2726.29047179637 232 230 233
187.193117821734 697.430504547316 2732.40042199544 234 232 235
191.650308993385 697.648380456677 2738.51894553873 227 227 229
197.156890125966 697.509442721827 2742.90744791901 224 224 226
202.674614509414 697.369358549607 2747.3002135859 224 224 226
208.203254408042 697.228224819298 2751.6976640496 222 222 224
209.690008065521 698.501732117674 2763.07884036637 217 217 219
209.715802692604 700.301431938397 2777.10117796486 207 207 209
209.306597255775 702.272402333051 2792.02489707303 210 211 213
208.469766701916 704.414053584447 2807.85324545116 210 211 213
-180.798088669621 749.365308486683 2831.15361219036 193 197 198
-173.122322303379 748.650941046659 2833.18808227432 178 180 179
-157.017281469322 745.396724391135 2823.55015720082 202 204 203
-143.986224274741 743.05456264212 2818.05523993417 198 200 199
-129.212692679576 740.173139843503 2810.03324402413 200 202 201
-113.313912092538 736.934811066011 2800.31194243609 211 213 212
-101.043607318959 734.786351289812 2795.58634182965 202 204 203
-91.1770724344392 733.363303518245 2794.19746317005 191 193 192
-80.1603189909905 731.581580692166 2791.11940224269 194 196 195
-66.2538132630666 728.901855865629 2783.82389024511 210 212 211
-52.988859743013 726.406543856669 2777.34577141375 205 207 206
-40.358306477186 724.095126977563 2771.68845990107 201 203 202
-23.7360302724701 720.530502391886 2760.10469629182 195 197 196
-12.3713764509115 718.586681228633 2756.08991828493 183 185 184
-2.19044309010674 717.004069860576 2753.75073865004 154 156 155
7.39160527117089 715.602605005384 2752.24650981652 175 177 176
17.516499439254 714.024224301171 2749.88460824155 158 160 159
28.1769001046566 712.269329899364 2746.66205924242 185 185 185
35.4296929462168 711.587577217374 2748.52502312662 205 205 205
42.1188062154005 711.084241564344 2751.23721292941 169 169 169
49.3659165894644 710.402819541397 2753.09787351641 147 147 147
58.2731266794256 709.187921073406 2752.39780146049 138 138 138
66.6087743320469 708.152172903255 2752.54427250199 134 134 134
74.930396328158 707.117362045244 2752.68480032324 135 135 135
82.6908749005393 706.260797169942 2753.67558222821 132 132 132
90.9866905039469 705.227672247438 2753.80564844463 127 127 127
98.7264879677436 704.372417129041 2754.78804678739 124 124 124
113.471390112697 701.220337344894 2744.59889423479 209 209 209
131.901231413819 696.838105874085 2728.35864301676 218 218 220
143.806894858835 694.579996105719 2722.40742468886 224 224 226
154.06704483812 692.853943562645 2719.02259840415 237 237 239
162.174899038171 691.834126403108 2719.07645950845 221 221 223
171.849533589894 690.28792202236 2716.53200711139 215 215 217
178.348168904159 689.797166984367 2719.1669783797 235 233 236
184.847728107254 689.306159420085 2721.80232563814 237 235 238
190.309360645206 689.16534325279 2726.17264288836 229 227 230
194.748273444202 689.37345930409 2732.28383962489 222 222 224
198.69383015069 689.754564813136 2739.27303412571 221 221 223
203.177480928929 689.95883747768 2745.40237408546 221 221 223
208.701041768777 689.812373059786 2749.79755125279 223 223 225
209.167226992802 691.407348927977 2762.92094349778 219 219 221
208.686395981418 693.345438496378 2777.81591114506 208 208 210
208.277013551348 695.277951577782 2792.74010731242 206 207 209
207.440070078073 697.378341790592 2808.56846549116 205 206 208
-177.718978831676 740.634871679179 2825.993133005 190 194 195
-171.873411055053 740.460887341813 2830.51915432376 177 179 178
-159.388669692493 738.320215351182 2825.88031854635 204 206 205
-146.34826776319 736.004451587 2820.38898480717 198 200 199
-130.369448909442 732.800763460063 2810.69957035405 201 203 202
-113.275020463737 729.246432467291 2799.30689982538 209 211 210
-101.598198385562 727.300384500855 2795.41853341643 200 202 201
-90.5507551089197 725.535119425284 2792.35277384022 189 191 190
-78.9499898637729 723.594893496786 2788.43331120145 190 192 191
-65.048743023522 720.948133410013 2781.13542005371 208 210 209
-54.7017546609054 719.369103124173 2778.86344777105 204 206 205
-42.6441289280015 717.261224622531 2774.05142733015 196 198 195
-24.8559067982639 713.388301011302 2760.78421028933 193 195 192
-12.912260526537 711.2891187062 2755.92623168244 188 190 187
-3.87489489109005 710.075415158073 2755.27884962923 155 157 154
5.14310047269251 708.863240866293 2754.62387032521 171 173 170
15.2767314113853 707.300307511864 2752.26538912017 170 172 169
25.9460663567437 705.563654288374 2749.04631928465 157 157 155
33.769012836351 704.70808250612 2750.06264370264 206 206 204
41.5830568424036 703.853042135822 2751.07510231754 188 188 186
48.8303967010066 703.174082639509 2752.93583715592 136 136 134
56.628617847303 702.320116556424 2753.94188106401 138 138 136
62.7607253252174 701.991650487998 2757.5060258408 128 128 128
71.647980540088 700.788818299421 2756.79803996452 128 128 128
79.9687207532647 699.761907972879 2756.93815087423 127 127 127
89.9098242890219 698.212733801159 2754.50161239448 126 126 126
98.1947850823648 697.188269666321 2754.62721792867 115 115 115
112.942830755109 694.076738016489 2744.43903082444 206 206 206
130.302703025203 690.10157307666 2729.92034477283 216 216 218
143.819708986757 687.349142179474 2721.38861279673 233 233 235
154.611168600666 685.468612587641 2717.14101554951 225 225 227
163.244403737864 684.283813770108 2716.33004205223 213 213 215
171.331317823578 683.273396661888 2716.3753534025 221 221 223
179.928686706633 682.090991139675 2715.54983977204 224 222 225
187.462699056241 681.25511845946 2716.44877026383 228 226 229
193.428581691189 680.937216399343 2719.94578893154 228 226 229
196.814989855332 681.480120852384 2727.7861698935 225 225 227
199.717993754656 682.19251189981 2736.50834736861 225 225 227
204.705514319339 682.214319065526 2741.76427553675 224 224 226
208.690122481237 682.578049526368 2748.76915616726 223 223 225
209.658586453378 683.968837785158 2761.01865706815 220 220 222
209.170142110391 685.868974957277 2775.91082980013 209 209 211
208.25127531193 687.934610290691 2791.70628123639 206 207 209
206.909522066519 690.165081531497 2808.40832489974 204 205 207
-183.754396042314 734.582270631669 2833.30535729641 195 199 200
-173.649627930898 733.167456550658 2832.01287517642 176 178 177
-159.349940946218 730.522663191689 2824.87629471803 205 207 206
-146.910324533036 728.409745799783 2820.21897779547 197 199 198
-132.124234151296 725.597833905242 2812.20153997559 202 204 203
-115.021537996726 722.089144468976 2800.81187103322 201 203 202
-102.15267671728 719.81366157884 2795.25077638005 195 197 196
-91.103905505459 718.067180541924 2792.1854120975 183 185 184
-80.0894074273057 716.323295348945 2789.10615118974 182 184 183
-66.1830878355494 713.708627083395 2781.8098134894 202 204 203
-56.4151655084093 712.319962677592 2780.38074668619 200 202 201
-46.091425796275 710.758908472526 2778.09948216213 190 192 189
-28.2869535046724 706.936403720312 2764.83846253572 189 191 188
-14.0280584622954 704.164646569605 2756.60726268937 197 199 196
-4.41481014289669 702.7876389345 2755.11548111917 177 179 176
4.03381997680463 701.759652209938 2755.30738190636 152 154 151
14.1711423926869 700.212590408514 2752.95053227883 177 179 176
24.2793429419723 698.667632075608 2750.5816182432 162 162 160
32.1078676825362 697.816824273104 2751.59990792339 173 173 171
38.8070835230414 697.312210003462 2754.31619787742 198 198 196
46.0647869549542 696.634880240873 2756.1811165004 143 143 141
53.3183524842193 695.957788652401 2758.04435791058 142 142 140
60.5680327492344 695.2808907479 2759.90576751012 140 140 140
69.4636402218383 694.088066859939 2759.20108754374 126 126 126
78.3401746433483 692.896574765758 2758.48867493922 123 123 123
87.7425491583885 691.534749976308 2756.91139697516 123 123 123
95.4932919064677 690.689053199511 2757.89841176304 118 118 118
108.094741136861 688.302379376187 2751.15082128942 203 203 203
123.8664726637 684.89310238635 2739.22150066292 205 205 207
140.088573428206 681.319167821211 2726.39697127178 223 223 225
152.494179241649 678.946755006582 2719.56997708912 213 213 215
162.725563926061 677.260461100331 2716.17320258033 214 214 216
170.813255171994 676.257902752779 2716.21876903001 227 227 229
180.461382038265 674.745778741238 2713.66332553867 237 235 238
187.468453761558 674.085436806228 2715.42663639226 236 234 237
193.951654390896 673.5949780998 2718.05535601969 227 225 228
197.33198727494 674.121686353228 2725.89339990649 222 222 224
200.743516998806 674.645773499252 2733.74409504038 217 217 219
205.723112029455 674.659690495532 2738.99687402117 213 213 215
208.679793808131 675.348162407381 2747.74096659053 217 217 219
211.165554555875 676.20247185382 2757.37193770503 218 218 220
210.159600558177 678.233666353776 2773.1326464289 210 210 212
210.234715649426 679.921951285763 2787.175798029 205 206 208
206.878710992966 682.782594849603 2807.37299880701 201 202 204
-188.577231905797 728.132703991458 2838.95368257726 199 203 204
-177.848475691135 726.556453251025 2836.83626432975 176 178 177
-158.707484368896 722.556348442776 2823.03892982328 204 206 205
-143.269039981874 719.602630565169 2814.20789223383 196 198 197
-129.095802590004 716.999960751581 2807.01953671806 202 204 203
-116.173136366573 714.747413123334 2801.48005346315 198 200 199
-105.078632098298 713.016257766646 2798.43309000726 193 195 194
-94.0184518493528 711.287762061573 2795.37220883925 181 183 182
-81.816732168724 709.217603222994 2790.61824511395 179 181 180
-66.146941355963 706.119031357171 2780.80316786649 200 202 201
-55.2146704456211 704.400256650505 2777.69016620282 198 200 199
-46.0580781142748 703.198979634367 2777.0912212324 190 192 189
-31.1417588704865 700.285044686508 2768.04847732129 188 190 187
-16.294924491006 697.376345901749 2758.97755979134 200 202 199
-4.38171485796235 695.328058867787 2754.10661460587 187 189 186
2.92433508664458 694.649738066495 2755.99111590174 145 147 144
12.4976940216881 693.289131199307 2754.48305908857 174 176 173
22.0467142602627 691.930297787194 2752.96539149358 172 172 170
31.0089233176116 690.743470389846 2752.28737535953 156 156 154
38.2708839607331 690.068373708811 2754.15400077108 188 188 186
44.4133238696225 689.733260851226 2757.72237945695 151 151 149
49.4511925896184 689.736941978664 2762.99883062753 141 141 139
56.1633797791876 689.230881580629 2765.72038355032 142 142 142
65.077479901785 688.047322365114 2765.02312090344 124 124 124
75.0679209490663 686.526847138881 2762.606341303 119 119 119
83.3935695465051 685.51529893333 2762.74832314209 117 117 117
92.7904502825656 684.16714439848 2761.16897439552 119 119 119
105.404153364207 681.809322586792 2754.42638395576 200 200 200
123.877865950795 677.603362017243 2738.20255982557 232 232 234
141.706704304745 673.573703394709 2722.79510250199 243 243 245
153.039156868274 671.567717122499 2717.68894948463 207 207 209
162.206959860972 670.23613333514 2716.01646595156 222 222 224
170.295371077971 669.241408391193 2716.06226453737 238 238 240
179.41967128647 667.912817513146 2714.37240157576 237 235 238
186.952268510493 667.08748788061 2715.27067917978 234 232 235
191.875551384754 667.097856385725 2720.50068466329 222 220 223
196.297495754571 667.273603091912 2726.60525635366 219 219 221
200.740445146165 667.44762041952 2732.71860316357 220 220 222
207.254438317806 666.953915100293 2735.35981508204 218 218 220
210.709868842197 667.457523180913 2743.22818333877 214 214 216
213.689002015245 668.124669525267 2751.98152796092 217 217 219
213.170005502235 669.950050925926 2766.86215419025 210 210 212
212.220369926127 671.935423773764 2782.6457559338 204 205 207
207.848261484175 675.07333641036 2804.58731536455 200 201 203
-179.021056268097 719.058186830389 2837.4971377056 164 166 165
-158.064225000715 714.600305942052 2821.20206933857 201 203 202
-140.825913897079 711.173470584693 2809.86643227182 190 192 191
-129.055724153247 709.284972008749 2806.01543356168 202 204 203
-119.111868912183 707.909537006631 2804.65750047582 195 197 196
-108.006008593609 706.196401067884 2801.6149984221 190 192 191
-96.9345273823545 704.485929145271 2798.55855631845 179 181 180
-85.3092400606195 702.608612036123 2794.64880288991 175 177 176
-68.4526292823466 699.210996472397 2783.15865380938 192 194 193
-56.9283620572056 697.341359641565 2779.20768261721 196 198 197
-48.3464837052956 696.319134785366 2779.45349099787 187 189 188
-33.9979916540838 693.611143601395 2771.2580850181 187 189 188
-15.6847448412663 689.72844532026 2757.12471270429 198 198 198
-3.20180815091109 687.536350698756 2751.406727854 199 199 199
2.95586518897717 687.19731111231 2754.98130421188 144 144 144
11.3914636078218 686.186072566034 2755.16805883548 155 155 155
19.813040572483 685.175830775059 2755.34887148977 181 181 179
29.3466118944963 683.831497060431 2753.82458160741 136 135 133
36.0533920565131 683.325745498849 2756.54394292209 152 151 149
43.3190973096391 682.652683407389 2758.41206907812 184 183 181
48.9144557748171 682.480804484303 2762.83650923119 148 147 145
57.2856423956412 681.473987152846 2762.99689323516 136 135 133
66.1930536538744 680.301598029807 2762.29683764815 137 136 134
74.5334801653324 679.296918883648 2762.44475089452 123 122 120
80.1326881749851 679.124341009728 2766.87101222534 118 117 115
87.9146643756001 678.286635896982 2767.87035541608 113 112 110
100.550851176344 675.956920793747 2761.13665543399 199 198 196
120.662806230592 671.311952697415 2742.34278999355 226 224 225
140.64977706176 666.676343467922 2723.49850561399 230 228 229
154.118040026228 664.033309096446 2714.94620874725 241 239 240
162.218784045236 663.045736597686 2714.99694658379 245 243 244
169.249784093115 662.388878715616 2716.7699194386 215 213 214
176.802101714073 661.567456186395 2717.6761520771 175 173 176
185.390741623905 660.417513242983 2716.84685808962 206 204 207
191.879303055204 659.926091825338 2719.47775556494 201 199 202
197.851261907783 659.598448475931 2722.97705105996 183 183 185
203.313897660692 659.43421025767 2727.34795203757 200 200 202
208.274918970153 659.432622401885 2732.59332817257 214 214 216
212.74198516777 659.59310796214 2738.71628504723 214 214 216
215.199776802814 660.405189816559 2748.33625173943 215 215 217
216.183388668804 661.703469939156 2760.59258710186 214 214 216
213.705531364384 664.138082601384 2778.99069921699 202 203 205
208.319141887944 667.542126508654 2802.67718251442 206 207 209
-179.588052497649 711.385774909058 2837.32571973291 164 166 165
-158.023252981579 706.822247804032 2820.19854880965 201 203 202
-143.788671623827 704.279898249087 2813.03483104726 190 192 191
-132.006902337398 702.412096722803 2809.18810670748 201 203 202
-119.668599585986 700.379983627527 2804.48915612524 193 195 194
-108.561413433397 698.685602005855 2801.44704873973 191 193 192
-96.8977510049764 696.826883458128 2797.55269214847 180 182 181
-85.2733891140951 694.971254144249 2793.6421424054 174 176 175
-67.2443178410862 691.286666169409 2780.47127317312 190 192 191
-56.3093380735606 689.605425453954 2777.35908380914 196 198 197
-47.7320625851114 688.591450305592 2777.60322321895 185 187 186
-34.5424849655156 686.250773355495 2771.09341312697 182 184 183
-19.6799507859813 683.416836019655 2762.02828566363 193 195 194
-7.17990615681363 681.250464542772 2756.31703272235 204 204 204
-0.436653543904875 680.741883113369 2759.05118292408 141 141 141
8.58042052799157 679.572312510927 2758.39550767114 145 145 145
15.8813322474483 678.899186303775 2760.27763193583 174 174 172
26.5573414250995 677.237352070891 2757.06069734221 144 143 141
34.956325635761 676.236641266775 2757.2322901079 132 131 129
43.3412498023071 675.236865085294 2757.39818297698 197 196 194
50.045021594318 674.730873662406 2760.116328042 163 162 160
56.7497828689638 674.224773956613 2762.83487456229 136 135 133
66.2086850639896 672.899023256775 2761.28046805086 134 133 131
72.354804821936 672.557192920601 2764.85038759825 120 119 117
77.9613196255078 672.37826774918 2769.27965550903 120 119 117
86.2943534655403 671.381855539724 2769.4245128539 124 123 121
101.100254015176 668.428814778717 2759.25829223588 168 167 165
124.440592832622 662.874339391883 2735.30536427964 186 184 185
143.877003141631 658.470683375405 2717.31521183963 209 207 208
156.79741151366 656.026570750793 2709.61839289375 214 212 213
162.231205147423 655.859865439404 2713.9776346012 199 197 198
169.260121524434 655.205569100753 2715.74948715007 166 164 165
174.708520007582 655.037407794007 2720.11465329379 189 187 190
183.828686200726 653.735660561791 2718.42265580453 202 200 203
189.801989467523 653.405185470319 2721.92277433373 194 192 195
196.817297467889 652.751160320456 2723.68911489161 181 181 183
203.313056744119 652.258511093918 2726.32293602989 207 207 209
208.271190969355 652.248603993711 2731.5672062625 211 211 213
213.245430026653 652.23730138564 2736.81800780528 214 214 216
217.220038288555 652.545868273666 2743.8195148984 216 216 218
219.199864976307 653.493889814613 2754.32373472137 214 214 216
215.695264062834 656.20110970745 2774.46219006196 202 203 205
210.791923633956 659.380491932639 2797.26715123342 205 206 208
-192.714999934051 705.737542366865 2841.76356858581 198 202 203
-175.306041101897 702.389924119273 2830.49668235993 166 168 167
-156.774498516495 698.718523213204 2817.52890302751 200 202 201
-145.550513700775 697.033866764994 2814.53401288051 192 194 193
-136.156581159214 695.846214264594 2814.03106201257 200 202 201
-122.609446025526 693.507987981778 2807.66626308048 188 190 189
-108.52311859832 691.009638929282 2800.44192761173 187 189 188
-96.8604180895223 689.172575765738 2796.54701740411 178 180 179
-85.236967232601 687.338538028363 2792.63593513158 169 171 170
-68.9645883255878 684.196913352265 2781.98610250045 179 181 180
-56.2728114932789 682.043147180074 2776.35238502747 189 191 190
-47.1164561802306 680.87377949327 2775.75310222601 190 192 191
-34.5082158516925 678.726302993134 2770.08551373944 178 180 179
-19.6454900531517 675.93033818898 2761.02017603984 183 185 184
-8.8663188196263 674.279668189008 2757.84492641122 201 203 202
-0.976103688403507 673.445013960648 2758.8880716546 159 159 159
7.47342314796806 672.448517973159 2759.08009682483 138 138 138
15.3429083861079 671.615267030963 2760.11483804459 146 146 144
24.8934262740443 670.296424727846 2758.59747371553 180 180 178
32.7372850915897 669.465054678665 2759.62182472216 146 146 144
40.5718463347631 668.634296292697 2760.64266379699 179 178 176
48.3975643946974 667.804124397329 2761.65966065749 192 191 189
56.2142417209837 666.974579118189 2762.67299223929 133 132 130
64.5724517289392 665.9845056005 2762.82825241748 134 133 131
70.7234803511887 665.639237762967 2766.40018558463 118 117 115
76.8805051595609 665.293375306642 2769.97455107219 109 108 106
84.6734245432954 664.465198813915 2770.97851008259 116 115 113
98.9467875615924 661.712645846507 2761.67395728494 162 161 159
121.762739349166 656.401858275688 2738.58566978508 159 157 158
140.142807020818 652.382436109129 2722.32251558087 181 179 180
154.680379966118 649.490011590974 2712.04744878549 176 174 175
162.244384769293 648.678363030604 2712.95833939738 160 158 159
170.32741514852 647.707825401192 2713.00177598679 155 153 154
175.242375473817 647.693717435055 2718.22859725407 236 234 237
183.31232058342 646.72379809431 2718.26673102388 204 202 205
189.806268259511 646.23138206161 2720.89981689053 185 183 186
197.337311452555 645.421383156214 2721.79760630221 190 190 192
203.312661878396 645.087254384129 2725.29832417899 214 214 216
208.267887778901 645.069119386499 2730.54147921671 211 211 213
212.728638435877 645.207659388618 2736.66204531498 212 212 214
217.718599643337 645.186413721107 2741.91928801085 217 217 219
219.691630768674 646.11010138901 2752.42119802932 215 215 217
217.184349246814 648.447816946265 2770.80813094054 203 204 206
213.267329274881 651.250395994882 2791.85768606809 204 205 207
-196.935933454119 699.016298352079 2846.57885096575 198 202 203
-178.902503753508 695.550901527595 2834.48689316421 164 166 165
-163.373573155975 692.742000752351 2825.69113790076 197 199 198
-148.515480707163 690.100723772113 2817.70155984249 191 193 192
-137.913346590047 688.59881873573 2815.53256690956 199 201 200
-121.377789667594 685.480547386734 2804.98911618378 185 187 186
-109.07788851169 683.499985085278 2800.27422632614 185 187 186
-96.8223373890729 681.52287677773 2795.54135327334 180 182 181
-86.9662147447225 680.194377463582 2794.14779934636 170 172 171
-69.5131609930215 676.773354196919 2781.82025786164 175 177 176
-55.6520906213447 674.324647311423 2774.50459835664 185 187 186
-44.1750146061843 672.523277654629 2770.53400233072 192 194 193
-33.8946250919385 671.045942724459 2768.23429382229 178 180 179
-23.6434406163932 669.57080210256 2765.92274376798 181 183 182
-11.700564569211 667.617444847469 2761.06334798849 193 195 194
-3.22876995351051 666.62719462333 2761.2643418839 178 178 178
5.79745527590125 665.478149396359 2760.61221629318 141 141 141
13.6723763125777 664.649698195024 2761.64912204859 142 142 140
23.22906467826 663.343697087434 2760.13415876957 185 185 183
29.9560032995843 662.835511543466 2762.86170055077 163 163 161
37.2427462548097 662.168050884756 2764.73804503971 156 155 153
46.1935182066575 661.024445694618 2764.05532771653 188 187 185
53.4645203939883 660.35813706932 2765.92554737432 134 133 131
62.3847806725411 659.216566131173 2765.23020344478 131 130 128
68.5430016693431 658.867734236176 2768.80533299465 122 121 119
75.7996266605985 658.202091894325 2770.66946915063 113 112 110
81.9650494757866 657.852480196396 2774.24752057653 112 111 109
95.1694248368002 655.452310537702 2766.66534478051 132 131 129
119.621905140243 649.749186929281 2741.00596824628 147 145 146
140.693709165143 645.002181635329 2720.44389599312 172 170 171
153.629241119434 642.621937085488 2712.75271637615 175 173 174
161.727138348153 641.658351133431 2712.80211975595 167 165 166
171.924446610142 640.068725071788 2709.39081522881 233 231 232
177.880631991449 639.733843218355 2712.88377902275 195 193 196
184.889474143493 639.085615116658 2714.64771489087 189 187 190
188.248492601198 639.530624408793 2722.47774797304 211 209 212
195.785302660832 638.725314764175 2723.37757957835 230 230 232
201.765531765698 638.387805244385 2726.88055564946 226 226 228
208.77848527426 637.738479732253 2728.64590726828 204 204 206
212.212103832319 638.176950949183 2736.50619496032 210 210 212
217.201661117374 638.147249077096 2741.7633382066 221 221 223
219.173077592526 639.046138035858 2752.26478243208 220 220 222
219.178175615276 640.560522428483 2766.28090273501 205 206 208
214.743979472631 643.461171276927 2788.19912168967 203 204 206
-204.813209743816 693.222382832132 2856.38004043308 198 202 203
-182.500574481881 688.683946874553 2838.47640736045 164 166 165
-168.768537912696 686.390996740576 2832.18613053106 196 198 197
-153.286499428498 683.623733662806 2823.3713306067 193 195 194
-143.26445082772 682.295722711527 2822.0446979978 200 202 201
-124.916227492701 678.741690630855 2809.00180437367 185 187 186
-112.602111016454 676.784330950033 2804.29249432916 181 183 182
-98.5580832430391 674.354184877339 2797.05077229631 182 184 183
-88.1069074634366 672.87996651609 2794.82019031614 171 173 172
-74.1664338340982 670.457701489545 2787.53622297997 170 172 171
-57.9496622022215 667.407127934571 2776.86318521374 179 181 180
-44.1379972088554 664.994584552033 2769.52724771097 189 191 190
-34.4378272687147 663.691298354398 2768.07010130188 178 180 179
-25.3382270443518 662.547378790909 2767.44764587656 182 184 183
-13.3884321940536 660.617747883704 2762.59061440572 184 186 185
-3.19703651485148 659.163239245438 2760.25495713234 194 196 195
5.82765111726791 658.024871735526 2759.60187081862 142 144 143
13.1340562410951 657.358627454857 2761.4864243873 142 142 140
21.5641278625502 656.379214654297 2761.6704427927 179 179 177
28.2962767300112 655.870287543727 2764.4000997866 176 176 174
35.5880646263456 655.204932366134 2766.27872820409 140 140 138
44.5447056741053 654.071472436766 2765.59831033802 169 169 167
52.374886213947 653.251138812998 2766.61703945365 144 143 141
59.0934010330597 652.742903357857 2769.34117087523 128 127 125
64.7154544163442 652.545561464348 2773.77686984078 122 121 119
71.9874601902137 651.881211128234 2775.64722377382 120 119 117
78.16787297165 651.527363222135 2779.23137664034 112 111 109
88.1426769704712 650.08816709153 2776.80764963618 100 99 97
112.093551228561 644.626956292471 2752.02215087191 134 132 133
136.956575265531 638.86855254339 2725.45061145692 181 179 180
150.977019231441 636.210728118842 2716.04293550713 175 173 174
161.210102230896 634.637396044684 2712.6459924142 175 173 174
171.409009665681 633.066472755944 2709.2351936189 222 220 221
179.995367893214 631.959480387464 2708.40465024075 184 182 185
185.944961585023 631.621862983635 2711.89496584096 195 193 196
191.379469283774 631.437048715183 2716.25463392922 227 225 228
198.380576732525 630.791465807025 2718.01541802084 239 239 241
202.797814620588 630.911216534043 2724.11850852429 206 206 208
208.776584163685 630.57060015702 2727.62065995174 189 189 191
212.717539243288 630.839990051676 2734.60883806028 215 215 217
218.210136122899 630.649682258733 2738.99181045993 224 224 226
220.678253539421 631.372053542073 2748.61689519625 221 221 223
220.167577325096 633.003554902883 2763.50210258696 205 206 208
215.721604715222 635.844583586664 2785.41600523793 203 204 206
-209.039727968267 686.418223507717 2861.19369008115 197 201 202
-184.280325157976 681.317505143822 2839.96950803195 173 175 174
-171.749568573199 679.367758667844 2835.34785632924 188 190 189
-154.449716652752 676.167016993983 2824.03568020205 197 199 198
-142.626783955661 674.382330636305 2820.20499264582 192 194 193
-124.876627227976 671.036393613291 2807.99743414819 181 183 182
-111.969169692445 668.947193619599 2802.45055487257 182 184 183
-97.3361040902236 666.393593470712 2794.36920046907 174 176 175
-86.8913470404131 664.935933536982 2792.13589408224 166 168 167
-75.8891222359008 663.324827039041 2789.05065738646 167 169 168
-62.0005880323562 660.938926283286 2781.74538451286 170 172 171
-48.1715365609523 658.557613266732 2774.41624995443 175 179 178
-37.8762138564606 657.111284639221 2772.1223527698 180 184 183
-28.7633013542121 655.9770102913 2771.50521428353 178 182 181
-15.6509888510294 653.761110475522 2764.9631743157 177 179 178
-4.30773654194661 652.012928479372 2760.9382480962 212 214 213
5.28932867443488 650.730633049791 2759.43919620935 171 173 172
10.8963525444836 650.529131955248 2763.86884135689 145 147 144
19.8986084431809 649.403056849644 2763.20683664642 143 143 141
27.7588129350199 648.585843885888 2764.23769859413 184 184 182
35.0508261135667 647.922891791768 2766.11640001207 132 132 130
43.4519551541708 646.953303846587 2766.28862530145 137 137 135
51.2850353439027 646.137941009933 2767.30849078761 165 164 162
58.5575730461283 645.47611348858 2769.17929819897 130 129 127
63.6304591535908 645.425822022034 2774.47033675963 130 129 127
70.9051305792354 644.763616233414 2776.34201096768 116 115 113
76.5441487327732 644.558928168599 2780.78437730416 106 105 103
85.4425285106084 643.439797787145 2780.08026124787 113 112 110
105.637986941858 639.128937660459 2761.31767328689 109 107 108
133.753714187669 632.549486718114 2729.59599039768 184 182 183
149.391038068413 629.473410444611 2717.60972349525 167 165 166
159.630735348805 627.91841369379 2714.21531950115 192 190 191
170.893757582272 626.063309152364 2709.07965376524 196 194 195
181.059900019549 624.513572140922 2705.65542806796 211 209 212
