ply
format ascii 1.0
comment KinectMotionCapture
element vertex 758
property float x
property float y
property float z
property uchar red
property uchar green
property uchar blue
end_header
197.121174823457 611.036582212654 2730.60170112721 238 238 240
205.690287137757 609.961860450678 2729.76393039836 220 220 222
212.1941223799 609.466299888593 2732.40104350525 231 231 233
217.171915178424 609.403397940052 2737.65367504166 233 233 235
222.165838251841 609.339068579807 2742.91284843169 222 222 224
228.183904088584 608.985415998034 2746.4310094614 229 229 231
234.20798525079 608.631047728889 2749.95161147858 232 232 234
239.739181483398 608.419504432347 2754.35063066914 224 226 225
243.792134608459 608.636982137798 2761.38454947446 217 219 218
244.908166699217 609.710987036658 2773.69594356789 203 205 204
239.201628105554 612.781951667339 2798.33439077199 198 200 199
-139.801423908364 652.900150739595 2838.77400644173 191 192 194
-127.419346461131 651.034806383887 2834.09177308921 191 192 194
-113.901944772888 648.87731313081 2827.7133081617 193 194 196
-103.374950825507 647.461586253105 2825.51298107196 182 183 185
-89.9536695842642 645.311523700605 2819.0957985591 184 184 186
-79.497592788899 643.90114646347 2816.86671706724 182 182 184
-68.491015372234 642.346123757225 2813.78281761349 171 172 174
-59.2501884170995 641.233844642183 2813.21730406669 162 163 165
-50.6030552687866 640.269573335281 2813.48909438081 164 166 165
-37.9649128688366 638.281780764637 2807.83240267083 172 174 173
-24.2366039817752 636.0053219827 2800.46142615941 173 175 174
-7.73203989140803 633.003400778452 2788.82573660933 169 171 170
3.04193758394655 631.465760447793 2785.64752733068 170 172 171
8.72277472117289 631.241106084694 2790.10723444354 171 173 172
12.736081490931 631.451687925275 2797.12489576221 207 209 206
20.6751565243171 630.643678318902 2798.18762207546 191 193 190
29.1595662037889 629.691307567774 2798.39369383144 139 137 140
38.1822396466436 628.594972798281 2797.73947339001 147 145 148
47.1858056507985 627.499967133063 2797.07776363409 153 151 152
52.8880955861963 627.273164784203 2801.54617311435 179 178 176
60.7796915344969 626.468229431569 2802.58965217983 134 133 131
67.0363983097171 626.096058320197 2806.20457760322 136 135 131
74.3779996231835 625.435573494086 2808.10333820508 124 123 119
81.1788466870358 624.918902174223 2810.86086931184 121 120 118
86.9118315957389 624.689040271082 2815.3417301603 121 120 118
96.9112816808424 623.311672578893 2812.92751353947 109 107 108
112.175558984924 620.505102085949 2801.86696807948 101 99 102
139.478184052461 614.417120906292 2770.89114880532 169 169 171
164.487916905448 608.914792245833 2743.29826162961 169 169 171
179.929547288693 605.991352195033 2731.23134564652 199 199 201
190.612623741552 604.355400237605 2726.93826821866 182 182 184
198.672470790383 603.433055747693 2726.97195275069 174 174 176
206.204011373898 602.653508661358 2727.86945550922 173 173 175
212.19118441674 602.299817535508 2731.37536578387 212 212 214
216.656863020306 602.370151117081 2737.49844415893 223 223 225
222.156960856263 602.155960831432 2741.88489189209 223 223 225
227.668392649885 601.940579111018 2746.27568046874 233 233 235
234.695723478467 601.301167675806 2748.04703544331 231 231 233
242.21819226863 600.521024256395 2748.94086961691 225 227 226
245.758699672683 600.866264356696 2756.8451425132 218 220 219
245.871882653534 602.191890318925 2770.9064563887 203 205 204
238.678357633614 605.615606936058 2798.17684119798 197 199 198
-139.76900635744 645.112842109029 2837.76734961189 191 192 194
-128.572562592904 643.562054441049 2834.76029359919 192 193 195
-114.460558231934 641.288999571989 2827.54464687084 192 193 195
-106.282263607064 640.468397786727 2828.70458417669 178 179 181
-94.0185159738003 638.636224783259 2823.973931263 179 179 181
-83.5462655293415 637.240705685965 2821.75128574661 177 177 179
-72.523219385239 635.703147889577 2818.67392198488 170 171 173
-63.2665482058983 634.60028350069 2818.11475229135 159 160 162
-54.6037704438891 633.642603369828 2818.3928270396 155 157 156
-40.2314064093041 631.249564086003 2810.20469940753 163 165 164
-25.3535987979754 628.717870050417 2801.14346512688 171 173 172
-10.5449111354161 626.191388680328 2792.05394793068 163 165 164
-1.4539441685506 625.100875636277 2791.42759215359 168 170 169
5.36877447026263 624.583278449911 2794.19398592419 170 172 171
12.1925885653613 624.065504808443 2796.96082457477 185 187 184
20.1320758844901 623.262543506176 2798.02367955483 211 213 210
29.7267089043161 622.033307323883 2796.52349794071 145 143 146
37.0883541112288 621.374253150852 2798.43036332931 138 136 139
44.9958630817486 620.573436888541 2799.48025424336 143 141 142
50.7054514064123 620.340168355859 2803.95166780174 183 182 180
58.0604380391672 619.681258598481 2805.85557885957 172 171 169
65.4113604564832 619.022545875099 2807.75810007841 129 128 124
72.7583060327914 618.363998789118 2809.65900984695 123 122 118
79.5643082547923 617.846590267172 2812.41863382858 115 114 112
85.3021490820349 617.610490994608 2816.90125085513 119 118 116
93.7116803282496 616.670424290316 2817.07665437518 117 115 116
110.580496419855 613.484955970769 2803.43222283462 104 102 105
137.896116730957 607.502436329378 2772.46086587296 151 151 153
163.967109597554 601.814633724789 2743.14120769987 167 167 169
179.934299386319 598.797301550504 2730.2089905365 191 191 193
191.655616610521 596.90375638126 2724.18036842725 185 185 187
199.1917475334 596.129195572137 2725.07969198711 200 200 202
205.689849651257 595.633640913973 2727.71448374777 234 234 236
211.165046718172 595.41592406813 2732.09087606601 207 207 209
216.651333509007 595.197179163989 2736.47176632744 193 193 195
222.655730451799 594.838631932789 2739.98443001877 202 202 204
228.161738971486 594.617935968368 2744.37332025724 214 214 216
235.686346685513 593.842973047225 2745.26798119922 223 223 225
243.201877717244 593.068520038247 2746.15896319174 228 230 229
247.230543012228 593.259797366607 2753.18324661814 220 222 221
245.848502100543 594.963485596689 2769.87297096195 206 208 207
238.155352553546 598.448314648684 2798.01940626148 198 200 199
-139.140709726547 637.18757966277 2835.92394028971 191 192 194
-126.762722462472 635.370948119786 2831.23968162111 192 193 195
-113.248523351004 633.273155935053 2824.85946747509 192 193 195
-103.314491423689 632.031943951097 2823.49679685162 175 176 178
-94.5747901928389 631.076298867952 2823.80600194327 176 176 178
-85.8491935882772 630.121741379861 2824.10948792782 174 174 176
-74.8172787580235 628.602280518407 2821.03557786456 170 171 173
-65.5522086376139 627.509301179297 2820.47973391688 160 161 163
-55.7311572039458 626.276627409344 2819.07099634668 150 152 151
-41.9262126916708 624.059252882463 2811.73060121537 158 160 159
-26.4704495909667 621.424135630626 2801.82535280133 172 174 173
-12.7916330024342 619.216305661968 2794.43381702056 166 168 167
-3.12728153636188 617.995324209538 2792.96180134366 166 168 167
5.38803206583105 617.056470631943 2793.18002619636 172 174 173
12.7693998119038 616.398519329645 2795.09461151557 174 176 173
20.1467584305262 615.740760696823 2797.0078293336 213 215 212
29.1850002414666 614.664527129418 2796.36001727922 160 158 159
35.9945491063813 614.147136494115 2799.12107713591 132 130 131
43.3549789031456 613.490479995707 2801.02743223981 147 145 146
49.6167742445912 613.111928116496 2804.64446635216 174 173 171
56.4296073771995 612.593978394306 2807.40686022333 198 197 195
63.7858210705315 611.937237497152 2809.31150889649 123 122 118
69.5186966771772 611.695942544102 2813.79215492218 120 119 115
76.3373163786416 611.177175706291 2816.55689792767 114 113 111
81.0178033564193 611.210405652469 2822.76723192972 118 117 115
89.9779376182621 610.138895885263 2822.08775887599 117 115 116
106.336011987667 607.141339155561 2809.31391544897 107 105 106
135.786246705243 600.713383390553 2774.89473524824 153 153 155
161.872499268437 595.125368928378 2745.58024202492 182 182 184
180.461996396819 591.470716871022 2728.32031132522 185 185 187
191.14094338972 589.878220541102 2724.02523252642 209 209 211
198.67762852064 589.108756567952 2724.92474184856 234 234 236
205.175872789668 588.612861878852 2727.55959374257 227 227 229
211.67517446517 588.116644309008 2730.19487622034 185 185 187
218.685094285093 587.484051940729 2731.95912991396 175 175 177
225.1838770559 586.987546714167 2734.59420447124 176 176 178
229.66545784535 587.033636483849 2740.72390529039 192 192 194
236.176411088221 586.535718692826 2743.3639182926 207 207 209
242.688394193573 586.037480203317 2746.00435070964 219 221 220
246.716292293781 586.214770930934 2753.02842951892 211 213 212
245.331205153116 587.874585744196 2769.7172530147 200 202 201
238.124537582358 591.145216354021 2796.98321962174 194 196 195
-136.725298898396 628.852695182451 2831.57080126025 189 191 190
-127.915182986033 627.899481273838 2831.90849833082 189 191 190
-114.396395658409 625.831028882436 2825.53017675999 185 187 186
-104.45880729153 624.602810837222 2824.16859039668 172 174 173
-95.1307313250376 623.515599361515 2823.63821335167 170 170 170
-88.1529971869901 622.985690699641 2826.46746511922 170 170 170
-76.5317410449335 621.345501418332 2822.55402490371 168 170 169
-68.4165428260195 620.539791588058 2823.68830204407 164 166 165
-57.4339511362252 619.042769098429 2820.59425131331 145 147 146
-45.339870913311 617.271889296127 2815.79443667934 148 150 149
-30.4388227509567 614.814269605741 2806.7420508701 170 172 171
-15.6068966385352 612.361832859271 2797.66138151984 167 169 168
-5.36634388422064 611.015748895153 2795.34480576905 168 170 169
4.84530315312615 609.67169149832 2793.01625371051 169 171 170
13.3472745811061 608.741576225385 2793.22901017727 151 153 152
21.2775583566009 607.949476152047 2794.28805638245 171 173 172
29.7540602233 607.021109792251 2794.49048714768 213 212 210
34.9006354863455 606.913781840017 2799.8117942473 147 146 144
42.263924282967 606.259170320315 2801.71929143965 141 140 138
49.0756388464939 605.741070115845 2804.48123355072 145 144 142
55.8884467651433 605.222763734693 2807.24361991632 152 151 149
62.1599247154456 604.840127146827 2810.86460540949 142 141 139
67.8973692146283 604.592636624995 2815.34740553473 121 120 118
74.1836744674347 604.208556305281 2818.97440544092 121 120 118
79.9409634784263 603.959284323614 2823.46525397162 113 112 110
88.3720947695001 603.033257291328 2823.64929678019 117 116 114
104.2089279544 600.218884826633 2811.74182614051 127 126 124
133.675460988776 593.907067930392 2777.32836471202 156 156 158
163.451343165167 587.477009643258 2741.96198743091 186 185 190
182.557884192624 583.751018183638 2723.83313673911 173 172 177
193.226144674842 582.18083356079 2719.5333047045 175 174 179
200.233299859698 581.551449034503 2721.29641470237 228 227 232
206.206757595187 581.189763993101 2724.79657511123 188 187 192
212.698681911393 580.693802149041 2727.42886861005 175 174 179
220.211108231363 579.9307678378 2728.31876420267 181 180 185
225.685516258758 579.701014259243 2732.69467105299 184 183 188
231.170899091649 579.47026620124 2737.07528628887 197 196 201
237.169736038399 579.105554218751 2740.58574550427 211 210 215
243.674286696466 578.607575819545 2743.22316660456 218 220 219
248.190975595489 578.639072845244 2749.36745028455 221 223 222
248.276847674672 579.858906957451 2763.4185080425 205 207 206
242.523651303271 582.658065552791 2788.03986683146 197 199 196
-137.2853795924 621.23030593913 2831.40180418073 190 192 191
-127.288509623111 620.010810858737 2830.0641544013 188 190 189
-116.134781501627 618.519507343528 2827.03935225315 187 189 188
-102.663109697512 616.484347109556 2820.64170159458 168 170 169
-94.5152871163191 615.681228559065 2821.78891124075 166 166 166
-85.2105512949422 614.60629720924 2821.24899085604 169 169 169
-77.0858147833697 613.804947948672 2822.38683970516 163 165 164
-68.9702063798763 613.004256700925 2823.52124488687 163 165 164
-59.1370978353125 611.797168258297 2822.11719522579 145 147 146
-48.1821162137492 610.320983406683 2819.01180743005 142 144 143
-33.8386506644419 608.035559188733 2810.81116331281 167 169 168
-17.8555733979444 605.349694099407 2800.04073996003 169 171 170
-6.47535248407327 603.749099376725 2796.02966339586 169 171 170
3.17712300305906 602.555545063337 2794.55237410229 168 170 169
12.2451230816412 601.498263984795 2793.91646730533 146 148 147
20.7362312949033 600.576690613204 2794.12476058798 156 158 157
29.2133366532015 599.65607722131 2794.32737693731 220 219 217
33.8064093972228 599.674140149448 2800.50268972274 179 178 176
39.5216317384302 599.422916260059 2804.97626332473 136 135 133
45.7957704513128 599.037169723978 2808.59834971442 135 134 132
54.2570568409317 598.117385792631 2808.79481201466 139 138 136
61.0761090705252 597.598076589553 2811.55973425872 163 162 160
66.2756805806184 597.47746929035 2816.90234259125 130 129 127
71.4914093694779 597.355516690159 2822.25176031524 120 119 117
77.7936554812349 596.967029746702 2825.88550519004 111 110 108
85.1676839591364 596.313007382619 2827.7970891112 122 121 119
99.9602182291421 593.808055777364 2817.62231741399 106 105 103
131.563734138728 587.083521852734 2779.76174372085 216 216 218
166.082487127126 579.585783922049 2736.61376903922 187 187 189
185.701390572731 575.794323366578 2717.61405836149 225 225 227
194.793405252005 574.641317753889 2715.90953510242 233 233 235
201.790808489616 574.015037124112 2717.66867307913 202 202 204
207.239031145928 573.782092452412 2722.03425907206 212 212 214
213.210963185723 573.417240603368 2725.53382574105 240 240 242
220.719071068013 572.659634816557 2726.42167445551 243 243 245
227.203090715574 572.163522155242 2729.05076855306 243 243 245
233.183073924005 571.79745914025 2732.55386149015 231 231 233
239.16929545114 571.430608408417 2736.0592290225 211 211 213
245.161540708393 571.063160875532 2739.56704004416 196 198 197
248.175382872048 571.473329526606 2748.336385912 208 210 209
248.256383911145 572.657564348331 2762.38574125318 212 214 213
241.511105556994 575.647117083956 2788.76184344124 201 203 200
-145.473815758309 614.276714475662 2829.21787875867 198 199 201
-141.419573904699 614.414079764031 2836.25292659134 193 195 194
-127.847267124637 612.400869762935 2829.89559871949 187 189 188
-119.055066064668 611.464587113164 2830.2259138587 188 190 189
-105.571171615504 609.45813733695 2823.83299444522 167 169 168
-96.8272890251762 608.525593204811 2824.14371744085 163 163 163
-86.93112378993 607.32704277207 2822.76539149863 167 167 167
-80.5430916170697 606.930300059236 2826.4336758928 160 162 161
-71.258058032386 605.867390498677 2825.88568708991 161 163 162
-61.9920568077008 604.805904586146 2825.32972420164 148 150 149
-50.4525641211713 603.21480821746 2821.38306365688 139 141 140
-35.5283346981066 600.83120779363 2812.3395027303 161 163 162
-20.673420673057 598.452889882506 2803.26783644927 170 172 171
-8.71573681643834 596.740637390859 2798.41235151217 166 168 167
1.50841323615869 595.427689170741 2796.08862603701 161 163 162
13.3852577992928 593.721482768182 2791.20036401399 150 152 151
20.7532494412914 593.071489955435 2793.10973034663 149 151 150
27.5618391553454 592.553069453956 2795.87040965602 205 204 202
31.0531812225963 592.821895637691 2803.7553550518 215 214 212
37.3285929925231 592.432999658446 2807.3779807652 152 151 149
43.0620397439927 592.174408635046 2811.85924636944 140 139 137
52.0798049009541 591.130886381959 2811.20263829328 146 145 143
58.906542133853 590.610579765806 2813.97067970094 164 163 161
65.7344257086998 590.090032886871 2816.73918707548 150 149 147
70.9496044505296 589.95951610708 2822.08844700347 117 116 114
77.7872768780712 589.437954571283 2824.86092550605 117 116 114
83.5602581238803 589.175573766867 2829.35822707295 116 115 113
96.239406409022 587.228668305636 2822.63902029934 112 111 109
123.116793950301 581.794444135061 2792.56487820167 197 197 199
163.462673300146 573.017570350037 2739.91855724357 202 202 204
187.279524349072 568.261687101793 2713.9946390958 252 252 254
196.882777867804 566.994016015567 2711.41917381687 233 233 235
203.350158612721 566.499580279939 2714.04151822977 246 246 248
209.81860096644 566.004881106727 2716.66429447736 255 255 255
216.288104928961 565.509918495931 2719.28750255963 253 253 255
222.758642956289 565.014694629811 2721.91113130766 233 233 235
228.214876712388 564.774694736616 2726.27975718834 206 206 208
234.187287153339 564.406123340454 2729.77980297828 196 196 198
239.66324263829 564.164172386979 2734.156428836 184 184 186
244.650174763154 564.048361809038 2739.413161854 182 184 183
248.160407766912 564.312104733116 2747.30579458609 195 197 196
249.226593356398 565.207203778521 2759.59836224128 210 212 211
242.961148224034 567.996738265837 2785.09145344774 204 206 203
-154.4117638883 608.497839933048 2840.74711197948 197 198 200
-143.171927896962 607.037403085489 2837.75694033793 192 194 193
-128.405632249007 604.790210154644 2829.72720735454 185 187 186
-120.794791470692 604.124413985911 2831.73502137013 185 187 186
-109.657491035761 602.671861733891 2828.70327404386 180 182 181
-101.483889024169 601.876862664917 2829.86086005563 161 161 161
-89.2355170652903 600.166978929468 2825.12331194735 158 158 158
-81.0974552111083 599.374676088347 2826.26648756406 157 159 158
-71.8117392061102 598.322203166939 2825.71869596145 156 158 157
-63.6966574478981 597.531601443544 2826.85255420581 153 155 154
-52.7238896695341 596.091516932542 2823.75409426844 144 146 145
-37.7892815518672 593.745022161388 2814.71445435117 147 149 148
-22.9238463697956 591.403774141831 2805.64650980599 152 154 153
-9.82528786922887 589.456127907186 2799.0971248773 175 177 176
0.965908254731307 588.029622000652 2795.92504493905 165 167 166
13.4053086141577 586.218432881883 2790.1865453764 143 145 144
19.096160846374 585.957567700698 2794.65058199852 146 148 147
24.7983892883925 585.695716953551 2799.11897501131 162 161 159
28.8518770119504 585.818496845056 2806.15382805539 196 195 193
36.2361888025289 585.169278707042 2808.0695392024 220 219 217
41.4236313459995 585.032740200131 2813.40761458288 129 128 126
49.355740826043 584.25519498695 2814.4675469076 136 135 133
55.6494756144106 583.861410183389 2818.09762853753 137 136 134
64.1120395523529 582.95686301861 2818.29423539098 140 139 137
70.9461653369807 582.43528359617 2821.06527801851 125 124 122
77.7814416658831 581.91352335411 2823.83678786383 108 107 105
81.9522502250865 582.026380486623 2830.91921849635 117 116 114
90.3941671308004 581.122841498431 2831.10745787076 117 116 114
109.911599484399 577.561921098855 2813.14346575082 124 123 121
151.907469878221 568.57530674107 2757.93012261691 150 150 152
184.675305721474 561.759611033139 2717.30498315529 171 171 173
198.974597381742 559.373006641582 2706.92934674756 150 150 152
204.911403215839 559.005044415886 2710.41497186665 153 153 155
212.40089148187 558.259494196559 2711.29519025225 172 172 174
218.34249494231 557.890738845171 2714.78250668144 221 221 223
223.269267156226 557.771804178652 2720.01490505669 231 231 233
228.720153966883 557.526394329933 2724.38166422951 236 236 238
235.698406076308 556.905342540489 2726.13275119013 230 230 232
241.163840547199 556.658451339351 2730.50541183594 222 222 224
245.139594874962 556.783803335942 2737.50877168195 220 222 221
248.643884555224 557.031165691396 2745.39886493809 215 217 216
251.683969076324 557.40006656035 2754.17940617595 205 207 206
246.383924315569 559.871756138704 2777.90791682975 202 204 201
-142.401746793671 598.119197692434 2823.03203587156 197 198 200
-144.328764561648 599.520190163806 2838.42458914838 192 194 193
-131.931931744872 597.823117545051 2833.7467974602 185 187 186
-124.899551507641 597.28729530844 2836.59821987013 183 185 184
-116.100304137664 596.366055955553 2836.93127398634 180 182 181
-107.901169717451 595.574114970433 2838.09917471035 162 162 162
-95.6259714911278 593.886374937813 2833.3723205248 154 154 154
-82.8137756730349 592.074073470449 2827.78477163816 154 156 155
-74.1007090302899 591.159333286486 2828.08288252548 154 156 155
-65.4017470138333 590.245680697574 2828.37527430568 151 153 152
-55.5695348173839 589.078414379258 2826.97055987874 145 147 146
-41.19308713266 586.895941646 2818.78248965068 144 146 145
-25.7439737598599 584.4645302129 2808.87300477426 148 150 149
-10.3688894703196 582.038630722668 2798.93324704001 174 176 175
0.423681272155196 580.630785603951 2795.76158223139 176 178 177
11.7430748265339 579.099119989154 2791.72535463571 140 142 141
19.1141788347182 578.453488763351 2793.63569085722 144 146 145
25.9253539396618 577.934026560759 2796.39742486891 148 147 145
30.5239370240789 577.917496286203 2802.57497373268 175 174 172
36.2454853326453 577.648101949942 2807.0515036277 204 203 201
40.8815219459358 577.62851463834 2813.24424033195 136 135 133
47.1764424169165 577.231611788207 2816.87508289688 133 132 130
52.9342562003929 576.959110515902 2821.3660627494 135 134 132
62.4892090524405 575.811922574563 2819.84919301267 130 129 127
70.4051543049271 575.040325972821 2820.90227824057 136 135 133
76.704808909609 574.642515475195 2824.53478727593 112 111 109
81.4105168093009 574.616894727312 2830.75603634966 115 114 112
87.7300413686226 574.217270866011 2834.39660433393 110 109 107
103.56445214378 571.58764904155 2822.48675251819 127 126 124
140.869841298474 563.894079360145 2775.07425352029 112 112 114
181.546623227271 555.358304206447 2721.48101984434 172 172 174
196.382275636258 552.887980612186 2710.24437853583 153 153 155
204.401854401705 552.023785215401 2710.26157519697 175 175 177
213.438829873429 550.914622371835 2708.53443463579 195 195 197
219.372830921232 550.543331099957 2712.01869212345 205 205 207
224.802190166014 550.293918222119 2716.37676527896 222 222 224
229.734654313809 550.165775395294 2721.61153807334 234 234 236
237.21119648605 549.425554750111 2722.4864742804 235 235 237
242.666330834958 549.173621550262 2726.85500269664 233 233 235
246.130686822412 549.407464830709 2734.72928678044 231 233 232
249.626386314434 549.638710685803 2742.61602408879 223 225 224
252.657683137947 549.988701225862 2751.39315058518 209 211 210
252.767802515218 551.062553862453 2765.45513240243 205 207 204
-149.063642065253 592.754672072471 2844.11092297295 189 191 190
-136.647479149832 591.080277287847 2839.4407860132 184 186 185
-126.640822038158 589.91302819365 2838.10670296816 179 181 180
-117.247283883105 588.87338268212 2837.60247056329 175 177 176
-108.458952714672 587.960719316676 2837.93103978305 169 169 169
-97.9332100532944 586.673042323959 2835.72923547323 153 153 153
-84.5303324223019 584.761808759038 2829.30279121013 146 148 145
-76.3905522930843 583.979406753497 2830.44684472516 150 152 149
-68.2596662327681 583.197655046234 2831.58703493897 150 152 149
-58.9902728338616 582.167396970277 2831.03246604611 147 149 146
-45.1698360474739 580.143306457914 2823.69687858689 136 138 135
-29.1337308227686 577.62688964135 2812.94664150765 149 151 148
-12.610832115594 574.99245392597 2801.31559007442 158 160 157
-1.80933970014308 573.602671656089 2798.14740067663 182 184 181
8.39702052714242 572.338983660742 2795.81609884794 146 148 145
15.7807611130696 571.694707004656 2797.73179848969 133 135 132
24.2731138379841 570.804058830069 2797.94036126175 142 141 139
29.4294905226684 570.652795983381 2803.2659699022 151 150 148
35.1533564999649 570.37730560237 2807.7432271847 160 159 157
40.339802821864 570.22354084248 2813.08102977242 197 196 194
47.1807279996506 569.700974396093 2815.85483290752 143 142 140
52.3920614854938 569.545058544542 2821.2027284366 131 130 128
59.2428369074538 569.021562241516 2823.98052691396 132 131 129
67.7103983940033 568.13207125289 2824.17904311778 135 134 132
75.0919720956429 567.486920193187 2826.09387203115 135 134 132
82.4695752597644 566.842023935627 2828.00709137063 122 121 119
88.2505340916751 566.561143441265 2832.50750600178 112 111 109
104.611821472844 563.856653486873 2819.73274213424 115 114 112
138.239781887693 557.167917611593 2778.37583333779 193 193 193
178.416168642133 548.928888156675 2725.6568093131 159 159 159
194.830386366484 546.139234590149 2711.82505671418 160 160 160
203.892577282932 545.041667623564 2710.1082950412 200 200 200
211.898922489102 544.186087787847 2710.11981099763 181 181 181
217.32458407715 543.931294552631 2714.47617055318 174 174 174
224.293690166145 543.31613260416 2716.22376693796 188 188 188
231.767220535299 542.581500539687 2717.09744132734 179 179 179
239.231610189395 541.847348158552 2717.96766829651 171 171 171
243.66746995096 541.82891556244 2724.07934605676 186 186 186
247.123206105016 542.046614803206 2731.95026239839 225 227 226
251.108490864437 542.142913150878 2738.95744404097 224 226 225
253.63282873705 542.592883812265 2748.60735676481 207 209 208
252.253563574172 543.986741800761 2765.30055341845 202 204 201
-149.625055227283 585.085225053023 2843.94174307167 192 194 193
-140.177303523724 584.051870087817 2843.459156442 186 188 187
-130.157353085696 582.896832669128 2842.13062043617 182 184 183
-117.216238833794 581.128564049137 2836.59493595466 178 180 179
-107.843398701558 580.100959445039 2836.08223179993 174 174 174
-98.4894786521799 579.074799481513 2835.56159886093 160 160 160
-88.5733879834525 577.927721685218 2834.19095043726 145 147 144
-79.839062329597 577.026898752469 2834.49756345886 149 151 148
-70.5424277962989 576.005062782679 2833.95396047139 152 154 151
-60.1166768882562 574.740879623931 2831.71149213096 151 153 150
-46.8629141654342 572.870571115736 2825.22436209533 136 138 135
-33.0943087300259 570.882806423548 2817.86751314886 145 147 144
-18.2521605059749 568.656942679235 2808.78952252426 149 151 148
-4.60703877084812 566.678513048402 2801.38260514362 163 165 162
5.0491199094862 565.550863542349 2799.90656483501 164 166 163
12.4458370859839 564.907865569242 2801.82725168789 140 142 139
19.8386002230204 564.265055901094 2803.74659337741 129 131 128
25.5659354342421 563.983486963243 2808.22555862855 133 132 130
32.958502101113 563.340548834772 2810.14456451583 153 152 150
39.798357494317 562.817738376848 2812.91793635226 189 188 186
47.7318627920651 562.055235817694 2813.97831981447 181 180 178
52.3938868955101 562.010665430549 2820.1817680346 122 121 119
57.0772809362714 561.964342167222 2826.39388207753 135 134 132
64.4755596334188 561.320408086403 2828.31546550107 126 125 123
72.406281655564 560.557623358057 2829.37446694689 131 130 128
80.8617257395055 559.676564421372 2829.56801298744 133 132 130
86.6472789067843 559.389456454388 2834.07059226159 109 108 106
104.603413139414 556.378010825594 2818.70695836211 117 116 114
142.974289145435 548.764152350089 2769.56764697893 177 177 177
176.854971399871 542.117343004598 2727.23393753295 159 159 159
193.799238989091 539.260878775071 2712.53849663891 171 171 171
202.865038791808 538.176355954105 2710.82309730738 181 181 181
211.906755177737 537.093507526671 2709.09767685273 171 171 171
218.870145450811 536.481338915949 2710.84293625539 198 198 198
225.829529237718 535.869308403308 2712.58657241338 213 213 213
232.785019355723 535.257352688316 2714.32837425889 212 212 212
238.724488199806 534.878868099605 2717.81515736852 211 211 211
243.663155843252 534.732689495289 2723.05257862069 203 203 203
247.616332544613 534.817544096176 2730.04684667812 214 216 215
252.094066043804 534.784137582279 2736.17559231681 216 218 217
254.113590297798 535.328389104834 2746.6992030968 206 208 207
253.712975849282 536.447257932019 2761.63285933297 202 204 201
-151.379512274113 577.656859226414 2845.44529709599 190 192 191
-141.331966333035 576.512905762553 2844.12785030083 181 183 182
-130.716648357791 575.250291428892 2841.96212443398 178 180 179
-118.362814135474 573.62907414472 2837.26634795623 174 176 175
-107.813228737812 572.37148835167 2835.07396931863 176 176 176
-99.0454078607359 571.475872212677 2835.39410485314 167 167 167
-89.1282232138819 570.341918261254 2834.02379989831 145 147 144
-80.9725535092924 569.568305153673 2835.17396314604 141 143 140
-71.0959262291524 568.437385158089 2833.7872138037 150 152 149
-60.0949191431839 567.069992644476 2830.69963677674 155 157 154
-48.5562857598871 565.586148322982 2826.75155813836 140 142 139
-36.4878008694116 563.986547011871 2821.94033911757 139 141 138
-21.6301184813603 561.797355987978 2812.86810297035 140 142 139
-6.2777942156067 559.49507801521 2802.91845007258 139 141 138
3.38451003976403 558.380217315549 2801.44454390162 180 182 179
7.99116661709598 558.329004902764 2807.62562454673 168 170 167
13.1754787801293 558.158373038996 2812.96269087667 138 140 137
19.4841300578954 557.751176802953 2816.59917096922 137 136 134
31.865792225563 556.051830389288 2810.83644588384 131 130 128
41.4532979557449 554.942268187502 2809.33221415786 155 154 152
48.8307158423857 554.302587130069 2811.24531894999 176 175 173
52.3965379800571 554.480899323977 2819.16110687092 141 140 138
55.9937374697801 554.656701075013 2827.0893610617 114 113 111
62.8560629166566 554.131243603362 2829.87185092759 127 126 124
69.7193736438408 553.605618405645 2832.65474099783 127 126 124
79.7871754907211 552.383388529507 2830.26728084613 129 128 126
86.106392053217 551.974314557931 2833.90779575393 127 126 124
104.06681914994 549.019674767793 2818.54546943199 115 114 112
141.923333784201 541.684450489676 2770.27485016576 136 136 136
178.436072551237 534.602389527051 2723.61558570573 188 188 188
193.289270962721 532.261152084184 2712.3850702117 200 200 200
202.874877231862 531.075018552262 2709.80209888033 201 201 201
210.882656076675 530.235016359015 2709.81407723262 199 199 199
218.876402421367 529.395946606143 2709.82036685722 189 189 189
225.833724828493 528.786401150711 2711.56289231451 198 198 198
232.278280558242 528.291158593758 2714.17600115569 218 218 218
238.217667550735 527.909557188626 2717.66277474881 215 215 215
242.652264107902 527.868554586861 2723.77411212103 215 215 215
246.6071515234 527.939211322901 2730.76918045045 203 205 204
251.58529707602 527.780998318525 2736.02267724632 206 208 207
254.595450819394 528.073954322237 2744.79141813878 207 209 208
254.680672660686 529.041674462108 2758.84412357519 206 208 205
-159.015962041851 570.52165261117 2842.40743551271 197 198 200
-151.343605352058 569.862489551851 2844.44010660863 194 196 195
-142.48647461332 568.967807557683 2844.79639599395 184 186 185
-131.867555657403 567.720868144508 2842.63200932708 181 183 182
-119.509579123283 566.123466804277 2837.93798675028 176 178 177
-108.369309770497 564.764144681087 2834.90647763235 179 179 179
-99.0165382275896 563.759051709671 2834.3854772157 172 172 172
-90.264591471046 562.87240436475 2834.69911745005 149 151 148
-82.1061220979764 562.103615111394 2835.8506349268 140 142 139
-71.072230063917 560.752386881245 2832.77625026189 145 147 144
-60.6467098706827 559.520202216571 2830.5334459668 152 154 151
-49.6783363657391 558.17389590422 2827.43249600602 144 146 143
-39.3134339717838 556.946214993652 2825.16511385548 140 142 139
-23.8761728106465 554.678129786168 2815.24933490756 146 148 145
-9.07746361477657 552.531294516572 2806.15315711338 146 148 145
0.03400408459453 551.544273514601 2805.53431749643 162 164 161
5.77101884645415 551.250256869978 2810.01703905284 177 179 176
12.0757586068307 550.840232290732 2813.65195683773 160 162 159
18.9410756144068 550.314776907746 2816.43565794956 132 131 129
30.7731225007342 548.756927350074 2811.52813315959 125 124 122
39.8149699458612 547.774794581278 2810.88106774259 138 137 135
47.1978152674481 547.136960424223 2812.7960988392 152 151 149
50.7675204440086 547.298108111261 2820.71358907739 174 173 171
54.9102162644615 547.342806202383 2827.78515368776 134 133 131
61.2359306094101 546.930437834904 2831.42832447234 122 121 119
68.1043605460956 546.403958731042 2834.21329374668 129 128 126
77.6445659140139 545.310577477675 2832.68978779135 123 122 120
83.4395905757057 545.010913321648 2837.19629717909 136 135 133
100.35621376117 542.338217941575 2823.56707848709 117 116 114
138.239782648016 535.162266041166 2775.30594882865 128 128 128
178.971114380143 527.333558993689 2721.72969982534 201 201 201
195.908407494349 524.586484677835 2707.03060586996 182 182 182
204.442454950642 523.641764943493 2706.17739502161 179 179 179
210.891534198959 523.146253660796 2708.79233744033 163 163 163
218.369466114539 522.426958683051 2709.66793496034 188 188 188
225.838520999395 521.708163213423 2710.5396772207 202 202 202
232.789518159729 521.101310253244 2712.27987844847 208 208 208
239.230232896151 520.605804138017 2714.89143409631 218 218 218
242.648908599532 520.776093186283 2722.7477042799 217 217 217
247.602911508914 520.611364527791 2727.99147527714 207 209 208
251.575584825453 520.666400351799 2734.99386339437 208 210 209
255.078212751428 520.829619590102 2742.88417882639 207 209 208
255.155999859995 521.761913668003 2756.93414251199 205 207 204
-156.578248719273 562.267163399254 2838.0627172313 197 198 200
-151.307025412458 562.072938307744 2843.43515209893 194 196 195
-141.262437499629 560.955615766254 2842.11604853737 184 186 185
-128.873528001617 559.379978400858 2837.43412830734 182 184 183
-120.656189582068 558.611725584228 2838.60947737862 177 179 178
-109.512213316018 557.27084416349 2835.57958661471 180 180 180
-100.740659812913 556.390414306146 2835.90111835523 176 176 176
-90.2368776049154 555.168228412576 2833.68992600847 162 164 161
-81.5008642592197 554.290494783085 2833.99704735393 150 152 149
-70.470616917113 552.958235347159 2830.92104320074 138 140 137
-62.3470311819661 552.197027249296 2832.05812184955 143 145 142
-53.6604485715031 551.322970819897 2832.34520116773 147 149 146
-44.4183080653708 550.336625547327 2831.77926492424 141 143 140
-29.5250798044149 548.220528527074 2822.7211242435 143 145 142
-13.0074562971292 545.770845312759 2811.08653654555 145 147 144
-2.19409621255395 544.454902694242 2807.92259259863 138 140 137
5.78791910210708 543.704208586239 2809.00227069223 151 153 150
12.0902077169178 543.291155711084 2812.63596175273 169 171 168
21.1707724579879 542.316789862123 2812.00451382391 148 147 145
30.2323213371165 541.343781164005 2811.36535622024 138 137 135
38.7256294761793 540.483886818741 2811.57407272709 126 125 123
45.0174780954085 540.071257596175 2815.20353349604 131 130 128
49.6823837632634 539.992222145231 2821.408409677 151 150 148
54.9103922800855 539.800270190556 2826.76332995203 171 170 168
61.2333705546284 539.384945049389 2830.40567255914 125 124 122
67.5626262482676 538.968993477814 2834.05030437047 121 120 118
76.0352524570362 538.110005465864 2834.25064004025 125 124 122
83.962251545129 537.362340172087 2835.30801949522 133 132 130
101.406911178723 534.631182974326 2820.81423400791 123 122 120
136.134265195107 528.276494234492 2777.74231363253 103 103 103
180.031475894149 519.965002685343 2718.9782026945 195 195 195
193.83526088237 517.930488371455 2709.4780785362 166 166 166
202.377701486702 516.995663675916 2708.62844823898 153 153 153
209.867628873809 516.280708504538 2709.50886974603 175 175 175
217.862835350557 515.457199351087 2709.51563262266 211 211 211
226.355491578928 514.525751105367 2708.64581939114 208 208 208
233.301920855992 513.921581787971 2710.38389354746 201 201 201
239.737677902296 513.426079916572 2712.99344182946 207 207 207
243.654313193024 513.471741834624 2719.97346882455 209 209 209
249.603379912564 513.082788621503 2723.46396016885 209 211 210
253.063544840695 513.232664702818 2731.33718377084 208 210 209
256.058551262727 513.487667453105 2740.10007929533 206 208 207
256.126366439339 514.384691654498 2754.14627275225 202 204 201
-159.536879897382 555.055350336411 2841.23494176851 197 198 200
-149.477368820081 553.950085867331 2839.9217890938 194 196 195
-140.036843964337 552.959171217739 2839.43621190508 184 186 185
-130.023097659393 551.857422583644 2838.10475997518 184 186 185
-121.212926800693 550.981778759084 2838.44189133305 179 181 180
-111.242178232025 549.883322616808 2837.09274774108 181 181 181
-101.295542754963 548.786696775484 2835.73408428222 178 178 178
-91.9551846721081 547.803479047154 2835.207891935 166 168 165
-82.633748773274 546.821676237814 2834.67377017805 155 157 154
-73.3313578710792 545.841302193762 2834.13218363354 138 140 137
-65.1975355889689 545.084328740181 2835.27363211693 141 143 140
-55.3557275832155 543.995595164181 2833.87220770853 147 149 146
-44.3985568105441 542.68750659948 2830.76643216057 140 142 139
-31.2066587306574 540.940411362366 2824.25331964554 137 139 136
-18.0687812377096 539.197407216741 2817.718046341 137 139 136
-6.67168468161017 537.788507448371 2813.71234960953 140 142 139
5.24604187271405 536.272706727145 2808.83919719246 134 136 133
13.7766641661106 535.417970657319 2809.06298283818 160 162 159
21.7387994255962 534.673648641072 2810.13456333932 169 169 167
29.1399062806195 534.039159275225 2812.05722027562 137 136 134
36.5370955849504 533.404890625423 2813.97828935038 134 133 131
42.2892752722799 533.097358615012 2818.46725352065 120 119 117
48.0525430928267 532.788867978489 2822.96097169032 132 131 129
54.3692775552316 532.370934579484 2826.60054876539 149 148 146
61.2317288017163 531.844122178654 2829.38309983664 144 143 141
67.0212525812741 531.533252451197 2833.88746689129 116 115 113
73.8910698595297 531.00563229309 2836.67300653929 125 124 122
82.8899876577329 530.047045306384 2836.00838074126 118 117 115
104.047381248492 526.617299587538 2815.47097862953 125 124 122
145.093574965659 519.120186593981 2762.01944439811 205 205 205
182.666629819292 512.290745395775 2713.62996334699 193 193 193
194.892396219147 510.615906025461 2706.72512326765 183 183 183
201.870111541693 510.012336442614 2708.47586037669 187 187 187
208.843790192794 509.408961711501 2710.22521881564 185 185 185
217.35648573717 508.486715374882 2709.36344961348 207 207 207
226.873738479793 507.353465004307 2706.75214435614 216 216 216
233.81534144216 506.752033808866 2708.4885008441 200 200 200
239.739477195978 506.362261296627 2711.96890402676 206 206 206
244.157049414267 506.288490290676 2718.07359674013 212 212 212
251.104320364859 505.68613182233 2719.81225518491 206 208 207
256.050870201585 505.504524090785 2725.05313642452 205 207 206
259.523640159591 505.636410142001 2732.93160007349 206 208 207
260.06302847444 506.39436013962 2746.09071893361 203 205 202
-162.496595358362 547.821147364633 2844.40689699665 197 199 198
-151.828585207063 546.618229094418 2842.26205333934 195 197 196
-142.379830876542 545.637153144997 2841.7797336321 186 188 187
-131.764987988477 544.438342609216 2839.61333179042 184 186 185
-123.539403877683 543.679374279006 2840.7919491099 178 180 179
-113.560122351242 542.593482493239 2839.44616521779 175 175 175
-104.189993288838 541.618426660084 2838.9319650647 178 178 178
-93.6738308485474 540.427180342784 2836.72555087289 172 174 171
-83.1866520444207 539.238125736473 2834.50738479921 163 165 162
-74.4609608639044 538.376587315216 2834.81020401773 141 143 140
-67.4739996641465 537.840851697777 2837.64323592405 137 139 136
-59.3411559535735 537.088842470985 2838.78425056325 142 144 141
-48.3675175040461 535.79820395535 2835.68501039457 145 147 144
-35.7256806098543 534.18708172484 2830.02695950069 138 140 137
-21.4382334475574 532.257235510295 2821.80093875039 143 145 142
-11.1516877925302 531.083254770925 2819.50142347776 138 140 137
3.02489502123993 529.161803586251 2811.23045090476 140 142 139
11.5637197969409 528.31417359846 2811.45750381539 147 149 146
21.1983791351993 527.25413601224 2809.97198886875 166 168 165
28.0473899630058 526.728403414616 2812.74908982493 157 157 155
34.3477412419333 526.308803693472 2816.38230332168 120 120 118
40.1071049402242 525.994754785114 2820.8742256435 122 122 120
47.5119332924561 525.361973071461 2822.79837644416 128 128 126
55.4552131063384 524.623628144534 2823.86227720401 123 123 121
63.389633948596 523.885830243096 2824.92284410916 167 167 165
68.0918626253124 523.780734296401 2831.1430296439 139 139 137
74.4195574550042 523.358375849925 2834.78707803482 123 122 120
83.4143374745051 522.410607397703 2834.12069487791 118 117 115
109.339117794392 518.111474685341 2805.8101186829 121 120 118
157.750373669002 509.329298477007 2740.24604354664 209 210 212
184.779971639639 504.752808307523 2709.14822084206 180 181 183
194.384838800853 503.629512689863 2706.57257181541 183 184 186
201.882437968899 502.924251545332 2707.45576886767 190 191 193
209.887985300292 502.115763772578 2707.46660482525 190 191 193
219.423129925477 500.997384849684 2704.8624311431 206 207 209
227.393090644996 500.191327992821 2704.85883990752 201 202 204
233.310922216118 499.799060730052 2708.33696670727 205 206 208
238.728118158378 499.509147270562 2712.69016478444 204 205 207
244.660695450603 499.115457683512 2716.17427280321 207 208 210
252.105267863165 498.413157395297 2717.03597725471 210 212 211
257.043803230384 498.223576876353 2722.27367392385 209 211 210
260.011095966146 498.441532318602 2731.02562918126 202 204 203
260.543121633374 499.166735053737 2744.1822723993 203 205 204
-176.862389675655 542.606137141364 2863.44420471562 197 199 198
-155.376229308242 539.48398997567 2846.27426809023 196 198 197
-143.53307701088 538.084049553081 2842.44885103785 183 185 184
-132.321911647961 536.794004514668 2839.44577933816 182 184 183
-122.91550807159 535.826640145922 2838.94620818003 182 184 183
-112.940403465306 534.75423956237 2837.59888804941 176 176 176
-106.500411905601 534.321414933758 2841.28848392293 174 174 174
-97.1409538014769 533.357620526531 2840.76987781576 175 177 174
-88.960717945308 532.607092331832 2841.92981274718 173 175 172
-79.0565845284468 531.54006061416 2840.55371618934 151 153 150
-71.4768449269456 530.896953214099 2842.54850835716 140 142 139
-59.8926941440701 529.516765436771 2838.61833093016 139 141 138
-48.3474115994771 528.139513090824 2834.67213655205 140 142 139
-35.1385612465471 526.4504174829 2828.1654482711 135 137 134
-23.1138973640508 524.974891729392 2823.33528874865 138 140 137
-11.1334599925514 523.502700161202 2818.487454179 144 146 143
0.802930869721941 522.033854289096 2813.62150290327 142 144 141
12.1378296912031 520.672448329793 2809.59000553226 139 141 138
19.5482405181193 520.04183953163 2811.51640016733 157 159 156
24.7448004942552 519.826615685602 2816.85876354524 160 162 159
31.6075454983156 519.299256970011 2819.64143769778 139 139 137
38.4715533237909 518.771738427343 2822.42462436922 129 129 127
46.9717148186588 517.934344791155 2822.63594520213 119 119 117
53.2881066563591 517.509997662591 2826.27543216519 126 126 124
62.8502867296199 516.468175320166 2824.76069003671 128 128 126
68.0892541801639 516.249053624501 2830.12025344573 151 151 149
74.4142992632997 515.823692146955 2833.76325173517 156 155 153
83.9397316745965 514.78433293214 2832.23361206841 113 112 110
110.396604779345 510.481281958407 2803.05944080831 117 117 115
160.92539747175 501.50733758152 2734.03870510415 206 207 209
186.370703693801 497.343134597884 2705.53297050732 190 191 193
196.489124166864 496.135077873059 2702.08683268081 196 197 199
203.974603103207 495.435857960503 2702.96507654608 216 217 219
210.416546220722 494.939313049325 2705.57713743053 231 232 234
219.433121518298 493.938177466275 2703.84117539247 196 197 199
226.376801191339 493.341438545288 2705.57833715973 194 195 197
234.335923088391 492.543876825141 2705.57029297077 206 207 209
239.74524067901 492.248699606564 2709.92034105693 207 208 210
244.660991463369 492.052615389132 2715.14886170587 208 209 211
250.597135547115 491.655310694146 2718.63444129483 207 209 208
255.540362120431 491.456771098938 2723.87384808095 206 208 207
259.008531953318 491.555322831517 2731.75070183684 200 202 201
260.035265519377 492.147906959443 2744.02984585391 201 203 202
-157.131374576539 532.008276226075 2847.7779023429 196 198 197
-145.281847301727 530.629255044837 2843.9551651382 180 182 181
-132.285516572693 529.044936338579 2838.44044312758 180 182 181
-121.699949427079 527.880231207639 2836.26192923515 183 185 184
-111.731467363423 526.821506058332 2834.91182402779 178 178 178
-105.299196796986 526.386035351945 2838.59831378229 174 174 174
-98.8608655012018 525.950099409356 2842.2872610096 176 178 175
-91.8360117120793 525.410464991544 2845.13566490922 177 179 176
-81.9208674285314 524.355786366275 2843.76393294036 162 164 161
-72.0294941225979 523.3028918768 2842.38230552096 150 152 149
-61.0165322138243 522.04661745362 2839.29872667237 136 138 135
-50.607896724578 520.895302637109 2837.04847290865 139 141 138
-36.8215122101001 519.132869629607 2829.69737185936 139 141 138
-24.2247678244805 517.57895410223 2824.02062971645 138 140 137
-13.9282658086661 516.436104977926 2821.72490973473 143 145 142
-3.10056014605409 515.193790746668 2818.5662161278 141 143 140
8.25099860872136 513.852554361016 2814.54131136608 137 139 136
17.8976203293726 512.818029473183 2813.06070375072 162 164 161
23.6514736902949 512.492641246284 2817.55048092485 169 171 168
29.9665245171965 512.065480864512 2821.18970347237 136 136 134
35.7403664133888 511.738389431222 2825.68758677291 131 131 129
45.3414539378676 510.707023811636 2824.18851873715 122 122 120
51.6627971208805 510.279056487715 2827.83003790501 122 122 120
61.7713078593081 509.149876149857 2825.45809797892 123 123 121
68.0874591138154 508.722125900366 2829.09751332628 124 124 122
76.0150220831601 507.994674616197 2830.15522510265 150 149 147
86.0641133005002 506.869708822776 2827.7591946876 125 124 122
113.575878174292 502.469464241916 2796.85526205859 130 130 132
163.048447452245 493.921103918276 2729.56151666603 205 206 208
184.813249407228 490.548189177525 2707.11174562858 191 192 194
195.460842685656 489.259648187818 2702.80141080736 202 203 205
205.029028972256 488.171104445844 2700.21064654425 214 215 217
213.533337117281 487.281358815841 2699.34497777037 205 206 208
221.503608475164 486.49105823881 2699.34139288176 204 205 207
228.435002153478 485.897623982165 2701.0735550882 203 204 206
236.382169581853 485.108840061626 2701.06060408609 207 208 210
241.271127196023 484.906360522207 2706.2783248447 205 206 208
245.671562798294 484.799800119526 2712.37632759813 204 205 207
249.590858689621 484.788673161923 2719.35786229578 206 208 207
254.036312963987 484.678321853846 2725.47412152519 206 208 207
257.50845056891 484.759732254358 2733.35271173053 201 203 202
259.033062181977 485.224876705475 2744.75534363579 202 204 203
-153.503710366326 523.604817213564 2841.75824239741 197 199 198
-141.670201891958 522.248390296518 2837.92884803534 180 182 181
-130.468918200162 520.99644339653 2834.9214865434 179 181 180
-121.073499998462 520.05078135024 2834.41730298707 181 183 182
-111.697000829037 519.10657880531 2833.90519095921 187 187 187
-104.681932283121 518.567226501128 2836.74963074471 188 188 188
-97.6658181159993 518.027776410313 2839.59449463603 177 179 178
-91.2291846234876 517.588681881873 2843.28303560258 176 178 177
-82.4740985939429 516.74800768969 2843.59759844241 178 180 179
-72.5816884990349 515.708211688025 2842.21629152857 171 173 172
-60.4214166314969 514.270743741961 2837.44100747895 147 149 148
-50.0166191412237 513.135663334299 2835.1890766842 142 144 143
-36.80075830652 511.505285718895 2828.68452460482 146 148 147
-27.0320866514544 510.474839547152 2827.25330322918 144 146 145
-16.1613005605024 509.24794160667 2824.11193573173 140 142 141
-5.88505906780368 508.122538352867 2821.80788017254 140 142 141
7.70995278680808 506.406954190944 2814.37868135868 143 145 144
17.3576674350042 505.385538287193 2812.89841689942 139 141 138
23.6639891867838 504.955876886156 2816.53386683666 158 160 157
30.5268862549934 504.427534761138 2819.31661001287 168 168 166
37.390988955466 503.89900745198 2822.0998427447 136 136 134
45.3470667501465 503.174786863045 2823.16881825784 125 125 123
51.6656156230202 502.743822547584 2826.80948597222 126 126 124
59.611541469043 502.020182118127 2827.8743466357 119 119 117
66.4729705297691 501.491448203717 2830.65649839572 124 124 122
