ply
format ascii 1.0
comment KinectMotionCapture
element vertex 758
property float x
property float y
property float z
property uchar red
property uchar green
property uchar blue
end_header
-4.40506514683947 699.578363341164 2669.91173546735 161 163 162
2.71636713997592 698.908930945002 2671.72141900755 131 133 130
9.24853728806241 698.417282400012 2674.36997506545 129 131 128
16.3640242744176 697.748380814965 2676.17724737213 197 199 196
24.0553663178476 696.90276301067 2677.13995340966 163 163 161
31.7375658563053 696.057899437959 2678.09895199471 139 139 137
39.4103109610777 695.213779508337 2679.05437413636 127 127 125
45.92909262673 694.723161819664 2681.6975014788 130 130 128
53.5886976851392 693.879968813053 2682.64733905624 125 125 123
60.1041740714652 693.389612995466 2685.28912612954 129 129 127
68.31529549048 692.37147722468 2685.384786656 108 108 106
77.6369479006689 691.002951515824 2683.77513290026 121 121 119
91.4137285335592 688.232001433873 2675.34872222177 132 132 130
109.027584932678 684.238686418939 2660.93301012039 155 155 153
123.767522247635 681.128340577992 2650.74127378477 172 172 170
132.909357414407 679.773134922706 2649.05871233651 173 173 175
139.277785505982 679.293383384099 2651.64088021768 204 204 206
144.00522425438 679.337201083058 2656.79133626392 185 185 187
150.383087329049 678.856522700116 2659.37733132825 204 204 206
156.761882697201 678.375710677207 2661.96370488457 211 211 213
163.681471947611 677.720601609596 2663.69129781333 211 211 213
168.985081261624 677.587164581312 2667.99757664588 208 208 210
173.230325808666 677.799954570878 2674.03032304968 207 207 209
176.964318572444 678.184521711704 2680.9338305681 208 208 210
180.194768209181 678.74011123512 2688.71096887592 208 208 210
183.456542211145 679.293224401763 2696.50055174125 207 207 209
183.601304043623 680.880968514611 2709.49385674292 208 208 210
182.763351625853 682.809155213023 2724.24430351946 207 207 209
183.555673626193 684.214317302813 2736.42237683195 199 200 202
-192.012883219204 725.158021532764 2746.95858700426 170 171 173
-178.253457190814 722.682825873726 2740.6807813446 141 142 144
-162.057348739963 719.50190709805 2731.07943055369 170 171 173
-142.834048365384 715.440053392884 2717.31563321365 193 194 196
-128.035512154013 712.626014278665 2709.30350797247 195 196 198
-116.993407463259 710.87878164548 2706.23519293304 188 189 191
-105.986036289545 709.134385133932 2703.15305026772 178 179 181
-97.4543860118606 708.099073676574 2703.37862084922 166 167 169
-81.0358393080766 704.771884638868 2692.7896342791 165 166 168
-64.6967627914614 701.450817960802 2682.16816715986 192 193 195
-50.8484461918086 698.840027850368 2674.84831506287 178 179 181
-43.0623854281889 697.991926852036 2675.84939086227 168 170 169
-36.4813244611975 697.496016234432 2678.51777477232 192 194 193
-27.5184739225189 696.298372901254 2677.84035757791 194 196 195
-17.9823066176381 694.926988627662 2676.31758105308 136 138 137
-7.28994327185184 693.207340379537 2673.10770636095 141 143 142
-0.746003204638024 692.714490333452 2675.76103708291 146 148 145
8.72491081650351 691.348161816991 2674.21154441717 130 132 129
14.6751557639961 691.030727026176 2677.70197072749 186 188 185
23.5322819464094 689.841310595328 2676.98168413126 192 192 190
28.9038935966615 689.698122213899 2681.31557054143 143 143 141
36.0120995018633 689.032313505553 2683.11961412014 143 143 141
43.6887316379975 688.193026358558 2684.07657346212 135 135 133
50.7861360950737 687.528013652598 2685.87623757739 123 123 121
57.8792622882458 686.863304603446 2687.67442437878 126 126 124
64.403146125221 686.371983798789 2690.31962288373 113 113 111
74.3036633134257 684.84267285193 2687.86650072106 106 106 104
88.0955998598674 682.105879560134 2679.44596766562 126 126 124
108.513969235739 677.30255161897 2660.77762476797 153 153 151
123.256994990498 674.232758276856 2650.58683154291 162 162 160
130.189690709974 673.579773527742 2652.3199723131 162 162 164
134.918138684334 673.615142613234 2657.47090102598 188 188 190
141.852745674111 672.961767333345 2659.20481861611 188 188 190
149.328238081842 672.136957009487 2660.07997094765 201 201 203
157.879620767454 670.969731675336 2659.23572276939 206 206 208
163.711965498617 670.660292935367 2662.67835150806 207 207 209
170.087691105284 670.17915625093 2665.26348460051 208 208 210
173.254782358256 670.723207559876 2673.01505700334 206 206 208
177.517909594942 670.92331294209 2679.05514012758 206 206 208
180.212363684677 671.633218199367 2687.69289610131 205 205 207
183.99775547788 671.999635819231 2694.61735229166 202 202 204
185.185073906446 673.214525228015 2705.87773370954 206 206 208
185.379076851134 674.765257512883 2718.89099940231 205 205 207
184.074929240191 676.820435990523 2734.53078984906 192 193 195
-192.562700398291 717.703537180415 2746.79247287604 177 178 180
-181.303463217637 715.958045157631 2743.81231727936 137 138 140
-164.471330710772 712.642059229484 2733.39044653287 167 168 170
-145.236909701836 708.633775072938 2719.63100304302 193 194 196
-127.956217186095 705.156532708896 2708.31316520822 195 196 198
-116.91551405689 703.428354729407 2705.2443954839 187 188 190
-106.522367662468 701.876930330961 2702.99090301678 176 178 177
-96.7693078169802 700.501841579073 2701.55597282665 163 165 164
-83.392605635414 698.086652662062 2695.12249292683 159 160 162
-67.648420366111 694.981768230166 2685.33758531622 191 192 194
-52.5819333661002 692.055905884392 2676.355733674 176 178 177
-44.1901964491878 691.039659610085 2676.52450981633 164 166 165
-37.0085638305151 690.370304932759 2678.35831022951 190 192 191
-29.8314723087103 689.701454064313 2680.1905253925 196 198 197
-22.658563271726 689.032994342402 2682.02104413217 134 136 135
-10.7663080860474 686.986068609515 2677.14160432087 145 147 146
-1.85823612476566 685.803435314693 2676.44189389589 161 163 160
8.78680615862604 684.106335809962 2673.21268832693 127 129 126
14.151542086974 683.957869423046 2677.54357358522 169 171 168
21.8484349941137 683.122297126285 2678.50870821255 197 197 195
27.2248537784072 682.972964904692 2682.84433033938 141 141 139
34.9134813860683 682.138017564066 2683.80611366841 149 149 147
43.1658944758924 681.132719991287 2683.91839559031 137 137 135
49.6931260732028 680.640954621545 2686.56495294942 131 131 129
55.6533542834556 680.319769958447 2690.05944983525 121 121 119
60.4888512020887 680.339006415576 2695.25384418951 119 119 117
69.2799886302626 679.165099639716 2694.50672165442 104 104 102
83.6549107971447 676.291816963658 2685.24446176261 122 122 120
104.096065998353 671.554863803422 2666.5845843552 151 151 149
119.41507169128 668.354486085318 2655.54918298421 157 157 157
128.021376767896 667.194266812593 2654.72711938961 152 152 152
134.407566762395 666.712659710938 2657.31649300432 185 185 187
141.890153911815 665.892607357138 2658.19448188248 186 186 188
149.363555764005 665.073187659096 2659.06900412995 198 198 200
157.913434699809 663.916727024485 2658.22380827399 208 208 210
163.20285708935 663.773026652061 2662.52442071451 207 207 209
168.503400949133 663.628355482241 2666.82954351806 204 204 206
171.67453451272 664.155444295848 2674.58262396842 204 204 206
177.007152417818 664.008022743175 2678.90075417323 206 206 208
181.290696391632 664.195242750205 2684.94920155756 206 206 208
185.595241184897 664.380673935495 2691.0064228105 204 204 206
186.770539137832 665.568929032612 2702.26213910363 205 205 207
186.429759180183 667.254692846792 2716.13665962258 204 204 206
185.115215795145 669.269389675126 2731.77254773378 189 190 192
-194.368977397498 710.593454733606 2748.27289009343 193 197 196
-183.729224296959 709.038631695797 2746.11927269832 135 137 136
-168.756282577921 706.281555079729 2738.17707402699 161 163 162
-147.640746248227 701.810567715815 2721.94610633426 196 198 197
-126.639975008447 697.348433870458 2705.668603961 192 194 193
-116.837009024456 695.982661443567 2704.2538097982 184 186 183
-108.898227193844 695.132891571275 2705.31673392715 169 171 168
-100.358185381625 694.112845599749 2705.54558647342 156 156 154
-86.3586658005915 691.55540582684 2698.28680823978 163 165 162
-69.9958976281512 688.319496108897 2687.67428823789 193 195 192
-56.7286112830654 685.942595062445 2681.19621642807 174 176 173
-45.318028710944 684.081122974181 2677.19941046392 158 160 157
-36.3394122537717 682.903540717462 2676.52822472092 176 178 175
-28.5714477705177 682.067453823693 2677.52188240073 197 199 196
-23.185447086709 681.911528862172 2681.86169136863 142 142 140
-12.4728505998208 680.228115853243 2678.65973427901 138 138 136
-3.55882216819592 679.055596422598 2677.96210169986 163 163 161
7.09261404417871 677.376849699277 2674.73534587845 163 163 161
13.6280369425099 676.884196243697 2677.38522656887 132 132 130
20.7448183503589 676.222634228855 2679.19296734572 174 174 174
25.5450702948539 676.236204760684 2684.37313420539 168 168 166
32.0880423488099 675.742983087705 2687.02607580246 147 147 145
40.3510954500053 674.744792748435 2687.14261191882 145 146 141
48.0294847623568 673.915772839512 2688.09994767962 127 128 123
53.4264033737579 673.759132311308 2692.44418266299 121 122 117
57.703365852388 673.937100365066 2698.49003537375 122 123 118
65.9424388691627 672.940570818527 2698.59684953517 114 115 110
79.2117260512783 670.438834050199 2691.041983154 119 119 117
98.5595513158788 666.102519271475 2674.09426097118 147 147 145
115.57078668456 662.442806837691 2660.51083140323 144 144 144
126.405025694513 660.624761179726 2656.28008161974 144 144 144
133.89710127185 659.809331510843 2657.16213448312 181 181 181
141.380217186481 658.994407896855 2658.04029858012 175 175 175
148.854120259886 658.180119120884 2658.91498487752 180 180 180
157.40485948695 657.034260361351 2658.07005698809 177 177 177
162.153683278219 657.050680039262 2663.22937935647 203 203 203
166.918584357554 657.065706391567 2668.39522186613 195 195 195
171.164278785684 657.244896456202 2674.42840510187 189 189 189
175.963823906466 657.257088361884 2679.60829622322 198 198 198
181.30974689277 657.102754614495 2683.93186595387 204 204 204
185.083338791168 657.442131901819 2690.85174940862 201 201 201
187.832649557437 658.108746836489 2699.51204459156 204 204 204
186.958985694825 659.923976574707 2714.2488882396 203 203 203
185.11635690534 662.062265163397 2730.74882965683 195 197 196
185.426316722495 663.537548592697 2743.80961734895 193 195 194
-193.661793466904 702.79282197143 2746.46047702196 195 199 198
-181.148363751536 700.745782399274 2741.83280447406 134 136 135
-163.06830268513 697.177856687148 2729.76024729721 154 156 155
-143.836257354727 693.278583146223 2715.99901564117 195 197 196
-127.177620418966 690.062988407929 2705.50613682709 191 193 192
-119.221760624967 689.217060587576 2706.57620380748 181 183 180
-110.048268182414 688.034648930033 2705.9839585783 165 167 164
-100.283318279911 686.68543314727 2704.55338925157 153 153 151
-88.1093105660613 684.665230981978 2699.78782648895 160 162 159
-72.9503121991823 681.808313441116 2690.84290946209 193 195 192
-60.2744120017196 679.628218473525 2685.20296321703 174 176 173
-46.4460141700613 677.116501313336 2677.8742952058 158 160 157
-36.2674799311058 675.614359329204 2675.53353424745 173 175 172
-29.0976501633038 674.950925660239 2677.3627681167 191 193 190
-24.8987341951097 675.123510516852 2683.37706115052 159 159 157
-15.3615036412871 673.792241433141 2681.85441106546 136 136 134
-4.08346221100619 671.96273536598 2677.80344061007 155 155 153
5.98342097044324 670.469314319688 2675.41766405237 174 174 172
11.9379913867845 670.14254052662 2678.90991250153 121 121 119
17.8984562179243 669.815299730116 2682.40455109732 148 148 148
24.4430111154117 669.32174343505 2685.05813611289 178 178 176
30.9884983063815 668.828053500017 2687.71209962045 147 147 145
39.2546401621605 667.837508890074 2687.82982839916 146 147 142
46.3650913815588 667.178869336359 2689.63498397601 128 129 124
52.335031346767 666.850877842741 2693.13346467665 123 124 119
56.0479194031196 667.182571376217 2700.02882781582 119 120 115
61.4765831750701 667.017652758499 2704.3857217093 119 120 115
71.9625413503737 665.370128709031 2701.09172834162 106 106 104
90.228783131882 661.422732075778 2685.86100627554 149 149 147
110.057420648861 656.990361788829 2668.02988150446 145 145 145
125.89430313412 653.715445848467 2656.12566439359 141 141 141
134.488209458826 652.577309869889 2655.29841324668 177 177 177
141.966645682444 651.767982014068 2656.17489738212 173 173 173
147.799304965091 651.449671489567 2659.61772072616 157 157 157
154.724002503009 650.804224561255 2661.34756595457 162 162 162
159.482365753846 650.811400239073 2666.51082084967 198 198 198
164.256978400327 650.817174369497 2671.68040840695 188 188 188
169.583045370888 650.658974151668 2675.99596788404 183 183 183
175.453268587258 650.337209298283 2679.45402678206 198 198 198
180.798898326193 650.177160278469 2683.77752109913 204 204 204
184.571617056165 650.502619137247 2690.69715651205 199 199 199
186.794267693291 651.311811375211 2700.22193817967 203 203 203
186.966270151921 652.764963308656 2713.22729289024 203 203 203
185.638616330921 654.697944251968 2728.85823483623 197 199 198
184.905419852845 656.463549212417 2743.65232887714 193 195 194
-199.240511010093 696.672945168792 2752.87931756732 194 198 197
-183.57453719923 693.814267059754 2744.13968465691 137 139 138
-164.236411837562 689.961164578592 2730.42105409126 156 158 157
-143.755693175742 685.782873448364 2715.00964280012 194 196 195
-130.808284505002 683.608405723979 2709.47958576276 191 193 192
-124.07185978605 683.098840965196 2712.21097885188 180 182 179
-113.652990467044 681.593916783085 2709.96754895604 165 167 164
-102.041421659896 679.759978158833 2706.05191220088 154 154 152
-89.2521643014244 677.598130130647 2700.45772516181 153 155 152
-75.299992478435 675.109393781476 2693.17899817602 189 191 188
-63.2182078431989 673.120707599463 2688.37585605853 171 173 170
-49.3776891788786 670.640662466552 2681.05211284794 155 157 154
-37.9908130031124 668.824202463745 2677.04510992568 166 168 165
-29.0276125302524 667.66912187915 2676.36751180311 176 178 175
-24.2385968697501 667.666367123107 2681.54325291209 199 199 197
-16.4784356176149 666.841359282695 2682.53366714261 134 134 132
-6.37347026559842 665.361125795225 2680.16295260181 143 143 141
3.11616488893107 664.046957676705 2678.62090185552 157 157 155
8.49704746603108 663.880056279582 2682.95846451005 145 145 143
15.0507238568585 663.385448537131 2685.61575072344 121 121 121
22.1838295745516 662.727554594345 2687.43007329491 182 182 180
30.4646900540344 661.74382396515 2687.55370989215 179 179 177
37.5844602761186 661.086926792584 2689.36262546051 148 149 144
44.1292653995908 660.592992015966 2692.0163146596 133 134 129
49.5379944148924 660.42396864792 2696.36542545053 126 127 122
53.2600104140644 660.74089702142 2703.26433911853 114 115 110
58.6983237804983 660.569559628735 2707.62544594368 112 113 108
67.5131688662689 659.42570039244 2706.88743749278 111 111 109
84.1260572743483 656.018962235389 2694.21986795158 111 111 109
104.540675525962 651.488067610525 2675.54768405344 139 139 139
122.063709949869 647.773331756958 2661.09308722251 143 143 143
131.224350045138 646.483525681413 2659.41764404582 173 173 173
140.360936368778 645.195421538723 2657.73219154036 175 175 175
146.198306965319 644.873713638493 2661.17720543981 173 173 173
153.128525075984 644.230255671682 2662.90901360675 206 206 206
157.350697371635 644.388982976406 2668.93282799955 201 201 201
163.747007433377 643.905169342377 2671.52631588283 182 182 182
170.144353661089 643.421124174603 2674.12022505735 185 185 185
177.075794130945 642.777025963669 2675.85279022831 203 203 203
180.819000241818 643.090925108052 2682.76056380996 204 204 204
183.003875665518 643.880993047354 2692.27019551779 199 199 199
185.755711620152 644.50849367319 2700.93180960744 203 203 203
186.974340672695 645.610316609829 2712.20572548857 203 203 203
187.20306516407 647.025798825907 2725.23433207524 199 201 200
184.902771481658 649.229855576008 2742.6272778527 193 195 194
-207.33762232805 691.166305981974 2762.58931991014 193 197 196
-189.133442206056 687.686579358228 2750.56634913607 135 137 136
-168.523725911524 683.55814297061 2735.20679018875 152 154 153
-146.781041319864 679.110684828203 2718.15076390346 193 195 194
-133.203177721483 676.798865956302 2711.79820654843 191 193 192
-125.842764858223 676.125030583934 2713.70442778071 179 181 178
-114.804129677634 674.47260332607 2710.6342465888 163 165 162
-102.57731542819 672.496959395763 2705.88998430626 154 154 152
-91.6124107781211 670.850349195558 2702.78964882572 152 154 151
-77.0444750243173 668.230859850394 2694.68268045591 189 191 188
-63.7483138222048 665.94112604091 2688.21563916759 170 172 169
-50.5067325212327 663.655591528517 2681.72672426033 154 156 153
-41.5109919612429 662.508662664253 2681.0622396011 165 167 164
-31.3419793967289 661.039524271976 2678.71737322588 172 174 171
-24.1709973175408 660.380936249988 2680.54677970263 207 207 205
-16.4131999597277 659.561370579564 2681.53645278544 151 151 149
-7.48709481986931 658.419899023015 2680.84373187217 139 139 137
1.41998216231731 657.279910557654 2680.14303812445 144 144 142
6.2216327155753 657.267815996406 2685.32396580533 166 166 164
11.6203708963221 657.09381578954 2689.66906910108 126 126 126
19.3449252941977 656.276829534392 2690.64500556671 165 165 163
28.7887745484106 654.979499465646 2689.08428880536 188 188 186
36.487539362889 654.164436918647 2690.04976866987 160 161 156
43.0348045353863 653.670038244494 2692.70445744163 134 135 130
48.4456578713359 653.495018400486 2697.05447380662 124 125 120
53.3014111330556 653.478727047206 2702.25733910206 114 115 110
56.4823546504107 653.939369173717 2710.01515240764 108 109 104
64.7443620556407 652.964783579412 2710.13108621158 114 114 112
79.1368192277606 650.241888576617 2700.87452899526 99 99 97
100.13264935865 645.618371316844 2681.35956758749 134 134 134
118.230808044941 641.797776523261 2666.0598287415 152 152 152
128.509779132466 640.203174871581 2662.6816266285 173 173 173
138.205985469583 638.769344090813 2660.14505673353 173 173 173
144.051000730646 638.444017238923 2663.5929361077 189 189 189
151.532295579006 637.644565060987 2664.47050282513 216 216 216
157.381785803012 637.318674449812 2667.92019835329 188 188 188
163.775648880452 636.834725917197 2670.51269649243 182 182 182
170.170575667857 636.350543668579 2673.10562709171 190 190 190
176.033092328915 636.023202564492 2676.56060792644 205 205 205
179.777880889188 636.323048502434 2683.46912875014 201 201 201
183.548882927463 636.62069804344 2690.38827987377 199 199 199
186.820347971792 637.072679330437 2698.1825531257 204 204 204
190.122954227833 637.522128167525 2705.98971165583 203 203 203
189.810976064169 639.062171897023 2719.87725556253 201 203 202
186.455703120239 641.532709695141 2738.99890135772 194 196 195
-209.148530602833 683.977691420786 2764.06819998227 204 208 207
-194.068814101981 681.35340616969 2756.16822714262 141 143 142
-176.557617191971 678.089294668286 2744.94210343305 149 151 150
-152.294237594031 673.06036691472 2724.59560630985 192 194 193
-137.455994860751 670.454884409066 2716.59771992978 189 191 190
-125.148446004404 668.497088650814 2711.88575400777 174 176 173
-116.569649420251 667.505713321908 2712.13008077146 157 159 156
-104.947609654874 665.714103449449 2708.21836279283 148 148 146
-94.583040140527 664.245850098727 2705.95266933521 149 151 148
-78.1828721893834 661.180865949326 2695.35399667 149 151 148
-63.6741910188829 658.601135331972 2687.22247795161 166 168 165
-52.2373945814394 656.823968250741 2683.23538956062 150 152 149
-44.4339026111151 656.005863250548 2684.24355299739 161 163 160
-33.0607941921788 654.233652387498 2680.23064021134 165 167 164
-24.1028693113712 653.100329846855 2679.55074111882 200 200 198
-15.7557198211571 652.127277594971 2679.7011367285 203 203 201
-9.18958258130775 651.631054953728 2682.36348049203 133 133 131
-1.44987619848869 650.818093230233 2683.3457786109 146 146 144
3.94523435052774 650.638527789731 2687.68919806063 181 181 179
10.5139628270128 650.142129737718 2690.35259232711 173 173 173
17.0835790148078 649.645751018156 2693.01634587509 136 136 136
25.9595754493354 648.518740186444 2692.30322669306 174 174 172
33.6687869681653 647.70805048758 2693.27290320929 172 173 168
40.2261122309751 647.212555890813 2695.93167354726 131 132 127
45.077849104699 647.188034765732 2701.13297501503 122 123 118
50.5118236896711 647.005474450688 2705.49241016495 117 118 113
54.8293149961818 647.135339628209 2711.55503731818 111 112 107
60.8518333060741 646.794126371324 2715.07490683609 110 110 108
72.4680432157443 644.889454845232 2710.08287722323 105 105 103
94.6094379172247 640.021958468206 2688.87572259024 133 133 133
114.395864454628 635.788639438467 2671.02599813779 157 157 157
126.345099443417 633.744483264069 2665.09079990989 173 173 173
136.050095537968 632.326065746986 2662.55767209721 168 168 168
144.087333754704 631.375803789397 2662.58241407981 199 199 199
152.110427194177 630.426453279638 2662.6014220336 205 205 205
158.495874645187 629.942962284973 2665.1905092771 175 175 175
164.343567395759 629.614070424882 2668.63975699617 183 183 183
170.733566138204 629.129919959413 2671.230692024 198 198 198
176.590942307942 628.799997321681 2674.68361107747 207 207 207
180.329925763751 629.08620144089 2681.58962763014 198 198 198
185.152286946806 629.062244301691 2686.77903081366 199 199 199
188.938520648715 629.344579906286 2693.70446520564 205 205 205
192.227472823876 629.778373221839 2701.50621395957 203 203 203
191.379469283774 631.437048715183 2716.25463392922 202 204 203
187.491979546093 634.009567766178 2736.23882406189 195 197 196
-205.926008154108 675.506498718094 2758.96382254913 195 199 198
-193.992846346158 673.711967842695 2755.17809782562 140 142 141
-180.226451808511 671.445047896698 2748.90153499295 151 153 152
-154.079660592092 666.015975438211 2726.08371201862 192 194 193
-137.376242087133 662.970721423034 2715.60767380896 192 194 193
-126.303171570155 661.353254750796 2712.55117024951 174 176 173
-116.493007413993 660.054040589608 2711.13878608221 160 162 159
-107.318681541089 658.914278340329 2710.54629780565 146 146 144
-96.9456320968558 657.461457386377 2708.28417806485 145 147 144
-80.5348069118847 654.439086111017 2697.68949744428 155 157 154
-64.203598578829 651.422813513247 2687.06253429712 176 178 175
-53.3670863914444 649.823939473821 2683.91010901593 147 149 146
-44.3624108235676 648.69761288626 2683.24908591856 150 152 149
-32.9902685265802 646.946997964233 2679.23561826522 167 169 166
-23.4400750952382 645.668231356048 2677.71781880313 189 189 187
-16.2805944440245 645.015426323016 2679.54252459956 217 217 215
-11.4819636597794 644.986475047019 2684.72235736662 136 136 134
-6.08073755221361 644.800651274389 2689.06855762575 138 138 136
1.08381959861981 644.147563592013 2690.89532100338 161 161 159
8.82565229832299 643.339604037304 2691.87844213783 194 194 194
15.4003113671257 642.842467123115 2694.54424325958 142 142 142
23.1290061216289 642.035464212997 2695.52178045528 134 134 132
30.8485176800641 641.229123680217 2696.49585164576 172 173 168
37.9875077006189 640.577971969498 2698.31224839901 137 138 133
42.8461969996021 640.544441698255 2703.51643314147 119 120 115
48.2873661013523 640.355513093164 2707.87882957025 115 116 111
53.7397503512651 640.165671458826 2712.24551662717 112 113 108
58.6415184574665 640.128728134431 2717.46716954403 107 107 105
68.0311880484414 638.861932327961 2715.88428437883 105 105 103
90.1958548183959 634.068956119836 2694.68598759921 127 127 127
111.112645843817 629.592922022999 2675.13790593445 153 153 153
125.282327059101 626.962601072542 2665.79070384921 161 161 161
134.442142703551 625.712850529433 2664.11462324819 165 165 165
145.217217537527 624.006850218784 2659.85906903508 197 197 197
152.145570603734 623.370797398463 2661.59032315627 182 182 182
159.611439607015 622.582645068605 2662.46130118181 182 182 182
165.99041024589 622.099218898854 2665.04776551852 206 206 206
171.834022012779 621.767452345954 2668.49538266555 221 221 221
176.616074329056 621.738290260281 2673.66850452606 206 206 206
180.351705656943 622.010772354259 2680.57326783505 194 194 194
186.228623084364 621.675954037553 2684.03413611347 206 206 206
190.006436563385 621.944969152581 2690.95626218244 204 204 204
194.334292193433 622.060802665466 2697.02319213316 209 209 209
192.949712959929 623.832768260019 2712.63256306121 204 206 205
189.04829511925 626.351277241769 2732.61152318507 197 199 198
-201.44208105632 666.755065117335 2752.21468680025 195 199 198
-190.154441201962 665.139427991035 2749.24504698056 141 143 142
-178.901335213074 663.526616582323 2746.26140322481 150 152 151
-154.621916847991 658.64885258329 2725.9199970784 189 191 190
-136.057175736212 655.180630541981 2712.96411955411 191 193 192
-124.99033274317 653.582426961057 2709.90494850529 171 173 170
-119.487745276641 653.38229602715 2714.2922977062 158 160 157
-111.526709399023 652.562085686268 2715.36400828821 151 151 149
-100.527999742272 650.969429622132 2712.27720848471 144 146 143
-84.7086220964026 648.143779625411 2702.52062921469 148 150 147
-67.1504006222594 644.861025009219 2690.23462135835 174 176 173
-55.7006356678726 643.125953500863 2686.25272198173 144 146 143
-46.0882616710989 641.855685592065 2684.75977734647 144 146 143
-34.7097317896812 640.126168240869 2680.7489932936 170 172 169
-24.5590877032325 638.706724463603 2678.39631297988 189 189 187
-16.8051317777251 637.90286090309 2679.38405444966 212 212 210
-12.5964448849258 638.018541867175 2685.40273497774 138 138 136
-8.36701580331334 638.132693604751 2691.43008268905 135 135 133
-0.610464438844049 637.328714076629 2692.41887591271 151 151 149
7.13693811716309 636.52539961535 2693.4039598075 173 173 173
14.2957917478055 635.875179330378 2695.2286493626 179 179 179
20.2971174509534 635.529607737625 2698.73997117892 136 136 134
28.0270227269148 634.727674139078 2699.71821730875 146 147 142
34.6045169548479 634.229894167826 2702.38517124057 146 147 142
40.0444356130378 634.035331541142 2706.7468468514 122 123 118
44.3617956305433 634.142666115735 2712.80984884902 114 115 110
49.8288154780446 633.945926424566 2717.18251404128 112 113 108
55.3067613465421 633.74828578321 2721.55986715768 107 107 105
64.1509491466439 632.644627061794 2720.8336918819 103 103 101
85.2229297084739 628.227700143601 2701.3479973466 117 117 117
109.490167947164 622.917644370241 2676.68944640679 159 159 159
125.874292689479 619.723601944115 2663.92763989954 161 161 161
135.030227895009 618.487434549691 2662.24962795313 153 153 153
144.708688760114 617.103099584075 2659.70549787726 198 198 198
152.725562810118 616.169992827963 2659.72186452102 180 180 180
160.728431903995 615.237816329966 2659.73255360598 179 179 179
168.177955398494 614.455974802792 2660.597122843 204 204 204
173.472538149655 614.271163472586 2664.89987906075 215 215 215
178.777987631497 614.085396113549 2669.20729961388 200 200 200
183.031612301606 614.196141891402 2675.24421253755 194 194 194
186.777315621403 614.453683538065 2682.1534243959 199 199 199
189.496348099831 615.005835083847 2690.80232771551 204 204 204
193.823551412466 615.1104823713 2696.86907833607 209 209 209
194.521932187039 616.249288223641 2709.01087719175 203 205 204
191.64437645381 618.418176718053 2727.24942558311 196 198 197
-193.21163253953 658.290284498889 2752.37461626977 138 140 139
-180.697928166833 656.389261599145 2747.74569093556 151 153 152
-157.030325773521 651.739810347026 2728.23389965065 181 183 182
-136.595512677333 647.864245958848 2712.80160693446 190 192 191
-127.378801091629 646.742310783443 2712.22640243543 163 165 162
-121.254595367356 646.383566511024 2715.78757734859 155 157 154
-114.512525544101 645.872358979154 2718.5212685523 149 149 147
-103.502521228531 644.297637532736 2715.43890593676 144 146 143
-88.2773121317133 641.663430407691 2706.51910908196 135 137 134
-70.0984627183436 638.276711081909 2693.40636896974 177 179 176
-56.830878024219 636.108250142203 2686.92709526669 142 144 141
-46.615578656233 634.699883172011 2684.60050946004 135 137 134
-35.2355317349431 632.991824801683 2680.59017699266 179 181 178
-25.6782535085878 631.739132546217 2679.07479125094 155 155 153
-18.5136699991826 631.090819449749 2680.90178633745 197 197 195
-14.3008194271055 631.194872849908 2686.92224084359 186 186 184
-10.6540615193762 631.447611110382 2693.79142681272 134 134 132
-2.30518861754669 630.498153428619 2693.94234137916 143 143 141
5.44758834551895 629.699553907979 2694.9295655954 145 145 145
13.1912736892741 628.901644811245 2695.91310344605 172 172 172
18.040777566829 628.851806094442 2701.11369268991 133 133 131
26.3532225999386 627.90502530808 2701.2498375798 126 127 122
32.3636645549199 627.555677456569 2704.76513635158 140 141 136
37.8107184395724 627.354691461196 2709.12974965252 131 132 127
42.7018688366372 627.301553168711 2714.34722628748 113 114 109
48.7377593412663 626.950159188259 2717.87284450613 111 112 107
55.3417765635007 626.449859417161 2720.55055651017 107 107 105
63.6249425594517 625.505009809367 2720.67483188717 101 101 99
83.0315067912115 621.602289749708 2703.74760616697 98 98 98
108.421498656035 616.082909095933 2677.38736334219 157 157 157
125.915542940925 612.642182351809 2662.91895169465 158 158 158
134.52070056599 611.566816503224 2662.09578033921 166 166 166
143.653484190976 610.34568846987 2660.40853771387 182 182 182
151.673584715536 609.42021653179 2660.42615286452 180 180 180
160.763209771479 608.202064964169 2658.72115585245 192 192 192
168.210806413361 607.425486954702 2659.58490502444 190 190 190
173.502502579355 607.235106041261 2663.88653470019 201 201 201
178.270987877933 607.189952767635 2669.05428458002 196 196 196
182.523928484307 607.289455059155 2675.09100575368 191 191 191
186.798018676043 607.387221932565 2681.13630339888 209 209 209
190.039864196649 607.774505605701 2688.91933153195 208 208 208
193.837153050343 608.013793290849 2695.8495683682 211 211 211
195.574156598354 608.831936351741 2706.2567124892 206 208 207
192.685682899244 610.952081104812 2724.49095251111 197 199 198
-195.642932803277 651.268226007056 2754.68010693347 139 141 140
-181.870537530923 649.090106243559 2748.40530067466 153 155 154
-159.439815882642 644.81390724578 2730.54749226006 175 177 176
-138.993196216324 640.997213435985 2715.11953371769 190 192 191
-127.916268879093 639.435869836106 2712.0641663599 158 160 157
-124.251761840679 639.672467056896 2718.94066117119 152 154 151
-116.275180291594 638.861366327377 2720.01859703726 145 145 143
-108.307849322295 638.051058280059 2721.09278140069 143 145 142
-91.2405030518195 635.006162853286 2709.6852841081 134 136 133
-71.2336275405592 631.223556533421 2694.07927511998 179 181 178
-57.3590411328448 628.935777450156 2686.76761114696 142 144 141
-47.742369026939 627.691829152055 2685.27620729021 132 134 131
-38.7473038401045 626.598034975585 2684.61104643071 177 179 176
-27.9872043355935 625.061553946646 2681.42720927262 140 140 138
-21.407112109791 624.562910603762 2684.09522165953 178 178 176
-16.0056278070346 624.359581864756 2688.44165914295 209 209 207
-11.7676145261425 624.450493427495 2694.47240146348 161 161 159
-3.41565707205604 623.508622031898 2694.62450744134 141 141 139
3.17551414297879 623.009190585617 2697.29701160624 140 140 140
12.6661853104257 621.775015889344 2695.75451677938 154 154 154
17.5151370397877 621.716583271359 2700.95494760177 176 176 174
24.6787889836415 621.070764913246 2702.78154659454 130 131 126
30.1218773248986 620.864319292556 2707.14485288403 124 125 120
36.1457397785692 620.510775328665 2710.66536009965 132 133 128
42.1756068230157 620.156755632302 2714.18830213753 115 116 111
47.6467879373821 619.948054385802 2718.5630000892 111 112 107
52.5669726385496 619.884037889077 2723.79231496238 106 106 104
60.860827430371 618.946201985533 2723.92086499527 102 102 100
78.6109621856921 615.540628008735 2709.55587611969 99 99 99
106.798109229643 609.38690157821 2678.93869186931 155 155 155
125.957362026178 605.565374813911 2661.91071607499 145 145 145
136.209494458313 604.066777907967 2658.52091949043 184 184 184
144.239304801925 603.148576564943 2658.54241096901 171 171 171
152.255053000257 602.231280122972 2658.55820192552 174 174 174
161.882721010389 600.882680602565 2655.99323531695 185 185 185
168.783795098969 600.255693184379 2657.71337565975 202 202 202
173.53314655896 600.203567642331 2662.87343123155 211 211 211
176.695302208294 600.580636902193 2670.62427092179 189 189 189
182.016431629224 600.381886660752 2674.93788135153 196 196 196
186.289916186882 600.468344057892 2680.98301950252 207 207 207
190.584354880655 600.55313588413 2687.03691168615 213 213 213
194.900164051867 600.636090541211 2693.09921332365 214 214 214
195.584370159409 601.715047801045 2705.23572659291 209 211 210
194.247767373517 603.358937793953 2720.86549362344 199 201 200
-200.585288215644 644.820596887739 2760.28002490836 169 171 170
-185.543209453514 642.3754238909 2752.36345519243 149 151 150
-163.717716954152 638.313356938927 2735.33803608317 166 168 167
-142.011805001273 634.26050055103 2718.26387261623 191 193 192
-132.158720607516 633.011265959622 2716.86848771807 153 155 152
-123.55996513653 632.057731665287 2717.12060886916 149 151 148
-116.200745902286 631.398839809472 2719.02649076826 139 139 137
-108.235644769543 630.59381928471 2720.09973220866 138 140 137
-93.5973945837067 628.180162660247 2712.01941627264 141 143 140
-73.5788184759676 624.45649509096 2696.41769803362 180 182 179
-60.8993097426842 622.492299915419 2690.77731917109 141 143 140
-50.0692447701503 620.969135014005 2687.62170960357 132 134 131
-40.4685268576006 619.739775393683 2686.12399265511 159 161 158
-28.5121377687347 617.9308479737 2681.26871624531 142 142 140
-21.9320177700659 617.431813885756 2683.936742839 141 141 139
-15.9409880278891 617.077732950663 2687.44396039203 198 198 196
-12.2939403025928 617.302443145295 2694.31347615134 213 213 211
-6.28097923739568 616.94671429674 2697.8295860327 133 133 131
0.320141891973824 616.446195656881 2700.50612708818 140 140 140
10.4017218425461 615.080253800215 2698.12507766431 141 141 141
16.989727828262 614.580714472503 2700.79630106796 167 167 165
23.5787211954492 614.081037140306 2703.46792530143 183 184 179
27.8791594671113 614.155879118947 2709.52432208885 132 133 128
33.9104076434165 613.798671528803 2713.04784750062 123 124 119
40.5149316211102 613.297703959341 2715.72576974809 119 120 115
46.5557058171462 612.939681864406 2719.25315835161 115 116 111
50.3531054731006 613.15271906179 2726.18363902245 107 107 105
58.6551722024613 612.22212298739 2726.31545913485 105 105 103
75.859598196683 609.012521158482 2712.80683936922 104 104 104
102.955133642422 603.248477494142 2683.90258912707 148 148 148
125.447664420305 598.635295745873 2661.75687122914 169 169 169
137.35040835996 596.72964796992 2655.80179924835 189 189 189
146.467849665041 595.53628148341 2654.10787697467 168 168 168
153.382302229298 594.910864262193 2655.83342226599 172 172 172
161.377106110968 594.002908428379 2655.84066221753 174 174 174
167.199113671987 593.660569547102 2659.27961210976 218 218 218
173.564448847967 593.176639622797 2661.86055936231 203 203 203
177.257714521415 593.396408283786 2668.74856867089 198 198 198
182.57341436492 593.192254633598 2673.06027888604 212 212 212
187.370676398693 593.127486363381 2678.23982893877 215 215 215
192.184217473268 593.06134408509 2683.42572344804 215 215 215
195.4401133047 593.413860632585 2691.21470397793 208 210 209
196.639224228752 594.323047284166 2702.48217723739 211 213 212
195.292136733292 595.926373009805 2718.10800654925 200 202 201
-203.019246533542 637.753887023439 2762.58477778997 184 186 185
-187.96714344547 635.343157830617 2754.67200577807 147 149 148
-166.129514951091 631.345404870713 2737.65101296484 167 169 168
-145.652002125344 627.645994987614 2722.23467386404 194 196 195
-134.550004409815 626.120353941439 2719.1891867095 154 156 153
-126.558497865283 625.318202781922 2720.27309776537 150 152 149
-118.576437349782 624.516914151814 2721.35343487971 140 140 138
-110.603593026464 623.716420893413 2722.42977716776 138 140 137
-95.3477352330851 621.193688893381 2713.52154480238 145 147 144
-74.1092705619428 617.242240926166 2696.25760381532 181 183 180
-62.0307361757553 615.448144365344 2691.4516707587 142 144 141
-50.5965880499915 613.800423039037 2687.46252892151 133 135 132
-40.3973269664861 612.441500876911 2685.12933177527 153 155 152
-27.8463902518196 610.5141822513 2679.4366154975 142 142 140
-21.8641541576496 610.157654361091 2682.94054833845 139 139 137
-15.8759320719237 609.800687514013 2686.44665096567 188 188 186
-12.2322999671913 610.011561161611 2693.31488864162 212 212 210
-7.39248487475885 609.936726568806 2698.51174442683 135 135 133
-0.788801925039495 609.435616416054 2701.18932722876 138 138 138
8.71635862946185 608.226953894631 2699.65250567691 144 144 144
15.8869552169258 607.58533752559 2701.48188465684 151 151 149
21.9033886563917 607.226225209987 2704.99942612374 172 173 168
26.2082432457289 607.289395134555 2711.05744229139 114 115 110
31.6741957661597 607.069421911665 2715.43010866086 127 128 123
38.2862436855189 606.567529465842 2718.11108430941 120 121 116
44.8993340743387 606.065494651016 2720.79248312558 117 118 113
48.7009567409487 606.264125408954 2727.72452563391 112 113 108
56.4485842456219 605.48093225807 2728.70980532133 105 105 103
73.1070250406827 602.461825077269 2716.05748425579 104 104 102
100.220014757796 596.797360381273 2687.15954634325 138 138 138
123.280936036746 592.12254952739 2664.16562472784 199 199 199
135.743130208804 590.104035533258 2657.35911754134 189 189 189
147.05630355516 588.367498623802 2652.24285892603 170 170 170
155.055855134566 587.467146748513 2652.25196355089 180 180 180
162.49892594661 586.706384848594 2653.11350313804 227 227 227
167.773471963222 586.49996244947 2657.40856765623 214 214 214
174.671149090539 585.87781703802 2659.12729589234 182 182 182
179.42554276722 585.808076493001 2664.28952653894 204 204 204
184.72852125852 585.599018311503 2668.59586591702 194 194 194
189.512675284988 585.526710693392 2673.77016577649 207 207 207
194.3130167755 585.453001020639 2678.95103045286 213 213 213
197.555250121398 585.789743160277 2686.73459870469 207 209 208
199.784368683343 586.398143124406 2696.26352114003 210 212 211
197.897122320977 588.098460384831 2712.74871692082 200 202 201
-186.013995898825 627.298536330691 2751.20830764431 150 154 153
-169.165209741173 624.502568245169 2740.78923824976 148 153 149
-146.191706173518 620.294600257443 2722.07187307978 194 196 193
-136.324265370231 619.070863902364 2720.68185049408 150 152 149
-127.09668834798 617.990568687845 2720.11072971392 145 147 144
-120.340114760048 617.476867087572 2722.85031229373 142 144 141
-112.972457203008 616.822148543581 2724.75957917749 134 136 133
-99.5300108642581 614.759116856561 2718.3503065927 142 144 141
-78.2717694657162 610.871442710582 2701.09363244797 177 179 176
-66.1765243016343 609.100285869895 2696.29454881686 147 149 146
-54.1254867084189 607.332547262007 2691.47728271712 135 137 134
-42.7166535956405 605.708350993721 2687.47771269668 145 147 144
-28.9657762403381 603.527503899812 2680.11540651446 142 144 141
-22.981190232058 603.16768688694 2683.62005852312 136 138 135
-15.8100441379385 602.528358249524 2685.44964265402 147 149 146
-11.5821321980984 602.586087408166 2691.47654652657 181 183 180
-6.74788226083689 602.503056085327 2696.67121114879 198 200 197
-0.732050857108257 602.140912998595 2700.1885318281 155 157 156
6.45028440222117 601.500787528745 2702.02265241263 134 136 135
12.4731119805237 601.138090148214 2705.54280999494 142 144 141
19.0771490287156 600.636503620134 2708.22053977963 147 147 145
24.5366893326986 600.411240143167 2712.59064998669 152 152 150
30.0073346088665 600.185072365989 2716.96500614626 121 121 119
34.3534498954698 600.233700073508 2723.04009593102 116 116 114
40.9816112804162 599.730142443341 2725.72760842947 116 117 112
47.6108681216485 599.226408358071 2728.4155658079 113 114 109
55.3615844219677 598.448026982352 2729.40180242834 112 111 107
71.4683919607788 595.614446783364 2717.60378808463 110 109 105
96.9283892913935 590.460484807464 2691.26937743044 212 212 210
120.560660322865 585.729374983547 2667.42815265 186 186 184
133.585469622593 583.603099397685 2659.7711957833 163 163 161
145.4555845967 581.753865134044 2653.80248496607 169 169 169
154.55089197087 580.588757564994 2652.09964385196 199 199 199
161.994461902966 579.833096865566 2652.96134686358 231 231 231
167.268678723563 579.620842489956 2657.25632229743 164 164 164
174.166687106744 579.001031989783 2658.9751669587 168 168 168
178.385603581724 579.058069103831 2664.99843387666 183 183 185
184.755744706322 578.572772107529 2667.58133738584 184 184 186
189.536844283434 578.492128616969 2672.75446370401 199 199 201
195.916632338429 578.00576843194 2675.34128124577 207 207 207
198.097858636355 578.595726100157 2684.85095222969 209 211 210
200.842871891576 579.047965757482 2693.51113228696 208 210 209
197.905217388365 580.973246057856 2711.72719359509 202 204 203
-189.689613089633 620.530438273892 2755.16567452028 156 160 159
-167.840215477507 616.662333765312 2738.14846423967 147 152 148
-149.213485779083 613.498930360885 2725.21537501355 193 195 192
-138.717088034595 612.148781015547 2723.00216267782 148 150 147
-131.328286467753 611.494598987092 2724.91998655498 143 145 142
-122.717455245588 610.563779290316 2725.17682492185 141 143 140
-112.899782154945 609.357460035029 2723.76677695096 138 140 137
-98.8496201648428 607.185992667303 2716.52532067844 142 144 141
-78.8029145604525 603.639549725158 2700.93339133277 176 178 175
-68.5152329096825 602.305811598549 2698.63580416077 152 154 151
-57.0555218179305 600.699193424496 2694.65670103703 136 138 135
-45.635235126918 599.095663469797 2690.66186907094 141 143 140
-31.8718502427897 596.946289265588 2683.30413131621 139 141 138
-26.470576761993 596.719604773434 2687.65066046955 135 137 134
-18.6961186415593 595.944811891209 2688.64648278524 134 136 133
-12.694890027368 595.580627734624 2692.15790636909 155 157 154
-5.51680001756893 594.943139987894 2693.99028808889 211 213 210
-0.674722550717766 594.850940521862 2699.18819151451 187 189 188
4.7637479294782 594.621488309473 2703.5498024484 140 142 141
10.7914229806052 594.255268627362 2707.07194943626 141 143 140
17.400502909805 593.752923904655 2709.75172679472 140 140 138
23.4376530950005 593.385953525431 2713.27771588743 156 156 154
28.9103311150587 593.153761225723 2717.65319798141 131 131 129
33.2582714827017 593.19089228994 2723.72885664345 114 114 112
38.1927378102096 593.091462691799 2728.96422246778 113 114 109
44.2691573267446 592.721261524851 2732.50613592352 112 113 108
52.0327649033046 591.947053904446 2733.49781772116 111 110 106
67.03989803165 589.427018283129 2723.40979269018 113 112 108
93.6351515459037 584.09561772913 2695.37851065866 124 124 122
120.050331287267 578.777826545512 2667.27421487469 180 180 178
134.178247713256 576.416339989461 2657.90806483021 183 183 181
144.949877579895 574.861427724363 2653.649970568 188 188 188
154.046287336845 573.709562886505 2651.94747542459 216 216 216
162.03307689197 572.825763909196 2651.95128732962 193 193 193
167.844793234465 572.474890835763 2655.38587784055 207 207 207
173.662498919472 572.123418271773 2658.82315516443 199 199 199
178.415879336403 572.036602263934 2663.98510497668 210 210 212
183.718231181994 571.815937390365 2668.2912786059 240 240 242
188.5014270367 571.726549944916 2673.46531996884 218 218 220
194.883834101197 571.239623604055 2676.05320222033 203 203 203
198.64147348482 571.411726057512 2682.9678945123 199 201 200
201.380154660281 571.844920608048 2691.62565511197 202 204 203
197.393889324398 573.984058050129 2711.57313661793 205 207 206
-187.734372221711 612.503673419025 2751.70268860899 175 179 178
-167.760429952639 609.110944542943 2737.15919816269 147 152 148
-150.995125592442 606.408236024703 2726.70562069666 190 192 189
-138.637672861393 604.66502790766 2722.01223398476 148 150 147
-128.788056518913 603.469388367111 2720.6150386613 142 144 141
-119.575761423207 602.411440177283 2720.03730372625 140 142 139
-109.772249525001 601.219513181542 2718.62141289929 137 139 136
-100.601353592977 600.16492922004 2718.02714746227 139 141 138
-84.1800543544327 597.488967485941 2707.43408202203 174 176 173
-73.2679017941436 596.034616828277 2704.31118754504 153 155 152
-59.3859804799439 593.908578621146 2697.00126747204 136 138 135
-48.5548749581144 592.460469840123 2693.84551031064 138 140 137
-35.9706751939239 590.611566826805 2688.16592486396 134 136 133
-29.3683454156397 590.109338473184 2690.842968252 128 130 127
-20.9927570899417 589.204748195225 2691.00435962195 136 138 135
-13.8078375427673 588.569050625056 2692.83949300408 135 137 134
-6.62696011915642 587.933678718732 2694.67273006398 202 204 201
-2.94948767579295 588.099788883389 2701.55500874871 209 211 210
2.49626049328522 587.8638775412 2705.91935809926 161 163 162
8.53111951431207 587.493974915304 2709.44469896798 142 144 141
16.2990488339034 586.724780266467 2710.4378353853 142 142 140
22.3385675324288 586.354483988977 2713.96480868171 148 148 146
27.2427341978083 586.248817329427 2719.18795366236 138 138 136
32.162988657072 586.141905952173 2724.4176219116 114 114 112
35.9681655642194 586.298047771779 2731.3516827879 109 110 105
42.0519708033893 585.924182978578 2734.89661443979 111 112 107
48.7024348768785 585.417961706659 2737.59317732878 110 109 105
63.1670026324846 583.069105684313 2728.36323929079 112 111 107
89.7845852060599 577.83414817762 2700.34026712546 111 111 109
120.646445844185 571.563036795592 2665.41264729555 171 171 169
136.974332398804 568.715494289594 2652.62518674235 160 160 158
146.088353896985 567.575713617659 2650.92973087373 227 227 227
154.087383116319 566.698925024413 2650.93844539543 228 228 228
160.443402805323 566.214477850523 2653.51562479379 200 200 200
165.719639844956 565.990352714577 2657.81125095062 230 230 230
171.54478844175 565.635241881395 2661.25156943393 231 231 231
175.769824553408 565.669139005156 2667.27748954432 236 236 238
181.61484784729 565.312189958485 2670.72561185854 230 230 232
187.465896972452 564.954673832341 2674.17617828753 212 212 214
193.850925147614 564.467211057231 2676.76512587422 191 191 191
198.660960420397 564.366850311786 2681.95011750234 191 193 192
201.918703244503 564.651852857709 2689.74035760422 196 198 197
201.565542595105 565.835426811993 2703.61392895742 203 205 204
-189.533633566646 605.302414563304 2753.1866375075 183 187 186
-172.044705473433 602.501419339566 2741.94798701637 148 153 149
-155.882331646857 599.974349684257 2732.32776409004 188 190 187
-141.031617629567 597.720020123465 2724.33226560108 149 151 148
-131.173376752556 596.536972985992 2722.93820961712 144 146 143
-120.112535887128 595.089731281071 2719.87546409941 141 143 140
-110.308201248413 593.911009395952 2718.45980630312 138 140 137
-101.13656360576 592.866917152244 2717.86576165512 140 142 139
-87.1361651518032 590.764159863548 2710.60363567509 175 177 174
-73.195102765242 588.666013996103 2703.3174499877 154 156 153
-60.5153455639049 586.836678496795 2697.67640675509 139 141 138
-48.4835812202873 585.143149199325 2692.85103179311 141 143 140
-37.0918103899589 583.584773270517 2688.84405447494 137 139 136
-29.3001437638287 582.818803402188 2689.84703474339 129 131 128
-23.2902668757751 582.447657568286 2693.36201271978 133 135 132
-16.6860893198317 581.944924162087 2696.03980808809 133 135 132
-9.49516235278725 581.311141679412 2697.87735931621 154 156 153
-3.4748696325293 580.93923039475 2701.3965603913 185 187 186
2.55126241453829 580.566856471169 2704.9181292752 215 217 216
9.74020201166037 579.933171667985 2706.7548750909 141 143 140
16.349280297441 579.430020098096 2709.43465789963 135 135 133
