ply
format ascii 1.0
comment KinectMotionCapture
element vertex 797
property float x
property float y
property float z
property uchar red
property uchar green
property uchar blue
end_header
-149.615257432969 231.019371459889 3045.38985920369 17 22 15
-141.622591175858 230.274899306042 3042.43725039287 19 24 17
-139.376257384401 229.413766645843 3033.87891692721 24 27 20
-125.602463138474 228.781044720037 3036.50159054646 23 26 19
-100.202454164259 228.363418909273 3050.22007916373 23 26 19
-102.276689011827 227.416119660448 3037.46689994191 24 27 20
-115.316183847438 226.275954618322 3014.3687803357 24 27 20
-101.452730365701 225.630907113876 3016.91413845542 24 27 20
-92.6695114771214 224.890812170177 3014.59956177048 26 29 22
-76.5294835691952 224.272906539732 3019.14133774077 26 29 22
-72.1113654271792 223.452746753908 3012.67078885134 26 29 22
-61.0584130712515 222.74068476287 3012.35886906054 25 28 21
-55.1594811863776 221.943575556797 3007.25121804881 25 28 21
-58.1694629768239 221.010614228752 2993.98573055523 24 27 20
-14.3287574780007 219.886550749262 3012.89901839016 18 21 14
7.34841833087119 219.301493118776 3021.9051090316 18 21 14
-2.41186869392918 218.275752854367 3002.58066054394 20 23 16
18.5968480098109 217.669261921296 3010.84269122267 22 25 18
51.7607641884612 217.206362443685 3029.74219464453 24 27 20
13.9430547946913 215.841364402929 2985.77451363912 25 28 21
100.398653020263 215.097938668605 3040.53387180213 24 27 20
108.835959913421 214.292141334481 3037.19627435832 24 27 20
114.989799890989 213.459943464552 3031.8679127155 24 27 20
118.841772114001 212.603841842036 3024.564719363 23 26 17
104.225033821182 211.564140280798 3001.50974147656 22 25 16
121.108495328177 210.844797828333 3005.40781413726 18 21 14
141.140703799735 210.146479866578 3011.87029289825 15 18 11
183.723722399168 209.638179741427 3037.16303201526 12 15 8
157.330392399363 208.515171604029 3004.46529864891 0 1 0
-98.7614846673295 234.506145972422 3222.29081332685 17 20 13
-149.802558525071 231.498329472531 3146.12417920755 24 25 19
-142.403497064911 230.717758238277 3142.36272654912 19 20 14
-144.810945109213 229.737941095776 3128.57562053962 20 23 16
-120.550995174331 229.292064235338 3141.95884598779 23 26 19
-160.352977804951 227.59435395883 3090.449389261 19 22 15
-128.995405968364 227.278113722729 3110.91356589687 18 21 14
-179.055105914315 225.441956322205 3049.76882435669 25 28 21
-139.103386629538 225.270905088172 3078.66328066154 24 29 22
-157.451192940127 224.049216420812 3049.57987568839 20 25 18
-153.761251251062 223.224955400263 3042.41691369588 18 23 16
-142.909512287384 222.521729581343 3042.27933552606 18 23 16
-132.02965885713 221.814657658552 3042.11741446034 22 25 18
-118.235231849468 221.149258655801 3044.72273218448 21 24 17
-97.160000133083 220.588812060921 3054.25007441454 21 24 17
-113.009959703067 219.46474937712 3028.29442226968 22 25 18
-103.512391190126 218.7265118024 3026.68425743745 23 26 19
-86.6971148793332 218.088226897684 3031.96416427576 22 25 18
-91.7767691781135 217.14194442009 3016.52284004376 23 26 19
-80.0388911164065 216.427464530634 3016.94054706453 24 27 20
-71.212838062162 215.670858963065 3014.58895145781 26 29 22
-54.9909865345106 215.003707930126 3019.0601270672 25 28 21
-56.4742664653535 214.115670027845 3007.11793834737 23 26 19
-70.6156338665052 213.08695698032 2983.65086821627 24 27 20
-58.0782011992049 212.373100311623 2984.69914486717 22 25 18
-10.4318986451641 212.032751781085 3017.51255984 18 21 14
-7.45371543128126 211.194988147925 3009.64333112697 18 21 14
3.01045925806909 210.434498935537 3008.51877904066 19 22 15
8.98397088641811 209.627443277737 3003.34655153777 19 22 15
30.045212226101 208.959333698804 3011.56345651692 21 24 17
19.4149942588413 208.000267739536 2991.66931552313 25 28 21
32.2083466633885 207.251534255655 2992.49600334147 26 29 22
99.799405780189 206.937996056797 3041.10613755618 25 28 21
101.372411819411 206.072018966116 3031.80817197579 24 27 20
117.448746209762 205.315082543706 3035.08279345811 24 27 20
119.009598262571 204.450700816481 3025.79566734947 20 23 14
131.307426354774 203.659808516862 3025.72854070596 18 21 14
138.241166991345 202.8315097597 3021.04744673454 12 15 8
170.715871642817 201.27377005371 3027.31785389287 9 12 5
-102.205737805479 225.321372809625 3208.13193549416 24 27 20
-165.018512973882 223.303973160608 3131.5748065885 23 24 18
-163.951826455052 222.418625249322 3121.39255098718 22 23 17
-132.077749096419 222.040110138788 3142.7330336492 20 23 16
-148.551483057837 220.871539754569 3114.67148034467 21 24 17
-128.500192580658 220.286274092682 3123.76320920796 23 26 19
-126.042350359364 219.424990917599 3115.02155475892 24 27 20
-109.424309045289 218.7729306079 3120.47281703623 19 22 15
-165.279100545037 217.088160901199 3053.76287513652 15 20 13
-162.298943823819 216.262273414136 3045.89185895603 10 15 8
-145.031320877032 215.628413652595 3052.10324841541 9 14 7
-128.415848191221 214.976515862545 3057.55673596203 14 19 12
-121.090937443764 214.200196515885 3053.85952483928 20 23 16
-109.429974227772 213.474770098831 3054.34428316812 21 24 17
-97.0136171830647 212.753332030974 3055.49723402795 23 26 19
-110.678913100424 211.735284831331 3031.61746651469 22 25 18
-103.356749677823 210.959192980885 3027.9229506358 21 24 17
-88.0015010716466 210.265077694527 3031.82215600386 22 25 18
-93.0802927813503 209.360244057325 3016.37950003253 22 25 18
-82.8133647554266 208.610658117274 3015.42583806589 24 27 20
-63.6932683091649 207.938410835505 3022.67870816602 24 27 20
-45.2380860917092 207.249826014154 3029.18441281105 19 22 15
-48.910231778359 206.367030633926 3015.16926061883 18 21 14
-63.0235607860894 205.409122354674 2991.67742978766 18 21 14
-53.4413271278815 204.645716723695 2989.99373020756 19 22 15
-35.6330701577656 203.938270441009 2995.73700956856 22 25 18
-4.29465114847671 203.313021434974 3013.57295177578 23 26 19
3.92825332099633 202.520931826262 3010.42109579278 21 24 17
39.9932389766273 201.893793988721 3032.1005612911 18 21 14
33.230049998008 201.003851667548 3015.47121473741 20 23 16
36.2277730550149 200.174741374666 3007.58499406613 26 29 22
48.3080029218716 199.391976109414 3007.70641496262 25 28 21
78.6694200056646 198.686318733543 3023.74315916064 21 24 17
98.4868865729194 197.919425701017 3030.39220681706 20 23 16
129.844149998643 197.185284481248 3046.88926064336 22 25 18
137.573049341239 196.353526343522 3042.84225732875 16 19 12
137.623495753204 195.497919066755 3032.21735996423 17 20 13
156.134954135062 194.69509038209 3037.35176746573 14 17 10
175.483505462969 193.885262214053 3043.08394265086 22 25 18
-162.283993829167 217.240775324626 3158.35793800366 16 18 13
-146.557282530667 216.564993099341 3163.25832537761 32 35 28
-203.907548183369 214.908941884975 3092.55133509553 25 26 18
-145.27585927809 213.916508603121 3130.40436250967 20 23 14
-116.105378570394 213.388255639783 3148.79544535965 23 26 17
-123.446463965331 212.417787005459 3130.02066695769 24 27 20
-123.091346768018 211.544529189342 3119.13181484819 22 25 18
-123.478697215016 210.668145933303 3107.56293000168 17 20 13
-158.738521728878 209.438077706924 3061.37704836736 13 18 11
-141.477560151922 208.761458022952 3067.59448856078 9 14 8
-136.306832274626 207.960980895176 3061.79475908952 9 14 8
-116.799306069665 207.290903001344 3070.0350767062 11 16 10
-96.4952319972516 206.616557327448 3078.908286182 19 22 15
-145.344105993762 205.361433747019 3020.68041128432 23 26 19
-123.627986283829 204.70296287485 3030.97616892578 24 27 20
-103.997887316206 204.016220720641 3039.11035630806 23 26 19
-111.930127486499 203.125084948264 3020.84743891979 21 24 17
-109.729299216125 202.312116674488 3012.32855013135 20 23 16
-98.0409704015184 201.561141084432 3012.78943975866 21 24 17
-76.7846534594736 200.861350087127 3022.16104738265 22 25 18
-56.9141091549783 200.142005965789 3030.08704341032 22 25 18
-45.0804102415012 199.371322163839 3030.42206325738 18 21 14
-47.2684183428433 198.530901269835 3017.76711834258 17 20 13
-56.9198976552361 197.665014139274 2998.34732644723 19 22 15
-42.1135670962731 196.90614450697 3001.39945755511 19 22 15
-20.5465157192122 196.164220363488 3010.50169798605 21 24 17
-7.86871621059548 195.382752236686 3011.42875177409 21 24 17
16.8440044519418 194.629320307955 3023.09827665036 20 23 16
52.185883621616 193.887080641519 3044.0816540096 17 20 13
44.7069832467468 193.037635176265 3026.74911695625 19 22 15
53.0309376885478 192.224035783297 3023.50981671396 25 28 21
55.3010622746935 191.401273284088 3014.9306142718 25 28 21
62.1109445184906 190.585436231115 3010.35710758212 20 23 16
81.8816715075559 189.77591094645 3017.0466268562 19 22 15
133.060772954772 188.961498731696 3050.77120811695 20 23 16
182.181455802537 188.115049615615 3082.31000423763 27 30 23
150.082456653882 187.283555151973 3043.96897239214 9 12 5
137.808643110712 186.461405799953 3022.85198579513 2 5 0
-159.913234637575 207.5914988118 3139.1619899599 24 25 17
-156.03170454721 206.767247231729 3131.83297135225 24 25 17
-117.841876001282 206.237948803773 3159.61032139743 21 24 15
-125.125075070223 205.312202831593 3140.78508103207 18 21 12
-121.214099381618 204.483923750177 3133.43088247717 17 20 13
-124.382203797541 203.605832281877 3118.97882911659 19 22 15
-131.856333055739 202.705737409198 3100.3189085894 15 18 11
-118.087801898535 201.954195215666 3102.94691387513 11 16 10
-115.435795189239 200.291443466116 3083.45544561904 10 15 9
-106.623636291763 199.505122832947 3081.11608513177 12 17 11
-126.553172281807 198.577045162935 3050.75488226279 14 17 10
-130.76951911282 197.739679565065 3035.88785350525 22 25 18
-116.244872199076 196.986477277044 3039.18409322891 24 27 20
-122.699614927452 196.149588112886 3022.28706143738 24 27 20
-119.044830326764 195.355543316616 3015.1543755552 21 24 17
-113.215479418223 194.569554484855 3010.10696081641 21 24 17
-100.074302620159 193.801931144554 3011.95556000932 19 22 15
-79.5597057654502 193.044370830377 3020.64684105549 20 23 16
-64.1113401943025 192.266896200704 3024.46587877358 20 23 16
-58.9343351351466 191.468352808017 3018.66069611252 17 20 13
-72.9888258141798 190.651712367902 2995.11663705499 16 19 12
-60.4598527619773 189.86610039729 2996.17271093452 15 18 11
-51.6127950779897 189.074767360845 2993.80313489506 16 19 12
-18.8899822621309 188.277819791584 3013.08712309668 18 21 14
-37.7239480270495 186.699368238275 2975.16394469941 17 20 13
11.7464731009487 185.853579180683 3009.04612754841 17 20 13
40.3465255502615 185.009856002453 3023.96356719944 19 22 15
35.8097077768442 184.215323079624 3009.37402457008 23 26 19
52.4365655953973 183.379119391385 3013.49526213479 24 27 20
64.5600316980337 182.547564719649 3013.57984030103 21 24 17
85.8595695951072 181.683844191386 3021.59147265225 19 22 15
131.690562895131 180.726068368596 3050.68892334906 18 21 14
162.411043464989 179.797152191658 3066.41590103991 11 14 7
81.7500199485677 178.520628630642 2976.20974185372 13 16 9
-155.62332125304 199.707931622601 3144.75831067251 23 24 16
-152.424881164174 198.886587136645 3136.6980710124 24 25 17
-145.04195495935 198.087078725567 3132.95104158596 19 22 13
-130.628657647189 197.316363483155 3136.34358998327 15 18 9
-125.322848107596 196.503854557979 3130.42685834619 16 19 12
-124.966487009555 195.674947106762 3119.53664071174 18 21 14
-128.186016167224 194.839772675339 3105.12888091981 17 20 13
-157.038096219265 193.944322699917 3065.29730288954 12 17 11
-148.326144823722 193.16084958828 3063.04477739411 11 16 10
-108.869492418402 192.432080315943 3091.04867911304 12 17 11
-100.037559857542 191.632407987717 3088.69226660028 13 18 12
-113.470595966987 190.806780253111 3064.6099442801 16 19 12
-127.736060111781 189.995697298018 3039.9257621368 21 24 17
-108.866604154713 189.210065022051 3047.39629058283 22 25 18
-113.120588977207 188.416549164158 3032.56159987798 21 24 17
-109.436396941064 187.627137689756 3025.40339549041 16 19 12
-105.765273375952 186.839474001717 3018.25650669072 15 18 11
-97.7209135068691 186.048209336795 3015.25939638493 17 20 13
-79.4014144529696 185.238997746901 3021.88348416935 16 19 12
-78.6569259376577 184.455188328927 3011.97983118699 17 20 13
-84.5771147712475 183.690868962035 2995.94227293854 17 20 13
-56.5571535583924 182.843500465544 3011.3625221371 16 19 12
-66.2225399294138 182.095743732773 2991.95433401427 14 17 10
-26.1686497815714 181.188652743787 3018.11848297137 15 18 11
-38.8525674276501 180.457131023733 2996.03278468712 17 20 13
-57.6197416024362 179.764393393122 2968.63269417206 19 22 15
-52.538154022157 178.9817776043 2962.91011005842 23 26 19
-28.672045983372 178.108344719 2973.99062575107 24 27 20
25.4370529291217 177.064341169541 3011.79409603488 25 28 21
40.5117432263555 176.204104116622 3014.61397146209 23 26 19
111.927787561483 173.412954189191 3045.36840786756 19 22 15
138.723079104908 172.437556537455 3057.88085379183 16 19 12
148.777409656911 171.570423904848 3055.78864301812 3 5 0
-138.809819759617 191.805889323909 3163.32069591001 25 26 18
-136.257195838438 190.987908778747 3154.49661015267 21 22 14
-95.9239486834393 190.201863568323 3184.38794409977 14 17 8
-142.104289772045 188.55126004213 3114.58626140105 17 20 13
-122.020099926698 187.742584371449 3123.65092290182 18 21 14
-135.850437575851 186.950220935637 3098.58947968136 18 21 14
-148.376038636941 186.171754844347 3075.04360605087 13 18 12
-146.049477702226 185.384180646475 3066.41526017575 12 17 11
-122.311236857498 184.557454332336 3078.92987668682 13 18 12
-105.635844521213 183.733737017892 3084.33222760054 14 19 13
-101.833045354575 182.936969132805 3077.07126981941 17 20 13
-118.219709644384 182.204406809732 3050.25500114266 19 22 15
-125.340293735057 181.456504382273 3032.610924972 22 25 18
-111.519040915323 180.637912021497 3035.19398449735 20 23 16
-98.380253249486 179.816392390119 3037.04500368635 16 19 12
-82.2859377280278 178.976083598642 3041.62784140313 16 19 12
-71.9817314996543 178.157043568865 3040.6423191427 16 19 12
-77.0450598584769 177.416502004624 3025.18519591262 15 18 11
-85.8455208072746 176.705195335931 3006.35037051175 17 20 13
-90.306830174951 175.978401748497 2991.69494308043 17 20 13
-54.1772815911634 174.999819558573 3014.64430332133 16 19 12
-23.0683637488061 174.033660956515 3032.68137154193 16 19 12
-36.4114776898301 173.365229738275 3009.84335268092 16 19 12
-28.9956491847247 172.555889808446 3006.06786935665 17 20 13
-51.4639641432177 171.97861730505 2975.25800699171 19 22 15
-53.1077075586754 171.251594913244 2963.45385435727 24 27 20
-25.4893663910871 170.281436270238 2977.89973689623 25 28 21
11.2880209903539 169.215521421003 3000.28784236989 26 29 22
62.5867686525297 167.995391649879 3035.23461188747 20 23 16
67.1635762727352 167.189110006458 3028.62643119256 19 22 15
98.3164055984815 166.122150169178 3045.30283207454 20 23 16
151.230761028054 163.261592738213 3059.00975114706 17 19 14
-124.632836543988 184.581610955173 3190.7804742536 22 24 19
-87.2208534255363 183.686208472427 3217.91112238139 16 19 12
-71.2551926682452 182.825052354815 3222.60560489791 17 20 13
-116.817447653143 182.148399234968 3164.17187240793 18 21 14
-150.429319784474 180.691059508924 3107.29598231618 17 20 13
-116.95771881063 179.773955142003 3129.90184565457 19 22 15
-122.269416429996 179.016377722957 3113.33684251079 13 16 9
-128.357764668662 178.271317042631 3096.12133288142 12 15 8
-145.911182197632 177.597282540281 3067.66911465673 14 17 10
-140.031534971178 176.805573615783 3062.57814335767 15 18 11
-117.678149643088 175.912783681098 3073.64665475993 15 18 11
-102.414183956447 175.054107913339 3077.62604467149 15 18 11
-136.083948868946 174.525114550605 3034.02787188604 19 22 15
-128.801308316721 173.728589365056 3030.36742879522 19 22 15
-109.918989750384 172.842963558154 3037.82777222887 19 22 15
-93.1433544162434 171.964838732032 3043.14359149519 20 23 16
-71.9349811296874 171.04216326681 3052.55819790561 18 21 14
-57.2173006593215 170.165002804208 3055.68761624645 18 21 14
-82.7439490302493 168.907766090954 3010.32958968981 14 17 10
-64.3507253237448 167.995954613204 3016.89044251764 14 17 10
-43.6719276242097 167.0525401653 3025.44060912889 16 19 12
-28.0984048768285 166.152220795006 3029.15196466059 16 19 12
-23.6171843253494 165.364753630335 3022.62619528285 16 19 12
-34.045424423812 164.743910060103 3002.5551166335 13 16 9
-28.1292489534049 163.947336795425 2997.43251651346 15 18 11
-19.2175083495334 163.115600629271 2995.00713927562 21 24 17
12.9965022204193 161.999721381517 3013.41093048558 20 23 16
55.8981326913628 160.733404033811 3041.07895095586 14 17 10
91.4470182723446 159.536680312505 3061.8861689985 12 15 8
116.552176480709 158.457539751236 3073.21766474785 11 14 7
111.383268209938 157.772860607796 3057.8516894326 10 13 6
118.334937888514 156.928943795587 3053.15547243424 12 15 8
131.397207375815 155.998591945272 3053.74994152954 13 16 9
-120.514952589761 175.689156907279 3184.62214228156 18 21 14
-113.019529013493 174.858680870084 3180.7778080106 19 22 15
-111.813099551491 174.071344936411 3170.47379705739 19 22 15
-191.329783268432 173.884086507033 3077.94547809689 17 20 13
-124.26690983601 172.623228901584 3134.95974474127 18 21 14
-129.543962893943 171.905241026194 3118.36445736959 18 21 14
-116.483158215785 171.039833269744 3120.28335161322 14 17 10
-118.999757320158 170.307385606899 3106.58924779048 13 16 9
-125.126240214832 169.614515175434 3089.40676815694 14 17 10
-140.605762324428 169.020135327831 3063.12629667912 15 18 11
-132.439014391503 167.474602921786 3049.44127791051 15 18 11
-125.131233749868 166.669537400374 3045.75941585497 19 22 15
-134.427743696262 166.046351020649 3026.03038654398 19 22 15
-121.357898235839 165.179832400632 3027.94145201508 19 22 15
-88.6362215953511 164.078292395196 3048.5516596194 19 22 15
-67.4176452597153 163.09689016401 3057.95780323134 16 19 12
-57.8012395619734 162.248919522059 3056.24503349966 18 21 14
-64.2802483643012 161.60362628094 3039.36779244031 16 19 12
-67.8916958331963 160.929420192815 3025.29867925717 13 16 9
-56.0882227581883 160.054918008478 3025.66088518343 13 16 9
-50.1622456202888 159.257421952175 3020.52979558557 14 17 10
-47.2001871856249 158.501810917393 3012.67369493456 13 16 9
-24.9430603089711 157.469967108067 3022.50327719712 14 17 10
13.0448313336999 156.195303473016 3046.49038507087 13 16 9
12.3703894530753 155.482894132759 3035.16927013421 14 17 10
52.1004530723772 154.152300902798 3060.29357461637 17 20 13
69.4847169559019 153.151558238089 3065.08298372154 14 17 10
80.9051215484349 152.239442091855 3064.45387622526 12 15 8
97.6387494707511 151.237022802644 3068.48364938447 10 13 6
118.971618656082 150.151145043983 3076.46783189446 10 13 6
132.03447372119 149.196529884208 3077.06226618812 10 13 6
159.030778531818 147.259409484132 3078.82000067327 11 14 7
179.090931034156 146.166356031739 3085.26050172131 15 18 9
-116.119107271534 168.327867443534 3202.03355799429 26 28 23
-126.672940441713 167.672173447576 3179.42472394918 23 26 19
-108.036622040704 166.721055819065 3187.09839344428 21 24 17
-121.500222500773 166.111016030222 3161.71790445805 18 21 14
-147.706351959011 165.658890737562 3123.56021131471 19 22 15
-145.257176201076 164.896825194262 3114.82542546825 16 19 12
-95.5539531823311 163.570806400284 3153.8026169653 14 17 10
-134.760701251178 163.3113957046 3103.09150521619 11 14 7
-114.615680951351 162.330391136703 3112.10455947109 11 14 7
-105.065626919307 161.477776984406 3110.44932920311 14 17 10
-116.196338283935 160.899934862185 3088.3399917427 16 19 12
-107.38193856955 160.059880889556 3085.99903725225 15 18 11
-107.884718266958 159.349278094964 3074.52944033745 16 19 12
-112.7453267661 158.706147489868 3058.89598129286 19 22 15
-118.390320765533 158.082107951918 3042.61899277309 19 22 15
-134.963127107861 157.631264738544 3015.9622345572 19 22 15
-124.796493029642 156.782341274071 3015.09614466969 17 20 13
-84.0214483476429 155.447154162538 3043.28453888817 14 17 10
-68.6090033793474 154.497800407805 3047.13582406491 16 19 12
-52.411721207605 153.52934154045 3051.63024730048 16 19 12
-51.5793746632318 152.812212791482 3041.65001251392 16 19 12
-50.7766584251019 152.099094986503 3031.69543338781 14 17 10
-52.9573889563548 151.441507129414 3019.0329959788 13 16 9
-38.1522473586022 150.487480999259 3022.08710670822 11 14 7
-0.278769224861364 149.110489390784 3046.17404397051 13 16 9
22.1331217959566 147.997834745097 3055.87001024263 13 16 9
72.2614623941826 146.355678007044 3090.51068750549 14 17 10
81.4506373491262 145.465552975193 3087.84522630463 15 18 11
85.3997440035865 144.675146627999 3080.45741734191 9 12 5
77.2903892027292 144.123573430065 3062.34612670917 8 11 4
131.229181665799 141.623344129139 3088.3960341932 9 12 5
186.828082900499 139.76418594401 3126.23678234848 9 12 5
204.640750888564 138.66519528425 3130.65551486688 9 12 5
191.696327735748 136.776272622086 3086.30609366616 17 20 11
-117.411030882236 160.22011515323 3201.88259219003 22 24 19
-89.0358806623919 159.08154325913 3219.64371057142 22 25 18
-118.394669098818 158.761618512104 3177.60074823647 20 23 16
-164.41876591109 158.004832856645 3107.65785104526 17 20 13
-92.3852097113622 156.183324568473 3169.63093842687 14 17 10
-98.2645148148862 155.551161419721 3152.23382753233 11 14 7
-119.778322309515 155.180612633512 3119.27205879216 9 12 5
-101.011009476424 154.162827337604 3126.83293822543 9 12 5
-98.5364819305477 153.411486381563 3118.07610957751 14 17 10
-131.764024787666 153.277461483426 3074.09208763569 16 19 12
-138.022730161136 152.696501286053 3057.0234847961 16 19 12
-112.771812606035 151.560026115629 3070.87553895426 18 21 14
-116.202103113695 150.933475767551 3056.64910171083 20 23 16
-98.0313063972953 149.912409953601 3063.40344797686 18 21 14
-69.6568371529827 148.690689811162 3079.842119002 17 20 13
-103.587391156449 148.651404115532 3036.46680817776 16 19 12
-100.616641946782 147.917260589573 3028.60303580968 13 16 9
-68.4606299139445 146.605499180182 3048.38162662986 12 15 8
-47.1391560756746 145.495623068507 3057.69941779161 13 16 9
-30.1374231636609 144.464595920656 3062.82026097106 14 17 10
-45.4684114722106 144.099845289791 3037.73345380363 14 17 10
-56.489829388322 143.657627125953 3016.85176980835 13 16 9
-35.0323334203839 142.529560227156 3026.05146806496 12 15 8
11.7513714842259 140.840774429113 3058.29800446125 12 15 8
89.0771122251182 137.053832780473 3095.8467262 13 16 9
123.07261983111 135.57871054792 3115.35527954134 11 14 7
146.682070609758 134.328825198944 3125.33742785603 8 11 4
177.532592530911 132.18939080601 3130.37250470633 10 13 6
216.552214893808 130.540862084248 3153.4677971348 10 13 6
232.922202652606 129.427867401389 3156.49020595383 10 13 6
218.829131207055 129.064333566379 3132.97696560416 9 12 5
-88.910054704249 151.591423749389 3232.81674411122 18 21 14
-93.1158404024819 150.94282307137 3216.61576205396 17 20 13
-100.868594375993 150.366631987938 3196.87197580587 17 20 13
-147.150580266547 150.520748849855 3137.73341567997 14 17 10
-125.736599445823 149.421366367998 3148.29422058802 12 15 8
-128.139483372498 148.773299339473 3134.50069343187 10 13 6
-108.731146761932 147.700933869165 3142.82958906886 10 13 6
-86.4162657098078 146.561461693282 3153.93307201819 10 13 6
-90.9612181449537 145.958795371377 3138.02576030724 11 14 7
-95.5683233952729 145.364562631554 3122.17257953829 16 19 12
-140.90281156042 145.634355555236 3066.18213762174 17 20 13
-150.044641112266 145.164439138035 3046.31836357255 17 20 13
-153.533270104623 144.581751882588 3032.14220615682 18 21 14
-118.218435998787 143.15103905947 3055.80032302526 16 19 12
-95.0036961682557 141.971782130582 3067.44738470458 12 15 8
-70.2435864052369 140.746621181037 3080.40215343198 10 13 6
-68.4403059379006 139.371982366472 3060.32117886582 10 13 6
-59.5545753154729 138.501251577438 3057.91859809995 9 12 5
-46.8739094438275 136.878030322123 3048.2619040869 11 14 7
5.66714379224509 134.264827945874 3075.52401446845 11 14 7
44.3178641651674 132.628816749263 3100.26254278273 12 15 8
51.9766815091045 131.761469744853 3096.27651267216 12 15 8
140.850121168645 127.419989731249 3143.67051274903 11 14 7
167.477946683574 126.02521778571 3156.33082505556 12 15 8
168.632910250714 125.304342503711 3146.07099077667 9 12 5
154.668473751472 124.998077175836 3122.44588679395 9 12 5
153.453371390085 124.353176356559 3110.26968340079 10 13 6
173.436306045158 123.123757784484 3116.77799558199 10 13 6
237.608464490729 120.646064228127 3161.74881780669 11 14 7
215.14584318107 120.59246848341 3130.93094262605 11 14 7
188.70270394812 120.669489721549 3096.9453436201 19 22 13
-132.461976391591 144.290806190559 3188.56389946276 17 20 11
-143.044601634253 143.837626483728 3165.97870824415 15 18 11
-143.971776974256 143.180550786268 3153.55302704565 16 19 12
-139.350049372214 142.402749485985 3146.90541252167 14 17 10
-134.737093174126 141.626181844327 3140.26539249464 11 14 7
-137.162117583744 141.01435553019 3126.49113596301 10 13 6
-112.14238535095 139.760826104598 3140.54432526436 11 14 7
-125.900070104082 139.422214465987 3115.41665533165 12 15 8
-116.372815535781 138.532273525707 3113.78174356978 13 16 9
-122.471275784371 138.023748550456 3096.57378113846 17 20 13
-122.934570533429 137.382892092065 3085.06919372882 18 21 14
-152.761750136231 137.485524314663 3044.75304105915 16 19 12
-168.44853852451 137.250213563213 3018.65020345132 18 21 14
-154.045277144293 136.25203791294 3022.05292430069 14 17 10
-110.014267406151 134.475044283022 3054.03905487412 9 12 5
-83.8534119799874 133.146760610198 3068.42725248091 8 11 4
-41.6163390381263 131.376612183886 3097.99811007177 10 13 6
-88.5962457619076 131.363385737663 3031.52535114904 11 14 7
-74.6537173404289 130.349345211649 3034.00456326013 11 14 7
-27.5047066566882 127.763540113484 3056.67651607108 12 15 8
27.206928989342 125.567155361449 3096.6117353131 12 15 8
51.1119400196045 124.230006724787 3107.66185278715 12 15 8
72.6787115130429 121.646197329349 3094.27925887574 10 13 6
152.943828191037 118.593930031713 3155.74266764607 12 15 8
175.850312187787 117.235018644643 3165.01154815783 11 14 7
173.270086960685 116.645239042683 3151.37135137725 11 14 7
138.959939106012 117.038663206033 3109.64550508963 10 13 6
176.603661980546 114.559693531635 3120.70516507936 10 13 6
200.468225086168 113.150379550463 3130.46723147187 13 16 9
185.539442853332 112.970372185975 3106.35356605977 14 17 10
-182.221220138753 137.487243965909 3137.77764864476 24 27 16
-169.331912901364 136.508388750317 3139.84592102707 22 25 16
-158.491619131054 135.578852361091 3139.71972931587 12 15 8
-127.362918073947 134.108489276519 3160.38975522778 9 12 5
-135.324730910302 133.670983624608 3140.8262691256 10 13 6
-135.639124522532 133.034855811015 3129.19290861959 10 13 6
-139.515331896323 132.500606415503 3114.02878905491 8 11 4
-133.553654082049 131.699456239689 3108.86678007638 12 15 8
-136.099384369788 131.13729082372 3095.19682186418 13 16 9
-100.303326320744 129.492265326932 3119.7624942672 14 17 10
-107.116102446772 129.051454680298 3101.84995542002 14 17 10
-141.176407953365 129.408518246173 3057.26096014938 13 16 9
-144.631071249604 128.89336347272 3043.05492583179 14 17 10
-135.194660239058 128.002448188414 3041.49844224769 14 17 10
-101.937312985863 126.39747219546 3062.9712035402 10 13 6
-72.1411046923106 124.880857504099 3080.82635040861 10 13 6
-79.9281779856793 124.495961247944 3062.43433122548 12 15 8
-100.887233517956 124.524659541245 3031.63598914522 13 16 9
-83.2800775557825 122.762847193723 3026.97336878136 12 15 8
-68.5844934721964 121.693174811599 3030.12350184974 11 14 7
-2.34742487609374 118.972805720625 3081.24636102643 11 14 7
16.4773048777165 117.123267244973 3076.85257054461 14 17 10
44.0894721192731 115.59930895328 3091.3073928827 13 16 9
97.4301483053996 112.578622484655 3117.8790818184 10 13 6
150.071815064134 110.178458535564 3154.31637899224 10 13 6
109.46960433112 110.286257614344 3095.54892823464 11 14 7
127.783358176533 109.032458396654 3100.85730015173 11 14 7
132.551669403696 108.242383254579 3094.08303137861 11 14 7
148.683323385421 107.055844263312 3097.31248921799 10 13 6
164.867186194106 105.862352831022 3100.4967408424 10 13 6
175.767284136623 104.851379196263 3098.9959815488 11 14 7
-178.940969692357 128.884293105119 3131.02018688239 20 23 14
-128.435970228952 126.744434890126 3171.95456087209 15 18 11
-137.034201137447 126.374973894844 3151.6186638728 9 12 5
-121.902952370621 125.285612355992 3155.71457915876 12 15 8
-122.17444525714 124.668724485067 3144.04391037642 11 14 7
-102.050480729993 123.416873853763 3153.07696951557 8 11 4
-101.631083393644 122.779877193988 3142.13055700801 11 14 7
-79.2752489549913 121.446098607355 3153.19980329556 11 14 7
-87.3882031618063 121.084503045118 3133.7668249526 11 14 7
-106.276178182053 121.081750787883 3103.82044400584 11 14 7
-120.110479925466 120.327934126051 3068.175153309 11 14 7
-101.975313963032 119.126025241626 3074.96155389782 13 16 9
-72.9553067762105 117.550685226809 3092.16658183512 16 19 12
-74.1746452843755 116.989222646435 3079.99319386792 16 19 12
-95.0146061092907 117.103913340565 3049.09107089109 14 17 10
-93.4641690299611 116.460840239461 3039.81122221608 13 16 9
-88.292838241848 115.694330948274 3034.01075006792 14 17 10
-86.0516037322214 115.031183491113 3025.45586889691 16 19 12
-64.0311498723318 113.670733858878 3035.49239803129 14 17 10
-58.1002019313175 112.874953530941 3030.35698894173 13 16 9
-24.8837137420317 111.099391978108 3050.54300878018 13 16 9
21.055410446321 108.84871691747 3082.20163831281 17 20 13
82.3637654184681 105.405785269363 3116.42732145352 15 18 11
147.520624438945 102.388401271868 3164.51826363194 12 15 8
118.787215905649 102.838274365982 3127.22194826082 11 14 7
92.1091628880575 103.229789109882 3092.11434316521 11 14 7
116.374174748932 101.713719049594 3102.85359439457 9 12 5
119.627683116401 100.987881503427 3094.7446906778 10 13 6
144.030041813224 99.4535056243598 3105.36501708974 10 13 6
151.096075619009 98.5785780118211 3100.56956202947 9 12 5
174.885773129428 97.0540569365116 3110.3972636692 10 13 6
-160.664817848228 119.191811856835 3128.47595192991 16 19 12
-147.004553458185 118.124906988922 3131.20015498516 15 18 11
-119.25308924984 116.561735112955 3148.18101948437 15 18 11
-101.940435649404 115.353502464417 3154.35710120825 12 15 8
-82.4431863004396 114.061387908538 3162.61035695848 10 13 6
-70.662069895556 113.037754100611 3162.99259107813 10 13 6
-113.56174474294 113.982797223093 3108.85753143177 10 13 6
-69.8066571844369 111.806504544917 3141.08540114398 9 12 5
-45.13045841896 110.307836612244 3154.11467088116 9 12 5
-98.2452249310146 111.089803592485 3079.72082283202 11 14 7
-81.4737690048792 109.88511410241 3085.04238068864 16 19 12
-89.2196165920049 109.599747435009 3066.61398474985 17 20 13
-92.694570664023 109.159705175269 3052.425050446 17 20 13
-76.5946335544307 107.975659721495 3057.00555866526 17 20 13
-96.8907188227122 108.18926021138 3026.95465912828 15 18 11
-78.586869764337 106.918784169304 3033.59530033149 16 19 12
-52.1492819938691 105.323909928115 3047.74505606912 14 17 10
-31.4790581445501 103.94523594681 3056.30578995 14 17 10
-12.9395410341617 102.643373963294 3062.74237256323 15 18 11
17.4979551051475 100.860647724278 3080.04341661436 18 21 14
28.0530559024585 99.8633514402909 3078.8415901177 17 20 13
156.835837623748 94.0880498064232 3185.61216779353 15 18 11
168.509872625955 93.0105288385781 3184.76430153192 13 16 9
129.379944737723 94.0088501677309 3137.94823945244 11 14 7
104.240917985685 94.4546661005259 3104.15350586964 11 14 7
119.516182471101 93.2427220813704 3106.8018155083 9 12 5
144.637546936058 91.6161244109368 3118.12281224824 10 13 6
121.493904606653 92.0035026432397 3086.56876855713 10 13 6
193.256495672374 87.8154124720895 3127.61861066475 12 15 8
-119.038597873269 110.86988637598 3195.67285745683 17 20 11
-160.245585150426 111.843974520943 3141.39375731004 19 22 15
-151.790166560069 110.373110582783 3127.45805345295 13 16 9
-138.099963759441 109.272260981626 3130.1562122615 12 15 8
-153.940913713197 109.321165332401 3102.8618894307 14 17 10
-118.354009401878 107.358553812685 3127.61121637434 13 16 9
-127.926420456991 107.169284937379 3106.79524780309 12 15 8
-87.1543954225076 104.979893307816 3136.31537091011 11 14 7
-62.5670620232053 103.421913492425 3149.42204779685 10 13 6
-50.734094027066 102.369902417505 3149.75952416397 9 12 5
-101.703779149853 103.315705975142 3077.47517792189 9 12 5
-71.9720607061896 101.536619129614 3095.38792128736 9 12 5
-104.256746087211 102.319395482132 3053.22727172964 12 15 8
-80.2298760653177 100.770188097592 3065.49640465354 18 21 14
-89.5337862968386 100.612670778451 3045.7710874014 20 23 16
-77.7881917525991 99.5730103085087 3046.18421344766 24 27 20
-57.2395970448381 98.1559132351365 3054.85030114718 22 25 18
-54.2006461905755 97.4810120670613 3046.92734758314 17 20 13
-12.2233650522388 95.1310135325372 3075.40387263926 16 19 12
3.41987180201153 93.9036043707603 3079.05692399869 16 19 12
12.4635060241318 92.9590284065799 3076.51796102576 15 18 11
156.201576256015 85.5290400873809 3186.21736751538 12 15 8
182.034398191011 83.8054768651517 3198.24560770428 11 14 7
142.208418141821 84.9982573360765 3150.70831807982 9 12 5
126.856490065325 85.1173439157119 3125.63620937192 9 12 5
148.955702471674 83.5601125622012 3134.2824899215 10 13 6
124.424790317844 84.1072323777401 3101.28328597843 12 15 8
100.480217286136 84.6426864127313 3069.09921730914 12 15 8
148.339908753486 81.9063898874267 3100.41962985837 12 15 8
-190.07915963347 106.253376630407 3134.20408549104 25 29 15
-173.746116345269 105.0243897391 3139.90578878728 18 21 12
-160.830542826138 103.932955713637 3141.95202475256 17 20 13
-147.17637080579 102.806753083737 3144.68189253459 15 18 11
-147.475122471886 102.268379197456 3133.03402563089 13 16 9
-140.090050181489 101.405562802729 3129.28554635226 14 17 10
-131.289450640193 100.481342706054 3126.95709836645 15 18 11
-132.357546987157 99.9823044871411 3114.65253438323 15 18 11
-113.640650806468 98.6268513646454 3122.25898432443 15 18 11
-84.9080228064643 96.8267214694672 3139.71455077669 13 16 9
-86.6695900682477 96.3568158547337 3126.68759330977 12 15 8
-94.1912936625662 96.1461165779849 3108.0644398691 10 13 6
-93.9122996083319 95.5952729254385 3097.23916165926 10 13 6
-57.4330906860383 92.8851538476097 3110.63322198819 8 11 4
-80.0900476905504 92.8439649394912 3066.74983337065 14 17 10
-69.04308451954 91.8121089008159 3066.44517689509 15 18 11
-65.8634409457748 90.6167791594759 3047.81693428157 22 25 18
-31.3377900020999 88.4900661353451 3069.51705291796 22 25 18
-20.9017456639424 87.4763453200816 3068.41820785241 17 20 13
51.7660005041321 82.9951579281099 3113.97877777592 14 17 10
157.796081884739 76.8639781855271 3188.86160011922 12 15 8
144.886124243853 76.9280984768098 3165.64340217123 10 13 6
156.523445494672 75.8180779764865 3164.82756763538 9 12 5
140.469204082476 76.0473162493655 3139.04020448208 10 13 6
145.325085117107 75.2693203346997 3132.18964202264 9 12 5
152.431459794094 74.3821366753856 3127.35930149875 10 13 6
117.998369400395 75.5360536642553 3085.73508591637 12 15 8
102.277031625792 75.7850468470026 3060.98231607407 13 16 9
-178.213150287305 97.8468562295022 3147.79413639555 20 25 18
-168.780998838704 96.88806817495 3146.24210005698 13 16 9
-155.155541911093 95.7355802230474 3148.99671105874 15 18 11
-146.368605824273 94.8021212626688 3146.68016554812 16 19 12
-144.56230346997 94.1907044713714 3137.17865962148 18 21 14
-114.712153351265 92.2754246158171 3156.31289740341 21 24 17
-141.025647304402 92.9783764884191 3118.24077599816 21 24 17
-125.178339642313 91.7127654874634 3123.04046027416 19 22 15
-106.44233053506 90.3055566192337 3130.63099524626 17 20 13
-99.7023253183187 89.4630189100707 3126.1179109957 14 17 10
-85.1265766908638 88.2454192967594 3129.3728683335 13 16 9
-87.6399090638627 87.8455467952536 3115.67346250909 13 16 9
-107.390130704918 88.2832318500823 3085.14799127198 13 16 9
-105.74371950738 87.6942613671259 3075.78460779266 12 15 8
-102.405349355429 86.0198140286969 3046.43486232712 11 14 7
-61.6392049290657 83.5019299247635 3074.63895013589 10 13 6
-84.7801611146872 84.1492188883899 3041.75763316731 10 13 6
-54.7596384234783 82.1512504493535 3059.42147786866 15 18 11
24.3234280762374 76.6475613294896 3100.75154577351 11 14 7
84.3981179752946 73.0766661353287 3145.31077711397 8 11 4
87.7326728619585 72.385333589781 3137.13171938541 11 12 4
113.33435769553 70.5507431502044 3149.36101386737 12 13 7
154.683925710595 67.8943424029354 3175.73674868726 13 14 9
163.360888138874 66.9168927168651 3172.19254548835 12 13 8
130.106888391957 68.1227445628447 3130.86929399342 10 11 6
131.181438597096 67.5506838952034 3120.67819254338 12 14 11
120.177067538988 67.6156946542011 3099.77844656747 11 14 7
135.506474095889 66.2992864410986 3102.38050625724 11 14 7
-175.340518360151 89.7850586660102 3151.97349908393 18 23 17
-160.352847245628 88.5370774444582 3156.19488614148 16 19 12
-155.742591681141 87.8007913775359 3149.55694582506 18 21 14
-156.720307070305 87.3446242960234 3137.17376761097 20 23 16
-136.055932158131 85.8051429609825 3147.06387388366 21 24 17
-131.441031360471 85.0686130878336 3140.42190895655 22 25 18
-102.912915379403 83.1202068209447 3158.05569416131 22 25 18
-144.818047959593 84.7501149114176 3104.37745191361 20 23 16
-132.510562492718 83.6277396799797 3105.62767927894 18 21 14
-103.842545609631 81.6609421540077 3123.14001100621 16 19 12
-104.939424606292 81.2216239931399 3110.8600069926 16 19 12
-113.216766156738 81.1586424632191 3091.56757404282 16 19 12
-97.9515938635034 79.8748243217282 3095.54867307825 17 20 13
-96.2752530861772 79.2986437055106 3086.15926567766 16 19 12
-98.2243710274413 78.91542406483 3073.2943033988 15 18 11
-82.1673865168147 77.5844461393673 3077.91267679273 14 17 10
-92.1224828126603 77.6296735435448 3057.42719124619 11 14 7
-99.2641635854832 77.5323785001669 3039.79718437621 11 14 7
-34.3839635704035 73.5855516496718 3090.78077692888 15 18 11
42.8667524568778 67.4567874532875 3119.14624322173 10 13 6
50.5456976305418 66.546198094044 3115.14304780918 10 11 3
67.1188976257366 65.1471301710158 3119.31475542521 11 12 4
107.512174953736 62.4315240473066 3145.19646453726 12 13 7
122.029846790228 61.1323131624129 3147.17871157546 13 14 9
145.552285282108 59.3298310078425 3157.23985740778 12 13 8
119.000580380433 60.3109958938356 3122.01892091096 10 10 8
110.287141073958 60.3083836916881 3103.10407836693 10 12 9
110.525139696696 59.8096147080631 3092.31431043883 11 13 8
-171.779036862872 81.6596949940513 3156.87948387154 14 19 13
-160.940339967927 80.5970483257999 3156.75553878754 22 25 18
-143.121746384751 79.1577225258791 3163.81786250405 25 28 21
-117.564405797723 77.2959052158252 3178.73228991342 27 30 23
-129.652786137706 77.4628090201173 3154.8016508606 28 31 24
-103.275922251653 75.5472778970103 3170.32937690823 26 29 22
-95.0681833038751 74.6144320755934 3167.19157753176 25 28 21
-131.64287940659 74.2648091096563 3074.49909053488 18 21 14
-92.0973959724809 71.5909072268988 3102.43860371594 19 22 15
-93.2725095581119 71.1902565655118 3090.22615786634 22 25 18
-63.5368037159232 69.0492271705321 3108.13779060691 23 26 19
-93.5824723562799 70.2834512033601 3068.00367749647 24 27 20
-75.8854244599556 68.3604575774218 3063.26418902084 24 27 20
0.282187948075663 63.0710570736322 3113.73673257233 14 17 10
53.2787281025917 59.5453234893842 3152.52026368173 11 14 7
30.1800138321071 60.4078587294258 3119.6009393257 8 11 4
40.3370490346613 58.8823968346828 3106.83725872724 10 11 3
83.5337270180188 55.8884995838553 3135.58463757174 10 11 3
90.5562037782737 55.005233613109 3130.82698900124 11 12 6
104.282078597689 53.7265236329577 3132.17212125648 12 13 8
120.287510968414 52.3100462106481 3135.51246990986 11 12 7
128.859717751567 51.3311711498249 3132.05907143044 10 10 8
112.672795701645 51.8268352803498 3106.38498090881 9 11 8
115.931040134924 51.1692252756181 3098.2715301574 11 13 8
149.360636547018 48.7031395264382 3116.95373966811 15 18 11
-140.741034639069 71.4650862948903 3179.0079159234 23 26 19
-117.999584424115 69.691314165919 3191.06904719805 25 28 21
-111.88813705317 68.8716374244175 3185.77734761395 28 31 24
-160.3046482089 71.216897444508 3124.50456046861 28 31 24
-148.044487195775 70.05151183443 3125.79608434739 26 29 22
-127.646254745163 67.9549373156756 3124.01018144821 25 28 21
-168.336262445605 69.9026878815865 3071.92352441996 23 26 19
-158.04945758502 68.4184534403398 3060.37036151153 22 25 18
-118.445384191893 65.1834606921048 3077.67601054944 25 28 21
-81.4019398244095 62.0797491722141 3091.90683909775 25 28 21
-46.2451374632904 59.0701058094705 3103.80186488154 23 26 19
-29.7523361813701 57.1813274982591 3097.45939677247 14 17 10
31.4355569259455 52.5433647146303 3133.12080875785 10 13 6
44.9853992497218 51.2605591414681 3134.61854124402 8 11 4
47.5345387188755 50.6553719352017 3125.79609668036 9 12 5
95.0868501884665 47.2594357760685 3158.71077738849 9 12 5
88.836503933921 47.1963627078107 3141.63157347857 10 11 5
83.9997682680647 47.0501882897004 3125.9742027028 11 12 6
80.5890818769859 46.81925209611 3111.72821027729 11 12 7
100.259943102899 45.1419019500167 3118.51022583749 11 12 7
111.023243783265 44.0209812573413 3117.12874610779 9 11 8
127.813373444311 42.5174898030235 3121.11279413921 10 12 9
113.056462518902 43.0106811852449 3096.84611485533 15 17 12
-143.944664831892 64.0466459147938 3188.44930891643 26 32 22
-130.251654238012 62.7648461441258 3191.1465221841 24 27 20
-140.135605277775 62.9304751957231 3169.27501589621 26 29 22
-152.205119075322 63.2381011690135 3145.32679713692 27 30 23
-179.058274254542 64.4694560057198 3106.39573457775 28 31 24
-184.376661707687 64.3762811042591 3089.83222440851 28 31 24
-158.127212411191 62.3190532797368 3105.47161897177 27 30 23
-179.701660284727 63.24637026161 3072.55399922518 26 29 22
-169.617968869932 62.197525801992 3071.76077870558 26 29 22
-163.05569977256 61.3689602622785 3067.40196971117 27 30 23
-128.041961300784 58.7421919121342 3091.32880745801 28 31 24
-109.978488180297 57.1784266591329 3098.17969164819 30 33 26
-101.144725354573 56.1969804350383 3095.82318619131 30 33 26
-114.533982765446 56.6325803030628 3071.69443100034 23 26 19
-84.8693005229446 54.3203792973772 3089.66873164398 24 27 20
6.97765795184058 48.006538233027 3167.58230293569 20 23 16
-25.1351418686925 49.6422862178625 3125.26714670692 14 17 10
-31.077403078672 49.1829929232456 3097.33644841651 10 13 6
-34.4915941613011 48.9877268091818 3083.09326249015 10 13 6
41.4367942619496 43.1987611928491 3132.45281087748 9 12 5
63.846818013662 41.3061029554171 3142.15545002155 9 12 5
116.600273564227 37.4123848003013 3179.82879497186 9 12 5
126.693942743451 36.314339512954 3177.70429982852 11 12 6
99.7066247014051 37.6671339025418 3141.53525585786 11 12 6
93.3674522774886 37.6633332643915 3124.53265669492 11 12 7
99.6414521748488 36.8256504439023 3119.10018367314 11 12 7
123.870264802252 34.7909382223362 3129.8738553806 10 12 9
115.187293672212 34.9504219228488 3110.9315545874 9 11 8
125.980063121772 33.8097900491069 3109.52466094514 16 18 13
-137.635095832509 55.5634408462271 3196.26910530951 20 26 16
-173.783530562928 57.5027529514851 3146.86309381082 25 28 21
-184.485001013025 57.7937941562635 3124.37608743529 25 28 21
-169.511167531541 56.4058735008387 3128.6103748778 26 29 22
-189.417811377954 57.3118465658469 3096.8938694857 28 31 24
-139.404791547427 53.6092951573674 3136.9412098131 28 31 24
-145.355484062469 53.5976128822342 3119.6019522226 29 32 25
-150.671854318807 53.5486842047222 3103.03640695974 28 31 24
-171.606099233554 54.5454133245123 3070.88702688951 25 28 21
-149.451542249623 52.6723226933456 3082.13422233738 24 27 20
-127.913944863576 50.8344845542744 3092.59266953597 24 27 20
-119.834900804208 49.8957197223134 3089.56613748766 25 28 21
-105.792964755213 48.159410025123 3081.37683624174 16 19 12
-94.8079444327874 47.0221643371162 3081.12686629996 14 17 10
-33.305703197577 42.4483704619782 3129.7486453943 12 15 8
-25.7375716081216 41.5312874829044 3125.84185369 11 14 7
-59.3177023026268 43.0356563953995 3071.56546643962 12 15 8
-36.5456543803315 41.0815183139813 3082.27798548526 11 14 7
20.7028423287987 36.7454652042995 3125.32195567581 9 12 5
35.68890270666 35.3113051445413 3128.22236887528 8 11 4
58.0800414896543 33.3611542872511 3137.94174885417 9 12 5
73.1835584691201 31.9115876263701 3140.74077354311 12 13 7
127.542219423779 27.7256242434048 3179.67124477181 12 13 7
116.887814696691 28.0614252217821 3158.46641567004 12 13 7
118.039825275975 27.5771311985518 3148.20760779941 10 12 7
122.891757493904 26.8352616597873 3141.36054933437 11 13 8
133.717931562512 25.6739247008186 3139.92452136468 11 13 8
138.56791208178 24.9326024595779 3133.07915096052 9 11 6
129.119271333292 25.2025734804401 3113.47619120178 14 19 13
-171.178030734956 49.0010804317274 3139.36654550479 23 26 19
-188.897077406976 49.8502177067918 3109.72443743585 23 26 19
-179.516198330973 48.8175930491379 3108.2173191686 26 29 22
-164.511150520521 47.390345473156 3112.42480686963 24 27 20
-126.268140583623 44.3296903753311 3140.17246594595 28 31 24
-169.573967653287 46.9932852590476 3085.05503589929 25 28 21
-154.513200244111 45.5590805623387 3089.21395899075 23 26 19
-120.972012778622 42.8150071657932 3111.7713480204 20 23 16
-135.605468775184 43.4761640150596 3086.07331661964 20 23 16
-146.794748509173 43.9001890934628 3064.0079348329 21 24 17
-145.214825970827 43.420774021408 3054.70146954261 15 18 11
-124.302042895662 41.5621596873242 3064.37833952129 13 16 9
-89.6423795332608 38.7139913165815 3087.29024069806 12 15 8
-90.1517739535587 38.3804770421117 3075.82361794551 12 15 8
-57.434964068888 35.6584400960194 3096.44854460257 12 15 8
-44.1467959441346 34.3287781270386 3098.17338315341 13 16 9
-27.1821004116459 32.7309622740897 3103.33031627876 13 16 9
13.511619842502 29.0332132941239 3119.69452788723 13 16 9
60.0128926193917 25.2727162715546 3152.19928310085 9 12 5
101.765649012353 21.0788729561575 3157.06177120955 10 12 7
136.28399498787 18.1622267237899 3177.45007923918 11 14 7
136.005321558676 17.7996171484556 3165.78367084875 11 14 7
133.451641450032 17.6073315958421 3152.1178906885 11 14 7
151.785049437564 15.8728289274387 3157.41265813733 11 13 8
157.436350187165 15.0749892963465 3151.19638179262 16 21 15
-160.220091175129 41.0035374024717 3174.91475446751 21 26 19
-180.423840211697 41.3947397926941 3119.63882328788 21 24 17
-180.094766434464 41.0141152050418 3108.76935167109 23 26 19
-156.688735580105 38.9309712272867 3121.57973262687 19 22 15
-176.025098845672 40.0068296460729 3090.69173559332 11 14 7
-192.692517796415 40.8936197262427 3062.78473724395 11 14 7
-122.594196494284 35.3335313599364 3122.48929023541 9 12 5
-124.882186138479 33.7531299255948 3064.93177323022 11 14 7
-98.8566033496978 31.4470033900218 3079.44323742741 12 15 8
-73.4373241100976 29.1802260049555 3093.15700636127 13 16 9
-69.5958473222991 28.5416108689566 3085.86150046188 14 17 10
-35.3183387624059 25.5936128868128 3107.7816994558 14 17 10
-18.3300840792655 23.9518118614271 3112.91849804346 13 16 9
70.6642466894465 16.4553485100118 3174.78497795284 10 13 6
78.9048967363048 15.1055276306658 3159.71106096519 9 12 5
49.0896561213003 17.0405214151969 3120.69594746918 10 12 7
104.097740246662 12.4535427722851 3160.3897152664 10 12 7
128.23695782478 10.2340578302598 3171.24255506821 10 12 7
133.143661922372 9.49663237334977 3164.34767953571 10 13 6
132.822698444695 9.16497505566863 3152.71772487899 10 13 6
166.103858137951 6.22659271500101 3171.53165032308 8 13 6
174.794696511626 5.19325700751783 3167.97578248635 11 16 10
170.718648660167 5.15456315016821 3152.98197614747 16 21 15
-147.862560748226 31.6868303694394 3177.49796641343 21 24 17
-170.958731058383 33.1287357653938 3141.92584552546 20 23 16
-198.404046625033 34.9174521033564 3102.18115707052 20 23 16
