ply
format ascii 1.0
comment KinectMotionCapture
element vertex 787
property float x
property float y
property float z
property uchar red
property uchar green
property uchar blue
end_header
-40.2807448307509 -36.3853687877907 2767.0884073801 8 11 4
-9.31743032249877 -39.7885301555896 2782.62094533845 15 18 11
-30.0478187144333 -37.7595002338797 2756.90480603077 8 11 4
28.2548695372871 -44.1941861636736 2784.49153806741 38 40 35
51.5627349841128 -48.7247496764438 3189.11647614641 5 7 6
51.3387972697421 -48.8699555940045 3177.40153307621 17 19 14
55.8982376082313 -49.6896787066471 3158.89788242944 10 13 6
69.5140563123124 -51.3057503534563 3160.34059038776 3 6 0
21.3732734613825 -46.3399414350361 3104.10551290165 13 16 9
18.1298660767735 -46.3144123383029 3079.12583833169 14 17 10
49.453808716867 -49.8184876826794 3096.99329810767 15 18 11
40.7466383877617 -49.0474063357404 3078.06800846215 17 20 13
54.3344401781862 -50.6584622643864 3079.53496718462 18 21 14
-97.627234858181 -34.6989981007912 2921.32692506212 19 22 15
-88.9216189032553 -35.7768727428352 2919.08179845004 22 25 18
-109.611448805945 -33.7028813568553 2890.68369254627 17 20 13
-159.180417436839 -28.5263960514955 2837.00837069506 17 20 13
-137.018096868678 -31.0437172352781 2846.92943541051 15 18 11
-106.40339959111 -34.4712090000382 2864.08755098727 15 18 11
-113.008210029626 -33.9007389997354 2848.63472942389 17 20 13
-124.265595245487 -32.8280025557606 2829.27132621039 21 24 17
-138.679785240722 -31.4130625354424 2807.34814716742 20 23 16
-130.147455421305 -32.4666872076339 2805.25305673727 16 19 12
-118.51774661319 -33.8543101187881 2805.76887992178 14 17 10
-123.852266272662 -33.4133432496419 2791.86272812069 11 14 7
-102.908651957553 -35.8061098278739 2800.1927604904 11 14 7
-81.1074096946012 -38.2933019620803 2809.10364415554 9 12 5
-63.1150176766604 -40.3709671773439 2814.6958905919 8 11 4
-58.3303822583798 -41.0224929382225 2809.22983612424 10 13 6
-63.7269760937138 -40.5726723850916 2795.3774288705 10 13 6
-49.5613350683639 -42.238220823206 2797.66716754278 10 13 6
-57.3838661449111 -41.5239554654366 2781.94559555725 10 13 6
-51.8654146889026 -42.2531951558779 2777.16728081327 11 14 7
-74.8222728208363 -39.8956758106998 2749.40867610999 15 18 11
-24.1785683707274 -45.5171927867368 2780.98161809431 8 11 4
-17.0299818772643 -46.4240370613707 2777.43839485802 15 18 11
-23.4245293673041 -45.8604067626392 2763.12695154576 12 15 8
-9.10437566848277 -47.5457006764374 2765.28289648123 10 13 6
-8.36000003292314 -47.7562435616616 2756.69888742649 15 18 11
-26.917858005429 -45.8668191863698 2733.07074069016 24 26 23
47.3118311688774 -56.6948954874686 3186.23591415008 3 5 4
92.8967304015003 -61.8565428510933 3218.22042635735 5 7 2
89.1090888931618 -61.5858986242114 3202.97464335575 15 17 12
83.0689813510874 -61.0654877274492 3185.70943700616 8 11 4
48.3548205599491 -57.3819002321578 3141.66560565527 15 18 11
33.2676443090842 -55.8579811783242 3116.35492367427 13 16 9
29.8610286172321 -55.6204445681115 3102.10236731199 13 16 9
38.9729590604824 -56.7639674226449 3099.50549873013 14 17 10
57.7415330605655 -58.9747204074035 3105.74943914004 14 17 10
61.7053978745177 -59.5499145992368 3098.34744416989 12 15 8
34.3356155606456 -56.6584376694547 3062.50024054279 11 14 7
-18.711183884291 -51.0501287155658 2993.30925166571 12 15 8
-95.5030793318361 -42.6700226694502 2914.24413655208 22 25 18
-107.909152535646 -41.4177757046237 2893.22834201716 17 20 13
-127.218251676165 -39.3975600166858 2866.28037734409 17 20 13
-114.826716372557 -40.8922554349393 2867.45985282603 14 17 10
-114.560170295084 -41.0412482796548 2857.96633610678 13 16 9
-105.939957233568 -42.1175028033163 2855.79522075378 15 18 11
-110.295111192131 -41.7517011073194 2842.36396544112 20 23 16
-138.45692416754 -38.737196005402 2808.52570690406 19 22 15
-128.3868657013 -39.9724494507368 2807.74582599872 19 22 15
-116.752696950116 -41.3821721248059 2808.25792679727 17 20 13
-116.671886270676 -41.5056726134166 2798.92522843257 13 16 9
-94.1630774161459 -44.1275586011127 2808.54697239123 12 15 8
-64.5773850398301 -47.5400856237381 2823.95002927411 11 14 7
-62.1128896579286 -47.930036076807 2816.52313042879 10 13 6
-72.1541407049964 -46.9240171270723 2798.75261409298 11 14 7
-72.1046910372087 -47.0427252622208 2789.44706638977 11 14 7
-74.4387533311719 -46.8944826921615 2778.2355662018 12 15 8
-53.214697637403 -49.3779261673537 2786.32311753683 13 16 9
-65.0356096540055 -48.1683268484525 2767.44694086958 14 17 10
-31.0839090288 -52.0767547836125 2785.68597030526 17 20 13
-18.3913751378384 -53.608939688018 2786.60511793792 15 18 11
-15.9959341022535 -53.9889167684837 2779.23800634898 13 16 9
-16.805442580067 -54.0094420091564 2769.35273593291 14 17 10
-28.8332263925288 -52.7720805284354 2750.6559981004 15 18 11
-21.7290331609492 -53.6777593859383 2747.1509290351 15 18 11
75.3523638043507 -68.5537332214461 3191.12265443687 5 7 2
97.7940919635056 -71.2306785257926 3200.80289643114 10 13 6
49.9363983928016 -65.8959323879171 3144.32006456796 7 10 3
78.2420768177592 -69.2407593351666 3159.50885598178 16 19 12
52.8455263706684 -66.4607531251961 3124.59862544598 15 18 11
62.022144990943 -67.6234227997038 3121.94581336778 16 19 12
71.9556086625568 -68.872611913693 3119.96083799932 17 20 13
69.2698136578107 -68.680235440484 3106.40738946168 12 15 8
39.6948738174059 -65.4134858525948 3068.49862970814 9 12 5
18.1455398105199 -63.060546805128 3038.19684206116 8 11 4
9.93674809383904 -62.2307317595883 3020.16247003451 10 13 6
-98.3232485129055 -49.9491068206294 2912.76554906859 21 24 17
-105.454650563609 -49.2345243684112 2896.44494865923 19 22 15
-93.7624350758459 -50.674566513232 2896.90693473565 17 20 13
-165.398391831463 -42.5665292264537 2823.96146324448 13 16 9
-143.229541853382 -45.204345138464 2833.87796500734 12 15 8
-127.828688246158 -47.0674343725341 2837.74521786203 12 15 8
-129.182827919362 -47.0089094588716 2827.00822576048 14 17 10
-135.936729148621 -46.3298045000695 2811.68392258721 18 21 14
-140.452881633873 -45.9063442715356 2798.39183685592 19 22 15
-84.1851383163825 -52.464084650059 2837.00658333854 20 23 16
-79.3820500087068 -53.1121817299822 2831.52451287042 21 24 17
-102.455005770218 -50.5553417910583 2802.54198168126 20 23 16
-89.197116550479 -52.1740988077245 2804.29493739055 16 19 12
-89.1300650079074 -52.2757443512314 2794.97402294376 14 17 10
-75.8270485469659 -53.9001744900064 2796.68790201299 14 17 10
-98.4732257356371 -51.3859124715769 2768.65900327246 13 16 9
-91.4598051100888 -52.2854303199378 2765.2325701641 15 18 11
-63.9910612531924 -55.5419352868496 2778.49966877849 17 20 13
-45.0824563982053 -57.8134967017277 2784.62263345324 18 21 14
-26.8959034750784 -60.002835058987 2790.04763281163 20 23 16
-7.8524132753568 -62.292007739987 2796.05380163115 19 22 15
-1.4545205390295 -63.122884735838 2791.83716300274 18 21 14
-21.3435183212622 -60.9191061382353 2766.71420421937 15 18 11
-25.3901349298653 -60.5425746958782 2754.33871983832 13 16 9
-24.6820747702881 -60.7145110064032 2745.7859365404 13 16 9
-5.53519854099438 -63.0168432915506 2751.70258224648 13 15 10
20.9235414296662 -66.1655437402084 2763.19755170023 11 13 10
51.6487173431663 -74.1561687762948 3181.26655211619 15 17 12
105.337480262689 -80.5677968423618 3220.79238592658 9 11 6
80.3481691278791 -77.7242242329813 3185.52877452893 10 13 6
85.9681920897737 -78.4811414138821 3179.33934258859 16 19 12
87.1727575745269 -78.7177722827627 3169.03337862892 15 18 11
78.02797768383 -77.7345012448133 3149.1624295407 16 19 12
56.9695683323008 -75.3456746405985 3118.43490729658 15 18 11
75.7842785137637 -77.6549553883058 3124.6394982821 13 16 9
91.694727814442 -79.6225294898079 3128.06574329661 11 14 7
56.9758894026711 -75.6179134987699 3085.34746231995 9 12 5
47.4409899689618 -74.5817601269383 3065.8143011835 9 12 5
-88.3674835772332 -58.7196992152917 2922.72027766097 21 24 17
-82.6570392777861 -59.4755284776963 2917.77572811957 20 23 16
-104.147990790495 -57.0169073977601 2888.74591431625 16 19 12
-93.2098831213262 -58.3891837850831 2888.53781274924 14 17 10
-159.72941089355 -50.6030726170944 2820.42360708275 12 15 8
-151.991673144607 -51.5943111071977 2817.69323751241 12 15 8
-122.857009462196 -55.1171700097975 2833.48824764251 14 17 10
-126.526161685235 -54.75914870548 2820.78572125685 18 21 14
-134.852247687149 -53.8489876048543 2804.17606814381 19 22 15
-144.023010727603 -52.8376112873132 2786.97429471956 21 24 17
-113.903245392954 -56.4794210751228 2803.2395135154 22 25 18
-98.3592838164245 -58.3956634773217 2806.98307398299 21 24 17
-96.7317910643164 -58.6629000655946 2798.95726382878 18 21 14
-102.906347481103 -58.0046324908551 2784.45453309394 16 19 12
-109.92343134201 -57.2454691314149 2769.35782098707 14 17 10
-73.2055059825658 -61.6739348804365 2790.49599287402 13 16 9
-102.198636458064 -58.3063283526072 2757.37597898961 15 18 11
-72.4036237366175 -61.9147860293751 2772.59888004095 17 20 13
-44.0593606126871 -65.3525278159816 2786.43156992763 17 20 13
-26.6624633744872 -67.4914333250204 2791.21708906094 20 23 16
-13.1671232009123 -69.1674401849282 2792.76460847387 20 23 16
-11.5481404878781 -69.4324754801207 2784.74647552482 20 23 16
-11.5435846095213 -69.5051936242774 2775.47954086632 18 21 14
-4.38215134908182 -70.4284922443835 2771.92497398704 16 19 12
9.19105308192325 -72.1144162828743 2773.40506991283 13 16 9
-5.28646337221073 -70.4634478629889 2752.85882510306 23 25 20
10.7088242218074 -72.4375365995804 2756.21157993426 26 28 25
29.1763135303809 -74.7065395753464 2761.39359785795 31 33 30
26.7280094161291 -79.6279197727843 3147.32093974149 10 12 7
74.0520860795004 -85.5860446862314 3157.95303041707 15 18 11
31.2282402670996 -80.5193460371699 3095.7853423317 14 17 10
46.2644663375822 -82.4146333428287 3098.64526323823 11 14 7
97.7594413324359 -88.7441287097496 3134.77864067455 9 12 5
81.6979289127948 -86.8582232786481 3108.9868443203 9 12 5
52.0633805311705 -83.3192133573302 3071.12798517829 10 13 6
67.1841867577014 -85.2247910525322 3073.9149796182 8 11 4
-72.6785246617512 -68.3246938434581 2927.71156341391 21 24 17
-76.004887021742 -67.9795847711724 2914.71201240409 16 19 12
-78.6237712299336 -67.7199838698351 2902.42339513012 16 19 12
-110.907741443362 -63.8451253397732 2864.2118715577 15 18 11
-116.744402196052 -63.1912358563175 2849.41630287541 14 17 10
-126.461365885215 -62.0634536257913 2831.36392600104 14 17 10
-114.824284265137 -63.5383654181007 2831.87392453853 15 18 11
-146.14350189149 -59.7746571637855 2795.47408824771 15 18 11
-132.248336332112 -61.5241514672892 2797.99880169978 20 23 16
-122.167640146793 -62.8085518176333 2797.21001917411 23 26 19
-87.3023386066514 -67.1176174982844 2817.30631574457 24 27 20
-86.4190333267128 -67.2801720249275 2808.60158040753 23 26 19
-106.563810124003 -64.875111941359 2782.37543379639 22 25 18
-119.045274023799 -63.4043527250384 2762.74682799483 22 25 18
-122.238089353673 -63.0669955344052 2750.95515359105 22 25 18
-104.308672932178 -65.3094980581315 2756.60336690319 24 27 20
-50.1302323444008 -72.0348456202106 2782.47325712789 22 25 18
-38.2817066538976 -73.5359572304874 2782.80015926475 16 19 12
-43.0371548175756 -73.0071945903005 2769.71479733709 17 20 13
-13.6951209930105 -76.6475027333587 2784.00725700021 22 25 18
-14.4893929710728 -76.6028803865719 2774.108673917 24 27 20
19.8078714092458 -80.8507342091036 2792.05039031318 25 28 21
15.8345950453023 -80.4171418399016 2779.61096954967 26 29 22
3.78750941716888 -78.994879701537 2760.92944762088 25 27 22
1.30286616853192 -78.7422480385989 2749.84778491497 34 36 33
-4.44932501420325 -78.0890891231226 2736.30226902637 20 22 19
50.1522486555235 -90.8710605523722 3170.76192935821 17 19 14
14.0698230234375 -86.4012537813566 3125.25209034914 18 21 14
42.2180595966739 -89.9711596776486 3140.57880079222 15 18 11
44.7755726822616 -90.3371665965044 3131.74786413284 15 18 11
17.8430747512737 -87.0093429721754 3095.5185073628 16 19 12
40.2223339033951 -89.8568752481686 3105.25399889871 13 16 9
70.8397483081464 -93.7369184435515 3122.41269198822 10 13 6
57.0198788192569 -92.0495417384661 3098.6493677312 8 11 4
76.8508439223479 -94.6217750531296 3094.7113808561 11 14 7
-87.5587634833979 -74.1325756396253 2915.50258683636 21 24 17
-56.9394411650128 -78.0113037646131 2932.65961774685 16 19 12
-68.5895563605294 -76.5886499040279 2912.31076386471 17 20 13
-66.6682276944299 -76.8677454929181 2904.03035240865 16 19 12
-90.6525409315262 -73.8961445937433 2873.18820258355 15 18 11
-98.7670170882535 -72.9147558633164 2856.39467805465 13 16 9
-148.287649130233 -66.7359972474313 2803.99422726046 12 15 8
-126.73175061733 -69.4768907834376 2813.11908765111 13 16 9
-125.097386343034 -69.7172134464344 2805.08746281156 18 21 14
-121.169970182208 -70.2451292669561 2799.04001370628 20 23 16
-106.421365366937 -72.1317378164731 2802.14948556742 22 25 18
-101.707747317502 -72.7581590994125 2796.74482172838 23 26 19
-128.162716023593 -69.5029025317364 2756.13194532173 21 24 17
-120.431275992357 -70.5073738953192 2753.40743547189 21 24 17
-95.444791132663 -73.679981530012 2764.85535539698 23 26 19
-80.5731754902435 -75.5819506637878 2767.85799337678 23 26 19
-44.3803528000668 -80.1638842362294 2788.129024225 22 25 18
-41.2063219333039 -80.596119845909 2781.41068035195 18 21 14
-42.7973945750688 -80.4291073692566 2770.8783435686 18 21 14
-46.8080537379887 -79.9575359823338 2758.47139322854 20 23 16
-38.9279380704055 -80.9807870804752 2755.61814255374 23 26 19
-50.1910373226746 -79.5965386892262 2737.58061865506 28 31 24
-23.9340068576421 -82.930880125096 2749.25161994592 29 32 25
-13.6155150708688 -84.2607941286144 2748.25702635462 26 29 22
-5.68609762266137 -85.2902056826823 2745.36108397433 30 32 27
-5.00171278196815 -85.4080653278296 2736.82847050815 26 28 25
21.1252537360447 -95.5320307192823 3144.33991225493 16 18 13
7.6154316384649 -93.8128683460661 3120.30765280742 19 22 15
37.2056531349081 -97.6505680168097 3137.03280014053 18 21 14
50.0340395709706 -99.3269440932266 3137.83513385158 17 20 13
37.8572830544113 -97.7783917637341 3115.29540136289 15 18 11
29.2696497894949 -96.6921405487966 3096.26414682568 10 13 6
42.8176685670611 -98.4604974276214 3097.7669217423 10 13 6
69.7734038958449 -101.958192241664 3111.47991069125 10 13 6
86.4171651762651 -104.125759839271 3115.59512468927 10 13 6
82.9549318260829 -103.699382815498 3101.38955046003 7 10 3
55.5945718471103 -100.208615514144 3054.94326322476 6 9 2
-17.3530893255673 -90.8146805785222 2979.15626232259 17 20 13
-71.857976717618 -83.7991613400235 2920.48370456513 17 20 13
-66.1312727440451 -84.555518476049 2915.52506560036 17 20 13
-91.5265637473888 -81.2950126471052 2883.25746706693 16 19 12
-101.868832112822 -79.976699327909 2864.42225320066 13 16 9
-96.271911227567 -80.7153238630764 2859.57598699583 11 14 7
-96.797333731514 -80.6634604636745 2849.44433548752 9 12 5
-115.003076322207 -78.3289446862031 2824.18453710481 11 14 7
-113.335061884673 -78.5595910732976 2816.12368375673 11 14 7
-119.401885896258 -77.7913957448196 2801.52654962648 12 15 8
-118.570562095569 -77.9135183917451 2792.86660650636 13 16 9
-103.031649136051 -79.9344655797192 2796.61522128141 17 20 13
-99.1024276210619 -80.4562843421031 2790.56648341454 18 21 14
-103.757003701352 -79.8694674649193 2777.3933158335 22 25 18
-81.8929185765129 -82.7069752071888 2786.2516858724 22 25 18
-78.7502090162944 -83.1268182667465 2779.56040899754 24 27 20
-77.9776940047316 -83.2403173826527 2770.95138168813 25 28 21
-59.113648574967 -85.690365010625 2777.11443972634 25 28 21
-14.1203744426228 -91.5155032395066 2804.32267510984 23 26 19
-30.6818050374003 -89.3897853069773 2781.60914356053 23 26 19
-25.9255429311249 -90.0174880097019 2776.16752688824 21 24 17
-43.4582386399329 -87.7656846821739 2752.97174781639 22 25 18
-52.3334022066955 -86.6319528761357 2736.83655122142 26 29 22
-43.6845138049189 -87.762014218405 2734.64093058983 27 30 23
-39.832042780759 -88.2723512926539 2728.65832521766 28 31 24
-18.3003119072254 -91.066897280441 2736.48121936716 28 30 25
0.0879236376229997 -93.4553596831945 2741.73270347668 24 26 21
-10.07041511917 -99.6903756929282 3115.82420765092 24 27 20
12.1162268540429 -102.633387135491 3125.72726612671 21 24 17
42.4464599783438 -106.656629497323 3143.13579748876 15 18 11
54.5548849733266 -108.261760952576 3143.23810960764 17 20 13
48.2877346337234 -107.428410559583 3126.16766155589 14 17 10
27.9212783879754 -104.724091808894 3096.16161515816 10 13 6
42.945717450706 -106.715354060403 3099.03268972088 11 14 7
61.7306974368086 -109.205275036682 3105.26421948853 11 14 7
70.1614441395404 -110.321110417767 3101.93431705183 10 13 6
52.4740406347446 -107.971302207934 3074.90189558446 10 13 6
66.8447026631407 -109.874789115667 3077.01579254406 9 12 5
54.9864258828192 -108.297974105622 3055.52278443673 7 10 3
-79.9761348347019 -90.3843267680271 2914.32912078549 18 21 14
-98.4876773079617 -87.924548582815 2888.01029757723 17 20 13
-109.542573102504 -86.4538749045592 2868.46881086069 16 19 12
-116.123253731749 -85.5766986489348 2852.9930876601 13 16 9
-105.985718101298 -86.9173435352978 2852.15508929742 10 13 6
-84.349486333946 -89.7832364047225 2861.21144748053 7 10 3
-94.8439203657969 -88.3863261471849 2842.50761175675 10 13 6
-90.0434287193002 -89.0183683822934 2837.02768787241 10 13 6
-106.06830891092 -86.8875732589099 2813.84939141514 9 12 5
-88.1891841183391 -89.254318905118 2819.5419993883 10 12 7
-102.80470091839 -87.3102850369846 2797.78988898235 15 17 12
-87.9916648692314 -89.2699105833428 2800.84367361624 17 20 13
-79.3648171410042 -90.408771307538 2798.66721344887 20 23 16
-76.191846960747 -90.8240438050035 2791.9499945024 19 22 15
-71.4656150683366 -91.4452092710307 2786.53404822159 21 24 17
-80.0965911617313 -90.2945522377246 2770.18709589034 22 25 18
-59.6653346798983 -92.9985963122477 2777.63996342448 23 26 19
-24.1566442096204 -97.7021679895818 2797.18116809153 25 28 21
-8.28267366768465 -99.8012950552903 2800.63988302395 25 28 21
-29.6559979175197 -96.9602341871572 2774.15247648152 26 29 22
-18.5476401887881 -98.4271071832661 2773.7974260567 26 29 22
-30.5447663014515 -96.829534177908 2755.0714664013 25 28 21
-41.8326908659488 -95.3260256137582 2737.05500219701 25 28 21
-30.7577633679279 -96.7882318232062 2736.72889671389 28 31 24
-23.6741546852159 -97.7209995312907 2733.24216006627 27 29 24
-14.165956814308 -98.9752140473652 2731.62581041802 32 34 29
18.7647643575084 -111.833404427165 3155.75492368414 26 27 22
-21.5958819475053 -106.301520927305 3106.00640928206 12 14 9
-19.8832512934399 -106.51106991835 3096.58317235881 18 20 15
35.2396963542208 -114.007366627954 3137.51949713818 14 19 13
48.0619797253024 -115.731518423725 3138.32743018286 18 21 14
42.8124157107836 -114.964678626554 3111.11197734641 11 14 7
47.5143996600376 -115.580408021343 3104.39375153154 12 15 8
46.2693315049556 -115.384895542101 3092.23807466977 10 13 6
40.5165318798106 -114.574611045992 3076.04523070536 8 11 4
47.3851625495314 -115.485276870202 3071.4211036232 10 13 6
53.5086048330027 -116.294090203671 3066.11893722211 10 13 6
58.1303516372578 -116.897973679176 3059.47049457589 8 11 2
-104.346296413329 -94.673987520476 2883.86845274353 13 16 9
-95.686604733543 -95.8294582252024 2881.66363317586 16 19 12
-90.8147583473649 -96.4685198340069 2876.12190905954 7 10 3
-107.304675832634 -94.1966540854907 2852.02218661414 12 15 8
-106.324185780669 -94.3054187499943 2843.23286918227 16 18 13
-28.3207741010045 -104.881433345627 2890.8252560369 8 10 5
-70.3857912446222 -99.1258279887233 2845.19905312451 9 11 8
-73.2839498764415 -98.7056854397577 2833.15145271803 10 12 9
-57.6278537646342 -100.812405823114 2836.79905645533 11 13 10
-93.2054535680726 -95.9420115569376 2797.46569081121 12 14 9
-91.603585827718 -96.1349146766881 2789.46192460588 17 20 13
-73.6190718639786 -98.558267622947 2795.06355481294 19 22 15
-87.6810418605385 -96.6184141779568 2774.15495345674 22 25 18
-87.7117349263092 -96.5889355206341 2764.9179080873 22 25 18
-98.0065740039553 -95.1624098508537 2747.36446071869 22 25 18
-56.289149210905 -100.815057300443 2772.1175157278 22 25 18
-44.4564753004979 -102.399761182334 2772.45869885226 23 26 19
-15.9304428983846 -106.25574866282 2786.13655301443 24 27 20
-43.7636089256204 -102.442529598329 2754.65479041214 24 27 20
-15.9450573663014 -106.201652890674 2767.62195509641 22 25 18
3.19190270070902 -108.779099291393 2773.5489782431 22 25 18
-24.0934452253891 -105.041280081721 2742.91646697933 25 28 19
1.49081865909784 -108.495391710066 2753.84777897676 28 31 24
-14.7172312090791 -106.264966024475 2732.15085752568 26 28 23
-18.8598080815443 -114.876610458235 3120.89417589779 28 29 24
-24.135345317835 -114.042067085681 3093.70048075255 15 17 12
4.61912568917189 -118.025542032622 3109.82800234373 16 21 15
40.8382203856794 -123.05394617406 3132.72567718432 17 20 13
10.9940563972692 -118.822899041585 3093.7207541328 15 18 11
54.7428886900887 -124.904627598213 3123.3328310862 13 16 9
55.7800413044944 -125.000811822311 3113.17105978109 14 17 10
52.3353003196738 -124.469205014348 3098.94964239842 11 14 7
50.3244585614078 -124.138518108232 3086.13323672534 9 12 5
36.329409458701 -122.12988548337 3062.51966519001 12 15 8
35.6901542054571 -121.991704533931 3051.16254089236 12 15 8
42.5157791888449 -122.898592650416 3046.57597941757 8 11 2
42.5736800044971 -122.857921566051 3035.93849763448 9 12 3
-41.3707134157515 -111.015299766337 2940.55326002914 20 23 16
-62.1190552754913 -108.065939600162 2912.19988061739 12 15 8
-91.3768838500477 -103.927246520687 2876.6574561728 7 9 4
-93.3728432021987 -103.602493831595 2865.15176622222 16 18 13
-102.291902836006 -102.309833870513 2847.73000968304 12 14 9
-33.8603920135374 -111.831885278629 2896.99494197467 9 11 6
-26.5879473403601 -112.801821504567 2893.34477523941 9 11 6
-44.7420606222817 -110.217766250718 2868.03861085697 9 11 6
-97.0254520195448 -102.865239659456 2814.05503872738 9 11 8
-114.75015681781 -100.343632166887 2789.70067162524 10 12 9
-63.458662953817 -107.464421148773 2823.36870381702 10 12 7
-93.7109857807754 -103.193205350511 2788.68738453714 14 17 10
-103.847757949037 -101.7326918538 2770.99671465455 16 19 12
-87.4457286125558 -103.978412379904 2775.3222683631 19 22 15
-102.388596480403 -101.847375300014 2753.85267310864 20 23 16
-89.8913044758269 -103.547514707713 2754.94181673864 20 23 16
-78.9362967050229 -105.031988125426 2754.71979428563 21 24 17
-54.503788012195 -108.396903929496 2765.32585055661 20 23 16
-47.4247787152144 -109.339584451284 2761.84284908436 16 19 12
-22.0478461911804 -112.834801011183 2772.95444449816 16 19 12
2.63276579227334 -116.23195373369 2783.34535411237 18 21 14
-18.1507416353321 -113.287536511101 2757.66932324974 22 25 18
13.8199202135088 -117.700427177013 2773.65856100242 24 27 18
29.0529397651618 -119.778527612609 2776.34941407165 29 32 25
-27.3503100093944 -111.869796705184 2723.28654532222 22 24 19
4.47257715076654 -126.41839995263 3144.41671393522 16 17 11
23.0269371810112 -129.018474583827 3150.84884410658 21 24 17
21.9527701087698 -128.791750683193 3138.54483888256 16 19 12
25.9578840882266 -129.2962648659 3131.10663376976 21 26 20
38.0197960603432 -130.959959122944 3131.24963988587 10 13 6
28.7787588737571 -129.558243447174 3111.45972443709 10 13 6
17.9752033340699 -127.932559661731 3090.37581123305 11 14 7
66.9995705098732 -134.910854330711 3124.68434386475 12 15 8
79.1689045215511 -136.587585754326 3124.73464343194 12 15 8
61.6142625133476 -133.991289230874 3097.585555553 11 14 7
50.6411050019033 -132.342046257537 3076.64848981003 12 15 8
38.0768167120689 -130.465109414609 3054.44251709907 12 15 8
35.9095572973702 -130.082486184813 3041.76134768252 11 14 7
-29.8505391588053 -120.430358393861 2951.80275673217 20 22 17
-55.1083447772913 -116.737095682579 2919.41319039846 12 15 8
-69.8910666567292 -114.548516381768 2896.48115711235 11 14 7
-90.8840241227917 -111.470215928991 2868.33895930294 12 14 9
-86.0322710376886 -112.099954120602 2862.81459035693 6 8 3
-18.339152083358 -121.739944546632 2911.39670128469 9 11 6
-40.2259181871063 -118.534394680097 2882.70542961051 9 11 6
-56.0970373629712 -116.19255452582 2859.39217986411 9 11 6
-77.4915456889413 -113.0604460997 2831.59767194155 9 11 8
-50.2299293341819 -116.900300075941 2845.04807552326 9 11 8
-37.611198500989 -118.641354910893 2846.03254440126 9 11 6
-80.2437688238733 -112.470031203875 2800.89556636455 12 15 8
-82.5324230054059 -112.077414928238 2789.64312578565 14 17 10
-95.8219544630121 -110.110525752166 2769.38810986266 17 20 13
-77.0324991449471 -112.735292028329 2775.61695001298 19 22 15
-66.0432433416966 -114.24312205207 2775.36539491061 19 22 15
-66.0711225450194 -114.174557354702 2766.12565738692 17 20 13
-76.4107933359588 -112.631504143549 2748.61031217431 18 21 14
-59.0784440939305 -115.045951618854 2753.45356289485 20 23 16
-28.1700891535306 -119.400249562902 2769.03989967486 20 23 16
-14.6677211428621 -121.265245451404 2770.58255246239 20 23 16
-9.11655577104842 -121.993515990412 2765.77587711157 19 22 15
-17.9872929749441 -120.661310908315 2749.63524240419 21 24 15
6.80208494326795 -124.137706286092 2759.93270968043 27 30 23
13.9730501608351 -125.096902796515 2756.37011373051 21 24 17
-1.94317355961537 -133.74316552318 3139.43790683541 19 20 14
7.13643494321747 -134.989801268277 3136.86972101521 22 25 18
11.1263233262515 -135.484060591381 3129.44464602237 13 16 9
14.3717655083635 -135.868243197096 3121.34083513871 15 20 14
24.9343072248243 -137.332620663744 3120.13558602766 9 12 5
17.8689860611874 -136.194634432087 3102.4317063991 9 12 5
32.1174718297939 -138.202300624894 3104.65185748616 10 13 6
73.7751399384274 -144.25206757318 3132.10611636287 10 13 6
61.4889277159456 -142.34379263997 3109.65860654456 11 14 7
68.4352418938108 -143.272046674049 3104.96726234562 11 14 7
74.6390533638275 -144.090575553145 3099.59550003869 10 13 6
49.4347659123777 -140.281267036269 3065.83521922127 10 13 6
57.0504154810636 -141.308532068978 3061.88795595881 10 13 6
72.1921666294447 -143.443689437617 3064.65828436411 9 12 5
-19.296774938939 -129.699573984709 2951.97926732333 18 20 17
-64.3790570921037 -122.978457859749 2902.34504452904 17 19 14
-69.3438881346644 -122.160393911851 2888.11602671691 12 14 9
-6.35581273305963 -131.332148730272 2932.8332530888 9 11 6
-8.19007845119168 -130.972728850388 2921.18719280935 8 10 5
-22.358501130014 -128.801601914443 2899.04609828919 8 10 5
-21.2280624473071 -128.879028336895 2890.12661191663 8 10 5
-36.8548200039052 -126.4086302871 2857.3372749826 9 11 6
-28.8599097384936 -127.494785766738 2854.38493532558 9 11 6
-44.9866332701703 -125.041606946337 2831.29282109746 10 13 6
-104.158030886214 -116.276431028492 2772.68345953889 11 14 7
-76.021527564242 -120.318718459406 2786.69982427176 14 17 10
-71.3056407229735 -120.925727761937 2781.29306819917 16 19 12
-49.2884036604888 -124.06824516497 2790.02067241893 17 20 13
-57.1569647427226 -122.830618869477 2774.33560490194 18 21 14
-62.723615859416 -121.931117642627 2760.62767846463 16 19 12
-70.7267255324151 -120.675611029776 2745.05911318264 14 17 10
-27.1364115920516 -126.974174364608 2770.83957514279 15 18 11
-13.6320594638049 -128.866296405233 2772.38068400243 21 24 17
-56.8103183688908 -122.464050683464 2729.03875387899 23 26 19
-52.982542220589 -122.941508235727 2723.07733938325 27 30 21
-52.3755412762865 -122.948031050031 2714.61139136901 25 28 21
-32.4733778017388 -125.775878165843 2721.20006869244 21 24 17
55.6182082745242 -150.843696340072 3207.43693650913 29 28 24
37.3210531127381 -147.947804457139 3178.28294834014 22 23 17
-1.47476807315217 -141.947907831421 3129.82163276782 17 20 13
-6.98575458812201 -140.994782075357 3113.41827507403 18 21 14
13.759416581165 -144.018598753721 3121.92439447156 12 17 10
19.9211142064617 -144.832953252 3116.58910669752 14 16 11
29.0230624405816 -146.091909822169 3114.00163806847 14 16 11
36.6660364109022 -147.129591867655 3110.03075926746 9 12 5
55.4070198815015 -149.845047820343 3116.3018838688 7 10 3
50.4910170323654 -148.982806418156 3100.70699776321 8 11 2
53.6907419351298 -149.34785910631 3092.64237221366 10 13 4
83.7126245285442 -153.76461884016 3108.99745119463 10 13 6
89.1944095595139 -154.472946281063 3102.9275201752 9 12 5
73.6814158460559 -152.011893997546 3077.9798368482 9 12 5
114.424746102903 -158.041941977123 3103.57962017009 9 11 6
138.773501623771 -161.595051706618 3114.25917231416 7 9 4
4.3695200954823 -141.093550593376 2973.88785951689 7 9 8
-44.43295237837 -133.626460232607 2920.85660558927 13 15 12
-38.6729789904807 -134.384138815377 2915.86913939026 9 11 8
-6.17500960913375 -139.168079630806 2934.05058242192 10 12 9
2.718765813158 -140.395767400549 2931.64334202896 7 9 4
2.41137912574807 -140.238328697656 2921.32202691065 7 9 4
-26.4236033544041 -135.789658057039 2886.73435876679 8 10 5
-118.713081489659 -121.697819020884 2789.30375841758 9 12 5
-17.7848858502268 -136.762409680476 2864.69635911402 10 13 6
-38.5450395719409 -133.53536103501 2837.6749944243 12 15 8
-77.3927976383839 -127.594291091926 2795.87569548489 12 15 8
-82.8324531966866 -126.673265968087 2782.05755795693 13 16 9
-56.1693716442129 -130.571412896628 2794.70353452071 14 17 10
-85.2351231966151 -126.105894638755 2761.63934943863 15 18 11
-48.2478382533738 -131.550897223066 2782.55064487629 18 21 14
-78.2939679689969 -126.941694659381 2749.01168132473 17 20 13
-51.4588626480981 -130.861870451511 2761.50870145268 15 18 11
-33.2552818030711 -133.486508949256 2766.92176285485 16 19 12
-35.700642422142 -133.016705381064 2755.80464520254 22 25 18
-58.155135311087 -129.551267236869 2728.92701952938 24 27 20
-65.5394331144894 -128.344422550577 2714.14568395967 26 29 20
-49.7090062912937 -130.612897484746 2717.64323717669 21 24 17
-4.85274006640823 -137.222658523881 2743.65204574153 21 24 17
75.9481784602993 -162.50217919215 3228.26917276257 27 26 22
53.3682684445935 -158.84583771767 3194.88207817673 21 22 16
56.0639300378183 -159.118604132867 3185.93048352646 20 21 15
16.4605817069159 -152.824609214426 3136.84391412059 17 20 13
22.6495641894129 -153.642548376399 3131.48500080878 12 17 10
38.3671302820305 -155.938253538081 3135.08055093027 11 13 8
36.4952925008786 -155.505114585468 3122.14331713482 11 13 8
53.7427466025959 -158.036016023611 3127.06090414957 12 15 8
53.3107154340442 -157.826189240639 3115.5240225352 12 15 6
46.1696306479418 -156.577982154416 3097.88478021479 10 13 4
60.5090432751663 -158.656342508264 3100.02657982508 9 12 3
78.6193378646018 -161.316895860991 3105.52072850726 1 4 0
85.5837070075558 -162.251691333554 3100.81409332264 14 17 10
101.544288622697 -164.577069568136 3104.19920543792 13 15 10
136.344002276491 -169.812559744073 3124.35835264081 13 15 12
-5.52379963067029 -146.948623272759 2925.59637718445 8 10 5
-21.2071506537295 -144.400498059678 2902.11936081129 7 9 4
-44.705167223976 -140.651324604156 2872.17394236787 11 13 8
-91.5176190174947 -133.31654552463 2822.71239788062 11 14 7
-83.6562518930748 -134.400997840079 2819.87547831466 12 15 8
-61.8147029526837 -137.635323343551 2828.7562681765 17 20 13
-55.4498554177059 -138.487935320778 2824.56841185511 15 18 11
-91.9883872515817 -132.746119331346 2784.73932834834 12 15 8
-74.77941439809 -135.266867889387 2789.6902026532 9 12 5
-78.6833652730072 -134.543562864895 2777.1891331641 11 14 7
-111.078555989568 -129.326672281593 2732.44869212506 14 17 10
-39.3237140889378 -140.21427621492 2781.48854447408 16 19 12
-72.6125966419309 -134.985805470366 2745.46313500443 20 23 16
-57.6431938223538 -137.159247781168 2748.38277647582 21 24 17
-43.4220042532107 -139.216873766595 2750.62722541365 18 21 14
-43.5299867176537 -139.078525816584 2741.4561485556 23 26 19
-53.2736656799333 -137.465309098975 2724.74735752608 22 25 16
-36.6108834870311 -139.895613744581 2728.84778795817 17 20 13
-2.99461791418532 -144.918609073664 2746.06151256317 20 23 16
-47.4826159384873 -137.99218242664 2702.52780732198 17 19 14
68.0860513837502 -169.829334911351 3221.89748579274 25 24 19
62.1597679675747 -168.714132564304 3204.52976971846 21 22 14
46.7162044705538 -166.086365517777 3178.19756753931 19 20 14
34.7922714495819 -164.021230158467 3155.43504085562 16 19 12
30.8035868232155 -163.219793589319 3140.36006960322 11 16 9
38.4816846141072 -164.272977577416 3136.35853266453 12 14 9
50.5766145172593 -166.027032868729 3136.47382200759 12 14 9
47.2279854130155 -165.328770964023 3122.16802107414 12 15 8
35.6964643628261 -163.333557313411 3100.38940630963 12 15 6
50.7424460942598 -165.554921137827 3103.24298461812 10 13 4
55.4339384140992 -166.133613083154 3096.53392778483 10 13 4
76.5089651499307 -169.30770071762 3104.75512326585 15 18 9
85.7101795269015 -170.599159241115 3102.08182771618 6 8 3
123.397499419358 -176.398529360644 3125.03551126839 3 5 0
-35.1992681266342 -150.065688548538 2901.04998728181 11 13 10
-25.2625692893496 -151.329672703244 2889.79884662085 11 14 7
-75.8667789248424 -143.20951010804 2837.00173025747 11 14 7
-69.3578904916561 -143.941463153025 2823.42478950887 16 19 12
-84.7920690891817 -141.368325381472 2801.05490522819 15 18 11
-83.9594024064003 -141.35525618522 2792.39292213739 13 16 9
-95.6635363766512 -139.372637746313 2773.41052055667 11 14 7
-98.83430631958 -138.732590420874 2761.597777184 12 15 8
-112.26948547579 -136.481996378204 2741.46747645487 15 18 11
-93.4922179067934 -139.289293486571 2747.70774745689 15 18 11
-87.2884094304065 -140.122254220257 2743.65934213552 16 19 12
-74.7439255752371 -141.94924774955 2744.70872042303 16 19 12
-66.9289584303168 -143.033896819389 2741.91233417495 16 19 12
-44.7701421371383 -146.365437866668 2750.51845146439 16 19 12
-42.4837089242045 -146.582531395502 2743.2447653841 16 19 12
-45.8168469976625 -145.920288334614 2731.57260847749 12 15 8
-26.729421878231 -148.767378585332 2737.54431264262 22 25 18
-35.7280597389198 -147.21966581399 2721.51313753662 32 35 28
-39.155568906057 -146.544803484562 2709.92269367586 15 17 12
-49.9053795103848 -144.726703931707 2692.76104907467 2 4 1
68.1737918618213 -178.396638949649 3223.20021518227 25 24 19
26.7564128358928 -171.450933332704 3171.71161015365 21 22 14
30.8348398374227 -171.923011110572 3164.20965182071 17 20 11
31.9860708873105 -171.918648764634 3153.94835309078 15 18 9
35.2995755797907 -172.266693562579 3145.78531580901 11 16 9
37.8630735716468 -172.49291594344 3136.94797049611 12 14 9
52.8948365363688 -174.7459089075 3139.81439319125 12 14 9
50.2934689660881 -174.132741071621 3126.18472611009 12 15 8
45.4259112035085 -173.152879808506 3110.54708872702 11 14 5
49.385728912771 -173.607037993165 3103.14781721164 10 13 2
61.5039070955206 -175.38445794517 3103.24279232586 10 13 2
75.1438839849343 -177.407281064708 3104.66719727628 20 23 14
97.0406842265184 -180.76633441169 3113.50090708892 0 1 0
113.77938716496 -183.28726060434 3117.53612151179 6 8 5
-22.4196348006971 -159.303579522546 2883.41634609713 12 15 6
-65.4295448888025 -152.20973609342 2837.27718317538 13 16 7
-76.8976204499117 -150.197943874402 2818.08999223962 13 16 7
-85.2915707092063 -148.519303352409 2792.27072262165 13 16 9
-86.0487887777524 -148.234654065335 2782.33815268977 12 15 8
-105.650498184064 -144.92491571304 2756.95902409777 13 16 9
-96.3079932738049 -146.264356700552 2755.48683876393 14 17 10
-83.794353133456 -148.111779733645 2756.56308279144 12 15 8
-78.3541367847786 -148.823850990439 2751.85246597524 12 15 8
-74.4988451467585 -149.281808203747 2745.86707645284 10 13 6
-70.6524035643143 -149.738491483728 2739.88966484945 10 13 6
-52.4862446938132 -152.488133129469 2745.33597124557 11 14 7
-40.6404724081639 -154.22431641861 2745.66678312772 12 15 8
-54.3669451262168 -151.868738415241 2725.78827670038 13 16 9
-60.9729127336771 -150.654425751046 2711.65554685252 6 9 2
-25.017610821545 -156.243951377172 2730.81571384616 15 18 11
-40.5081855009639 -153.610698177828 2709.81758139942 12 15 8
76.2666957923166 -188.526687323127 3244.0421343194 26 25 21
102.202615462403 -192.631098071275 3257.31970481886 24 23 18
34.8252857497267 -181.171726659617 3180.66141146641 22 23 15
8.42557457098003 -176.555250012815 3143.96191876372 17 20 11
33.5509126668314 -180.526424584042 3156.61792520375 15 18 9
46.3658936165059 -182.444492497501 3157.43344410082 12 18 8
54.0899127295411 -183.514071371722 3153.39221174088 11 13 8
47.8665394925684 -182.264119565918 3136.2811209132 11 13 8
51.8838575215348 -182.717936772344 3128.83200959436 10 13 6
48.5022981259076 -181.943137144801 3114.55425456177 10 13 4
59.1383731463533 -183.496437256182 3113.28584771399 9 12 1
77.2248458408411 -186.284513991149 3118.80147004348 9 12 1
67.8215421937423 -184.512587785123 3099.14979779517 12 15 6
91.9355704342415 -188.296956787755 3110.03429507616 17 19 14
108.658922726909 -190.853843404774 3114.08304747994 10 12 9
-78.4353788795857 -158.328308762671 2865.79310887635 14 16 13
-65.1372102059087 -160.330431903896 2867.51363715712 14 16 11
-43.0488822959148 -163.587969442025 2866.91691258699 12 15 6
-111.620426340578 -152.117590274911 2799.23381264935 13 16 5
-120.102915846016 -150.540014626904 2782.75539521177 13 16 7
-102.226194268461 -153.296430350197 2788.45261120959 13 16 9
-74.9310937252488 -157.597418005656 2801.87666548647 11 14 7
-81.1202287445165 -156.215552639559 2778.11810897551 11 14 7
-74.8557320446972 -157.061395158774 2774.01750197661 14 17 10
-67.0129214422053 -158.165693727708 2771.19711013227 15 18 11
-70.2148996526586 -157.460172237776 2759.41067629977 16 19 12
-76.6294432146779 -156.230085682182 2745.1122456487 19 22 15
-67.2303793851308 -157.589629811625 2743.59116893539 19 22 15
-52.240698450166 -159.862886237493 2746.49419694608 20 23 16
-38.7987290394864 -161.881440818865 2748.09019443538 20 23 16
-58.9137019684318 -158.415677910913 2723.15460323163 29 32 25
-73.5462536308735 -155.849385776202 2702.73680168911 19 22 15
-62.5536086370801 -157.469060506726 2702.48303380995 9 12 5
-0.752555302064195 -167.376840453937 2741.61692894897 25 28 21
33.1532553325529 -189.78093373762 3203.34015972348 22 21 17
16.1007290109221 -186.387960210256 3163.84041325642 20 21 13
7.08420967354018 -184.61221909043 3143.85347642335 14 17 8
23.4645230505888 -187.165097946258 3148.19952701529 12 15 6
45.0128008926982 -190.595131127112 3157.33577367014 10 16 6
57.859596885208 -192.541340513601 3158.12358417062 12 14 9
46.5119438889547 -190.372815138756 3136.18448129042 11 13 10
46.8461073800479 -190.192392875276 3125.3069626381 9 12 5
70.035830153965 -193.893516202792 3135.6687883846 9 12 5
48.1536429328271 -189.94286549792 3104.32156698641 9 12 1
60.2681802055782 -191.762913166701 3104.41997403686 10 13 2
53.8018720900331 -190.432455788664 3087.51892192252 23 26 17
-43.138709325369 -171.393823176466 2877.63238454415 14 17 10
-102.223730457202 -161.247170204343 2817.61562899128 13 16 7
-105.984999313305 -160.410552284959 2804.99015759745 15 18 7
-133.828042734612 -155.530890073373 2772.18646912454 15 18 11
-97.3352225839337 -161.457058952635 2793.52976845366 14 17 10
-74.7074496112794 -165.050936202069 2803.05438494977 11 14 7
-59.8039455958412 -167.34627302354 2806.03224867572 9 12 5
-43.9901973701762 -169.587695625547 2800.28062540258 12 15 8
-51.8157850460312 -168.07424190119 2784.55652392101 14 17 10
-58.9221307859855 -166.683579977953 2769.53308616677 15 18 11
-89.8414062270652 -161.313821987074 2735.42272011011 19 22 15
-89.9990579546683 -161.091060497751 2726.29446189878 20 23 16
-50.4044069977532 -167.507987876578 2748.92225571773 21 24 17
-44.1376024675337 -168.355720432061 2744.81934517391 21 24 17
-57.0607620914041 -166.001997609533 2725.56785130681 17 20 13
-49.2329022374225 -167.111349306833 2722.76045055801 21 24 17
-43.8050859998285 -167.820283410722 2718.06056103497 18 21 14
-44.8247034992457 -167.455359570188 2708.3552174534 25 28 21
-49.1094911430867 -166.548081122813 2696.18272521573 17 20 13
2.03268436553739 -192.539830981778 3162.84000223686 19 20 14
2.45298905246161 -192.350708071107 3151.8877655334 19 20 12
10.8240792643479 -193.547709875172 3148.61009548208 13 16 7
23.5740113753145 -195.506206306988 3149.48194101078 11 14 5
33.4404610520287 -196.961189989208 3147.55669814727 9 15 5
41.8624767002678 -198.163822332224 3144.2349256758 13 15 12
45.1576094264059 -198.474898514798 3136.08757248008 12 14 11
66.1021110713964 -201.850711298817 3144.423205933 10 12 7
49.4815450029371 -198.704991298115 3117.78422145639 10 13 6
60.8610534750058 -200.4192547567 3117.19575803228 10 13 4
57.4232233068055 -199.564564506846 3102.96625720769 11 14 3
-100.010673626969 -169.481991095412 2839.57144370842 19 21 16
-58.8355413394437 -176.099690712058 2855.53731955627 15 18 11
-81.0290981457378 -172.062020234349 2827.10624673632 17 20 11
-130.496046838997 -163.352844343627 2775.96613035929 15 18 11
-113.427653899215 -166.058760611708 2781.04036573267 15 18 11
-77.6008011298792 -171.975055741271 2801.6369270492 14 17 10
-66.6115611874831 -173.633205666274 2801.38667528354 13 16 9
-65.7761169276587 -173.552988871923 2792.72184964877 11 14 7
-55.543304803281 -175.080307118908 2791.802796885 10 13 6
-55.5215970020537 -174.861780349994 2782.51879325128 10 13 6
-68.1580401545467 -172.482921238164 2763.01862902876 9 12 5
-77.723808437264 -170.631662019418 2746.154093897 7 10 3
-92.9218724725174 -167.822840257223 2724.90129427213 10 13 6
-78.0007076202462 -170.151928097963 2727.86375391059 12 15 8
-40.7018882084613 -176.291023713002 2748.50984447936 13 16 9
-48.0135705162525 -174.82878229693 2733.66391547231 8 11 4
-58.5976299572901 -172.812294217895 2716.35732281745 21 24 17
-29.8882966448515 -177.480582292943 2729.88125170721 17 20 13
-11.5344341305277 -180.384377313558 2735.16586752601 26 29 20
-26.2306976937046 -177.672096179919 2714.8023413656 17 20 13
39.8131728920919 -207.88321174946 3212.24188913071 26 28 23
26.6697672607417 -205.247670830559 3187.88610520542 20 23 16
1.11346555689007 -200.405761484623 3151.77739925744 19 22 15
16.7381510667433 -202.90197339062 3155.45475160726 13 16 9
33.1431997217351 -205.534126795718 3159.78019245861 11 14 7
25.5228977666868 -203.893176954781 3141.23049902886 11 13 8
32.4599149073896 -204.840989387483 3136.54733964512 11 11 9
48.2065313110378 -207.351825326055 3140.11910487064 11 11 11
22.059129416351 -202.429810337996 3104.52252313118 9 11 6
37.7938246328817 -204.938382084395 3108.10460620605 9 12 5
60.980997148087 -208.764054575807 3118.46944943513 10 13 4
82.7774862609893 -212.339074935185 3127.39118646742 10 13 4
71.9186814961423 -210.134846176637 3106.35141076689 15 18 11
76.6339382729164 -210.686885260697 3099.62158371337 4 9 5
-63.0040214804817 -183.430464415894 2872.43134998446 21 23 22
-62.7296757023799 -183.22715652719 2862.92847455395 23 25 20
-60.1724700790252 -183.425051189119 2855.41997588362 10 13 6
-56.8598247975389 -183.755852494146 2848.58083261808 15 16 8
-82.2279606439103 -179.066825585276 2817.60370175394 16 17 9
-124.074150294581 -171.502491453714 2773.09968896519 14 17 10
-81.2719513867561 -178.745920459555 2799.56936130558 13 16 9
-83.5684069893232 -178.102348560234 2788.32205630002 12 15 8
-67.8981718410316 -180.596969388723 2791.95991883073 13 16 9
-48.2504942072137 -183.783106113605 2798.77180541814 14 17 10
-66.3093755172768 -180.391854234532 2774.70113028048 15 18 11
-49.7708396116536 -183.033869993129 2778.91093684186 15 18 11
-78.2712770034006 -177.831109153831 2746.67525717856 13 16 9
-89.4982320492348 -175.641618169748 2728.60118780491 11 14 7
-66.6169888707175 -179.387075163845 2737.90741031608 9 12 5
-46.8359094364477 -182.589792182548 2744.60346469584 9 12 5
-50.9612847202043 -181.637306532702 2732.29282660473 13 14 6
-67.9582873433331 -178.452845360965 2709.94996030629 13 16 7
-50.5244931019035 -181.245399631839 2714.70805065375 16 19 10
2.40831573495548 -190.189002416013 2746.96530804101 18 21 12
35.3941735877856 -195.666666755191 2763.40479955826 19 22 15
28.0426460758432 -194.154743558201 2748.59308388268 15 17 14
67.9894710236724 -221.82772511787 3252.75535497424 17 19 16
44.2185302109568 -217.173799861738 3217.74726796648 19 21 16
-9.3005769568153 -207.111957921852 3154.23046067907 19 22 15
0.497727398008685 -208.585813295749 3152.36408859168 17 20 13
22.6486015711052 -212.303785676386 3162.30317007167 12 15 8
47.0714311396359 -216.429658805068 3174.24580748211 10 13 6
41.6844200283433 -215.139511330792 3157.73281194058 11 14 7
30.3782595050386 -212.778799727926 3135.7565006711 11 11 9
34.3794415570655 -213.196638134027 3128.32114183995 10 10 10
44.2530762022497 -214.678242905095 3126.38952849848 9 11 6
42.342462389859 -214.026178122028 3113.48448463826 9 12 5
64.3481119252081 -217.394090590525 3111.63687474748 10 13 4
74.2736800991013 -218.881162231006 3109.66028417539 16 19 12
-40.5796531387619 -195.03540061676 2892.77120996235 5 7 6
-51.7694508098936 -192.758000586713 2873.34110443153 16 18 13
-53.0334891119577 -192.25972368072 2862.5231686291 15 17 12
-64.3782490630498 -189.961582164889 2843.22755558388 15 16 8
-67.2935801432373 -189.172915290088 2831.192135596 8 9 1
-80.3508640293655 -186.576377257703 2810.73205772733 14 17 10
-98.9578675987901 -182.994658719098 2785.81228026593 15 18 11
-70.8491866644407 -187.743748694303 2799.85733976031 17 20 13
-82.5437355616234 -185.398979661885 2780.86459922022 17 20 13
-59.7976361380663 -189.187163075696 2790.28791703692 17 20 13
-34.6017808371477 -193.406720554057 2801.56115233592 16 19 12
-29.0271679373926 -194.134435864441 2796.73415057193 16 19 12
-44.8086927484783 -191.069506311471 2774.66213691676 17 20 13
-78.9398197160511 -184.753193902367 2738.03610532933 17 20 13
-71.1402153550731 -185.88259728286 2735.2530090545 17 20 13
-49.7787578551057 -189.414879225856 2743.2285813175 17 20 13
-60.3008634192119 -187.296536266824 2725.86731547559 17 18 10
-69.3029645289491 -185.450970112103 2709.83752750752 16 19 10
-52.6777395568652 -188.141362895248 2713.97219551048 16 19 10
-10.2290377572003 -195.393449588923 2738.10179085866 17 20 11
10.6104767689219 -198.81992074641 2745.20548781664 19 22 15
-0.845369094169435 -196.54209176844 2727.32954942214 13 15 12
19.3085956628178 -221.388078148454 3206.28118185241 24 26 23
38.5537261708655 -224.628209809572 3213.4420048788 17 19 14
23.9784500198086 -221.577592013763 3187.6777476354 17 20 13
-4.45711223560163 -215.958759250006 3148.76652232977 14 17 10
5.34741163854768 -217.4465074014 3146.89484958696 9 12 5
68.2642680076024 -228.780869082543 3195.65791592978 10 13 6
64.4005931557361 -227.725402614017 3180.47294809233 11 14 7
43.6563490869957 -223.547722933147 3149.46122017974 12 12 10
41.8293750958698 -222.876978965352 3136.48356163845 12 12 10
63.4922333221586 -226.549703135024 3145.5217544866 10 12 7
62.3764848492252 -226.011001749881 3133.25176773531 9 12 5
52.3438889013126 -223.828726992811 3112.81960580284 10 13 4
62.2444681444318 -225.326207155715 3110.86474148275 10 13 4
60.2657755606564 -224.633743463083 3098.01844215482 6 8 3
-21.6093111111384 -205.874791510545 2900.21944543099 8 10 5
-62.6253212206267 -197.806787654297 2845.72884975787 20 21 13
-85.6663455324602 -193.321930812646 2816.70614883596 18 19 11
-94.8837464333385 -191.360377808641 2799.53864095313 13 16 9
-70.7049874314571 -195.475839209304 2810.36949475634 15 18 11
-77.6500412874692 -193.930384216717 2795.20525646577 17 20 13
-76.8356788200455 -193.797143693636 2786.55835958317 18 21 14
-49.3699856006202 -198.500911169835 2799.83748059182 18 21 14
-32.0174175663706 -201.365101869132 2804.66612130568 17 20 13
-31.1668772146034 -201.236104671604 2795.98789524717 18 21 14
-54.0636646263724 -196.80869984065 2768.16381218199 18 21 14
-73.1442808093195 -193.079029161341 2743.65357306298 18 21 14
-72.4821415025887 -192.925078913573 2735.13847926582 19 22 15
-69.4547612203618 -193.199617070897 2728.54622084226 19 22 15
-55.2557413239914 -195.491616274542 2730.81140377666 19 20 12
-44.2166752869579 -197.211174626569 2730.51804835909 16 19 10
-29.1350558950381 -199.658108200567 2733.34219992385 13 16 7
-15.6151901974297 -201.82123833106 2734.87161875448 14 17 8
-14.9681015401 -201.664759903424 2726.36986902631 15 18 11
