ply
format ascii 1.0
comment KinectMotionCapture
element vertex 760
property float x
property float y
property float z
property uchar red
property uchar green
property uchar blue
end_header
-217.691830274562 491.235633546445 2962.4319996432 136 136 138
-211.354447888161 490.579156808766 2958.26699290492 132 130 133
-203.568482481873 490.14198019112 2955.49154786854 129 127 130
-196.495573845485 489.593064370153 2952.01128245305 132 130 133
-186.50818857511 489.480881142166 2951.29577985523 141 141 141
-175.039271895444 489.583583021616 2951.94162552815 125 125 125
-155.499709700566 490.880211522344 2960.14111658158 121 121 119
-74.8572296666277 489.654472306223 2952.45131697802 162 163 157
-87.8051308847026 486.19910219034 2930.61207334984 172 173 168
-98.6024803180143 483.076055034602 2910.87681385721 177 177 179
-103.463874416645 480.812280282691 2896.57811391931 176 176 178
-109.894383278631 478.3449662597 2880.9939038305 175 175 177
-117.148646087234 475.781262189457 2864.80103463451 173 173 175
-119.91640232673 473.857115765032 2852.65560083828 167 167 169
-121.207057898292 472.14851877514 2841.87503577788 173 173 175
-120.244673845529 470.758262894648 2833.10971556133 182 182 184
-117.776349124695 469.579604889827 2825.68460853489 184 184 186
-114.557582964462 468.506970493706 2818.9316407751 180 180 182
-112.121697853309 467.332291920026 2811.53462453758 179 179 181
-108.931336714527 466.263093610952 2804.80625416496 179 179 181
-105.754125703639 465.195456647873 2798.08927136329 180 180 182
-101.038253403213 464.334951138754 2792.6841705555 181 181 183
-97.1054429050762 463.372373654503 2786.63486260259 188 188 188
-92.4015661146726 462.513124281816 2781.24015059472 190 190 190
-90.0487623299289 461.348526501737 2773.91507860533 179 179 179
-86.1452397578977 460.389384234294 2767.89113329043 166 166 166
-82.2507835248398 459.431313228992 2761.87503915559 172 172 172
-79.1534551420625 458.373236456723 2755.22723154878 178 178 178
-73.6987924745671 457.619155843472 2750.50436581047 184 184 184
-65.8683036596428 457.166581062145 2747.69043051594 183 183 185
-58.8206915218619 456.612021400656 2744.23244257013 185 187 186
-54.1547731721841 455.756506566594 2738.87060630733 187 189 188
-51.090699505902 454.70209979393 2732.25159797694 190 192 191
-42.4369460106289 454.345112600592 2730.0467510542 193 194 196
-32.1628504879108 454.183987305034 2729.08306352082 194 195 197
-17.0384715421461 454.612359071844 2731.85152179306 190 191 193
-2.67222454685045 454.935435745553 2733.95481723308 183 184 186
16.5892133572569 455.84181200723 2739.75137570642 190 191 193
35.9190763573838 456.738584097708 2745.4886899248 198 199 201
56.1301641336094 457.723429887061 2751.78522061965 202 203 207
71.5255067232392 458.113723586929 2754.3190717089 201 202 206
86.9689481912417 458.497232561012 2756.81159324941 188 189 193
102.460176231888 458.873954474403 2759.26242491722 166 166 168
120.462117773996 459.533709558764 2763.50571052675 140 140 142
134.409968568544 459.703538116786 2764.6490616597 145 145 147
136.849367387213 458.524014656271 2757.24903136057 142 142 144
303.989831162605 462.695420731456 2784.39157117101 158 158 156
308.28123995075 461.679542031959 2778.03211409653 140 140 140
309.166339910612 460.294484020108 2769.33374509892 127 127 127
306.62091346646 458.543709968737 2758.31774749232 130 130 130
303.180700799099 456.706710755862 2746.75459113718 122 122 122
305.682581279195 455.518301452499 2739.30014780386 135 135 135
308.167685757403 454.332353253972 2731.8605443992 141 141 141
313.214351781074 453.422418531264 2726.16905308377 170 170 172
315.671729117703 452.240503819652 2718.75345565226 167 167 169
324.15696119486 451.695412026323 2715.37263035043 160 161 165
331.788036321931 451.05848149674 2711.40915231191 188 189 193
-244.236715110702 492.910762692059 3021.15943375899 201 203 200
-242.783558510342 491.479416207627 3011.96900960297 183 184 186
-242.061380344088 489.941521018171 3002.08958029666 176 177 179
-238.536487521089 488.844577925272 2995.07143907561 159 160 162
-234.314400181705 487.858044577675 2988.77155972104 161 161 163
-230.100852913826 486.872384100351 2982.47939221004 145 145 147
-227.32459673511 485.67052952942 2974.78722472207 144 144 146
-222.416492457618 484.795274677391 2969.21560512618 143 143 145
-216.07658135956 484.136219409142 2965.0481078587 142 142 144
-206.851688746201 483.906999545913 2963.67098258242 130 128 131
-196.162196798384 483.889413333634 2963.66958677141 126 124 127
-186.893305558177 483.653489588606 2962.25436974505 113 111 114
-179.784166931905 483.093975490754 2958.74277117215 104 104 102
-169.753177322771 482.959301587924 2957.98962086672 106 106 104
-78.3981452488081 481.584901619416 2950.2789722948 168 169 164
-92.0981419168942 478.095025130357 2927.76855955696 172 172 172
-102.149930347331 475.136800565516 2908.7096038747 176 176 178
-107.016546937616 472.912415601369 2894.41517521124 174 174 176
-111.941407014498 470.695724660149 2880.17117841368 175 175 177
-116.92464431646 468.486723555823 2865.97741391227 174 174 176
-118.928712419058 466.694753686428 2854.49246852207 170 170 172
-120.21310540823 465.010337978585 2843.70663427394 170 170 172
-118.481919638288 463.737796180046 2835.59746405677 182 182 184
-116.77201385793 462.468000417518 2827.50672017709 184 184 186
-114.31583802606 461.302027520613 2820.09206082959 179 179 181
-113.41603808712 459.936429089837 2811.38082473316 179 179 181
-109.455253724636 458.976574226341 2805.30756869671 179 179 179
-104.729859228858 458.118110031314 2799.89420143217 180 180 180
-98.4582970099615 457.460174776728 2795.78593733732 183 183 183
-96.0720747909849 456.302724346007 2788.43185407478 189 189 191
-93.7032584981638 455.147416142354 2781.09252775955 183 183 185
-89.7877965319736 454.192736678795 2775.05852073633 171 171 173
-85.8816489011041 453.239109735539 2769.03226444913 165 165 167
-81.9843666275855 452.28654918472 2763.01400068841 174 174 176
-79.6723964625543 451.138237787112 2755.72389961597 180 180 182
-72.6374532442278 450.580713146758 2752.27691149117 186 186 188
-63.2191956147552 450.315421590841 2750.73242355046 181 180 185
-55.3697509248257 449.852187163205 2747.90181207963 180 181 183
-51.4893630570681 448.901063401137 2741.89818199722 178 182 183
-48.4163911121547 447.854051949483 2735.27141328703 191 195 196
-41.3554477360023 447.292097592923 2731.80191859555 190 194 195
-28.671697546141 447.403706181252 2732.71771204206 184 188 189
-14.3433278774072 447.702449798376 2734.85399480131 189 193 194
4.06043135111744 448.474133954666 2740.07123063493 191 195 198
19.2952930959303 448.854531979813 2742.74455587786 185 189 192
35.3885762629433 449.323477363785 2745.99654350159 189 193 196
53.1588799188771 449.97502237134 2750.44065119469 195 199 202
67.7313435107272 450.239344196795 2752.36527651815 209 213 216
83.1644446145452 450.591907190629 2754.8669609547 206 207 211
99.4640297591163 451.031841909006 2757.94032722887 221 221 223
119.09815337888 451.839849597027 2763.41450302722 145 145 147
137.155225749663 452.451195791136 2767.61000294386 137 137 139
142.077754285777 451.561572021772 2762.02597443548 138 138 138
301.782975252271 453.091084371145 2774.4565899773 156 156 156
310.297099139164 452.533807439357 2771.05080206546 139 139 139
312.01331060398 451.258042213094 2762.95463150468 128 128 128
311.14895926487 449.717228700039 2753.12706238652 122 122 122
311.106397887787 448.270083164712 2743.9095567578 128 128 128
313.606451906597 447.093470118499 2736.45693555693 141 141 141
319.52674168429 446.273179457632 2731.33092310819 156 156 158
322.001126312458 445.100262891734 2723.90052653758 148 148 150
327.911835851727 444.281442074567 2718.78280810122 152 153 157
335.552871645219 443.638101999187 2714.81105384194 165 166 170
-246.187467239039 485.197121574435 3020.25336807713 199 201 200
-243.329505999002 483.997101496966 3012.49068750094 180 181 183
-241.194265552943 482.692123269615 3004.03151876127 173 174 176
-235.540947557519 481.922757645031 2999.13657035691 156 157 159
-231.307753973235 480.940439985758 2992.82735301576 159 159 161
-227.083403744961 479.958961703863 2986.52547957711 143 143 145
-224.295654682392 478.766720393628 2978.82360401227 142 142 144
-219.376776821556 477.892979012349 2973.24263675711 145 145 147
-211.59048852749 477.440345967994 2970.46669650748 140 140 140
-201.631849953915 477.300713633304 2969.77628757596 127 127 127
-190.927047383276 477.262051656796 2969.7617580693 118 116 117
-178.021369024687 477.532406847486 2971.80774609786 108 106 107
-168.706592171365 477.276380082677 2970.35288862934 93 93 91
-157.187076673856 477.328768185411 2970.95488900976 106 106 104
-96.3892972883325 470.017070278082 2924.92358363649 176 176 176
-107.198035922224 467.016796477814 2905.19739999897 179 179 181
-115.085777487455 464.430548644147 2888.23047482354 174 174 176
-118.518205661654 462.455279356009 2875.33789097696 173 173 175
-122.000696074099 460.486602309718 2862.48865515384 177 177 179
-118.700985164155 459.420995123968 2855.66579964629 173 173 175
-117.698062053568 458.058935815795 2846.86516005668 166 166 168
-115.957490501336 456.799173327036 2838.74777203438 181 181 183
-117.299147765952 455.147060505478 2828.01104595577 183 183 185
-115.609235089416 453.893813146915 2819.93783909659 178 178 180
-114.710138645096 452.5450775849 2811.22710347243 178 178 180
-109.208092045972 451.787071039012 2806.46319381752 182 184 183
-104.480322801088 450.93134122769 2801.0477505537 177 179 178
-100.533126417196 449.978743722634 2794.98590916599 186 186 186
-98.1500452474746 448.833034788216 2787.63447227855 188 188 190
-95.004662005127 447.786272588385 2780.94494047893 166 166 168
-91.0906768114628 446.837660848841 2774.91217410854 159 159 161
-87.186030553466 445.89007499948 2768.88717996874 167 166 171
-81.7189366823081 445.135428151423 2764.15354332859 187 186 191
-77.0404834104208 444.285052244018 2758.78080929778 185 184 189
-69.9977768252089 443.721339634837 2755.32681696919 165 164 169
-61.3641426949414 443.346610819151 2753.13952318943 156 153 160
-55.8905114595722 442.590364940316 2748.4002307425 145 146 148
-52.8054706265331 441.550493731125 2741.76327073706 145 146 148
-48.1379690162025 440.700762040418 2736.39970921759 172 173 175
-40.2752560865198 440.227468720899 2733.55797838116 185 189 190
-30.7970538242852 439.939791535664 2731.96167933199 189 193 194
-16.4749761335825 440.209656765016 2734.10328719459 183 187 188
4.34034462692612 441.218290012424 2741.19921417184 190 194 197
23.6158437360015 442.030458096696 2746.98419576475 192 196 199
34.8576115025812 441.907594800721 2746.50480484843 202 206 209
49.3758822858927 442.14981074329 2748.47654427365 209 213 216
63.1240333049283 442.293893226932 2749.79314921536 227 232 235
80.9937201385846 442.890882408711 2754.15147145916 227 231 234
98.9236327774656 443.479431516344 2758.45764852467 226 227 229
118.554481850273 444.241797783426 2763.93495824812 229 229 229
135.786398941228 444.722088898012 2767.52323827373 240 240 240
140.707146267753 443.835938860107 2761.94073109386 195 195 195
291.052433572983 444.102511695999 2767.93498981384 171 171 171
308.879663521215 444.499996136921 2771.00782737708 158 158 158
316.551715498145 443.846879708191 2767.00925362776 131 131 131
316.554121018902 442.413103729209 2757.75300245015 130 130 130
313.962200193674 440.724375115341 2746.77690113886 124 124 124
314.756960542719 439.385738165613 2738.15653191953 132 132 132
319.822147237206 438.479537398036 2732.44896387687 133 133 135
324.021473249035 437.488553638268 2726.16884142182 130 130 132
329.938357117679 436.669350461122 2721.04577394996 156 157 161
337.584940878677 436.020202851064 2717.06924870079 159 160 164
347.840539709628 435.624097355699 2714.79953920763 172 173 175
-237.021573294866 480.784290696603 3041.45150136155 209 211 208
-241.824618502208 478.436041091287 3025.77919935646 185 187 186
-241.765124448597 476.827194753766 3015.15134108359 180 181 185
-240.327969860767 475.430880792809 3005.97455943538 166 167 171
-234.670256738434 474.661102928358 3001.07580428788 154 155 159
-231.142045660282 473.580151715156 2994.05468338804 155 155 157
-226.915000389364 472.603909844849 2987.75044012697 144 144 146
-224.12412509379 471.4224462342 2980.04578510386 143 143 145
-217.055229539713 470.859660490508 2976.56940336134 134 134 134
-210.696696055912 470.192977049749 2972.38581483352 129 129 129
-198.575053149091 470.343327961095 2973.78887132857 133 133 133
-185.695090473486 470.590347259835 2975.85729928108 114 112 113
-169.878591871948 471.238138859053 2980.67128798077 101 100 98
-159.813851634801 471.06676083394 2979.88912263652 96 96 94
-84.7293105077904 465.606474093688 2946.60650427383 171 172 167
-91.6949848496911 463.144877426721 2930.16284342205 179 179 179
-103.986106160341 460.006629429412 2909.07586646614 181 181 183
-112.612757485087 457.370333412502 2891.42612886761 174 174 176
-117.543936113567 455.231896277102 2877.18710149924 173 173 175
-120.262939498153 453.392668105601 2864.99854606602 177 177 179
-118.474153017745 452.140897146867 2856.83963215994 174 174 176
-118.228692630548 450.698552672006 2847.37277211715 173 173 175
-116.486941144723 449.452644643986 2839.25427162675 181 181 183
-115.53145714033 448.113412786066 2830.4946012932 183 183 185
-115.368471814742 446.681696263012 2821.09915648145 177 177 179
-112.927579363185 445.540238916419 2813.69758492764 178 178 180
-109.73283443953 444.496111460987 2806.96525251133 186 188 187
-105.004703367718 443.643447002815 2801.54947577555 179 181 180
-101.83217491093 442.601952155519 2794.83638211027 190 190 190
-99.4501480672452 441.467733638319 2787.48578458691 189 189 191
-97.0853463965051 440.33568514576 2780.15010267828 162 162 164
-91.6121684081892 439.580967517597 2775.41119317376 159 159 161
-85.3565393860811 438.91969842599 2771.31676055663 174 173 178
-77.5265840751422 438.444229145602 2768.5034360261 191 190 195
-72.835666649822 437.595236612866 2763.11957438834 180 179 184
-68.1496002220356 436.746799795751 2757.74022919631 147 146 151
-63.4685901453413 435.898864266564 2752.36526327716 140 137 144
-59.5863474678926 434.959355922759 2746.35963478347 154 154 156
-53.3258197103002 434.296401299833 2742.26128269134 176 177 179
-47.0623904514493 433.632854072036 2738.16010409103 191 192 194
-37.5965313998843 433.333701897235 2736.57426219159 172 176 177
-27.309180585958 433.1227028957 2735.59940900372 164 168 169
-15.3904206176789 433.089726440365 2735.85623852795 176 180 181
0.589740681195217 433.504258499574 2739.20662554061 186 190 193
20.6617737503567 434.362015914652 2745.62418797133 206 210 213
34.3262717338133 434.490924334202 2747.01339633417 223 227 230
48.8426047387427 434.703787528406 2748.98700550811 229 233 236
61.7747713493526 434.731898859205 2749.68834409068 231 236 239
79.6396582175327 435.288961578258 2754.05108536156 226 230 233
98.382820330587 435.92629855478 2758.97533460139 232 233 235
115.54981873043 436.377783737943 2762.62006865321 234 234 234
131.128372523312 436.645100957352 2764.99592089781 237 237 237
303.218769187429 436.04861396167 2768.02889688338 152 152 152
313.430491762153 435.644785497683 2765.79758207647 144 144 144
319.397711768227 434.818713647585 2760.63093097416 127 127 127
319.380351653233 433.407302087129 2751.39166646154 130 130 130
320.190457203055 432.083366704101 2742.7579017386 129 129 129
320.975606250428 430.762971909486 2734.14574477028 135 135 137
327.762056545636 430.025664965819 2729.59172300278 153 153 155
332.826098377018 429.122972004301 2723.88512452345 136 137 141
339.615343357003 428.385498297813 2719.32868158283 154 155 159
345.54101255283 427.565710849096 2714.19800333821 176 177 179
-238.272923831684 473.126714824175 3041.26213674853 13 15 14
-243.775794934227 470.717598589083 3024.87384805979 190 191 193
-241.608807184089 469.436401575759 3016.38700868767 178 179 183
-238.757371028011 468.259178580052 3008.62983591063 165 166 170
-231.678508695484 467.691075911116 3005.14453454394 153 154 158
-228.138992449362 466.617038417779 2998.11388576043 152 152 154
-223.900985879218 465.645009559053 2991.8001146469 138 138 140
-218.958066575067 464.774198755958 2986.19829081844 136 136 138
-212.58859754929 464.103856763968 2982.00524777082 128 128 128
-204.062557868766 463.732029881198 2979.9111911635 113 113 113
-194.800794704272 463.457301666886 2978.50240375049 110 110 110
-180.466765748414 463.874105359846 2981.95596172919 116 114 115
-165.360080969824 464.382944158135 2986.0628111287 104 103 101
-151.652350239537 464.68687916023 2988.73699032421 109 110 105
-77.070180185892 459.034341196765 2954.56777994894 166 166 164
-78.022020510375 457.380814043262 2943.49319468141 176 177 179
-94.7723894607209 453.730787545811 2918.33432801977 175 176 178
-110.141586877166 450.28749072401 2894.62353247482 174 175 177
-120.343933504228 447.523002355371 2875.69381557795 175 176 178
-123.066669426465 445.714818797925 2863.50829409941 174 175 177
-120.524199709373 444.571898666509 2856.01869135729 174 175 177
-117.238227970991 443.525007459379 2849.20730729073 164 165 167
-116.253758455346 442.198842062245 2840.42274501456 173 174 176
-116.824672275823 440.689244190195 2830.34032526054 184 185 187
-116.66214232109 439.277141827684 2820.94514803482 175 176 178
-114.222330981884 438.147118619491 2813.54443942645 178 179 181
-111.028884136095 437.111789586892 2806.81317508689 185 187 186
-107.848515803127 436.078072141949 2800.09323592136 176 178 177
-105.456439423981 434.953968440504 2792.73386256014 190 192 191
-101.527431250287 434.015348457253 2786.68769497329 156 157 159
-96.8282306495887 433.169125271643 2781.2969515771 163 163 165
-90.5716382982118 432.505570544846 2777.20169881884 185 185 187
-84.3119210495757 431.841415324898 2773.10374149101 204 204 206
-77.263568711917 431.267113315254 2769.64523991827 144 142 145
-73.3576008557781 430.330697913811 2763.61902791707 135 133 136
-70.2498891700856 429.305410064201 2756.96232376821 165 163 166
-66.3641565715869 428.371480230797 2750.95363428562 178 176 179
-61.693931172254 427.528021342078 2745.58798682524 212 210 211
-53.8465684028195 427.041494334966 2742.75964627908 195 195 195
-44.3928920371244 426.730927635449 2741.18443751779 135 137 136
-34.1199198978428 426.506055082427 2740.22213674503 133 135 134
-25.4268400573419 426.101252568838 2737.98351410977 149 151 150
-15.9145273144548 425.782212554875 2736.35785351284 197 198 200
-1.54836659853252 425.986494429586 2738.46167801471 209 210 212
20.9396154471317 427.058699479444 2746.75395913034 230 234 235
37.8437912647516 427.509190781324 2750.62681291444 224 228 229
54.8039124889881 427.951796260012 2754.45091239118 206 212 212
67.7507628058511 427.953706157446 2755.13969386369 177 182 185
83.1810927951069 428.209394944906 2757.64409235926 171 175 176
102.749385243972 428.88841024893 2763.17616227357 136 138 137
117.466076084342 429.043561598286 2764.97680359679 122 124 123
123.183807607643 428.252705665819 2760.02616493024 122 124 123
295.862754079181 427.465450036092 2763.87352070014 165 165 165
312.011301885529 427.621293517557 2765.75637651051 145 145 145
318.82893994623 426.877151478826 2761.17536747722 146 146 146
323.086033520538 425.889826332918 2754.84515209143 125 125 125
322.19431078739 424.419891251514 2745.04084745033 125 125 125
322.986603558777 423.115332471954 2736.42239614186 152 152 154
327.19674501219 422.134719699236 2730.13283235058 153 153 155
332.260971541435 421.235145888192 2724.4260535748 148 149 153
339.04991590159 420.495436992106 2719.86988567628 149 150 154
346.70930783428 419.834563495536 2715.88233510836 142 143 145
-239.523900206392 465.47363216553 3041.07273423247 111 113 112
-242.922400684891 463.406299776846 3026.8280797316 174 175 177
-238.640558537342 462.435366450468 3020.47662316126 171 172 176
-235.072668187429 461.366498445741 3013.42103251083 163 164 168
-228.68876645468 460.692955169687 3009.2155008617 154 155 159
-225.847490033682 459.52761042399 3001.46705692089 153 152 157
-220.889352070794 458.657931814515 2995.85171968438 137 137 139
-214.508849572093 457.983910336496 2991.64945288519 133 133 135
-205.978673066549 457.601106147372 2989.55188187614 120 120 120
-195.997568523246 457.410030316765 2988.84233423627 108 108 108
-184.553440173583 457.408911920101 2989.51002209094 107 107 107
-170.190519776416 457.789149106045 2992.93909128368 110 109 107
-156.502711429936 458.066161120055 2995.63039687412 98 97 95
-73.1470176728037 451.935795357093 2959.1533134817 168 168 166
-71.839558524232 450.583918650997 2950.08897109087 173 173 171
-88.5655245946317 447.013076785553 2924.9081249448 173 174 176
-104.662686637188 443.551269513969 2900.5054570966 171 172 174
-118.616482411984 440.381708662549 2878.21294551394 174 175 177
-121.330741593197 438.602835647892 2866.01988700621 176 177 179
-121.056685881014 437.195865639869 2856.52801313998 174 175 177
-117.769956655531 436.157406200275 2849.71591789406 165 166 168
-119.071921360323 434.575157207074 2838.94465164061 170 171 173
-117.353209870706 433.360318852347 2830.84591941083 180 181 183
-117.189120178681 431.967529329634 2821.44926515705 175 176 178
-113.979660952231 430.938757323517 2814.70407982192 177 178 180
-111.554094523779 429.82185121309 2807.31563279061 173 177 178
-107.60017976721 428.886075241458 2801.24785934386 171 175 176
-105.205055882735 427.772909557402 2793.88577372159 189 190 192
-102.050358246825 426.750853629549 2787.18800870501 163 164 166
-96.571842928463 425.996375393831 2782.44447159342 184 184 184
-89.5320779073043 425.418588672769 2778.99343553757 206 206 206
-84.0513517545878 424.663393497446 2774.24798686217 156 156 156
-80.1418267342626 423.732547550669 2768.21865564871 139 137 138
-76.2412321284573 422.802806700763 2762.1973730983 148 146 147
-72.3499048432474 421.874141982701 2756.18380038155 202 200 201
-66.8852060481129 421.120476431041 2751.45223328106 218 214 215
-62.2145942215058 420.280109525592 2746.08623085415 195 194 192
-55.9584637297101 419.613053770906 2741.99140109294 166 165 163
-44.1174989115236 419.54822232889 2742.31554937834 151 151 149
-32.2446096527629 419.478904169414 2742.61237219047 184 184 182
-21.1415630004845 419.319477662136 2742.2534527807 203 203 201
-10.814362384127 419.070833380939 2741.24430427903 215 217 216
-1.26932572482286 418.733829916099 2739.59008157826 226 228 227
18.7941255927906 419.49518072863 2746.01602235154 162 166 165
35.6913902487865 419.908702566691 2749.89479033804 136 140 139
55.0798484228614 420.56675230771 2755.58286493975 127 131 130
68.840790920909 420.628265811742 2756.88891809586 124 128 129
84.2731279350772 420.851338031115 2759.39210389982 118 122 121
105.477953566397 421.650764014525 2766.15178867324 132 134 133
120.200523436557 421.775397888093 2767.94721667118 133 135 132
124.282696109192 420.818396741752 2761.76841501806 140 142 139
310.591767665794 419.602616607577 2765.71512268449 161 161 161
318.259855432329 418.935032559041 2761.72007860935 154 154 154
323.371895583638 418.031834265329 2755.97188153542 142 142 142
326.765970697076 416.973438808075 2749.0668749358 122 122 122
328.430120238105 415.761576702882 2741.01541422189 121 121 123
331.794403901125 414.707462793049 2734.13620119865 133 133 135
335.14569596817 413.655218253421 2727.26823634506 148 149 153
342.807314168332 412.988924674366 2723.27879131336 144 145 149
353.942898207295 412.627850948825 2721.56971638792 145 146 148
-236.734154653923 459.960690488936 3055.89413887393 57 59 58
-242.871053603635 457.534292337415 3038.7319205125 190 192 191
-243.471572461418 455.889924851003 3027.35277294681 165 166 168
-238.486238791226 455.020857869514 3021.71417576272 165 166 171
-232.800522752347 454.248177159464 3016.79116829141 159 160 165
-224.28729864463 453.858193960245 3014.70833705507 150 151 155
-221.430583661278 452.701908907962 3006.94645325029 148 147 152
-216.457423152039 451.833223694849 3001.3184045085 131 131 133
-210.062677410612 451.154626869457 2997.10350671439 125 125 127
-200.088070424401 450.94849635301 2996.39968829554 118 118 118
-187.937717461435 451.021837625261 2997.7780442645 106 106 104
-177.189379152821 450.901758473235 2997.72662386703 99 99 97
-164.970369560091 450.965105076258 2999.04553743284 90 89 87
-76.6865523104392 443.899417490833 2956.97987230674 165 165 165
-76.1340957888246 442.475106521872 2947.24681082184 176 177 179
-89.113525397269 439.436747820439 2925.43219173852 171 172 174
-106.709179701656 435.874805815521 2899.68213261485 171 172 174
-120.6617364009 432.776701957283 2877.38808403777 176 177 179
-124.133944900278 430.939497702149 2864.52908456406 174 175 177
-123.105998411886 429.641462597837 2855.70665694786 169 170 172
-119.822564329971 428.612040585846 2848.89735915855 167 168 170
-118.839608755734 427.319653019019 2840.1135746758 166 167 169
-117.117653023684 426.118421064526 2832.01194237467 171 172 174
-115.416888371492 424.919945369234 2823.92897479638 173 174 176
-114.506166673609 423.636776615234 2815.20773827254 172 173 175
-112.079661877426 422.531062619859 2807.818405399 169 173 176
-109.67038006822 421.427548297824 2800.4439860534 182 186 189
-104.954447382005 420.585637059063 2795.03839690291 151 155 156
-102.573635651421 419.485597528509 2787.68863108106 149 151 150
-97.0949126004452 418.731480577242 2782.94491157902 193 193 193
-91.617144069196 417.977312514074 2778.20201972474 143 143 141
-86.9231612563568 417.137690803752 2772.81575599511 182 183 178
-85.3740176132329 415.958234560131 2764.86376503597 215 214 210
-80.6982549498878 415.120797097102 2759.49327921085 226 225 220
-73.6603933555031 414.537457754746 2756.04392890453 231 228 223
-65.8243171858066 414.037239643463 2753.22545957875 213 210 205
-59.5632357912401 413.367331297952 2749.12635717701 199 196 191
-54.0940699767729 412.613153995305 2744.39092166646 209 206 201
-43.8426957012923 412.359390502064 2743.44752775259 197 196 194
-32.7685248345926 412.18534791341 2743.11373073668 218 217 215
-20.8655525090573 412.09018760166 2743.38433141846 203 203 201
-10.5373652331586 411.825450780772 2742.37443202356 151 151 149
0.619666144365816 411.639560550934 2741.96889359754 121 121 119
19.0709822647959 412.187715086919 2747.14667415389 126 128 127
33.5393246311213 412.31828994648 2749.16241176977 121 125 124
51.2976764657616 412.76843040179 2753.61818364251 119 123 122
65.8620496992168 412.885563606896 2755.55077495632 135 139 138
82.9172676778853 413.239149362173 2759.29334302065 144 148 147
104.933986406764 414.06835236173 2766.67239877954 151 153 150
121.293891709568 414.324277986947 2769.69467578789 148 150 147
129.488962868833 413.772696972535 2766.56506992078 138 140 137
312.573253013268 411.893046858453 2768.01775444332 170 170 170
319.394800934615 411.143938949884 2763.43370428507 151 151 151
322.802593418178 410.092289819306 2756.51676463133 158 158 158
326.197214990736 409.042534207559 2749.61122840953 143 143 143
331.295532188149 408.144455547434 2743.87457682481 130 130 132
336.389264619909 407.247166236853 2738.14220941913 134 134 136
338.891023883622 406.127454950539 2730.68774149638 141 142 146
346.562359125792 405.454792381244 2726.68991562632 140 141 145
358.573301901695 405.150401271934 2725.54502938649 149 150 152
376.691345523764 405.357179438433 2728.36704406685 163 164 166
-237.833813482351 450.745660597442 3044.99667194314 184 186 185
-237.715081143791 449.217527970862 3034.31694669255 172 173 177
-234.116241368052 448.161619405297 3027.23444708481 164 165 170
-229.825486589246 447.200392830938 3020.87488720375 160 161 166
-222.716026764282 446.612262026581 3017.36351118621 149 150 154
-219.852110502874 445.466145995237 3009.59531987939 146 145 150
-214.872496988371 444.599444085599 3003.96134972128 128 128 130
-207.758435902315 444.009705500623 3000.44599604382 121 121 123
-194.201473212766 444.245979622656 3003.25097425087 115 115 115
-179.882701398826 444.567485299579 3006.71868918924 102 102 100
-166.953573433139 444.699339748192 3008.74525008871 91 91 89
-86.1913881153704 435.182070111 2949.39446677067 164 164 164
-85.6621389975181 433.780385213353 2939.68105784644 174 175 177
-95.6611683455257 431.162245583611 2920.57417021218 170 171 173
-109.50713838771 428.121411400555 2898.1873680393 170 171 173
-118.936292745993 425.614628619727 2879.90908854448 175 176 178
-123.155827388613 423.723172012893 2866.37491418593 175 176 178
-122.880689724372 422.355132023789 2856.88185028547 171 172 174
-121.114848663448 421.162392590033 2848.74212596063 169 170 172
-120.132366629926 419.886948949782 2839.95895762841 165 166 168
-117.647081059183 418.785094237698 2832.51833682361 167 168 170
-116.711381651961 417.515591567397 2823.77567817755 172 173 175
-115.033047403391 416.334008003495 2815.71172686206 169 170 172
-114.146481198511 415.070770605061 2807.01129761658 168 172 175
-112.512702556634 413.894970064154 2798.98624228565 185 189 192
-108.577018653054 412.973207300182 2792.93417936855 153 157 158
-103.873756385797 412.136018911271 2787.53985703425 193 195 194
-98.3969079534903 411.382573620935 2782.79775797921 141 141 139
-94.4823755564221 410.46315032985 2776.76401267324 145 145 143
-89.7942129133358 409.627486397684 2771.38276784745 226 227 221
-88.2500669613648 408.462836337205 2763.43501262243 228 227 222
-82.7933296755625 407.711410754385 2758.7103315332 175 175 167
-74.9710332253284 407.20544283494 2755.90384284448 71 68 61
-67.1374798301776 406.697719381024 2753.08760873289 77 74 67
-62.4641407261088 405.863333123199 2747.71920372182 117 112 106
-57.7958825734788 405.029421523181 2742.35519947821 98 93 89
-48.3508718544297 404.680227478296 2740.78775185051 24 21 16
-34.092022263303 404.81065894417 2742.98506531398 16 12 9
-22.1922947309756 404.694548504036 2743.25892964486 24 20 17
-7.85171683251695 404.81343451971 2745.38548106148 42 41 37
0.0916626808500354 404.289633063797 2742.47416089143 43 42 38
17.7327807293599 404.715557607547 2747.03170042024 123 123 121
28.9601391004211 404.501032760268 2746.56539261409 143 145 142
46.7053333399594 404.912380033753 2751.03250451539 126 128 125
62.0708761354618 405.079980067651 2753.5939427307 52 54 51
78.29978179669 405.319023234575 2756.72987123588 34 36 33
99.4852058918516 406.018027893761 2763.50702275075 55 57 54
112.552680327625 405.930482313908 2764.09183463733 45 47 44
324.788616957463 403.706807641083 2768.07033998611 141 141 141
322.232841888572 402.152177085028 2757.06204088981 143 143 143
325.628095205829 401.110989947079 2750.15590158825 151 151 151
331.584751970499 400.288406737588 2744.99838342048 155 155 157
340.981421197994 399.753877253733 2742.15077520729 146 146 148
345.220381601822 398.787109696236 2735.83614327846 145 146 150
352.04340345652 398.035886933342 2731.25082931351 152 153 157
359.735784493776 397.355427289057 2727.23449730875 163 164 166
376.11863951089 397.382521007692 2728.91510493916 155 156 158
-235.755420834848 445.058460890599 3059.11250004089 196 198 197
-236.291806110492 443.455431448051 3047.67749772275 188 189 191
-235.46468253967 442.039434541399 3037.70631855818 165 166 170
-232.559225649644 440.899791234422 3029.90208055195 157 158 162
-227.55696817805 440.033984569907 3024.24879377394 155 156 160
-223.266046254795 439.078095298321 3017.88905443693 145 146 150
-218.275019463668 438.213172281712 3012.2454959673 142 141 146
-213.28882604067 437.348518668268 3006.60580949297 128 128 130
-204.030364844485 437.021175986888 3005.20022495765 121 121 121
-191.892593449833 437.047636206414 3006.59010512734 105 105 103
-174.700191796737 437.69134129101 3012.85841293374 90 90 88
-160.318575264861 437.971274268136 3016.27161197544 94 94 92
-86.9611521020079 426.082000138261 2939.53358405152 173 174 176
-95.4585275777822 423.690356234791 2921.77021307614 168 169 171
-110.048847029741 420.63595073263 2898.70539236242 164 165 167
-119.473903220229 418.183831095663 2880.42320661973 169 170 172
-125.202513751665 416.160757617183 2865.55101820069 180 181 183
-124.929893581149 414.812609497825 2856.06000740272 181 182 184
-124.686758155933 413.468297389786 2846.59452723587 171 173 172
-122.187205522322 412.376071595636 2839.14179377207 164 165 167
-121.233073001846 411.121057014542 2830.38274908816 174 176 175
-118.772074731458 410.033694020805 2822.96340056573 171 173 172
-118.632896086846 408.70278306779 2813.58793663749 164 166 165
-117.753145944161 407.457321556087 2804.89329992993 167 171 170
-115.354220185533 406.377913729652 2797.52770033492 172 176 179
-110.649661800033 405.543874473068 2792.1322342019 168 172 173
-106.726627959582 404.629534441612 2786.09108744973 204 206 205
-102.81263695074 403.716277478068 2780.05777142644 151 151 149
-98.9076009567662 402.804098981276 2774.03252556078 191 191 189
-93.4468416766778 402.052880327554 2769.30435712362 46 47 41
-91.9097555387314 400.90331415942 2761.36262314918 7 6 1
-88.0341140778382 399.994660094073 2755.36283174351 23 20 13
-78.647373303343 399.640827083877 2753.84591883185 20 17 8
-70.0318226069787 399.205353680413 2751.6746922407 32 29 20
-62.1934701353131 398.689034038317 2748.85435430051 21 16 10
-58.3175126707278 397.779753526101 2742.85429306247 36 31 25
-48.0765873592861 397.495380826608 2741.91983847689 36 31 25
-38.6106365318875 397.129959468479 2740.33466197084 35 30 26
-31.5279502558297 396.529474633653 2736.84657160493 39 36 31
-23.6353919388237 396.005009376793 2733.97898878111 67 66 61
-13.3163844060351 395.709409817749 2732.97724579084 62 61 56
10.7453714917751 396.712149411703 2742.5527679351 51 52 47
32.4728306055686 397.473126164936 2750.18297750748 53 54 49
54.280909330565 398.222871464724 2757.74338394509 53 55 50
63.9727763648699 397.825513503778 2755.96260469203 52 54 49
78.5749429269047 397.878030169537 2757.86285788628 53 55 50
126.753846356815 399.686958785558 2775.64390503484 56 58 55
325.920089963854 395.879329485802 2769.78689565877 156 156 156
324.224245846791 394.421778632715 2759.35621080271 132 132 132
325.058438585226 393.178919121357 2750.70104347392 143 143 143
331.873102875969 392.42637429748 2746.1226663642 151 151 153
341.270892008535 391.881243857354 2743.27415618349 140 140 142
348.098403362616 391.12705098301 2738.68497025444 151 152 156
350.609026283237 390.028970392335 2731.22236420136 156 157 161
355.701006933884 389.138624247995 2725.49147013544 158 159 161
372.941305077518 389.202924909433 2727.75192075784 155 156 158
-230.955960326885 439.668432966981 3076.16131413701 120 125 121
-231.438501194925 438.083244522637 3064.67952732528 195 199 198
-231.958462314077 436.5027960892 3053.23014327485 174 178 179
-231.815488913679 435.015609848451 3042.52914209103 172 176 179
-228.194389101228 433.973471618181 3035.42725967723 158 162 165
-224.586087344511 432.932757490558 3028.33646057013 152 156 157
-222.403343779504 431.718225111292 3019.83584859129 143 147 148
-216.699382158733 430.942937525727 3014.89704391093 140 141 143
-210.995889592236 430.167428649095 3009.95864721075 123 125 124
-199.592374891892 430.085828126019 3010.66205790131 120 122 121
-186.72717403114 430.172543895353 3012.74431922022 108 108 106
-164.504453488343 431.374246730526 3023.91251012326 100 100 98
-86.7652543002793 418.552120824991 2940.73584706291 167 168 170
-98.2547300052716 415.88525313725 2920.27426136171 175 176 180
-110.590886944403 413.149681299743 2899.22370905225 176 177 181
-118.504494158674 410.914481201151 2882.2769277665 167 168 170
-123.47021005953 409.012821800231 2868.06598525506 174 176 175
-124.705175951243 407.521979085575 2857.23605640711 179 181 180
-125.978146583454 406.036052671442 2846.43872026322 169 171 168
-125.765156282752 404.715173429423 2836.99921611378 169 171 170
-125.581694463123 403.398151060229 2827.58528036765 171 173 170
-122.364102477147 402.402927953428 2820.8328286798 172 174 171
-120.695747754407 401.250864791138 2812.77733568511 169 171 168
-118.278590118982 400.180484823727 2805.3958753664 183 185 180
-116.650757507691 399.033646515988 2797.37578599791 162 164 159
-113.496174510757 398.046265148613 2790.67789565103 52 53 48
-109.578693580866 397.13858669547 2784.64151863884 29 30 25
-113.45241075466 395.454011887351 2772.12953212269 37 36 32
-105.672192257768 394.938888841971 2769.35957323405 21 20 16
-98.6629906092658 394.344781980398 2765.93513330679 22 19 14
-96.3525729546819 393.287818668763 2758.64610142593 38 35 28
-94.845955986353 392.156369193924 2750.73065877938 70 66 55
-87.0531673783348 391.638879593253 2747.94982025894 51 47 35
-78.458691384089 391.195734328636 2745.79690958349 37 31 17
-69.8487839055044 390.750346195733 2743.63063841973 42 30 14
-61.2232898827019 390.302701537646 2741.45118797302 44 32 16
-52.5825866785778 389.852836723902 2739.258254056 58 49 34
-41.5305356622895 389.625629762957 2738.94397361599 62 52 40
-35.2550279544763 388.946292832577 2734.83242850747 63 57 45
-27.3709029049858 388.415245205701 2731.97251326651 48 44 33
-23.4992207149376 387.511840377364 2725.976119488 30 28 16
29.1357759494826 385.994181983234 2721.38923705094 39 44 38
148.319172304848 393.994729303497 2792.7199153173 46 51 45
327.050471880708 388.040462434855 2771.50478633111 175 173 174
330.482264548044 387.011601704865 2764.56689718601 127 125 126
329.622768517953 385.649014314889 2754.73396488728 135 133 134
333.018399679286 384.62523311116 2747.82738530379 134 134 136
338.980467575043 383.802969184472 2742.66517504525 120 121 125
346.665342798673 383.113429539518 2738.65540743759 135 135 143
350.038489597157 382.092945826684 2731.76829449175 137 138 142
355.996450734911 381.27147450799 2726.60963857186 145 146 150
368.896919222812 380.973701898633 2726.01730192072 165 166 168
-221.801278843237 433.237606453096 3086.79520881068 111 111 111
-230.604158440363 430.637618840728 3066.65145756672 189 190 194
-231.81590915204 428.995199319694 3054.47881312431 173 174 178
-228.869042372033 427.872504227107 3046.63825834028 169 170 175
-224.534605639276 426.922724238418 3040.24107907829 162 165 170
-220.913139759305 425.888621342462 3033.13882731145 157 161 164
-218.010659368746 424.77108762241 3025.33702587363 146 150 151
-212.292049135635 423.993991973057 3020.38553643072 139 143 144
-207.284390275229 423.132331393089 3014.7272256953 121 123 122
-196.582059848566 422.943500648163 3014.71612749488 116 118 117
-184.422896517189 422.918040954907 3016.08748743357 98 100 97
-164.345771411386 423.805827096779 3025.14727908324 100 101 96
-85.0754080838745 411.174654966457 2943.289100898 172 173 175
-95.8045358173849 408.648730090447 2923.49115735154 172 173 177
-111.133280546076 405.662606120474 2899.74233751659 167 168 172
-121.303490967115 403.241264460179 2880.78254341562 167 168 170
-126.27238309323 401.378809102493 2866.5740998096 180 182 181
-129.026732209166 399.757782535256 2854.41508135325 175 177 176
-130.307980978277 398.29804828473 2843.62475044229 152 154 151
-129.341875365241 397.075279152977 2834.85543481022 171 173 170
-125.346722234655 396.163982462307 2828.75175995606 171 173 168
-120.594768009628 395.330477189223 2823.31521068507 192 194 189
-120.454524362418 394.03857339545 2813.93857091344 184 186 181
-117.264617088661 393.055327950833 2807.21003694524 68 71 64
-115.631720643493 391.921873714031 2799.18515632795 27 30 21
-109.376654294667 391.244990221498 2795.09131258169 23 24 18
-113.981952555908 389.512471629889 2781.89046349521 47 48 42
-124.087395234431 387.261617278295 2764.19668897385 26 25 21
-117.114224846251 386.667601850348 2760.80347804254 15 14 10
-108.56979552579 386.221435000932 2758.69396419811 22 19 12
-97.657396561087 385.995698146102 2758.50071568462 30 25 19
-96.1515395280932 384.878536289308 2750.58615463007 60 53 43
-90.7259571690138 384.132549025614 2745.88844139523 58 52 40
-82.930524543821 383.606708547231 2743.10536532396 59 53 39
-74.3314921319058 383.152289924399 2740.94857848918 72 61 43
-61.745100568563 383.059795055025 2741.95039426514 78 65 46
-52.3087052024813 382.67204174936 2740.39066373851 91 80 62
-42.0542343875563 382.35373812212 2739.44500416427 77 68 51
-37.3797048269968 381.528129554847 2734.07551046213 66 60 46
-30.3027785741619 380.918262499695 2730.59215779956 63 59 47
-29.6550275999699 379.735866420575 2722.09850995772 39 35 24
-20.1600978822301 379.339451685085 2720.48810173079 46 46 38
98.6699460330649 383.383396812625 2765.68357161983 20 25 19
163.322653690205 387.599836643356 2804.90114741741 32 37 31
327.328156095922 380.125250305448 2772.63865908439 177 173 174
337.590517956246 379.622257695576 2770.36409597459 140 138 139
337.606179842568 378.343718004019 2761.09534909344 122 120 121
341.022795004773 377.325764404994 2754.17054415911 146 146 148
339.269026607154 375.926565977511 2743.78937072105 144 145 149
345.232348598735 375.104732021561 2738.62607070636 161 164 171
347.74049200489 374.029854122147 2731.16577889642 143 146 153
356.291348894627 373.398491716123 2727.72863324638 165 168 173
367.456600969008 372.953751746254 2725.99407061474 205 206 210
-231.162322018421 423.013102704852 3067.18464505725 178 179 183
-229.58069803656 421.7311634545 3057.88190544138 171 172 177
-227.3243710906 420.535354826489 3049.31707925812 172 173 178
-222.983146505055 419.590290007547 3042.91398616571 157 160 167
-217.946858023212 418.728546662013 3037.23086164463 152 155 160
-212.914968695021 417.867193380801 3031.55186301337 143 147 150
-205.763488985614 417.251814730207 3028.00424341832 137 141 144
-201.444915812787 416.308670320273 3021.62045516237 119 120 122
-191.437546951469 416.017116693823 3020.88879439263 114 116 115
-180.691869676228 415.803038018409 3020.83997401485 100 102 99
-92.3520257399724 402.861155269216 2937.73989978606 171 172 174
-100.847840245825 400.626696978351 2919.97415729525 177 178 182
-114.68068750094 397.870695775965 2897.57413540631 167 168 170
-123.348382023206 395.659294997393 2879.95721809062 161 162 164
-126.052393636635 394.062121179451 2867.75441574507 164 166 165
-128.802542038219 392.47101870335 2855.59124695689 182 184 183
-130.079562468514 391.035814547244 2844.79740774992 174 176 173
-131.394608960701 389.605544534588 2834.0361796114 63 65 60
-125.112456710582 388.923606017762 2829.91889229758 20 22 17
-118.061512145846 388.315074307338 2826.45836575777 22 24 19
-113.306003953496 387.484024838518 2821.01872022188 17 19 14
-112.403782833462 386.28605111217 2812.30429938851 15 18 9
-116.92875220781 384.578885755682 2799.03366207878 33 36 27
-118.412967653112 383.170679347526 2788.41891577993 29 30 24
-123.813800837892 381.404279373803 2774.58454408695 24 25 19
-123.828079149812 380.152259031464 2765.34157560577 38 37 32
-118.41293262563 379.408725185431 2760.65289158594 32 31 26
-109.089303133881 379.024195967673 2759.19087840374 33 30 23
-91.122518935054 379.423599915165 2764.78958410035 28 24 15
-90.3832284581569 378.246640069083 2756.2162449414 34 30 19
-90.4574898179482 377.0020539581 2747.02521774986 47 43 31
-85.8207515536647 376.185517232224 2741.68842033683 60 54 42
-79.6048823903606 375.510304342054 2737.62853937464 71 62 45
-63.855742981711 375.675980615613 2741.18077395522 64 55 38
-52.8317822004993 375.41533735336 2740.89105699971 66 59 41
-44.1749428095091 374.94208477862 2738.6842888228 63 56 40
-40.3044396113343 374.050935733584 2732.68883750115 60 54 42
-35.6407308130229 373.229928438729 2727.32869272623 53 49 37
-30.9823187112634 372.409507460407 2721.97281947641 43 41 29
-25.5223668871034 371.658083145594 2717.24535222301 35 35 27
-1.46861610435201 372.474262452997 2726.82902160354 33 33 25
57.529746963144 376.196082597567 2763.01042998962 32 33 27
337.819944254426 372.951213689804 2780.7951904891 175 174 172
343.841235295135 372.121647812121 2775.5816967189 160 158 159
343.874605108516 370.86038100313 2766.29748981216 132 132 132
343.878752036543 369.603124541985 2757.0385854434 122 122 122
341.27545331007 368.166581778942 2746.0707115975 137 138 140
343.799353174471 367.100930363023 2738.596703311 171 171 179
348.896357871797 366.219437270315 2732.8610818424 146 146 154
360.047111893945 365.760772193259 2731.13949094163 192 193 198
371.221537686333 365.298949146218 2729.39740333046 207 208 212
-228.474433186957 417.22419384272 3082.09612085424 198 197 202
-231.720665433376 415.387682552221 3067.71799427694 189 190 195
-230.835167606013 414.041601461728 3057.69576698975 159 162 167
-227.180300666379 413.020397327472 3050.56448173962 156 156 166
-222.134889891704 412.160644350706 3044.8734377018 154 157 166
-214.982564324172 411.540465694184 3041.32511607527 148 151 160
-206.410984288011 411.077841747653 3039.19217637202 135 138 145
-199.94693036139 410.37524619741 3034.91767770773 128 131 136
-194.189312550839 409.592987167914 3029.93241245417 108 112 115
-187.008383269054 408.967736485738 3026.35901631436 103 107 108
-179.105611525489 408.419565454497 3023.48305027348 123 125 122
-91.4098465797038 395.408201182486 2939.61809631394 175 177 176
-100.646504340196 393.15153990241 2921.17135230505 160 161 163
-115.973911815471 390.319599675321 2897.42068982284 159 160 162
-125.392688591665 388.087434695217 2879.13163617442 151 153 152
-128.853667358009 386.448288782171 2866.26162006445 169 171 170
-127.821763674845 385.250561844356 2857.43479709303 73 75 72
-132.88883469059 383.478678602112 2843.31117726293 16 18 15
-140.297915554571 381.498888871254 2827.24871066095 3 5 0
-133.275141706211 380.889263005528 2823.81229227091 34 36 31
-120.122202373254 380.84918095604 2825.64598196635 13 15 10
-113.835612203502 380.163912210768 2821.52518524087 11 14 7
-116.779305738952 378.628698063834 2809.52940681934 18 21 12
-127.483541827265 376.39467510003 2791.03125812971 22 25 16
-126.671888912357 375.225591601094 2782.39514880577 24 25 19
-130.539217385274 373.640256152978 2769.8769818994 25 26 20
-126.680158294949 372.758149046246 2763.89139100539 27 26 21
-113.474308417089 372.709579043312 2765.67927623186 24 23 18
-96.3200546466911 373.000833694783 2770.65935568205 27 27 19
-90.0777787644573 372.320290183515 2766.57693712279 26 23 14
-85.4042157503727 371.502110670211 2761.20791750791 29 27 15
-89.4017703109391 369.933751272735 2748.80282774024 40 38 25
-87.1302818708148 368.915866304252 2741.54728398021 46 42 30
-84.0842326945941 367.967924168697 2734.94320822975 46 40 24
-65.1718610318301 368.369788010281 2741.04558421455 57 50 34
-53.3552232770838 368.157993297396 2741.39176996591 62 56 40
-41.506662174748 367.941697042703 2741.7106312874 52 46 32
-42.428314907216 366.655893115685 2731.93075936522 46 42 30
-38.5705158995009 365.772353751089 2725.94626991117 35 33 20
-33.9178769527688 364.955914162465 2720.59537466282 42 40 28
-26.0452350923592 364.402982529336 2717.7455541235 34 34 26
6.89523737252395 365.877125557758 2734.17965041578 37 37 29
35.9215932512145 367.006362811621 2747.39123634359 44 45 39
35.0085480019113 365.718823036917 2737.60423076755 44 45 40
34.8762531362725 364.500437440578 2728.46333352153 43 45 40
98.3958900243209 368.302908961746 2767.34208862244 32 37 31
104.911405458362 367.582917904026 2763.02309914323 35 40 34
47.430229034179 361.88929310588 2710.9823362576 67 72 66
344.116977754058 364.162291585649 2776.71753851701 161 161 159
346.719061955996 363.097204880153 2769.17576139552 139 139 137
348.447079787673 361.97577054591 2761.06867327703 135 135 133
349.294644991834 360.798841404582 2752.40148832109 132 132 130
350.978186330672 359.683584191646 2744.33259403689 138 138 140
356.957094488442 358.860684259604 2739.15579183927 176 175 180
368.127038924867 358.383520030326 2737.41768779163 218 217 222
379.320562195062 357.90316543233 2735.6591677949 169 169 169
-225.569439325159 409.954531878547 3086.24198571937 197 198 202
-228.80257733888 408.152084070165 3071.85228916771 181 184 189
-227.905174167961 406.823787817154 3061.81962784514 177 182 186
-226.337582196592 405.576735559469 3052.52882420855 176 179 188
-220.586022043489 404.79659484809 3047.54879561769 150 153 162
-213.427706501422 404.170309586449 3043.99532183588 144 147 156
-204.144949137325 403.772869682088 3042.56881765741 130 133 140
