ply
format ascii 1.0
comment KinectMotionCapture
element vertex 760
property float x
property float y
property float z
property uchar red
property uchar green
property uchar blue
end_header
-20.5961400627217 1133.7522386894 3482.20099671495 22 25 16
10.6933308839556 1143.57424597999 3503.98176361555 21 24 15
55.6541303305655 1155.34965441068 3527.13431137942 15 18 9
-99.9861940021902 1164.3865964866 3652.71104265157 255 255 246
-92.530637300015 1163.775870338 3647.57657757655 76 70 58
-86.3273241267186 1162.57977380316 3640.88411742417 79 67 55
-93.363344953683 1155.26025868103 3617.91628795884 116 90 77
-98.5922992723367 1148.8257893007 3597.34625649434 127 103 91
-98.1894820278515 1145.0205012422 3583.78822341136 55 39 26
-95.9180994480859 1142.09253795788 3572.57505063024 35 23 9
-116.44038668617 1124.92620515038 3520.33581848204 21 22 8
-101.483132873977 1127.81752780105 3524.55674651665 17 20 9
-69.4685885819655 1134.44534490689 3535.14273120306 14 17 8
-53.0475522618863 1137.89095236764 3540.73819180071 14 17 8
-77.5618072286473 1123.12803125422 3498.55998727823 14 17 8
-61.799370469279 1126.28460097541 3503.40489188788 17 20 9
-21.0957809857004 1140.38949009231 3536.84884133078 18 21 10
-45.8676804300318 1125.65893078934 3494.8937368326 15 18 7
-49.755169317756 1112.64320366811 3450.70664338494 22 25 16
-102.531684617968 1154.55201523216 3651.01125658007 255 253 241
-91.3262897926588 1155.67605959322 3650.55531140667 112 104 91
-90.768249389412 1151.87939128002 3636.8626849764 91 77 64
-90.2508987185997 1148.08748408052 3623.20529494766 133 101 88
-93.5669127854837 1142.56849954583 3604.94141517166 131 103 91
-92.5090527008687 1139.0760838228 3592.13686636547 70 52 38
-92.1239673065073 1135.29971331343 3578.59401472791 68 55 39
-82.8440053805886 1135.55774439759 3575.84242511577 30 21 6
-110.044774626146 1119.42214322892 3529.38499421198 21 19 6
-115.622439741401 1113.08254419588 3509.11658816694 16 19 8
-67.7924162007306 1130.57469583121 3552.24224402693 16 19 8
-68.830270498403 1126.23889946505 3537.28949320388 15 18 9
-71.0527845377764 1117.58500342452 3507.51143395082 15 18 9
-52.6599483804953 1121.84448485226 3515.36237344675 17 20 9
-15.2086291928644 1134.37716919717 3545.01875050939 18 21 10
2.73459038662738 1138.32234336747 3551.93816470134 17 20 9
45.7792594169368 1153.09124531574 3587.31849614856 14 17 6
-84.4932777163177 1154.20508719361 3675.07963481628 49 45 33
-90.1232599020316 1147.55929884877 3653.535297099 133 126 110
-88.9288403807731 1144.07520169263 3640.61233341598 115 98 82
-89.0307703717586 1140.02283499442 3626.1698075957 138 100 87
-89.8091592145764 1135.68984650833 3610.99246605427 143 109 97
-89.3686030818852 1131.93403239916 3597.40140272794 79 53 40
-85.7887461574931 1129.61011244792 3587.69673572812 67 48 34
-87.3335204437207 1125.00701128989 3571.86182194979 31 24 8
-88.2910954927989 1120.69515977239 3556.83965056601 22 18 6
-85.4448101086853 1118.09673024808 3546.44931434485 19 20 6
-79.6454361327399 1109.18205730513 3512.36660799054 15 20 13
-66.4994582550862 1111.13120852366 3514.19344114838 14 20 10
-67.0125122278735 1107.12626584931 3500.1072594648 15 18 7
-53.1729782589738 1109.35178229777 3502.65443264731 15 18 7
39.8364338829329 1141.74182122492 3581.9561831996 16 19 8
68.5469484014529 1150.12722775687 3600.68817454346 16 19 8
13.901526721773 1122.9786581396 3525.15515366268 17 20 11
-47.7716554812657 1093.06451118786 3442.49739567507 19 22 13
-87.6670609655936 1144.02769668998 3672.60274206863 44 38 26
-95.8029928606368 1136.30042199172 3647.94405009701 134 125 110
-92.7397893416448 1133.69415913768 3637.36575389149 114 96 82
-91.5897076658525 1130.23983003315 3624.48134202796 142 106 94
-89.2130001925779 1127.35628885156 3613.1762770066 144 110 98
-87.4982588321371 1124.19280911458 3601.12383045889 76 48 36
-79.4579340213071 1123.86028319718 3596.80398397252 77 54 40
-79.7014675742878 1119.85399512808 3582.48389245864 29 17 3
-88.9482692340411 1111.90260297559 3557.46622265643 26 18 5
-66.5327057300269 1114.06315396052 3556.55076188604 18 21 10
-102.442978079731 1094.5969717549 3500.46009924148 16 22 12
-43.3551814783679 1105.09176500942 3515.34635181689 14 17 8
-14.3448423168175 1113.7166720367 3535.14018326849 16 19 10
4.92993598843539 1118.12638222924 3543.54931470254 19 22 13
53.3393339192765 1134.82086395119 3584.85439848916 18 21 12
32.4519073972533 1122.16642488218 3547.45954014375 15 18 9
-80.969988260434 1070.76662484337 3406.57187494126 24 27 20
-88.3467626404841 1130.99310242949 3658.71951230574 128 116 104
-89.0197699516428 1126.71267293794 3643.45017670648 118 104 91
-91.0004599182304 1121.87624197737 3626.67133782796 125 103 90
-91.1436352452566 1117.8886794715 3612.26445640304 113 86 75
-86.8966858394562 1115.86854553766 3603.30320421521 103 71 60
-78.8523312871185 1115.53000509046 3598.97958846848 121 89 76
-74.6253303684812 1113.51118026758 3590.03561786844 92 69 55
-80.6497485303805 1107.02199451643 3568.83213720085 29 17 3
-83.5471876053324 1101.93881466683 3551.52590028071 24 18 4
-71.6983412214365 1103.27934079864 3551.83442609057 19 22 13
-57.879158120528 1105.45058629378 3554.399589779 12 19 11
-59.5641589676226 1100.93350205709 3538.68565800956 15 26 22
-0.502449123086279 1118.59313624047 3580.01520308609 14 20 16
-19.8091333359671 1106.57416434356 3543.89266246332 14 19 12
-48.4647323062868 1090.69398389437 3497.3712687705 11 16 9
-27.3232587105405 1095.89754983479 3508.12742222282 14 19 12
-8.73244274519269 1099.9813722274 3515.80790377772 16 21 14
-74.6442422124312 1128.40165426705 3677.29704661618 124 114 102
-83.4210701125122 1120.5275605725 3651.87121725468 117 103 90
-92.9290293046479 1112.3882925434 3625.75785864125 126 103 87
-89.9171183731045 1109.82013803508 3615.22377262193 118 90 76
-86.2961789169523 1107.53224644037 3605.48326445049 130 94 80
-80.1537226581224 1106.35586593994 3598.84373892581 136 100 86
-77.8398427580633 1103.51673974239 3587.59315652311 92 65 46
-74.9149550327863 1100.95755001687 3577.13443855266 45 24 7
-73.9390682474301 1097.57145266111 3564.40025000576 33 17 1
-66.5637258019309 1096.95212596804 3559.335365242 31 28 13
-51.4364468064055 1099.64340777443 3563.4102226084 28 26 14
-31.7219221919416 1104.25688709966 3572.7601505528 21 22 14
-5.42789508429786 1111.61328691489 3589.62316825531 18 19 11
-11.6002978627909 1105.19385577054 3568.54749916258 18 19 11
1.10668816393389 1106.75670077654 3569.43374922594 19 20 12
-18.9434840552769 1094.5827101888 3532.6333600355 23 24 16
-64.8209687674974 1071.73078104223 3466.67666407658 17 18 10
9.75063877018778 1099.07807257048 3538.17121097243 17 18 10
-37.7314451019162 1075.71471718767 3470.96175557973 21 22 14
-69.0757033625955 1122.09729810007 3685.74500148074 131 124 108
-87.231645743326 1110.15146048967 3648.62459763711 119 106 90
-87.3082864271568 1106.21554246863 3634.15971358783 133 107 90
-87.4298094931305 1102.28474833644 3619.73338199666 134 105 89
-81.8974993466695 1100.83382484359 3612.30121021234 142 105 89
-82.0901541343542 1096.91123274591 3597.93647789179 139 102 84
-76.5921308423905 1095.46348944745 3590.53400314896 127 96 76
-73.6593700937296 1092.91958837485 3580.06836227529 80 53 34
-68.8269227943787 1091.19983404685 3571.92095242241 56 35 16
-62.7196882688978 1090.02807713813 3565.31192487906 41 30 12
-53.3892071941113 1090.22277218608 3562.5169589238 35 28 12
-38.2147098478871 1092.87188309515 3566.55116371686 24 18 6
-28.1831962366135 1093.33097733944 3564.47013522263 21 14 4
-25.2983316929241 1090.78953634444 3554.0463072829 20 16 5
-13.2871783315092 1092.06141105342 3554.21428515137 18 14 3
41.7474211581399 1107.35804792192 3589.78612667636 17 15 3
1.1708461873785 1086.89067487221 3529.8062077251 17 15 3
23.1734072257188 1092.2179116912 3541.13848522122 26 26 14
-89.7514755677329 1104.25796378583 3661.43353272805 128 122 106
-96.6816726524815 1097.3435201947 3638.37135714793 112 100 84
-92.3824301172775 1095.350396901 3629.36429008272 120 95 73
-84.3136355016725 1094.99397504445 3625.0199226395 125 97 76
-85.0978294379399 1090.82415743994 3609.846239717 141 104 85
-85.2958146578287 1086.93230836843 3595.4862437709 144 108 86
-81.7162358176367 1084.67587989335 3585.78169596305 137 101 79
-77.5180082323743 1082.69276726531 3576.86211731654 125 93 70
-72.0534237525672 1081.25371925424 3569.48856884846 97 69 47
-63.3809229654765 1081.1692342687 3565.94244628085 67 47 23
-56.6316902067596 1080.27066520154 3560.09846640048 63 42 21
-47.9403759332531 1080.18244885193 3556.53606168727 52 31 14
-43.7821270351777 1078.20130670232 3547.65112123721 40 21 6
-32.4745828546003 1079.18944886186 3547.10783570839 36 20 4
-23.7522536569905 1079.09493747273 3543.51827452481 34 21 4
2.68090056798709 1086.26769650876 3560.26221126354 30 17 0
-9.55767210488334 1077.55395980469 3532.54888243396 30 21 4
13.0429426822318 1083.09646387635 3544.68467118416 29 22 4
-79.181968314205 1096.23573382627 3661.58831776809 112 105 87
-77.9652531339035 1092.89499588367 3648.6451006647 109 88 67
-77.4157221355707 1089.28871384748 3634.95861593371 124 99 79
-76.2741595947003 1085.95659967011 3622.08048044202 142 109 90
-79.6127727253877 1080.74362272815 3603.8342051501 143 108 88
-79.8323519695212 1076.8837265498 3589.49271846547 143 108 88
-76.9023058785527 1074.37300868635 3579.02921545518 139 108 87
-72.7146799511362 1072.40164641792 3570.11906501681 124 96 74
-67.2573273093584 1070.96810148166 3562.7514334698 105 83 60
-60.5178024400863 1070.07095956299 3556.9158585182 95 73 52
-53.1310718025999 1069.44049522062 3551.84085985851 73 47 30
-45.7399039881099 1068.80891653817 3546.76233807181 55 32 16
-36.3910777514658 1068.97748597764 3543.95164099995 49 30 13
-29.6386279089842 1068.07572889705 3538.10489341585 45 28 10
-20.2649625351956 1068.23939617191 3535.27269913714 31 16 0
-8.90277174682241 1069.19919663331 3534.68191757116 22 9 0
7.76334154118086 1072.28248515023 3540.0673089873 26 15 0
-66.7002180938647 1088.97227842245 3664.0505588323 95 86 69
-66.7398777780481 1085.12034876865 3649.55276226181 103 87 72
-75.0473266884195 1077.80453434955 3625.04006397962 152 129 115
-77.7415294524722 1072.90053176504 3607.55651377045 144 118 105
-83.6800580767436 1066.6720815628 3586.27689998048 148 122 107
-82.0358573828424 1063.64655748229 3574.28469960792 134 111 97
-76.579861252525 1062.21948327751 3566.91820186765 134 112 98
-72.4173066254554 1060.261618162 3558.02969416458 139 120 105
-67.6261625379553 1058.57054226224 3549.91789745311 147 125 112
-61.5532964100742 1057.4103007073 3543.33858361554 160 136 124
-52.8886068188972 1057.30860238495 3539.79934283504 163 140 126
-40.956603879946 1058.52681865252 3540.03627092773 165 144 127
-34.2159359339287 1057.62652848539 3534.19972563115 168 149 132
-26.1649096696841 1057.25339583079 3529.87086694312 173 156 140
-19.4199079261135 1056.35132430116 3524.0305769317 170 154 138
-10.6972617648249 1056.23834748197 3520.4411761936 64 51 32
-77.61595435881 1068.05018018957 3623.35949623858 145 127 117
-79.6782753464576 1063.45105244484 3606.64987216946 134 114 103
-85.6163738164413 1057.2771006155 3585.36953239849 128 108 97
-84.612739404772 1054.01021275548 3572.61052150599 137 119 109
-82.3646200624828 1051.27378426268 3561.41627065876 151 134 124
-79.5023990721258 1048.80322154497 3551.01129389477 158 141 131
-75.3752219878265 1046.8603014258 3542.15335233571 162 145 135
-68.677511941877 1045.96801225234 3536.35398834859 158 139 132
-60.0334061881185 1045.8610013533 3532.83262274549 156 136 127
-48.7737177111058 1046.79843470816 3532.33082855657 162 143 129
-39.4437227790529 1046.94708287348 3529.53658234364 161 142 128
-31.4069128256316 1046.57041510931 3525.22006835079 164 146 132
-24.0188312146086 1045.93102544823 3520.14395659006 165 149 134
-15.9674939700629 1045.55090411753 3515.81487365101 160 148 134
-152.846659277013 1035.484763675 3560.41022257156 91 92 86
-131.103822219016 1040.89030586978 3573.29036562843 88 85 80
-118.112401493105 1042.62126582222 3575.25257291002 205 195 193
-103.17714773605 1045.12976453544 3579.49504989186 220 209 207
-104.730762069395 1040.84596922401 3563.66572899027 220 209 207
-103.145991871719 1037.87172424358 3551.72439136231 224 214 212
-95.1901571251295 1037.505302785 3547.47799509552 227 216 210
-87.8684371661724 1036.87694616389 3542.45932986961 228 217 211
-79.2534417679258 1036.76702857685 3538.9632140934 229 218 212
-73.2119165546288 1035.61645739186 3532.4110018888 231 216 213
-63.9316762324746 1035.76228418439 3529.65989806724 233 215 211
-53.9841967322099 1036.16414795959 3527.65239132529 235 218 210
-45.3214188610636 1036.04504067081 3524.1149203118 235 218 210
-39.2650975577764 1034.88964002716 3517.54959958633 228 214 205
-29.2721658808173 1035.28340644538 3515.50275028016 215 202 193
-15.964808926185 1036.96337483825 3517.1914547027 195 185 175
-3.27717624396984 1038.3794323868 3518.09574570462 165 157 146
-68.7731531165254 1009.41770886153 3430.80497328003 98 94 82
-159.060886297837 1035.39910932727 3596.23408018871 105 102 95
-150.73293035166 1031.55956794476 3578.45378823379 104 105 99
-143.453785461967 1030.93880144389 3573.47197516658 162 163 158
-140.57933669738 1028.50332441339 3563.05648830786 222 218 215
-133.305694227556 1027.88192154978 3558.07944850938 217 209 207
-125.393735058999 1027.51785340067 3553.87075002082 218 208 207
-120.017278114909 1026.11899981722 3546.57332439477 227 218 219
-115.286988679496 1024.46252910714 3538.51404835516 217 211 213
-108.648281534032 1023.58022207329 3532.76575961821 215 213 214
-96.2295982160826 1025.01393472592 3533.9030442959 215 215 215
-88.9278296966367 1024.38485148354 3528.90167640828 217 213 214
-75.8051245133622 1026.0666310334 3530.75041342194 218 212 214
-65.8828753308893 1026.45895720054 3528.76483650726 219 210 213
-57.2409606068529 1026.33509172888 3525.24516365358 226 217 220
-48.5864554754358 1026.20901390928 3521.71490809018 226 217 218
-41.2284146754152 1025.56902096502 3516.66515320229 226 217 218
-29.2705776360078 1026.71638617207 3516.88014906816 225 219 219
-16.6211712213244 1028.11381689966 3517.81769285244 227 221 221
-3.27420970589154 1029.76060461665 3519.47228559017 225 220 217
4.1495903083324 1029.10885904659 3514.3652954721 234 230 227
-175.878792629152 1019.94661243631 3576.50358990613 99 96 91
-170.511687721871 1018.55827846561 3569.21388634634 137 136 132
-157.019585146196 1020.51031277855 3572.06396297667 226 227 222
-151.641417271843 1019.11931341473 3564.76500353033 219 220 215
-148.160355484517 1016.95955162042 3555.14490207801 224 223 221
-147.858107344951 1013.52125554066 3541.67165773601 220 211 212
-141.258628691019 1012.6460280522 3535.95732386709 238 229 230
-135.930455468752 1011.25900677982 3528.70167080461 216 210 212
-125.507296167153 1011.91469389268 3527.60317585844 213 211 214
-116.978998638321 1011.80142060962 3524.18222598697 215 216 218
-107.79606687023 1011.94055196613 3521.51582188636 217 218 220
-94.7324246397128 1013.60363626668 3523.41587202986 219 219 221
-82.2738064821915 1015.00619758349 3524.51843009524 219 217 222
-69.1298625199455 1016.65726980505 3526.34895768 220 215 221
-62.4466518037332 1015.76543612394 3520.56215783153 222 217 224
-54.4587548025106 1015.37978513633 3516.28809666402 228 223 230
-46.4625440975372 1014.9922958956 3512.00684162256 229 227 232
-35.1764082174202 1015.86711977341 3511.48253022971 227 225 230
-22.5448210612345 1017.24243460645 3512.43534640454 227 225 228
-7.23439064672027 1019.62129807943 3516.35348433137 233 229 230
5.4794823976092 1020.98429593476 3517.23537569638 226 224 225
13.5785525091725 1020.57942117818 3512.86508136857 231 230 228
-105.263018799742 969.025011760969 3354.17883334373 85 84 82
-195.144140784099 1014.38604728679 3595.88411398171 99 95 84
-193.464014835754 1011.47090609233 3583.86006061596 221 218 211
-194.912629257839 1007.28441844972 3567.93910196099 226 223 218
-193.307657664454 1004.37799882707 3555.97981554723 221 220 218
-183.63141820547 1004.78387271729 3554.20737631302 207 205 206
-170.182060416494 1006.7117204494 3557.09465811608 208 208 206
-161.07939279574 1006.85505142424 3554.49747911056 215 214 212
-156.995923399899 1004.96622585374 3545.67707004212 221 217 218
-155.454677367471 1002.06517659222 3533.77329757539 221 215 217
-152.045287794113 999.927164009956 3524.21517607171 215 209 211
-139.756987116609 1001.33148473119 3525.46565853087 221 216 220
-128.70697789201 1002.22487329858 3525.14588629817 217 216 221
-122.745904306082 1001.09525741885 3518.66326861991 217 221 224
-116.146954233004 1000.21746612361 3512.94940950455 218 222 225
-103.109396690675 1001.85681508042 3514.87222199051 222 223 227
-90.0306671965758 1003.48996060037 3516.7593894644 223 222 228
-78.2066949801061 1004.61451121632 3517.09055862314 223 222 228
-70.2495684180331 1004.22815335033 3512.84317188186 223 223 233
-59.6759798503501 1004.84282362182 3511.61487578666 225 225 235
-47.1153887324323 1006.20472550548 3512.62962920887 228 228 236
-35.83012759713 1007.06062338389 3512.10619862973 227 227 235
-26.4906530307494 1007.16230176352 3509.30404044237 221 220 226
-13.8334436508534 1008.50909590383 3510.23514924257 226 225 231
0.84744612491594 1010.59821988479 3513.37723380376 225 224 229
16.2420086645811 1012.92898304791 3517.22276308484 226 224 227
26.3588720262558 1013.26186340414 3515.06889227606 232 230 233
-229.65409414385 1002.46848800341 3595.43514843724 129 130 122
-223.084351623268 1001.60397237619 3589.74651853082 170 169 164
-212.836747000572 1002.25793216294 3588.80050984105 223 222 218
-201.949178824485 1003.16086036044 3588.62146928694 224 223 221
-194.734597867585 1002.54357868503 3583.69559351925 220 218 219
-199.277295810756 997.130445706267 3563.84771708654 217 215 216
-198.924652669151 993.743033238784 3550.33046385778 213 213 215
-194.250596217477 992.12306053053 3542.31969045849 212 212 214
-183.336528698351 993.019425712873 3542.11772449975 212 210 213
-174.275181967195 993.157422151108 3539.55639436244 213 211 212
-166.455607832865 992.790726515694 3535.4281018428 215 213 216
-163.67834179071 990.416283856025 3525.09613572572 218 213 217
-156.491664141059 989.797729522748 3520.19445300425 219 214 218
-146.758717752012 990.178599615205 3518.37302586069 218 216 219
-137.005003331379 990.556073983747 3516.53362032203 220 218 221
-130.428329888537 989.681941463859 3510.83904545386 221 221 223
-120.002012258115 990.303247780443 3509.73803585899 222 222 224
-106.332446938445 992.16612918711 3512.43519237618 223 223 225
-95.8461289162442 992.778119747452 3511.28255416425 227 225 230
-85.9828766426358 993.137646323907 3509.34800902042 227 226 231
-77.3984337092051 992.997049417708 3505.87857296641 229 228 233
-64.23869527561 994.590240548082 3507.69578598604 228 227 232
-51.0378452981279 996.177176490654 3509.47740668663 226 225 230
-38.4517604298691 997.510433014144 3510.4702493817 225 224 229
-27.1447288035502 998.343756363316 3509.92809581898 224 223 228
-16.4689007701657 998.925494316506 3508.61139850614 225 224 229
-3.78230239378041 1000.24309632116 3509.51690845964 225 225 227
11.597917526796 1002.54051807133 3513.37508505741 227 227 229
28.3638935885184 1005.32224554554 3518.67587594111 227 227 229
37.8406532640736 1005.39100296467 3515.75494114361 225 225 227
43.9824547399486 1004.22938275691 3509.11588749578 224 224 224
42.7243070125982 1000.36976493606 3494.35098725775 199 199 197
-232.023517097086 996.706988624207 3608.11318065351 178 179 173
-226.654722093659 995.338968002604 3600.82188059563 206 207 202
-224.957425759918 992.466968050725 3588.78266548334 221 221 221
-217.778261120338 991.852898903826 3583.88746549363 208 208 208
-209.97968704037 991.487833654034 3579.77736391101 211 210 215
-203.406166832032 990.621132467091 3574.08547390931 209 208 213
-204.258452945564 986.757879667676 3558.96882237681 209 208 213
-203.296815389949 983.648578805344 3546.24519050134 209 208 213
-198.63396989753 982.038200527095 3538.24407187127 209 208 213
-188.983040721254 982.419635921489 3536.49372833092 214 212 215
-178.057276742833 983.294723373492 3536.28176251071 214 212 215
-170.248026813456 982.923826503596 3532.16213006187 216 214 217
-163.692447830284 982.055109911853 3526.48580342478 217 215 218
-155.870140054098 981.681278995356 3522.35518779629 218 216 219
-148.03934049079 981.305645729167 3518.21722370993 219 217 220
-140.8374537544 980.680911019347 3513.3023987753 219 217 220
-132.991791238981 980.302078413503 3509.15157316591 222 220 223
-122.572315570507 980.907957222566 3508.05659371602 222 220 223
-110.19755565034 982.249072353097 3509.23254841562 224 222 225
-102.304090588704 981.861706090106 3505.0403459195 226 224 227
-91.1646299422659 982.701846413209 3504.64338797415 229 229 231
-81.2955401152498 983.046214156316 3502.70388144257 229 229 231
-66.1926115353011 985.349658682567 3506.80235738464 228 228 230
-53.6509729247596 986.665126040583 3507.83383852312 226 226 228
-41.0723090225704 987.974948398732 3508.8332650902 226 226 228
-29.1145504103865 989.034590926154 3509.04889737691 225 225 227
-17.7836964841886 989.844883767368 3508.48624540887 225 225 227
-5.10024831231615 991.138558539734 3509.39495631976 226 226 228
10.9397612042472 993.644789954055 3514.00317733909 227 227 229
27.0373520520493 996.14263025239 3518.5618604364 227 227 229
37.8477936667578 996.687053819417 3517.1284149793 225 225 227
46.0026654833152 996.256219222015 3512.70992352842 224 224 226
50.8049395544039 994.610774847672 3504.58818436669 227 227 227
56.2691646817468 993.208605226739 3497.21470838942 206 206 206
-248.328654923828 985.181261511779 3602.46962604238 196 197 189
-233.284432732635 987.80009797437 3607.94020204625 202 203 197
-230.958762093867 985.19611393697 3596.67787645944 213 213 211
-228.661287634535 982.595328259946 3585.4399687894 208 208 208
-222.10458480122 981.732029731573 3579.76263296181 214 214 216
-217.391073531759 980.1255478413 3571.71757523292 211 210 215
-209.606378437527 979.756303192148 3567.61953014872 212 211 216
-207.999690899249 976.915527269486 3555.65833109103 211 210 215
-204.563090845686 974.818547491624 3546.07667490533 211 210 215
-199.278544413317 973.462890817318 3538.85831599358 213 212 217
-190.253046182569 973.584575208664 3536.3281627426 214 212 215
-179.957065972891 974.195250072586 3535.34050568014 215 213 216
-173.409523654009 973.328214652284 3529.67113381483 216 214 217
-164.337942503676 973.441836515887 3527.10109108639 217 215 218
-157.148480606133 972.81747977891 3522.19734826976 218 216 219
-149.954784905696 972.191871924614 3517.28962845841 219 217 220
-144.030805160968 971.075875137257 3510.83907309358 219 217 220
-134.275962515172 971.425328299373 3508.99855574688 221 219 222
-121.294371510165 972.991188364016 3510.97035265229 222 220 223
-110.844485975715 973.576106126849 3509.84946721944 223 221 224
-102.950915668352 973.183335934803 3505.65720852066 226 224 227
-93.7543705285284 973.275038384505 3502.9789970491 228 228 230
-82.5930808918085 974.092476527838 3502.56326624393 228 228 230
-68.7972196083591 975.875865992323 3505.15115710658 228 228 230
-57.5698845327715 976.683234169959 3504.67856311204 226 226 228
-43.0362733855461 978.696254739317 3507.94879250646 226 226 228
-31.7412209495722 979.492983966609 3507.41725886943 225 225 227
-19.7576393431174 980.526713754776 3507.61099286684 224 224 226
-6.41789884784627 982.037873579796 3509.27272319442 224 224 226
10.281499955243 984.74763869926 3514.63136978628 225 225 227
22.3820771267849 985.763456615696 3514.72381559145 225 225 227
32.5117819276355 986.05296450978 3512.55878018754 223 223 225
41.3222931323847 985.858746699405 3508.89375010165 223 223 225
51.4890167747315 986.141854138838 3506.69698612514 223 223 223
61.0020885115619 986.181826775296 3503.74476488502 226 226 226
73.911778588255 987.415509325799 3504.45777255592 232 232 232
-239.314920214511 980.500793467662 3615.86117924218 177 178 170
-239.394007814631 976.93021119307 3601.39604863847 220 221 216
-233.435875771276 975.82115089839 3594.91553178734 216 216 214
-229.922125330041 973.730669061653 3585.26696448069 205 205 207
-225.203923127306 972.132238931205 3577.21778877571 197 197 199
-222.340592241024 969.800462660483 3566.8109506854 211 210 215
-217.035888643655 968.449397503254 3559.57509108106 214 213 218
-214.212541075256 966.121710547392 3549.20319698352 215 214 219
-207.690551214155 965.260571648233 3543.55593414224 212 211 216
-200.545709316947 964.64244130202 3538.69050922374 212 211 216
-189.648812964265 965.48398754349 3538.50378136027 215 213 216
-179.976074674011 965.834698687877 3536.73473417082 215 213 216
-173.425995158361 964.967381465624 3531.06316505196 216 214 217
-164.983519689144 964.827136963827 3527.71645950572 216 214 217
-156.528292539958 964.684718281442 3524.35903122168 217 215 218
-148.060482979472 964.539946358824 3520.99071255856 218 216 219
-140.853763542826 963.909253149472 3516.07205307297 217 215 218
-133.003962345196 963.51882192865 3511.91739996541 220 218 221
-123.22258690971 963.850531053985 3510.05431619083 221 219 222
-114.063624140305 963.937712990832 3507.40870800363 223 221 224
-104.243026855453 964.262680585525 3505.51135741484 225 223 226
-95.0486690788645 964.343860410457 3502.83542550933 228 228 230
-84.5394568398365 964.90246338779 3501.66329000962 228 228 230
-70.0981832144185 966.896658609118 3505.01367364195 228 228 230
-56.9140610626819 968.404162575056 3506.81030767157 226 226 228
-41.7227770355684 970.623605188985 3510.83274710616 226 226 228
-31.7371218670264 970.922593557029 3508.79281877552 225 225 227
-19.0933122342019 972.173196287816 3509.73584942804 225 225 227
-9.05830220143589 972.463980921247 3507.65319662294 225 225 227
6.30550749169068 974.657494365291 3511.52626988311 225 225 227
14.4012180021229 974.22522498143 3507.15906496022 225 225 227
27.1784412719476 975.455046046041 3507.98659588378 224 224 226
37.3139914530487 975.729476135692 3505.81690729609 224 224 226
48.8134050429405 976.474789155051 3505.10857967958 224 224 226
58.9938289116185 976.741716572467 3502.89973055856 225 225 225
75.2774629063047 979.134673892186 3507.29784301753 228 228 228
91.6182666436804 981.519191245407 3511.64614358391 222 222 222
-241.141884265973 974.896053821961 3629.39128789495 190 193 184
-244.197415748504 970.132966259878 3610.89674026894 205 206 200
-244.894274261878 966.350648168741 3595.64484958968 211 212 207
-238.343764387917 965.489321492826 3589.97286864491 210 210 208
-232.402765932783 964.384626930997 3583.50748931334 209 209 211
-227.689653655208 962.795146560157 3575.46266723479 217 217 219
-223.602486908233 960.964451623899 3566.63867685126 209 208 213
-218.915112862868 959.377119963908 3558.61614910002 215 214 219
-213.621430436077 958.032389824283 3551.38980088929 217 216 221
-207.71512826463 956.929313668654 3544.95448358663 213 212 217
-198.700939161171 957.031321372478 3542.43425986819 213 213 215
-190.918646693591 956.648985786226 3538.33838205648 214 212 215
-183.75435311145 956.024343251048 3533.4561398626 215 213 216
-177.214050636999 955.158282831536 3527.79303671267 215 213 216
-167.520670218236 955.491302412529 3526.00621289024 216 214 217
-159.7044011105 955.101853724795 3521.88061688345 217 215 218
-152.5142319707 954.471091497608 3516.97598706942 217 215 218
-144.682880886788 954.078376284542 3512.83765565178 217 215 218
-134.926859048179 954.400564403994 3510.99660844729 220 218 221
-125.790985412081 954.480615253953 3508.37105865148 220 218 221
-117.924199399459 954.081069638855 3504.20174325576 222 220 223
-108.114201084865 954.39395253488 3502.31397299746 224 222 225
-99.5774146394921 954.227794384254 3498.88600817215 227 227 229
-86.4852825957727 955.721875857047 3500.76246031302 227 227 229
-69.4457292012984 958.633094409971 3507.14855365548 227 227 229
-52.9936258022445 961.29771229027 3512.72183261817 227 227 229
-39.100239216284 963.006906176546 3515.22599109767 226 226 228
-29.7621019095837 963.05444788922 3512.42534276828 226 226 228
-19.7482740812647 963.335187438422 3510.36079892071 226 226 228
-10.3749734233829 963.37657857813 3507.53002861963 226 226 228
1.00466832883006 964.121852185504 3506.92551181538 225 225 227
10.4168518185959 964.156547450567 3504.06076824288 225 225 227
22.5151753038775 965.128390796651 3504.15513684241 225 225 227
32.6379711101858 965.390944376253 3501.99657988988 225 225 227
46.1388777262997 966.822429902019 3503.51913803892 224 224 226
57.6599477391393 967.545004095338 3502.79218737038 226 226 228
75.2904936519054 970.368308614866 3508.66661593938 230 230 232
89.5980289094522 972.013861188401 3510.81191376326 224 224 224
-246.010999328064 964.519657508403 3624.41530711377 210 213 206
-245.455016993215 961.24619240971 3610.72107411549 216 217 212
-245.545318647215 957.736864551264 3596.26495069236 203 203 201
-241.425508703538 955.914469374778 3587.41261349425 210 210 210
-236.102029574841 954.573511670601 3580.16041496548 206 206 208
-231.398099755217 952.993352548429 3572.12349125138 212 211 216
-226.705881087032 951.414193919799 3564.0970270428 197 196 201
-222.641729604997 949.596756936443 3555.29258339195 212 211 216
-215.503167923088 948.975302521092 3550.43293881468 217 216 221
-208.9802659077 948.114100666909 3544.78488578445 217 216 221
-199.968483868499 948.205413478121 3542.2668176583 214 214 216
-194.060749950298 947.103641661286 3535.83025095711 214 212 215
-187.530564305451 946.239602438394 3530.17590332963 214 212 215
-179.115317785325 946.087274837161 3526.85287639108 215 213 216
-169.426572132547 946.407324428115 3525.07015373279 215 213 216
-159.71715610178 946.723849477173 3523.26922264117 216 214 217
-153.159028404465 945.853472150467 3517.59069770353 216 214 217
-144.69115606778 945.69174398709 3514.22243450688 217 215 218
-136.849211839624 945.291493789766 3510.07497045724 219 217 220
-129.639497784656 944.653488184098 3505.15344729997 220 218 221
-121.140124990572 944.485481676683 3501.75792220845 222 220 223
-110.694183195666 945.021284912538 3500.64077321978 224 222 225
-100.223426342098 945.553087519053 3499.50214205198 227 227 229
-87.1327835775011 947.020061461019 3501.38006066207 227 227 229
-72.0484343729519 949.184497076094 3505.49554079783 227 227 229
-53.6462906330777 952.512273587844 3513.34445054844 227 227 229
-41.7194044909639 953.489799980834 3513.5876887421 226 226 228
-29.1026641211007 954.695861998744 3514.5547854356 226 226 228
-18.4262168996097 955.195929402278 3513.23776516452 224 224 226
-8.38598146930414 955.4587621154 3511.15076444869 224 224 226
0.348468386350387 955.252390173631 3507.55173822712 223 223 225
11.0908424027634 955.741565183025 3506.17796292901 222 222 224
21.8576730878448 956.22658597269 3504.78270156368 223 223 225
31.9800151103093 956.475606503071 3502.62462561641 223 223 225
42.1226721320216 956.721030578603 3500.44864972136 223 223 225
54.9794986336809 957.889130534193 3501.20790112975 225 225 227
71.2503059935052 960.207557942835 3505.61729833704 225 225 227
88.2560678734423 962.748649107183 3510.71181756237 228 228 228
66.560600084363 948.910894138646 3460.79111477199 221 221 219
-254.486024466118 952.749600234433 3614.63353290781 211 214 207
-251.540251055572 950.458642615252 3604.15497441248 216 217 212
-250.435206145016 947.456987551731 3591.30634868031 204 204 202
-246.328524210375 945.647199741139 3582.46530830347 212 212 212
-240.408766528746 944.550695575659 3576.01828603981 207 206 211
-235.716108076262 942.980079132541 3567.99106978795 210 209 214
-230.421569304787 941.647270788196 3560.76390209898 202 201 206
-226.366276640369 939.841888429072 3551.96737410237 208 207 212
-216.766559335979 940.163784642426 3550.2614880347 218 217 222
-208.385574609884 940.010404139255 3546.96847936025 221 220 225
-200.61382482694 939.619247816913 3542.88179643084 210 210 212
-196.577368919119 937.813827126882 3534.10159517664 210 208 211
-189.426881353727 937.185534341045 3529.23134280745 212 210 213
-180.387690017834 937.260519918622 3526.68962385952 215 213 216
-170.701505800978 937.567320301046 3524.90920714501 215 213 216
-162.258946491174 937.401994399163 3521.56290697206 216 214 217
-155.706471589314 936.532318456791 3515.88927697044 217 215 218
-148.517483689522 935.89566680564 3510.9857091432 216 214 217
-140.047416145108 935.724719970738 3507.61560301832 217 215 218
-132.845609373634 935.08508437316 3502.70094395028 218 216 219
-123.069609132433 935.375896494697 3500.84278406339 219 217 220
-111.984025475588 936.128672362113 3500.49308936536 222 220 223
-98.9299148408738 937.573976680979 3502.40281210525 224 224 226
-87.7803726749002 938.316821663541 3501.99774662078 225 225 227
-74.6500440973783 939.750603987266 3503.84148319283 226 226 228
-61.4785603788701 941.178185138073 3505.64958930864 223 223 225
-51.539533147769 941.443149567357 3503.65029556336 223 223 225
-38.9529374815591 942.628635804695 3504.64333757379 224 224 226
-25.0114408226563 944.27002719492 3507.10623668563 223 223 225
-9.7030627600212 946.365606038209 3511.02798915107 221 221 223
1.0179514197044 946.841885349132 3509.67249524278 221 221 223
13.0938131887328 947.774017118687 3509.78690506402 222 222 224
22.5342005474332 947.782456811711 3506.89788632129 221 221 223
31.9909891672623 947.788028974224 3503.99467059768 220 220 222
40.1219571275853 947.332446703077 3499.59705784375 220 220 222
52.9734333782974 948.476713854648 3500.36110094411 221 221 223
67.8873510637352 950.300839659047 3503.30292903468 224 224 226
82.8505637646586 952.117690278126 3506.20239401968 228 228 230
91.0692439906518 951.647339044404 3501.72853808271 227 227 227
86.3495261181781 946.848852943608 3483.35336913066 225 225 223
-254.538469607993 944.347237578205 3616.0566973888 206 208 205
-253.398912691759 941.366027036671 3603.17802637977 207 207 205
-252.295697118424 938.388992004642 3590.33082666151 204 204 204
-249.406562168306 936.120775484583 3579.90152690563 213 213 215
-245.322832627403 934.324177273762 3571.07997921167 207 206 211
-240.643338396258 932.763560278545 3563.06442357981 203 202 207
-234.135179071914 931.90596077148 3557.42912522652 210 209 214
-227.011033328534 931.281455023308 3552.58167972121 204 203 208
-218.02944564037 931.356233310337 3550.08988926856 218 218 220
-210.270315021485 930.961865763809 3546.01416463105 225 225 227
-203.124435209417 930.332636470611 3541.14791203588 204 204 206
-197.221519160136 929.236903238917 3534.71548202467 211 209 212
-188.819040690471 929.070627150143 3531.4039275138 212 210 213
-181.031884449067 928.669947934671 3527.30363744881 215 213 216
-171.976266617698 928.73116330014 3524.74777029813 215 213 216
-162.271873341861 929.021198646037 3522.95167977553 216 214 217
-153.180782536852 929.076439089106 3520.36510564118 217 215 218
-146.617283023036 928.204619697693 3514.6819341017 216 214 217
-139.415431911834 927.562822226636 3509.76725061181 217 215 218
-132.849372476686 926.689340590971 3504.08187106789 217 215 218
-123.714008351588 926.736185542876 3501.45729357147 218 216 219
-113.273721690114 927.239850659033 3500.34493883318 220 218 221
-99.5767104738756 928.888176674761 3503.01969732956 223 223 225
-87.1312364495771 930.07089160717 3504.13538801056 224 224 226
-76.6001557859206 930.560472886525 3502.94443011064 225 225 227
-66.0441723855341 931.046123811772 3501.73222909532 224 224 226
-56.1179331507944 931.299216258875 3499.74409609689 223 223 225
-42.8882221235134 932.690330259943 3501.50197081927 222 222 224
-28.3002072168559 934.531397106789 3504.72616078428 222 222 224
-12.3413002191097 936.820706033338 3509.40639744784 220 220 222
-2.28979719739986 937.054032283917 3507.30950639529 220 220 222
11.7712010069644 938.647351004737 3509.66914073435 221 221 223
22.5428662479361 939.099022867704 3508.26990518753 221 221 223
31.3326038480048 938.866820187132 3504.62312647442 220 220 222
35.4380032599115 937.047383763655 3495.78326022938 219 218 223
47.6028265647388 937.942959421552 3495.82048526152 220 220 222
62.5007113103164 939.73668852558 3498.77672216159 225 225 227
79.4790393582376 942.199669734994 3503.89552542969 227 227 229
89.7271326270759 942.400831693598 3501.62845096901 226 226 226
98.6333047744865 942.148576906049 3497.88088418668 225 225 225
115.750716357145 944.590671623478 3502.8792741009 226 226 226
-259.964510109295 937.267130231706 3624.77561912911 125 132 124
-258.197669718812 934.540368575158 3612.6748710225 203 205 202
-260.081443591125 930.421257527827 3595.80738323056 203 203 203
-256.575840706849 928.400801918531 3586.16542393269 206 206 206
-253.09034603532 926.382373367947 3576.54056449735 212 212 214
-247.796955290556 925.06165917506 3569.31462898684 208 207 212
-242.511456921961 923.741326915713 3562.09521609465 192 191 196
-234.780243036318 923.346886242849 3558.04368836716 216 215 221
-225.19439322962 923.643880894322 3556.34998312095 209 208 213
-218.057267831 923.014273530748 3551.49132074049 207 207 209
-210.296040226931 922.61411405226 3547.41381610241 228 228 230
-203.769321731067 921.75155982048 3541.7624639548 205 205 207
-195.994983868388 921.348377154047 3537.67361577468 212 210 213
-189.463392398214 920.483909061847 3532.01805244694 212 210 213
-182.303813451973 919.848283536499 3527.13996776752 213 211 214
-175.139788514026 919.211400514841 3522.25803773588 214 212 215
-166.707724709955 919.0311391337 3518.92093117728 216 214 217
-157.629246346924 919.077118943967 3516.34534870888 216 214 217
-149.805744631273 918.663602364514 3512.21395541422 217 215 218
-141.3358955998 918.476336032204 3508.84414443311 218 216 219
-133.493553540588 918.058882616467 3504.69613153344 217 215 218
-125.000646638146 917.867193550052 3501.30636412619 217 215 218
-117.139249654073 917.445938565979 3497.14217578531 219 217 220
-104.746529555203 918.611863366735 3498.30369899017 223 223 225
-92.9649987606504 919.545403559063 3498.67289140712 223 223 225
-79.8499467232556 920.926806667452 3500.53020812423 224 224 226
-66.693737081557 922.301888498842 3502.35189302833 224 224 226
-54.1506644026644 923.444989985054 3503.38324814336 223 223 225
-42.2270619094864 924.356762175479 3503.62944296961 220 220 222
-30.2703910103519 925.263444442608 3503.84732471546 219 219 221
-16.9599398938662 926.61517923612 3505.5354742786 219 219 221
-6.92120525593598 926.83663086326 3503.44972699108 219 219 221
7.79037244330816 928.626405425483 3506.56746853047 218 218 220
19.8844811082708 929.51174189413 3506.66605083299 219 219 221
31.3429149357192 930.16809553787 3505.99413382141 219 219 221
36.1224005946585 928.582791635063 3497.89175648385 218 217 222
47.6175147903262 929.232626240925 3497.18777400936 219 219 221
59.8160836683839 930.101080244747 3497.1959262892 224 224 226
76.108819363935 932.301573081607 3501.58708163868 226 226 228
91.7799700006188 934.270983746466 3505.19522364741 226 226 226
109.547348301917 936.899496065783 3510.95231692521 223 223 223
119.18349767448 936.853964667414 3507.8939739425 224 224 224
-256.428075987022 930.229461519423 3631.01952595862 48 55 48
-256.447235105082 926.831545051794 3616.50133430667 203 205 204
-259.525359535689 922.288886919458 3598.02494041265 203 203 203
-255.409311463136 920.510954809872 3589.17557564168 207 207 209
-253.130239299623 918.04617136394 3577.95242109219 209 208 213
-249.052096095166 916.272086350616 3569.1358849036 212 211 216
-241.323392488635 915.873073074753 3565.08656255582 197 196 201
-232.972913940594 915.700924367089 3561.82011630085 210 209 215
-224.609698543919 915.526521393227 3558.54264516904 214 213 218
-219.319939355844 914.209328265527 3551.31951892981 208 208 210
-212.799300638038 913.348131782191 3545.67342754614 225 225 227
-204.414283929538 913.168996207569 3542.37709110111 208 208 210
-194.769896359135 913.44217776827 3540.6328033804 210 208 211
-185.729877493898 913.484975109982 3538.09089127646 210 208 211
-181.065542043324 911.937635974136 3530.08807275088 211 209 212
-176.413156719313 910.391247432005 3522.09560566967 213 211 214
-168.61494302543 909.976742541327 3517.98582130388 216 214 217
-161.441647650362 909.334680765356 3513.09620532247 216 214 217
-152.992683696507 909.142621514204 3509.74452724708 217 215 218
-144.531144166607 908.948269829504 3506.38196432293 217 215 218
-134.137837067627 909.426881400364 3505.31049080771 217 215 218
-126.286819041368 909.002173386316 3501.15532065837 217 215 218
-120.359028879458 907.902012369194 3494.70136005182 219 217 220
-109.267747686394 908.596051126587 3494.34710771228 223 223 225
-96.2035885605958 909.957658713881 3496.24866342067 222 222 224
-79.8481354399057 912.431739535597 3501.90694733856 222 222 224
-65.3871333319791 914.226633901291 3505.24183857332 223 223 225
-51.5310078060627 915.790868620086 3507.77891637906 222 222 224
-38.9419266164093 916.90256199234 3508.77059778942 219 219 221
-28.2905589220408 917.340633390986 3507.47603209448 218 218 220
-17.6145106552834 917.774722271762 3506.16010066713 219 219 221
-7.57624327897366 917.982582778583 3504.07484644285 218 218 220
7.13347127952302 919.739910403035 3507.19441309026 217 217 219
19.893076852644 920.825165600917 3508.03846620807 217 217 219
32.0209950826502 921.683491569958 3508.107919574 218 218 220
37.4763833788867 920.326767899314 3500.74180830501 218 217 222
48.304088942666 920.736098861562 3499.29427496615 219 218 223
57.8072955085127 920.700588294003 3496.35140887021 223 223 225
74.7703451769639 923.083980017038 3501.48365468798 225 225 227
93.1523928241074 925.898094074808 3508.0300501179 226 226 226
115.008169059808 929.800314479893 3518.17552454835 225 225 225
130.808293018581 931.715526116968 3521.67223195399 224 224 224
139.127626605905 931.21313711271 3517.11165924921 227 227 225
-258.281801723188 921.102165870199 3630.03852453167 215 220 214
-262.506780609638 916.141264281245 3609.91233910155 205 207 206
-264.997041152622 911.871359028456 3592.24791587226 203 203 203
-259.081958551297 910.787282038931 3585.80486514033 200 200 202
-253.777358533476 909.47641445213 3578.56883483085 195 194 199
-249.089070333288 907.939585693414 3570.54550300155 218 217 222
-242.580095902127 907.082295617883 3564.90949616077 209 208 213
-237.909386352389 905.546494510014 3556.90107820762 188 187 192
-229.560682405028 905.365781523265 3553.63622555958 209 208 213
-222.433317227738 904.731979055651 3548.78604989816 216 216 218
-213.444183473795 904.772324618786 3546.28794212396 210 210 212
-205.059313060961 904.58506422667 3542.99178512766 205 205 207
-194.79220537147 905.069255200715 3542.02997253501 205 203 206
-187.001142043346 904.652179976468 3537.92640230407 204 202 205
-180.455925893247 903.785218280145 3532.25904613513 205 203 206
-175.798373452665 902.246278393969 3524.26205226078 209 207 210
-168.627174311067 901.602343018745 3519.37426530123 213 211 214
-163.985356454387 900.064144750811 3511.39090435062 213 211 214
-156.178256371601 899.641675979308 3507.2734694383 215 213 216
-147.087403763984 899.66301523822 3504.68763695155 215 213 216
-136.700954206077 900.126141513451 3503.62220745878 215 213 216
-127.572670506928 900.141122374924 3501.00397330213 216 214 217
-118.427909150333 900.153203220682 3498.37116064682 218 216 219
-108.62084143095 900.383935442988 3496.48614726629 221 221 223
-96.8495658899187 901.2752817896 3496.86481721011 220 220 222
-81.7961924461157 903.266745661282 3501.00826601233 219 219 221
-64.733665230956 905.912808407677 3507.37616533485 220 220 222
-52.1830536558965 907.005765761756 3508.40099563997 221 221 223
-40.9071404527581 907.652624502092 3507.88733734132 218 218 220
-30.2607059485323 908.074989139238 3506.59683368695 216 216 218
-17.6091393384592 909.152396679321 3507.53457891047 218 218 220
-8.23138499680764 909.127051504348 3504.70006538172 218 218 220
6.47646344990438 910.851872704971 3507.82146009773 216 216 218
18.5684585699026 911.694016447255 3507.92215417558 216 216 218
32.0299236049344 912.968102901827 3509.47991771056 217 217 219
40.8399610476393 912.707834560139 3505.81572626035 217 216 221
51.0071263010583 912.881290832923 3503.61929006595 217 216 221
61.8691424574065 913.269015659852 3502.14247402437 222 222 224
74.1086012598138 914.087647188709 3502.11550838789 224 224 226
93.1664932367462 917.073158037024 3509.39859097372 225 225 227
115.701066543629 921.132581566221 3520.27796977543 224 224 224
137.647075944138 924.961843473567 3530.34539313858 224 224 224
147.358597759167 924.883606664534 3527.22224959548 227 227 225
-249.423156153746 919.384734008496 3658.10243015978 35 34 30
-263.724902842773 910.633261576892 3624.23737668012 214 216 211
-266.161055636454 906.397510782558 3606.52583499788 210 210 210
-265.645662441886 903.292282499417 3592.86569188768 200 200 202
-261.543546850867 901.537845606159 3584.02825064967 203 203 205
-254.424551535533 900.905349979017 3579.18532098009 191 191 193
-249.126644997605 899.600137017629 3571.95537102096 225 225 227
-243.225770404761 898.518931620824 3565.5246162727 210 210 212
-239.166857715889 896.767835397849 3556.72428338242 186 186 188
-231.435101053515 896.356194183314 3552.67239667076 190 190 192
-221.844361887157 896.61096937417 3550.97472722394 206 206 208
-212.851346803323 896.639975032462 3548.47364435732 210 210 212
-203.841657936225 896.66605426248 3545.95781317391 204 204 206
-194.815164010695 896.689331354338 3543.42743460022 201 199 202
-187.021820758208 896.266521644403 3539.32224094934 200 198 201
-179.847080995363 895.620530211105 3534.43108301656 205 203 206
-173.926012269574 894.531215484446 3527.98287783606 207 205 208
-164.221844207504 894.766582888659 3526.18702125111 207 205 208
-160.195719689499 893.013696333142 3517.41543416132 208 206 209
-154.279849680061 891.923105481804 3510.97174316447 215 213 216
-147.09324907231 891.272342763499 3506.07033592912 215 213 216
-137.984133150963 891.279462587901 3503.46845060134 213 211 214
-127.57545620709 891.722789650022 3502.38419964644 217 215 218
-117.785365458206 891.942894970308 3500.5142851919 219 217 220
-107.974697129126 892.159368473572 3498.62624343038 215 214 219
-94.9053334046028 893.465838619611 3500.52364541796 216 215 220
-78.5465355493544 895.85774657329 3506.17987832927 216 215 220
-62.1261772081883 898.240862797131 3511.78249601244 215 214 219
-52.8352051091439 898.219000312389 3509.02317720479 218 217 222
-41.5601722544148 898.846933807974 3508.5104045718 216 215 220
-30.9144201298355 899.252981531171 3507.22059809442 212 211 216
-18.2641261107204 900.306067008774 3508.15960392583 217 216 221
-8.2245870822848 900.486650021295 3506.07373978663 213 212 217
5.81934615265522 901.962292708615 3508.44861197886 212 211 216
18.5764287890002 902.998840899579 3509.29516743928 216 215 220
28.0298651491138 902.950368099723 3506.39520745236 215 214 219
39.5101529554767 903.54572673792 3505.70442854803 216 214 217
49.0024915434768 903.490517761953 3502.77079425247 216 214 219
61.8825323786871 904.507752222567 3503.5109025757 218 217 222
72.0942150319437 904.660121954572 3501.27601819201 220 219 224
91.1448133589512 907.597546078321 3508.56541853672 223 222 227
112.990905551117 911.381238418603 3518.7200545406 228 228 230
134.926939082748 915.151837847238 3528.7965044822 224 224 224
143.262999757083 914.636416669989 3524.22151825867 215 215 215
-260.219448912565 906.856594742983 3645.04381991385 79 75 72
-266.772126313842 901.09586046325 3621.64695838921 202 204 201
-269.813196176695 896.679362852311 3603.13763044609 198 198 198
-267.498786495798 894.268052005206 3591.88381660916 201 201 203
-263.399559914527 892.524783690163 3583.04880700708 195 195 197
-256.284427995887 891.889933816251 3578.20924113787 199 199 201
-250.381385309985 890.811730178521 3571.77658777394 183 183 185
-243.871545461914 889.954203783644 3566.13983237657 220 220 222
-239.811386329857 888.213719211189 3557.33835038541 200 200 202
-230.235883324643 888.457453404084 3555.6542737259 190 190 192
-219.406286784878 889.137806626904 3555.52692156413 200 200 202
-210.403518216882 889.154457516355 3553.01714954857 197 197 199
-202.62527202674 888.729369146257 3548.92505583006 195 195 197
-195.461288392332 888.083329102738 3544.04322093541 194 192 195
