ply
format ascii 1.0
comment KinectMotionCapture
element vertex 754
property float x
property float y
property float z
property uchar red
property uchar green
property uchar blue
end_header
-91.7199706455389 639.891154862235 2588.93652509853 174 172 175
-87.3786325217996 638.989732081741 2583.85631166909 148 146 149
-83.8707360759536 637.911457094232 2578.17604172135 144 142 145
-81.2021639216733 636.657323975494 2571.90112299925 156 154 157
-78.5464106062386 635.404947132241 2565.63730344484 196 194 197
-72.5644979332829 634.860510071028 2561.77966906451 197 195 198
-64.9058859803842 634.668029591084 2559.11270469395 153 151 154
-57.2354623975189 634.473980617879 2556.43582843585 131 129 132
-51.2348626903436 633.926937116271 2552.56201422106 141 139 142
-46.9167183291899 633.028675564209 2547.50156766166 177 175 178
-41.7581947624774 632.306182216397 2543.03517164033 182 180 183
-32.3654399054818 632.457958945353 2541.51008525634 141 141 143
-22.9529437906626 632.606965063231 2539.96759085538 143 143 145
-12.6695422719942 632.92759843302 2538.99271567266 163 163 165
-2.36216173968407 633.244942626633 2537.99707833084 153 153 155
7.9691573494447 633.559062978624 2536.98071347194 159 159 161
18.3244576381831 633.869923803138 2535.94358436716 167 167 169
32.9993379171913 635.043149209105 2537.77355174869 171 171 173
47.7185942947713 636.210338532645 2539.56509588447 167 167 169
64.2086221602645 637.716560553781 2542.46648903875 161 161 163
70.3684907776219 637.148577099816 2538.45476642607 165 165 167
77.3990891653429 636.752230100081 2535.01018417416 175 175 177
80.0910454873334 635.496564726776 2528.71500748242 181 181 183
87.9986208349552 635.271296801095 2525.83278556507 176 176 178
98.5382558675507 635.55793184881 2524.63604389559 176 176 178
107.351073454838 635.499914272447 2522.29139307624 176 176 178
123.19960304284 636.804205552721 2524.42684349015 172 172 174
147.011843695079 639.63443017075 2531.55995006095 149 149 151
194.710096629067 647.042791830047 2553.69140793464 147 147 147
229.350133854822 651.878609622713 2567.3070702374 133 133 133
251.726379619527 654.324379552233 2573.04077472522 136 136 136
254.652361699613 653.038694730725 2566.54295402375 168 168 168
-199.589996991705 652.405455831674 2702.20075193909 189 190 192
-205.287940553211 649.137950193469 2688.63330817838 193 194 196
-208.69924260083 646.42197085971 2677.05078976302 195 196 198
-212.939812945577 643.531092502655 2664.86458495355 195 195 197
-212.516665491399 641.730923601262 2656.56929672622 192 192 194
-208.968166098203 640.655646700483 2650.85413082973 188 188 190
-207.79765555737 639.041025607028 2643.23313466921 189 189 191
-205.064840792901 637.788720918942 2636.90252271941 196 196 198
-199.169833594136 637.256227093955 2633.12013504488 190 188 191
-193.271619836677 636.722979809207 2629.33465750026 181 179 182
-186.57211693034 636.368010281817 2626.17709498895 173 171 174
-180.665082282677 635.833125928168 2622.38398266998 163 161 164
-169.943242141421 636.367885187962 2622.35097030456 163 161 164
-159.193538186345 636.898622498068 2622.29383343248 137 135 138
-150.833869651541 636.891839800316 2620.34161118188 133 131 134
-138.418346389064 637.770414007487 2621.48523210419 142 140 143
-124.346832053959 638.998276213586 2623.83780438921 138 136 139
-111.855195008751 639.865911371641 2624.91552564546 120 118 121
-107.468939644479 638.961493713243 2619.796400236 114 112 115
-103.903688784073 637.881273735623 2614.06643175917 122 120 123
-101.16545460084 636.62602341787 2607.73114169208 152 150 153
-97.6197339702733 635.548365973354 2602.01839967502 151 149 152
-93.2607736452518 634.647362437656 2596.92259422075 178 176 179
-90.5549535878736 633.396469632926 2590.6156859177 158 156 159
-86.2094889050047 632.497253632665 2585.5315660383 134 132 135
-84.3538098582806 631.074512309198 2578.63904270489 152 150 153
-81.6846343768822 629.82856223118 2572.36354803118 164 162 165
-78.1956647680877 628.758577475613 2566.69994444537 196 194 197
-72.2120898769534 628.211169543357 2562.84057309928 179 177 180
-63.7152753584118 628.183970888143 2560.76961379083 127 125 128
-57.7186596706096 627.634746845922 2556.89895128595 138 136 139
-52.5590602137029 626.912108606351 2552.43162369082 144 142 145
-47.3999965159253 626.189572461358 2547.9647597958 180 178 181
-38.8625542198375 626.156804826399 2545.85893853217 186 184 187
-27.7692322870062 626.638272275591 2545.5042948775 140 140 142
-19.1943435596169 626.600319704001 2543.36573553155 144 144 146
-12.3050913844609 626.217191307366 2540.04389297866 161 161 163
-1.99713072087837 626.518116195238 2539.04754370088 153 153 155
9.18977835706647 626.98677052057 2538.61186773295 159 159 161
20.4050004198901 627.451693976411 2538.1519915723 166 166 168
33.3658116887756 628.253607316753 2538.82317303079 170 170 172
48.0851025602407 629.39090104898 2540.6151965065 165 165 167
61.1223381177957 630.182402442534 2541.22020575663 161 161 163
66.4105479862878 629.443012963113 2536.64151544338 166 166 168
74.2997525168141 629.211745169836 2533.77525505283 180 180 182
81.3316935195636 628.809999514879 2530.32985960448 184 184 186
90.1136047143383 628.744825662648 2528.01204283928 176 176 178
101.531100884648 629.182875622083 2527.37670706709 174 174 176
110.35104872596 629.112878748042 2525.02595382643 174 174 176
126.205219956737 630.383772296179 2527.15673084389 171 171 173
157.934915850265 634.664317393615 2539.32839064204 154 154 156
204.76893952927 641.772108332551 2560.88759390905 149 149 149
236.776794604201 646.014534564792 2572.81841015756 132 132 132
253.855036858578 647.406148137808 2575.21071942347 139 139 139
260.336971911142 646.793451817742 2570.9198244825 160 160 160
-200.080033121378 645.51644941452 2702.6701248 192 193 195
-206.554284929065 642.108016653511 2688.4531876395 194 195 197
-211.527891597853 639.065023866139 2675.58005659397 194 195 197
-213.422097502023 636.742309685772 2665.32658979589 195 195 197
-212.212070443351 635.136522176462 2657.67160151996 194 194 196
-208.661150790173 634.066406666614 2651.95398893837 191 191 193
-205.118894764935 632.997330382 2646.24419421315 183 183 185
-202.377138524342 631.752085823508 2639.90578661478 190 190 192
-198.854814137488 630.685282305842 2634.21293711656 192 190 193
-193.750148017354 629.97255724096 2629.79315798134 181 179 182
-187.848645283707 629.436022431663 2626.00485106608 173 171 174
-180.344267059609 629.250830706127 2623.47183489367 165 163 166
-168.018075403586 630.117959956427 2624.69295689388 155 153 156
-157.263411896869 630.629075382875 2624.63164855042 145 143 146
-146.480866533889 631.136106543662 2624.54620046609 129 127 130
-133.246975081499 632.163597644603 2626.30280814921 135 133 136
-118.353142760877 633.5344173747 2629.26529789493 125 123 126
-106.658863013301 634.201267042035 2629.71184209175 98 96 99
-103.88599173169 632.949736157939 2623.34650670446 126 124 127
-100.309916714738 631.873590199393 2617.60744565518 124 122 125
-97.5608582475425 630.625146450656 2611.26272968537 163 161 164
-95.6446584869521 629.205333652961 2604.31773189694 170 168 171
-92.1013410598337 628.133427296314 2598.60672004266 189 187 190
-90.2150464528235 626.717581984671 2591.68761641635 134 132 135
-85.8671601992116 625.8208467716 2586.60169711183 135 133 136
-84.0088133891119 624.40877297829 2579.7064768933 158 156 159
-80.5066249093613 623.34245765902 2574.03139225885 178 176 179
-76.181176887351 622.448692096624 2568.96458621993 183 181 184
-71.0258700613817 621.726781667578 2564.50097448609 156 154 157
-63.3621430243512 621.517435318875 2561.83000149234 129 127 130
-58.2020012504119 620.794783930821 2557.36220393674 147 145 148
-52.2017819016369 620.242581555716 2553.48875282189 148 146 149
-47.8833206079852 619.349846735844 2548.42799575234 184 182 185
-37.6577910528813 619.645755619184 2547.50344049591 184 182 185
-27.4083273128936 619.938381363506 2546.55816189595 140 140 142
-18.8322126117413 619.889424291098 2544.41861126391 146 146 148
-12.7919119813003 619.331883995393 2540.51045485139 159 159 161
-1.63238730067583 619.78527224555 2540.09861284949 153 153 155
8.70038487610447 620.066566690742 2539.08088574713 159 159 161
19.0572944053584 620.344602775911 2538.04257456089 166 166 168
31.155681755902 620.954896956293 2538.13954616654 169 169 171
47.5901653992197 622.397963462241 2541.08949074401 164 164 166
59.7628057774222 622.998145849125 2541.12185459343 163 163 165
65.0488682374619 622.259105450618 2536.54502325422 168 168 170
72.9352815755955 622.020069032087 2533.68123243133 182 182 184
83.4402779805572 622.278401578606 2532.51469670641 182 182 184
94.840326436068 622.699637673214 2531.89459245005 175 175 177
107.141382609049 623.282885427987 2531.81576345112 173 173 175
115.099650965061 623.034711161158 2528.88975251493 172 172 174
130.963577154518 624.271503315259 2531.01229553694 169 169 171
166.215790831446 629.128930913113 2545.42048334506 156 156 158
215.704095839385 636.600805243094 2568.64654892409 146 146 146
244.199768895524 640.101348020782 2578.33294799423 136 136 136
259.523265851927 641.12723949138 2579.60200622762 139 139 139
262.470251409582 639.855015138512 2573.08589383301 156 156 156
246.730473562845 635.152319317246 2554.99812911831 179 179 179
-196.685303639718 639.508480497952 2706.38334239768 192 193 195
-206.262358757542 635.434782210804 2689.56666833099 195 196 198
-212.012273672511 632.250862300628 2676.04404388566 194 195 197
-213.121270806818 630.128114338536 2666.43228902161 194 194 196
-211.908249133328 628.535585333361 2658.7743037771 194 194 196
-207.567300016859 627.645772972202 2653.69435227844 191 191 193
-204.809842456245 626.406857843426 2647.34229476676 180 180 182
-201.274008366207 625.343984026101 2641.63771045863 187 187 189
-197.746880546899 624.282185119865 2635.94098073568 194 192 195
-194.228782233888 623.221310546318 2630.25175570786 182 180 183
-186.732351064063 623.029343974097 2627.72567143421 173 171 174
-180.023759108855 622.662251127509 2624.56030967695 164 162 165
-168.498756043685 623.33189556012 2625.15355394884 150 148 151
-155.334640940277 624.342373745701 2626.97074954582 145 143 146
-142.130367458792 625.347024538619 2628.7531761947 132 130 133
-124.847715893547 627.206631001591 2633.61212121494 133 131 134
-112.362884755152 628.026443123924 2634.69573577687 112 110 113
-101.46535691954 628.497987440013 2634.51085820614 107 105 108
-100.304893275092 626.910163253962 2626.89871192008 129 127 130
-98.3498562490412 625.496079352459 2619.92001535429 128 126 129
-97.2297442969858 623.913577363746 2612.34249332963 173 171 174
-93.670844307062 622.845194033669 2606.6182681916 184 182 185
-90.1210257647973 621.777951632904 2600.90159136459 171 169 172
-88.2277851817719 620.372189951768 2593.97640206903 139 137 140
-86.3514876833356 618.968739964524 2587.06588297405 147 145 148
-84.4922916083206 617.567570855019 2580.16985600448 163 161 164
-80.1597084380643 616.675741124464 2575.09716864471 189 187 190
-74.9997820640442 615.953238516987 2570.62955681986 158 156 159
-69.0063709464019 615.399235942134 2566.76170279614 133 131 134
-61.3370925808243 615.181057354445 2564.08597549953 143 141 144
-56.1707983371877 614.45772711943 2559.61284977624 151 149 152
-51.0050912393423 613.734416070054 2555.14023282899 157 155 158
-45.8399625434156 613.011242801109 2550.66811631065 187 185 188
-36.4537669033007 613.123180272955 2549.14897319507 158 156 159
-27.0478682762167 613.232442116976 2547.61245461777 143 143 145
-18.4702730470492 613.172588231684 2545.47200688334 151 151 153
-9.87714827735031 613.110560876733 2543.31779770923 155 155 157
0.436699839387877 613.378077125609 2542.31687756583 155 155 157
10.7743817467427 613.642451274347 2541.29500466746 160 160 162
21.1361047911511 613.903490191281 2540.25263157668 167 167 169
33.2390936836426 614.491455937812 2540.34575954934 169 169 171
50.5375039355247 616.063350438437 2543.86933394516 163 163 165
60.9914889360148 616.312024184493 2542.74707422735 167 167 169
68.8754970528351 616.064927616712 2539.88542032619 175 175 177
73.3043649212482 615.160917346875 2534.72904297498 185 185 187
82.9415316228514 615.239325654383 2532.99259148918 180 180 182
93.4692839760429 615.478394413521 2531.8064571958 172 172 174
107.512375234939 616.366457235369 2532.862605819 172 172 174
115.471927443608 616.109905664638 2529.93553640669 169 169 171
133.965669244562 617.801420026355 2533.74555971567 167 167 169
173.613946345018 623.376849124474 2550.95580405853 156 156 158
224.872628935 631.035039575931 2575.29304967566 136 136 136
249.853640683805 633.815951127443 2582.73703626092 138 138 138
264.303934521497 634.648875931793 2583.44060506809 138 138 138
269.037232267284 633.70506535376 2578.02062530653 149 149 149
-200.283845492027 631.909103699641 2704.25821311886 193 194 196
-204.413255182805 629.101917637216 2691.97511904683 194 195 197
-212.496844327937 625.43567812357 2676.50820125363 192 193 195
-215.170076526352 622.988901504345 2665.60748760215 192 192 194
-213.959965266094 621.410628097668 2657.95193254076 193 193 195
-209.622780199708 620.524107353806 2652.87522214984 192 192 194
-204.501367830595 619.810085225014 2648.4409368437 176 176 178
-201.753980559224 618.580730682832 2642.09754566085 177 177 179
-197.433177108549 617.695847157282 2637.03502319588 195 193 196
-193.117163222385 616.811399048022 2631.97664919712 182 180 183
-184.819869788201 616.781755917699 2630.07863782445 168 166 169
-178.105571662342 616.408512603323 2626.90805466631 160 158 161
-166.575627215393 617.055864918308 2627.49747603132 148 146 149
-154.210484613071 617.868552095752 2628.68519063229 143 141 144
-136.171604399797 619.864132147666 2634.21074934796 134 132 135
-119.682753810791 621.511656984458 2638.43582362927 129 127 130
-106.375622729322 622.474488946764 2640.12937088613 104 102 105
-99.5207339179576 622.080575373335 2636.83706667119 116 114 117
-97.5396270786315 620.674059552448 2629.83572541982 127 125 128
-96.391075129219 619.101523522602 2622.23380436037 133 131 134
-95.2638674787707 617.531749935699 2614.6500497585 179 177 180
-90.8787997517373 616.635786452983 2609.53189893365 185 183 186
-87.3202791132441 615.572971484823 2603.80765099718 153 151 154
-85.4180818179926 614.176932816053 2596.87463559182 147 145 148
-85.1844951245457 612.449542538242 2588.74317488219 150 148 151
-82.4924849742503 611.225310155943 2582.44774784896 176 174 177
-75.6638834959569 610.834419958634 2579.17852373177 196 194 197
-70.4917144990427 610.110328504803 2574.70031108137 133 131 134
-64.4862618675459 609.552009403355 2570.82204821596 131 129 132
-58.4773574216766 608.993225440849 2566.94079655128 147 145 148
-52.4647509791185 608.434025007823 2563.05665444458 152 150 153
-47.2888590093152 607.709462118693 2558.57521801467 167 165 168
-42.9558296100288 606.820274917816 2553.50181125566 182 180 183
-35.2507426901623 606.589159361743 2550.7951312298 147 145 148
-26.6876990241105 606.520455703454 2548.66735320492 144 144 146
-18.1091728322529 606.449554963963 2546.52585464272 152 152 154
-7.81425732634 606.703451629789 2545.54143232889 155 155 157
1.65210472675792 606.790916725709 2543.95264917039 154 154 156
11.9927860227431 607.038590157254 2542.92860032799 158 158 160
20.6446542488008 606.957842278271 2540.7235973982 167 167 169
36.1794188331128 608.173477594398 2543.13157371181 168 168 170
54.3436080291921 609.868620763578 2547.22720859429 161 161 163
65.6690556981556 610.261478733407 2546.67226292493 167 167 169
72.6999859659667 609.843228586206 2543.22753495356 175 175 177
78.0056987238238 609.101751453998 2538.633687785 184 184 186
84.179623276718 608.521432675281 2534.60954680812 180 180 182
94.7101762228857 608.743835235626 2533.42109313752 169 169 171
107.010092959362 609.283721390002 2533.34384822627 170 170 172
115.843478275421 609.17921702118 2530.98167185266 168 168 170
135.212984776369 610.989752972098 2535.35544353924 164 164 166
188.038113935123 618.851490453691 2560.98019636432 154 154 156
234.036729080969 625.40942355675 2581.94346494295 132 132 132
253.738991818737 627.174428088343 2586.02911988302 137 137 137
266.4275839342 627.661768886765 2585.61502103239 137 137 137
272.053905379166 626.878252735431 2580.74356320446 149 149 149
-203.881078569985 624.330241319034 2702.13181654433 192 194 193
-206.458713087594 621.898227883912 2691.14814928087 194 195 197
-209.858797299984 619.301206608004 2679.55482160047 191 192 194
-212.521733831631 616.880471322418 2668.64501557603 192 192 194
-211.30210030993 615.314711554691 2660.98144165253 193 193 195
-209.317050339262 613.921116898184 2653.97628350518 191 191 193
-204.19341238872 613.206884876236 2649.54007056773 174 174 176
-201.443062470317 611.98550766765 2643.19437537173 174 174 176
-196.326941525926 611.271868769078 2638.76467385025 195 193 196
-193.596565888696 610.052800013295 2632.43596061003 181 179 182
-184.502912053627 610.180607012917 2631.16995564441 166 164 167
-175.389258227636 610.305533178734 2629.88695014847 154 152 155
-163.051673531898 611.097805240195 2631.09836695525 151 149 150
-147.465254900906 612.554143800516 2634.783273959 140 138 141
-128.60540009034 614.671115865932 2640.92036975613 137 135 138
-112.098918549171 616.278036741409 2645.13011025929 126 124 127
-102.010296404783 616.545402450939 2644.32440253728 111 109 112
-96.766021459886 615.812199241846 2639.78375211435 115 113 116
-95.5893664191909 614.249600205838 2632.15709319071 119 117 120
-94.4335979556183 612.689896079703 2624.54883416799 143 141 144
-94.1166487961347 610.967598234405 2616.34508721353 175 173 176
-89.7273626664883 610.073859106309 2611.22295022079 156 154 157
-86.1641998681311 609.01601058223 2605.49496208767 145 143 146
-84.2571165337684 607.630362901868 2598.55764444272 156 154 157
-84.843964331955 605.754551350153 2589.81466918578 156 154 157
-81.3215508747001 604.702190601419 2584.12196441038 197 195 198
-73.6596261845537 604.469012736469 2581.45270800428 172 170 173
-67.6496075119641 603.907533557069 2577.57050806432 131 129 132
-61.6361884116632 603.345506607674 2573.685364401 139 137 140
-55.6191121434324 602.783069224915 2569.79736911124 152 150 153
-51.2745355873743 601.895141601057 2564.71394585431 164 162 165
-46.094555456714 601.170147925469 2560.22896885994 187 185 188
-40.0731799996419 600.60707167828 2556.33725144854 156 154 157
-31.5166382008716 600.52844192858 2554.21485763422 134 132 135
-24.6362626381775 600.125009823117 2550.90084032896 145 145 147
-16.9005102388731 599.881478012095 2548.16734637461 148 148 150
-5.75260800505095 600.279501922232 2547.76625224026 153 153 155
6.27510055257163 600.834106227768 2547.92452905519 151 151 153
17.4807971019311 601.224145034782 2547.47307874099 153 153 155
26.1460825379847 601.130720899689 2545.25652877548 169 169 171
42.5507655483415 602.471712348737 2548.23296408162 168 168 170
59.0079342905479 603.805515692618 2551.16395469648 161 161 163
66.8950097869256 603.541687054407 2548.29975061145 168 168 170
70.4726107079212 602.482552874422 2542.55925676954 177 177 179
76.6404101978049 601.90021437404 2538.54043769278 184 184 186
83.6802101331564 601.475769239971 2535.0880622054 180 180 182
95.08001171658 601.839959313292 2534.46885709444 162 162 164
105.635134737501 602.042801635212 2533.25891889488 165 165 167
115.340186017041 602.0852388191 2531.46386249908 165 165 167
139.965395097953 604.794983201141 2539.21669721082 159 159 161
196.306147596114 613.136408176006 2567.08458353436 148 148 150
241.435596415387 619.4109340819 2587.47976542365 130 130 130
261.152827659101 621.130265763005 2591.55274258279 135 135 135
270.319557729857 620.969790410561 2588.90200702172 137 137 137
273.295798322089 619.717940023689 2582.36040621328 153 153 153
-204.371252025108 617.445205883037 2702.60128269809 193 193 193
-208.503769234423 614.704253217534 2690.32045283001 196 196 198
-210.34454518117 612.473125784286 2680.02008288291 192 192 194
-213.005318093705 610.079586873657 2669.10822533884 192 192 194
-211.784546726501 608.527417746963 2661.44357713605 193 193 195
-210.585081387406 606.977916079959 2653.79706283561 190 190 192
-205.463315314865 606.26408586208 2649.3624697184 178 178 180
-201.132882589251 605.383924107779 2644.29157061753 171 171 173
-196.014578706221 604.670111001904 2639.85997819353 192 192 194
-190.896935770022 603.95623719131 2635.42895902928 187 187 189
-183.389512708584 603.738656197238 2632.89351367017 168 168 170
-172.674901139546 604.179978390083 2632.86737204264 152 150 151
-158.728774349043 605.276718052927 2635.32947189692 151 150 148
-139.9205236655 607.354774662875 2641.5112315061 141 139 140
-120.23842975819 609.58750435761 2648.25817388282 137 135 136
-106.133234644677 610.661504553237 2650.58255085621 135 133 134
-98.4566759086705 610.419259387869 2647.90066935288 112 110 111
-94.8244128133431 609.357861841148 2642.1124969935 115 113 114
-92.8273070703565 607.971229534915 2635.09716007158 129 127 128
-91.6623829714869 606.423946452687 2627.48088504197 157 155 156
-90.5187741992988 604.879511740918 2619.88275080181 166 164 167
-87.757590439602 603.662582056755 2613.52732119323 147 145 148
-85.0092725334766 602.447385036536 2607.18303165469 138 136 139
-83.097256145277 601.072151956125 2600.2413708678 161 159 162
-80.376821726682 599.860710047308 2593.92122461695 167 165 168
-75.1869705253712 599.134506792062 2589.42769984894 188 186 189
-69.168103227113 598.569342932457 2585.53816987671 147 145 148
-63.9774921228824 597.843007396851 2581.04398733071 137 135 138
-60.4547943295577 596.796005857892 2575.35068587036 148 146 147
-55.2695222194748 596.070329446524 2570.86112655135 156 154 155
-50.9225109768674 595.185060502045 2565.77589134861 180 178 179
-44.0612889758509 594.778795883428 2562.47817796563 192 190 191
-37.1923795906124 594.371518189957 2559.17412372803 152 150 151
-27.7848747885328 594.439930960461 2557.63647772414 135 133 134
-20.8947209438959 594.029732357367 2554.31402907751 152 152 152
-13.9969374665125 593.618626032445 2550.98497343601 154 154 156
-2.84246984184122 593.99666982899 2550.5780028002 155 155 157
6.63612462669505 594.055389074341 2548.97880364139 154 154 156
17.8424547525391 594.426388583308 2548.52692755881 156 156 158
25.6530449501624 594.164775702683 2545.72900167327 168 168 170
42.9132901923905 595.627719039444 2549.28667657389 162 162 164
57.6498290329774 596.612982278632 2551.06442026333 156 155 160
67.2581513695176 596.6541410467 2549.35289509063 169 168 173
69.9740086569278 595.444206093343 2543.03702175163 180 179 184
77.007621278439 595.015054743296 2539.59003952795 182 181 186
85.7852850392353 594.895956483167 2537.27625359797 181 181 183
99.8000882563934 595.706144160139 2538.35742511662 163 163 165
109.494137177683 595.736289228747 2536.57198451341 162 162 164
120.082393256541 595.918492459036 2535.33377795625 171 171 171
147.344085697194 599.030319440607 2544.76865488384 163 163 163
205.448780934759 607.520861718522 2573.75385511701 142 142 142
247.950381763608 613.209474812445 2592.46007040412 125 125 125
263.268784575286 614.115920658772 2593.73431792648 134 134 134
269.787303551011 613.484224276139 2589.41183750519 141 141 141
-191.491277461181 615.264770846598 2723.21234457184 188 190 185
-204.085506014976 610.72468519304 2703.72042637366 196 196 196
-212.104766894843 607.1894669902 2688.19690393935 195 195 197
-212.390993241387 605.3140348592 2679.19368231875 187 187 189
-213.489088750581 603.277709462047 2669.57160309114 188 188 190
-212.267175165938 601.739190273782 2661.9058764355 192 192 194
-210.280171363399 600.367490375315 2654.89888295326 191 191 193
-207.521481015022 599.161907791927 2648.54585645724 181 181 183
-201.613787212467 598.612322442997 2644.75226808784 175 175 177
-197.287826498494 597.735367989731 2639.68522425681 175 175 177
-189.788416986677 597.510998907207 2637.15645300333 192 192 194
-183.073864434405 597.12220306408 2633.9860656183 184 184 186
-169.962321830829 598.031846386248 2635.84948110301 159 157 158
-155.209049042263 599.260112418934 2638.93472259903 128 127 125
-131.576925946923 602.262445571456 2648.8696655201 128 127 125
-114.290412362291 603.958559460436 2653.72600711241 130 128 129
-102.591282409193 604.516833315562 2654.16936654858 108 106 107
-98.1408095608698 603.620932526026 2648.99421083506 118 116 117
-94.5057985980582 602.564906246032 2643.20393750706 121 119 120
-93.3189085758288 601.028446545493 2635.56823817349 156 154 155
-90.5229510455117 599.815247832216 2629.1826447112 174 172 173
-89.3740049428571 598.283980179634 2621.58011460485 150 148 151
-86.6080914243304 597.074707766483 2615.22053592497 135 133 136
-83.8550885881331 595.867174054432 2608.87213613071 146 144 147
-81.1150412630237 594.661385080638 2602.53495403764 164 162 165
-77.5624944319824 593.616134995942 2596.81608550677 198 196 199
-72.3644286381022 592.888975184531 2592.31544705462 143 141 144
-67.1669926328029 592.161870244614 2587.8153541073 136 134 137
-63.6330375040388 591.118952020334 2582.11226904971 147 145 148
-60.9411340791479 589.919676601421 2575.81677279747 150 148 149
-55.7558958679842 589.194154470701 2571.32724186013 176 174 175
-51.4086769584337 588.311702152557 2566.24180841318 192 190 191
-44.5478396877537 587.900219363045 2562.94446230369 179 177 178
-35.1547433460619 587.957150293932 2561.41969454577 130 128 129
-26.585573471678 587.855141108049 2559.28650702374 133 131 132
-18.8462192361776 587.595096935083 2556.55031374185 155 155 155
-11.9427773506597 587.177838828333 2553.21639361832 155 155 157
0.0660310314728463 587.691630860749 2553.39131635926 148 148 150
10.4035974874948 587.89091654256 2552.37028081443 150 150 152
19.9111451370442 587.932142458294 2550.74610025014 157 157 159
29.4388042947098 587.970771952891 2549.10482065658 169 169 171
44.9906470838548 589.08611134766 2551.49832908341 160 160 162
57.1517002932698 589.579212934313 2551.54174534761 159 158 163
65.0353583010568 589.299735154267 2548.6806047296 172 171 176
68.611235953103 588.251889794485 2542.94121584215 182 181 186
78.2402616766777 588.276987872812 2541.21216588625 179 178 183
87.0211730772867 588.146672737215 2538.89563779574 172 172 174
101.037931994442 588.929348828987 2539.97529251467 160 160 162
111.60697337412 589.097790806976 2538.75382920121 159 159 161
124.822178443699 589.718895341295 2539.20600556697 166 166 166
158.223789789711 593.823238622831 2552.57621968251 158 158 158
216.343214010177 602.148188305264 2581.5497268209 140 140 140
252.701883074172 606.662187737293 2596.32439626914 127 127 127
267.147793173844 607.386530415249 2597.0324682345 134 134 134
270.139145002624 606.148664526247 2590.47767935428 145 145 145
-188.890793477758 608.965311218449 2726.29259128664 189 191 186
-205.352287679397 603.671934025802 2703.54083270729 197 197 197
-214.148325230358 600.020412860339 2687.36774779588 194 194 196
-216.777510647819 597.67765540581 2676.42818316932 188 188 190
-217.883903002057 595.664537608386 2666.81346024256 189 189 191
-216.671222123716 594.141073311498 2659.15532283642 192 192 194
-212.3344889358 593.266231340103 2654.07892842608 191 191 193
-208.002587955186 592.391860470853 2649.00671921074 177 177 179
-199.723842657166 592.322495495006 2647.12504157293 175 175 177
-195.391576817361 591.447514317275 2642.05220456299 169 169 171
-186.297293412626 591.535075107381 2640.78623023598 189 189 191
-181.165789646307 590.819454410191 2636.34320871192 191 191 193
-168.049859659958 591.701408384195 2638.20300092194 141 139 140
-150.890934421097 593.37505239655 2643.17038903785 132 131 129
-123.237916969245 597.109688246944 2656.23215282438 139 138 136
-107.540867405166 598.444500643604 2659.8219595144 121 119 120
-100.664929495495 598.02693416534 2656.51188007362 105 103 104
-97.8253603713104 596.816366049195 2650.08846982898 112 110 111
-95.8095745499601 595.449413641486 2643.05649917262 118 116 117
-93.8107101466095 594.084792206593 2636.03949532556 167 165 166
-89.3843652821706 593.194797957459 2630.88552944126 170 168 169
-88.2304455414396 591.676612120217 2623.27828822068 144 142 145
-85.4595925385899 590.475110703169 2616.91469346878 139 137 140
-84.3438734576534 588.961979577251 2609.3405293785 157 155 158
-78.3112291810224 588.38990771593 2605.43878765509 176 174 177
-72.2749386663004 587.817277177753 2601.53420473916 193 191 194
-68.7167685050416 586.776727178594 2595.81011629634 136 134 137
-65.9964701089861 585.581862114614 2589.48998052274 133 131 134
-63.2890823952597 584.388735751734 2583.18102363476 149 147 150
-58.0949998029459 583.662202193354 2578.68383350845 151 149 150
-53.7367694957531 582.781111546806 2573.58884726369 188 186 187
-49.3832013794018 581.900648764542 2568.49789783874 191 189 190
-42.5167013286512 581.4830734906 2565.19568307367 167 165 166
-33.1184023038618 581.525829379658 2563.66649781793 132 130 131
-25.387212153821 581.258829986325 2560.93742571237 142 140 141
-18.4899213041678 580.837018239706 2557.60855090758 154 154 154
-9.04249870438489 580.873038810343 2556.03683212869 153 153 155
0.424438823463991 580.906289306987 2554.4479014975 145 145 147
8.20825356356458 580.632142994414 2551.67326408038 150 150 152
17.7109412781991 580.660601156176 2550.05369404457 160 160 162
28.0889688559274 580.838208725051 2548.99772986592 168 168 170
43.636422575875 581.921650954251 2551.39524915122 158 158 160
54.0744671168123 582.091056175652 2550.28731926468 161 160 165
63.6748366953213 582.106359373191 2548.58317009082 175 174 179
69.8400778804738 581.516340656565 2544.56661815672 183 182 187
78.6062518450317 581.377110950501 2542.2629212984 177 176 181
86.5204996740245 581.08575833377 2539.37534433205 172 172 174
99.6654609223588 581.691799322334 2539.88850115472 163 163 165
112.846532483123 582.292955083758 2540.37007601519 160 160 162
127.811758426948 583.187796254946 2541.95050982229 165 165 165
165.594818510001 587.949468283059 2558.13584070762 155 155 155
225.476636982925 596.407380430237 2588.227477543 131 131 131
255.690945301805 599.785106134679 2599.07159125718 127 127 127
264.85100202958 599.592793952294 2596.42716153864 141 141 141
267.838608795944 598.363696708201 2589.87556181759 162 162 162
-198.673021089093 600.075397383749 2718.94841392199 189 191 186
-208.170696305046 596.303127865894 2702.06130068798 195 195 195
-215.41329440611 593.021105555447 2687.18623686287 193 193 195
-218.042378327331 590.705822185079 2676.24640623313 192 192 194
-219.931166767561 588.555449462883 2665.98712714738 192 192 194
-218.721242335556 587.046212283249 2658.33160217313 190 190 192
-212.816171438708 586.492368929773 2654.54031476237 192 192 194
-206.907802887472 585.937811988425 2650.74617378008 179 179 181
-199.41563902235 585.699020195673 2648.2240915614 177 177 179
-195.873100102305 584.668749741827 2642.5134846655 167 167 169
-187.573749329609 584.585373392082 2640.61435382903 167 167 169
-181.647992114035 584.027486571197 2636.80516304404 174 174 176
-166.138822251075 585.353795267197 2640.55786692847 202 200 201
-143.373922839456 588.083718204186 2649.92296814109 188 187 185
-114.903387594329 591.896480245253 2663.59891448329 118 117 115
-102.403952791656 592.568375323316 2664.67114554345 85 83 84
-97.9335003449999 591.67576472196 2659.47896698623 104 102 103
-98.3191228537317 589.849799840779 2650.56157504314 117 115 116
-95.4917626833716 588.649259986934 2644.14868175424 112 110 111
-93.489962291887 587.295292156761 2637.12906414511 170 168 169
-89.0614748182141 586.407921584822 2631.97290867003 156 154 155
-87.9043290705828 584.903127255729 2624.36310008885 144 142 145
-85.130915383945 583.709612911682 2617.996918631 154 152 155
-84.8328540205463 582.055973047988 2609.80909750289 187 185 188
-78.8003080796322 581.481339324303 2605.90745761152 193 191 194
-73.5891708855343 580.752778484701 2601.39549878565 152 150 153
-70.0323995169141 579.718158189255 2595.67289981491 137 135 138
-67.3135041580153 578.531896081534 2589.35392435668 134 132 135
-64.6075664961718 577.347349063371 2583.04616868642 159 157 160
-58.5825266315685 576.773456706553 2579.15102977711 171 169 170
-52.5539192565505 576.199165990684 2575.25311687251 190 188 189
-45.6850715678612 575.775974630596 2571.94890371763 164 162 163
-37.1304715582168 575.654428454772 2569.82847102126 138 136 137
-30.2423302088952 575.228601098876 2566.50786795137 143 141 142
-23.3466554422472 574.80178914937 2563.18074177809 149 147 148
-18.1340093721487 574.072815505556 2558.66747783014 154 154 154
-9.53296895509315 573.944985186801 2556.50683428478 154 154 156
-1.76543011969876 573.665006027902 2553.74634157629 147 147 149
9.41890919350641 573.982135095892 2553.31387480327 155 155 157
19.7780019744416 574.146093433019 2552.27441054096 167 167 169
31.0162188969656 574.455876892686 2551.79529370706 166 166 168
44.8547226289864 575.20830200805 2553.02964462933 156 156 158
55.2956169635936 575.361094290898 2551.91935237645 163 162 167
64.8986932330446 575.362416616505 2550.2126322998 178 177 182
71.0677831991604 574.769334416433 2546.19276434035 183 182 187
79.8373161276373 574.618895039512 2543.88654429906 174 173 178
87.7550083335472 574.318993930156 2540.99603736188 168 168 170
100.901972424022 574.900279495005 2541.50730315219 163 163 165
113.213772780327 575.329931748868 2541.42047259889 158 158 160
130.799703306268 576.634519942296 2544.69657498993 162 162 162
173.837987066347 582.172847959549 2564.26217812569 153 153 153
234.605635556806 590.606563589927 2594.90945191021 129 129 129
256.918929067639 592.594567604801 2600.70068571379 126 126 126
266.081844394702 592.390948970483 2598.05353609775 149 149 149
267.306397227053 590.879322558866 2590.38534764539 169 169 169
-209.997920065422 590.933820047514 2710.29643432161 192 194 191
-213.3151617022 588.477026732539 2698.63071083535 195 195 195
-216.678096959277 586.026207387945 2687.00455294076 193 193 195
-216.188164109994 584.366131020929 2678.6504716078 191 191 193
-218.850617760793 582.082739526025 2667.73935706199 189 189 191
-218.419387615526 580.43026931001 2659.4361061846 189 189 191
-213.298105393587 579.717552261027 2655.00192522474 195 195 197
-206.601857134573 579.316257688098 2651.84716830785 184 184 186
-199.108084685648 579.06919457484 2649.32374547013 178 178 180
-193.978852993618 578.354688324646 2644.88268601288 166 166 168
-186.468125420863 578.104862749866 2642.34458546071 162 162 164
-179.7420514509 577.698555635249 2639.16432552231 161 161 163
-161.036572882537 579.606512344864 2645.43626366941 183 181 182
-134.260703655674 583.045581088469 2657.93693776137 165 164 162
-108.177527837587 586.315394613826 2669.71583003523 143 142 140
-98.0741822056532 586.499991043408 2668.89789728433 106 104 105
-96.0100548341716 585.148888144933 2661.82424007649 102 100 101
-94.7714871141483 583.647089820073 2654.14352521813 113 111 112
-93.553904372635 582.148079884605 2646.48129623896 122 120 121
-89.9203806599203 581.10899982611 2640.69188663929 159 157 158
-86.2957620135889 580.071029197104 2634.91018819162 147 145 146
-85.1294048720632 578.578798118254 2627.29231435408 144 142 145
-84.8028339547851 576.937877356332 2619.07970055077 164 162 165
-83.6807676262499 575.451610988198 2611.50017650138 190 188 191
-76.8217351182714 575.024860730336 2608.20449357818 173 171 174
-70.7796320354301 574.446327137146 2604.29491095246 145 143 146
-68.0411259559839 573.265688315749 2597.9589017388 137 135 138
-66.1443206215764 571.936797301203 2591.0298091084 143 141 144
-63.4334926761038 570.759968018903 2584.71808035526 167 165 168
-57.4045570158108 570.183035790181 2580.81958451824 183 181 182
-49.7024963877934 569.904119421182 2578.11583723877 178 176 177
-42.8258811533713 569.474522181605 2574.80493318306 152 150 151
-33.4247954652933 569.489983952326 2573.27350949265 132 130 131
-29.0497403127872 568.612346607831 2568.16391817221 144 142 143
-21.3076867581288 568.327782589483 2565.42522866975 152 150 151
-15.2437269150507 567.74603602559 2561.49672282444 147 147 147
-8.32955392522194 567.311261053993 2558.15329966395 147 147 149
-1.40759514978317 566.875579528021 2554.80344967056 148 148 150
8.92633382295305 567.026757446865 2553.78587860275 159 159 161
18.4309326019148 567.027987268642 2552.16451310628 170 170 172
29.6657058699052 567.31931046021 2551.68850063454 159 159 161
43.5002161929039 568.045204824392 2552.92648470788 153 153 155
55.6564296367328 568.473891864033 2552.97451317875 171 170 175
66.9832297871751 568.752731827016 2552.41881859176 182 181 186
73.1580404122552 568.156184339429 2548.39401478671 182 181 186
80.2020449268883 567.704366160187 2544.93848793019 171 170 175
88.1210297293271 567.396206341723 2542.04691416977 158 158 160
103.876721135697 568.386351156649 2544.26486644965 158 158 160
116.194751287539 568.79331372815 2544.1724678255 151 151 153
136.406441349196 570.490581571327 2549.14028360033 154 154 154
184.7037032493 576.772362108764 2572.08312001779 151 151 151
240.220206675057 584.172799206907 2599.34824939245 128 128 128
259.025579228235 585.535662934054 2602.89061630418 128 128 128
266.430583173851 585.035138586652 2599.12251388204 155 155 155
-213.583419569485 583.41769523719 2708.15946129582 192 194 191
-214.580129210344 581.456250010511 2698.44933757933 198 198 198
-217.942962843765 579.035637300021 2686.82258035127 190 190 192
-216.673994765941 577.546445408652 2679.11575023293 194 194 196
-217.771213551879 575.598154386601 2669.49234065282 188 188 190
-216.550794464363 574.115201230264 2661.82754926228 180 180 182
-214.565900098027 572.788303035131 2654.82240930091 191 191 193
-208.659553081498 572.229047784665 2651.03005090058 195 195 197
-203.539570338843 571.516206307663 2646.59699705242 191 191 193
-196.044917496083 571.260820224913 2644.07286507878 173 173 175
-189.332719333584 570.851418980294 2640.90433633866 162 162 164
-178.633582642285 571.200444591703 2640.89220542805 161 161 163
-155.937297017769 573.820434369396 2650.31748904586 135 133 134
-125.152138524796 577.941589344208 2665.95568346907 146 145 143
-104.66348171634 580.080220700463 2673.32741941948 132 131 129
-96.9631326061222 579.794977288351 2670.62519657339 101 99 100
-94.0879646562265 578.604857045925 2664.1707990442 123 121 122
-92.0341294043929 577.266107118467 2657.10566682599 122 120 121
-90.8072838823237 575.779743342179 2649.43532751454 163 161 162
-87.9773049518477 574.595379399342 2643.02005963181 147 145 146
-85.1603241752494 573.412795880617 2636.61604617907 138 136 137
-83.1725781904664 572.082818775992 2629.60845456891 144 142 145
-83.6569266816531 570.308656280466 2620.77629630272 173 171 174
-83.3502120685372 568.68702800968 2612.58076765613 186 184 187
-78.1341962071127 567.958319185037 2608.06458127287 149 147 150
-72.0944545644819 567.377506308389 2604.15674464924 147 145 148
-66.8778242162511 566.648535071364 2599.64002736862 138 136 139
-64.1474903164334 565.477410816871 2593.31103962215 154 152 155
-63.0911597196242 564.013890770902 2585.78834369757 173 171 174
-58.725434495809 563.140504210589 2580.6868114165 190 188 189
-51.8607140527125 562.707388592854 2577.38623980317 168 166 167
-42.4783128516943 562.711982072307 2575.8710810561 146 144 145
-33.0763048791267 562.713823052152 2574.33863073878 132 130 131
-26.1767461261804 562.275828301779 2571.0082106398 146 144 145
-19.2698571234975 561.8368241788 2567.6711281778 155 153 154
-13.1999907485199 561.251677124861 2563.73752496424 148 148 148
-6.28010140599145 560.810922226469 2560.38918598548 148 148 150
0.647522335485817 560.369177864765 2557.03446524973 150 150 152
8.43356931693018 560.070656691851 2554.2580510185 162 162 164
17.9371865963414 560.058574248108 2552.63762248677 171 171 173
31.735559104801 560.762236853687 2553.90707256528 156 156 158
46.4313305246282 561.603865989201 2555.72139710908 152 152 154
60.3121300034051 562.296248371612 2556.91947786574 173 172 177
70.7886290789332 562.411847291303 2555.77856671802 183 182 187
76.973378638173 561.811326320879 2551.74517422975 181 180 185
83.1616849710763 561.210535955971 2547.70870070358 170 169 174
90.220992634737 560.751356952328 2544.23995775607 160 160 162
105.980103036211 561.708321279469 2546.45484616753 159 159 161
117.4316170911 561.951673600614 2545.79160303041 151 151 153
139.390386951138 563.884904471618 2551.89015464383 152 152 152
192.063045851302 570.737634486194 2577.65391282887 149 149 149
240.567923162467 576.857160402433 2600.41785292091 126 126 126
261.130898101595 578.459929877006 2605.08180981743 131 131 131
268.541182344658 577.953312414804 2601.30885474239 155 155 155
-214.847924105141 576.379249631476 2707.9778012597 192 194 191
-215.845086248768 574.439881258421 2698.26761117222 190 190 190
-219.2074365237 572.049498109906 2686.64055462452 190 190 192
-219.498131928891 570.271264228747 2677.6405766506 191 191 193
-219.818219142911 568.496898757642 2668.66604854648 184 184 186
-216.250535044646 567.480998214558 2662.9335543034 182 182 184
-213.47718224376 566.315518798445 2656.56724395039 194 194 196
-207.566789088792 565.753113599932 2652.77139902818 198 198 200
-202.442530126376 565.039935782638 2648.33464100614 202 202 204
-194.944204390974 564.776030318878 2645.80738081022 192 192 194
-188.227904458856 564.360888782603 2642.63564962901 176 176 178
-176.730223150949 564.839882050371 2643.25381007429 164 164 166
-150.840952013981 567.995525654939 2655.20150632902 160 158 159
-120.04752246978 572.028372488781 2670.83310417379 142 141 139
-101.151789787852 573.817075359955 2676.94091500991 112 111 109
-96.6570835816518 572.930121507735 2671.72767819163 106 104 105
-93.7792212094832 571.747992524342 2665.27089352625 106 104 105
-90.9143411347171 570.567552000388 2658.8253501434 130 128 129
-88.872427003909 569.241538589961 2651.77078336919 159 157 158
-86.8475745874893 567.917763020222 2644.73099009485 143 141 142
-84.0257902510206 566.742916662868 2638.32276308711 140 138 139
-82.0333121940227 565.423359027896 2631.31068698859 178 176 179
-80.0577129122342 564.106096679885 2624.31354097058 185 183 186
-78.9192367180887 562.645287781679 2616.71962893579 156 154 157
-74.5132781111724 561.769514928824 2611.58292488581 144 142 145
-69.2876645235816 561.039573450066 2607.05842779593 138 136 139
-64.8890427243059 560.164721023722 2601.9283923693 158 156 159
-62.9802896787304 558.8563711301 2594.98912663405 169 167 170
-61.9190729153924 557.405974622482 2587.4617951396 190 188 191
-57.5490092209869 556.534938216191 2582.35648732108 188 186 187
-49.8460089481543 556.23990569596 2579.65203005072 140 138 139
-41.2950031293029 556.08680445338 2577.53491704632 135 133 134
-35.2437854520185 555.501713514701 2573.61747696574 143 141 142
-28.3488896420492 555.059084493084 2570.29081292439 152 150 151
-22.2890012242205 554.472743769706 2566.36555018711 153 151 152
-12.0023897831878 554.598045308586 2565.38915860442 144 144 144
-5.07860695835527 554.151488339648 2562.037798115 142 142 144
4.39860872970144 554.129487049477 2560.44031706587 159 159 161
10.4929494862986 553.538558717455 2556.48553848887 172 172 174
20.0015879478079 553.512295731812 2554.8608498084 171 171 173
36.3685525269237 554.61127643454 2557.87154527033 154 154 156
51.0743357730679 555.421674062594 2559.67739458533 146 146 148
62.3886362758106 555.66422953916 2559.13276901667 183 182 187
70.2872878460847 555.34248904601 2556.25890680255 181 180 185
74.7457540445291 554.459824574971 2551.07673719348 177 176 181
82.659797180602 554.136220877996 2548.18954662965 158 157 162
91.4525043612908 553.950359746165 2545.86315465198 155 155 157
108.082450846529 555.013535018069 2548.64614626319 158 158 160
117.796397159688 554.959854712186 2546.84400306575 153 153 155
141.499684014024 557.118576547433 2554.07589516426 141 141 141
188.042010727675 562.857666974549 2575.89679188946 146 146 146
240.037769764366 569.397631325158 2600.92569386141 127 127 127
264.993238280481 571.642625763248 2608.39497692799 135 135 135
274.175771776481 571.403929012205 2605.73136635967 152 152 152
-184.309080651209 577.264693144757 2743.70062840463 188 190 185
-209.928142770754 570.542426854859 2713.01492982506 193 195 192
-213.23444076 568.174775266412 2701.33882793266 195 195 195
-218.91768043419 565.365866233773 2687.75598357971 186 186 188
-222.321423220802 563.011240107896 2676.16457170333 189 189 191
-221.864937233846 561.405343659802 2667.83912888096 185 185 187
-216.734112522473 560.69217991575 2663.3966799971 181 181 183
-211.60406738773 559.978881613775 2658.95490767227 185 185 187
-207.262111488823 559.117768859379 2653.87389758491 183 183 185
-203.71449550375 558.109691187105 2648.15874640448 177 177 179
-197.009971733158 557.691105125876 2644.99724436636 168 168 170
-189.50457486337 557.41810286241 2642.46391431159 164 164 166
-177.214841310131 558.022518425448 2643.71802273835 149 149 149
-152.127898857233 560.961869030769 2655.03926681486 159 157 158
-119.743406438911 565.200547136761 2671.93702122896 137 136 134
-101.650341499419 566.797526057504 2677.41851455288 111 110 108
-96.3517084556416 566.058888775499 2672.83078522469 116 114 115
-94.2766913231745 564.739735820266 2665.74748243314 106 104 105
-90.6034787627741 563.712408306699 2659.92359692581 162 160 161
-87.7488373624438 562.541700761455 2653.48686470018 155 153 154
-85.71902729184 561.228366421787 2646.44270678932 139 137 138
-83.7063396208588 559.917367924637 2639.41337434136 143 141 142
-82.5267982664393 558.464840228108 2631.78350048085 190 188 191
-79.7322658658906 557.302040247895 2625.39913115756 185 183 186
-77.7709375333808 555.99781642133 2618.41395428146 146 144 147
-72.5384476580597 555.267188447199 2613.88350171434 140 138 141
-69.7789569280389 554.108965612571 2607.52915909359 140 138 141
-65.3800290604329 553.237036333042 2602.39883944448 168 166 169
-63.4704628348288 551.939715755173 2595.45879742662 178 176 179
-59.917625865034 550.928150258013 2589.73914363226 188 186 189
-55.5412468627461 550.059257668251 2584.6283482174 176 174 175
-46.9984630082485 549.896574008386 2582.51842357934 134 132 133
-40.1125734684649 549.450029860815 2579.19990647904 134 132 133
-35.7342307446928 548.58075304137 2574.08741152601 144 142 143
-27.9993502440181 548.273200560359 2571.35508813308 152 150 151
-21.9374227998155 547.684152101974 2567.42839115738 151 149 150
-11.6499318445005 547.79313598589 2566.45134300687 143 143 143
-4.72471743751202 547.341094043714 2563.09846174365 141 141 143
3.90514683427323 547.166383701601 2560.91313931105 165 165 167
9.99916729733163 546.572953341697 2556.95865455718 176 176 178
21.2120503400381 546.810542261465 2556.50196332995 172 172 174
37.5805662807758 547.874071027932 2559.51154390043 153 153 155
52.2880463664008 548.654334743571 2561.31580225932 149 149 151
60.1704242179362 548.326791052793 2558.45608266704 184 183 188
68.0642760455745 547.997672201228 2555.58642837434 182 181 186
74.244399630202 547.392743779372 2551.55707394494 176 175 180
83.0224699621946 547.198104246252 2549.24342513441 154 153 158
92.683290186276 547.138014293177 2547.48736976265 151 151 153
107.57693536037 547.893087102681 2549.13043538544 154 154 156
117.289763501737 547.82608299405 2547.32934768626 152 152 154
144.48050694452 550.471160117727 2556.82874321124 142 142 142
196.27147107983 556.895119664234 2582.03621551235 143 143 143
240.384329903711 562.072723922073 2601.99604418621 127 127 127
266.216645640598 564.393086860911 2610.02842024382 136 136 136
274.52121854984 564.008655580617 2606.8031376524 155 155 155
-197.913514734317 567.748756144937 2733.05673154904 189 191 186
-211.193889589339 563.49112330692 2712.83442984 192 194 191
-215.274759644452 561.007013827471 2700.50717117669 190 190 190
-218.628321274509 558.675962075376 2688.87211272565 192 192 194
-220.469818691352 556.643214918111 2678.57108259349 191 191 193
-219.224878641784 555.198677951641 2670.88447355304 193 193 195
-214.868711570369 554.339034925869 2665.79113660778 186 186 188
-209.73235269334 553.62509594428 2661.34389608718 178 178 180
-205.383884129076 552.766040541813 2656.25722790697 191 191 193
-202.618700442298 551.618100026775 2649.89788436628 189 189 191
