ply
format ascii 1.0
comment KinectMotionCapture
element vertex 790
property float x
property float y
property float z
property uchar red
property uchar green
property uchar blue
end_header
-44.0608509283247 133.70852624351 2875.13099060851 13 16 9
-56.1019794509301 133.403759434678 2855.13223576074 13 16 9
-23.3974434229296 131.935181069615 2873.11315642354 13 16 9
-9.15477680723509 130.940998043208 2875.33178378343 13 16 9
9.79545484090716 129.815881295627 2881.41155554314 11 14 7
72.4522614528711 127.499362707462 2923.72464512377 9 12 5
101.81074338134 126.06248086325 2937.98857036672 16 19 12
-147.678959310756 142.500576560971 3005.90779911121 18 21 12
-150.611201176312 141.924139568626 2992.57262134382 16 19 10
-137.581746779093 140.981692945489 2994.51918721659 17 20 11
-128.16114894366 140.119960562922 2992.97653588667 17 20 11
-137.750767844429 139.710539761717 2973.50016943584 17 20 11
-139.35360997458 139.117332439038 2961.65969906226 17 20 13
-142.470335231736 138.565900787394 2948.48457315916 17 20 13
-130.137838453421 137.636426947357 2949.71155680318 16 18 13
-101.486353580516 136.292949700319 2965.91123292773 13 16 9
-89.778714942661 135.366667522318 2966.3565220282 11 14 7
-101.110029887891 135.02979587415 2945.74275427913 10 13 6
-186.169770713799 136.02984229989 2848.74765126242 17 20 13
-147.68167958356 134.415830204699 2873.6266781194 18 21 14
-118.795473527482 133.041019674763 2889.62311599799 18 21 14
-100.345952374673 131.936692656222 2896.13642131103 18 21 14
-96.2017192551552 131.218424080169 2889.90228264485 18 21 14
-93.5837206784802 130.543579587443 2882.34418318349 18 21 14
-101.631825480284 130.170047106398 2865.50191213878 17 20 13
-92.2132491260213 129.309111224276 2863.96069222506 16 19 12
-58.3036970712487 127.744633838543 2883.54464086874 14 17 10
-60.2822190378283 127.20239817913 2872.02913990256 13 16 9
-76.1412887886626 127.070012643954 2848.72179504331 13 16 9
-83.6364503497995 126.703149304733 2832.72348587249 14 17 10
-40.9628301018561 124.850525053354 2859.26966941002 14 17 10
0.356388604933144 123.018243761469 2884.34310787958 14 17 10
37.2009938015578 121.302153377491 2905.35422105111 11 14 7
74.9870098688055 119.540439330403 2926.87262058417 9 12 5
115.28299120728 117.684063823014 2950.18625453477 18 21 14
-143.180002115791 134.714071625182 3011.32230507351 23 26 17
-141.016645952024 134.032985205933 3002.83472459623 22 25 16
-154.881711650454 133.787439113859 2979.12309890645 20 23 14
-140.401808609291 132.779222471199 2982.45977225215 19 22 13
-134.654010447542 132.007160250716 2977.4829519656 18 21 12
-142.114823015556 131.604114761965 2960.13152936407 16 19 12
-130.518961498753 130.671165551353 2960.67405842852 16 19 12
-153.571008938425 130.723040321607 2929.04280022494 15 17 12
-105.751563472695 128.749855217974 2963.03998770642 15 18 11
-83.6680160084922 127.501257161994 2973.02142205791 12 15 8
-87.5360424181078 127.006194494803 2959.17353421149 11 14 7
-119.80908124448 127.360006368158 2919.65240712378 13 16 9
-90.7624550242123 124.708602887988 2915.66726927543 20 23 16
-82.0439156446922 123.850255744098 2913.40983443592 19 22 15
-111.882891796275 124.189534521476 2877.07215539982 10 13 6
-109.305099454414 123.531535436175 2869.5487949687 7 10 3
-105.984201845673 122.851811378277 2862.70476014263 11 14 7
-84.3770567066882 121.589556239368 2871.77593713961 13 16 9
-67.2721893807213 120.463664362778 2876.80800474117 12 15 8
-62.3718542989034 119.728043630052 2871.24221415385 11 14 7
-85.1469466090493 119.899357876131 2842.01697227073 12 15 8
-58.7518951910258 118.462543466559 2854.87931069024 13 16 9
-29.1565124076678 116.908180796489 2870.26192759773 14 17 10
14.5105344580614 114.869018098872 2897.27185773604 19 22 15
73.1364559948693 112.303968434278 2936.46365091402 18 21 14
95.4333808729455 110.949396280451 2944.93725372099 16 19 12
-132.174441054284 126.693159536033 3023.00911693913 19 22 13
-149.561548117371 126.61859636147 2995.73212773866 21 24 15
-118.344844477507 125.061939272143 3015.00317696409 21 24 15
-140.964963148211 125.163156192115 2982.99723083258 22 25 16
-150.578784685231 124.873151251782 2963.54138337163 17 20 11
-139.006469513327 123.921694529381 2964.10412531587 15 18 11
-137.700718555447 123.29484672168 2955.03624975715 14 17 10
-140.846393567278 122.814038461701 2941.88544249283 15 17 12
-141.822892651115 122.267900827385 2930.82536945956 11 14 7
-105.748704512389 120.511096339513 2953.82743997514 11 14 7
-89.5903612073794 119.395832309669 2958.35656422726 11 14 7
-62.3393554158236 117.318684137643 2962.54128485762 15 18 11
-94.7743649232868 117.834835752694 2923.15917610276 16 19 12
-98.0901685605202 117.37723065636 2910.15599058905 13 16 9
-111.259360137693 117.263984918959 2888.48689022007 8 11 4
-113.189928778012 116.771018877771 2876.92982262685 8 11 4
-103.031558433289 115.859444501454 2876.07130119366 10 13 6
-95.130246352908 115.02512805814 2873.19845452473 10 13 6
-81.8817506574172 113.999869147996 2874.95570605662 9 12 5
-51.0137551351399 112.340434862495 2891.88282188348 13 16 9
-60.6292467628768 112.126680640417 2873.75118871573 14 17 10
-34.9803902603107 110.641132006874 2885.93733601701 15 18 11
-30.028816889982 109.901942365224 2880.32684297708 14 17 10
-1.90676437285031 108.310278974578 2894.34016814995 13 16 9
-10.8460272427595 108.081152434454 2876.94578369614 21 24 17
51.5839079747149 105.195686820245 2919.45951317291 23 26 19
117.425872571547 102.153305403088 2964.30997444934 19 22 15
-128.371358956866 118.246186899818 3017.12074832116 23 26 17
-139.277796949091 118.042624285605 2996.13786059903 21 24 15
-117.462990018347 116.709663316852 3006.35276870441 17 20 11
-146.018884585538 117.135214876581 2968.90275320236 15 18 9
-141.034104920714 116.393847682025 2963.26349318399 17 20 13
-130.170850699258 115.443522810406 2963.11753553436 18 21 14
-118.542072513478 114.463018875727 2963.63184269443 12 14 9
-119.453278982992 113.933225667463 2952.51475678028 9 12 5
-122.626860719554 113.489662986397 2939.38821143795 11 14 7
-109.490899778047 112.452034119961 2941.24308104376 12 15 8
-65.742277586915 110.278052794837 2970.82970228761 13 16 9
-79.3601373171646 110.221512880459 2948.22585040685 14 17 10
-102.832657749077 110.545218084892 2916.95726979138 15 18 11
-117.444016654731 110.549611139644 2893.8908636376 13 16 9
-112.566251104067 109.823194412585 2888.344575232 12 15 8
-110.717299474329 109.213336919129 2880.1290389003 12 15 8
-92.9722272529188 107.992469378314 2885.93040973669 12 15 8
-77.4425700604406 106.851504676097 2889.6813445093 11 14 7
-60.3364324311699 105.644011243347 2894.71315538628 15 18 11
-76.791302476757 105.751089087011 2870.59708394468 13 16 9
-45.097271943578 103.963228139553 2888.13233861618 12 15 8
-30.1656113967406 102.830251628397 2891.07826594053 12 15 8
-17.4966613116023 101.783532331699 2892.01470867618 14 17 10
-20.2382498495135 101.355191033103 2879.83658602508 15 18 11
-26.8976829095089 101.090239049984 2864.43652140639 24 27 20
-126.757583705322 109.895834853481 3009.15952192011 17 20 11
-124.594808442533 109.257222331726 3000.67216969868 16 19 10
-129.033238253701 108.876977961798 2985.99466608578 16 19 10
-132.796811354831 108.47595417829 2972.05563542806 18 21 14
-106.470936303027 106.896131943512 2986.30211905704 16 19 12
-105.835126285021 106.323270908179 2976.49129468393 10 12 7
-133.098677058766 105.800093818837 2920.72365275999 12 15 8
-90.914786510568 103.556969854571 2949.02040946422 13 16 9
-113.565407947879 103.947607631395 2918.36228659468 13 16 9
-121.381197691859 103.742221110879 2901.31757014888 14 17 10
-121.003848979804 103.204459395284 2891.73053603545 14 17 10
-125.931890024396 102.890574656135 2877.47696606536 15 18 11
-110.513640095615 101.729198153684 2881.32459378688 16 19 12
-83.6765521281988 100.081563139492 2895.12843023507 17 20 13
-72.6818964083278 99.0955426920293 2894.86881349181 16 19 12
-52.5170009462856 97.7158208427849 2902.54396405503 19 22 15
-50.609411227573 97.1125252368551 2894.27756146269 18 21 14
-37.2335385723876 96.0163604365515 2895.92518578988 18 21 14
-53.7705788683684 96.2146506841787 2871.87974319923 19 22 15
-70.4273376417759 96.4290186854473 2847.93796073195 21 24 17
-48.5983643693126 94.9657464270256 2856.81785839522 22 25 18
-38.2967122708431 94.0033759540915 2855.83547867583 31 34 27
-59.0195949772463 94.414804987844 2828.80005514266 33 36 29
87.2828191450168 95.5710579422048 3261.76673603703 22 24 19
39.7265222882179 96.9295474154915 3203.72517817847 21 24 17
-103.421746011212 101.738962624882 3043.24385123906 23 26 17
-121.512982743891 101.956853456861 3015.25200055152 19 22 13
-142.024574330113 101.763533165292 2974.80380694092 20 23 14
-144.354639491633 101.340192796079 2962.26896978132 14 17 10
-105.569885770169 99.1506480025518 2988.21817435824 9 12 5
-79.8684741087321 97.5112110460436 3001.68302828652 9 11 6
-110.968972199289 98.3365602325892 2962.46582329515 11 14 7
-103.734734374314 97.500854023745 2958.8479019947 11 14 7
-101.695877122748 96.8935120106323 2950.4677513341 11 14 7
-148.500183043324 97.9520494598836 2887.80594595573 10 13 6
-140.669861860963 97.1035897727473 2884.99472129842 10 13 6
-120.805389297672 95.7120906159986 2892.93033550381 12 15 8
-111.412495782546 94.788075940466 2891.41210009493 15 18 11
-96.7115474951221 93.6207257014333 2894.55790125714 16 19 12
-89.5379241789116 92.7937140298572 2890.99246038937 16 19 12
-84.6359184735408 92.070620323421 2885.42514063713 19 22 15
-79.7391296522698 91.3482743577971 2879.86202218763 20 23 16
-63.3914082563729 90.0942315399731 2884.22822044411 24 27 20
-42.3928214229825 88.6180829017201 2892.50466644919 27 30 23
-64.3110335904371 89.1496385467161 2863.85766224506 31 34 27
-84.0679506277238 89.5921484933035 2837.30806101224 33 36 29
-73.8565476827868 88.6258450873832 2836.40392896369 36 39 32
-19.5061380306254 85.5550846958345 2872.6878036055 32 35 28
-16.1150367982814 84.9012390511619 2865.78275308266 29 32 25
91.6749269087722 86.7495160222609 3267.28055930746 23 25 20
54.2340822231551 87.8563271267689 3219.00012059929 23 26 19
-72.1199664203338 92.4810166406498 3074.40136101099 22 25 16
-133.710168064777 94.7731622251285 3004.69653847218 22 25 16
-144.779467323023 94.2694101958587 2973.27003569572 15 18 9
-143.449676559505 93.7067230545725 2964.18090821064 10 13 6
-103.200411404032 91.3258721575952 2991.50852949896 9 12 5
-90.7597063285843 90.235905339014 2992.6430806337 12 14 9
-95.2779334142111 89.9443642126408 2978.03416538762 13 16 9
-113.19199585556 90.2942487865613 2951.21115692269 11 14 7
-100.987036138208 88.7239268302997 2941.96611623101 9 12 5
-100.486209302214 88.2087990004818 2932.27191252105 8 11 4
-123.23920629555 88.8228326743618 2901.70139012763 6 9 2
-81.4065605718972 85.335008489957 2909.13689751731 8 11 4
-80.249389523928 84.7963992272543 2900.19722971919 8 11 4
-85.9525485543013 84.6002516228749 2885.29114304416 12 15 8
-98.5712707197228 84.7539812781996 2864.46677742737 12 15 8
-69.2959214163498 82.8193115378956 2880.12924325472 14 17 10
-46.0190347195648 81.1757490044787 2890.402187851 16 19 12
-66.4028699748709 81.7292162392987 2863.07197929397 23 26 19
-102.320008729569 83.0821763145057 2822.73275196541 26 29 22
-68.2340590530037 80.88778685366 2842.16757678283 26 29 22
-45.6038078795347 79.2670570172435 2851.67757480167 21 24 17
93.1913136089118 78.0298183597561 3269.99285443575 21 24 17
34.8821167987468 80.3219391619736 3201.4146808753 17 20 13
-121.203584642296 86.4531760332849 3017.7311355686 25 28 21
-129.215604467487 86.3614477600864 2999.53218589438 20 23 16
-139.497989327539 86.3900123206614 2979.33016557349 13 16 9
-151.336502614059 86.5044999414815 2957.82981916644 14 17 10
-108.2755486263 83.3733925013005 2977.4319513587 13 16 9
-98.0639698517041 82.3738585339243 2976.52788224714 16 19 12
-94.4955445298787 81.712458853715 2969.46918751243 16 19 12
-119.167224471156 82.5041272887255 2936.59040738943 16 19 12
-103.040401631612 81.2029770582077 2941.14805610917 13 16 9
-94.3262243243153 80.2817495083441 2938.8944939882 11 14 7
-107.316655981589 80.4899094840718 2917.06837325417 9 12 5
-134.679788412291 81.4584295212676 2882.55112761496 10 13 6
-74.1151781647296 77.822604021425 2926.68614812938 10 13 6
-72.1514417606373 77.2541312340337 2918.37117104678 7 10 3
-87.6241658601424 77.6111321135155 2894.72547977549 6 9 2
-75.8805778498397 76.5298587146767 2895.14093012249 10 13 6
-79.3307145867472 76.2575918264226 2882.25265942577 8 11 4
-79.014278811413 75.787417973083 2872.71798277306 8 11 4
-60.3588368664316 74.3323632231895 2879.05508185821 9 12 5
-70.548522592961 73.983608470805 2850.83496464655 20 23 16
-58.7575604386319 72.8964342137733 2851.20939235779 23 26 19
-43.8406710556256 71.6358794822036 2854.16894909083 20 23 16
-21.1199410769853 69.9432584756943 2863.60067622073 19 22 15
41.6530245679114 72.5944369325338 3232.65031017556 41 42 37
41.5761588508334 72.0773840069989 3220.80998858389 19 22 15
89.7034904033696 69.0271952759606 3255.87056000953 17 20 13
41.3091260013512 71.0588884600075 3197.22744665464 15 18 11
-123.958427425763 78.380881047602 3005.61403385884 18 21 14
-142.983484523481 78.9385936904279 2977.10609592157 13 16 9
-144.572481620029 78.5663283379789 2965.25219385024 15 18 11
-166.766845523194 79.3144848804416 2934.19629944536 19 22 15
-137.565761107009 77.2777395834927 2951.24737115695 19 22 15
-106.018594577137 75.1025396585066 2970.23600449024 15 18 11
-102.470136871445 74.4524751133765 2963.19454295421 16 19 12
-116.01498179866 74.7451721849066 2940.52514345481 15 18 11
-112.540035058854 74.1051197592119 2933.54733163645 13 16 9
-101.611170626483 73.0523607178525 2933.34517103466 12 15 8
-85.4128926706075 71.7038290270597 2937.84150958253 12 15 8
-81.1714338050797 71.0199491612565 2931.52287902786 12 15 8
-64.8932276199203 69.6609081917886 2935.94969349397 12 15 8
-72.7157770868754 69.6561299387015 2918.90953599647 12 15 8
-82.1270738596813 69.7470800529248 2900.59894531657 11 14 7
-66.5737366328569 68.4268347796861 2904.33051749481 11 14 7
-69.9948492831486 68.1840906291812 2891.41689927088 12 15 8
-88.7283189075418 68.821109985579 2865.3022398242 13 16 9
-87.6995842556676 68.3338502208133 2856.47355972113 16 19 12
-69.0504686934421 66.833549813258 2862.81675081546 19 22 15
-53.410037202152 65.5020472879296 2866.47259269855 18 21 14
-39.2596804043275 64.2531114771691 2868.77319461286 16 19 12
-26.6121500395737 63.0884227691982 2869.72896703481 17 19 14
-7.72562556156897 61.5566744087099 2875.86627555894 21 23 18
43.1733754534935 64.0202755262621 3235.35791081043 31 32 27
23.0067920752108 64.6565614244603 3203.86876744642 21 24 17
21.4029974339898 64.2576405226908 3190.70460279547 21 24 17
26.2500456752219 63.4970857435062 3183.86158301657 19 22 15
48.4626857665091 61.7501006001104 3193.73435770872 17 20 13
-131.865616000732 70.6696783784265 2988.69717394075 22 25 18
-141.473427143965 70.7854162574404 2969.23348783189 21 24 17
-92.4321778275035 67.5104774016704 3004.82665113965 19 22 15
-128.555066733195 69.1687403554172 2960.69367836316 22 25 18
-116.184441269919 68.0152773927448 2961.88938147335 16 19 12
-112.662073584792 67.3773275815216 2954.87045459216 16 19 12
-132.167625319576 68.0937330239498 2926.77795029471 16 19 12
-128.735196700697 67.4680301865781 2919.83689747437 15 18 11
-109.6392495365 65.9164779016822 2927.11608103078 15 18 11
-90.4701081496899 64.3552553239865 2934.33220270011 16 19 12
-66.7245535697538 62.5160562759312 2945.52346459758 15 18 11
-66.2141327778789 62.0589012662499 2935.82056979589 13 16 9
-67.9975114200868 61.7416188188886 2924.13478890655 12 15 8
-63.0118364614694 61.0201028315099 2918.49493978141 13 16 9
-54.23726825562 60.0702612773542 2916.1892201174 15 18 11
-58.3819737515747 59.9020427269936 2902.57902202221 14 17 10
-80.1278031801855 60.8075933334238 2873.78018400543 18 21 14
-86.722903159604 60.8002239507533 2858.32269045171 21 24 17
-79.5783578720393 59.9573882818888 2854.78255509647 21 24 17
-3.57965959478701 54.4722253128425 2900.10909662822 12 15 8
-0.115598854993681 53.8435650541801 2893.14064627584 17 19 14
47.5017852875106 54.789079585463 3229.01961905986 23 26 19
27.7974669215801 55.0417307199159 3186.54526644124 18 21 14
55.8015888167063 52.8834367418113 3201.98773897559 16 19 12
60.7029926546288 52.1217447989903 3195.09793012894 15 18 11
-109.076122410328 61.5989552138427 3011.35098223477 23 26 19
-116.418364249812 61.6284927948544 2993.89398697178 24 27 20
-108.421196475294 60.7178740647212 2990.93855316796 22 25 18
-121.021932007685 61.0805194233066 2968.77398323875 17 20 13
-125.607221949391 60.9533472572538 2954.22181315278 19 22 15
-103.604874710437 59.1754102316256 2964.27705678791 19 22 15
-137.921114071921 60.9080657703742 2922.54781197553 18 21 14
-119.156064767493 58.9291784970003 2919.5298477399 18 21 14
-96.2735178932794 57.0869084371573 2930.14586846451 16 19 12
-66.5439615358827 54.8052934447626 2946.74016579783 17 20 13
-64.525144298452 54.2718920771335 2938.37722091344 17 20 13
-95.7264089610237 55.8530561434925 2900.56571710489 18 21 14
-44.6641389426476 52.2004763906599 2935.73321263292 19 22 15
-32.3234386828193 50.6060276629031 2926.37067707602 22 25 18
-54.752971759092 51.6493914267628 2896.84027568132 27 30 23
-45.9801357474388 50.6895650717701 2894.53612207405 24 27 20
-77.0656356978336 52.3085574436763 2857.94761208493 14 17 10
-32.2324865591486 49.0134957596665 2886.60149946912 13 16 9
-24.1945421599752 48.0992944515936 2883.61074631421 14 17 10
-24.6477210940537 47.7386343093833 2873.41915186995 18 20 15
-4.98502783222321 46.0637617978235 2880.20791533024 22 24 19
79.8300338153943 44.6860636181023 3273.84974351422 17 18 12
2.90068845035307 48.7025586963096 3175.08154684677 17 20 13
35.1152069279665 46.199970003438 3194.81682910589 15 18 11
50.8357216724065 44.7495952307149 3198.40434576289 14 17 10
40.4877008163425 44.9796825378858 3176.93464777449 15 18 11
-116.217351808098 54.2988819157326 3005.67755271171 19 22 15
-124.306201724927 54.4279030455914 2987.5437639779 26 29 22
-128.071048818242 54.2797854486734 2973.60419869661 25 28 21
-140.720183213928 54.7179451108929 2951.48108846732 20 23 16
-122.480884371727 53.1322902416252 2958.17972002977 21 24 17
-122.671686414751 52.757368114187 2947.76049100818 19 22 15
-88.9273335428262 49.7517023311083 2958.23319001516 17 20 13
-118.222979259177 51.312971695533 2921.41698394446 17 20 13
-97.5855864585471 49.5577460146155 2930.00829822688 16 19 12
-79.117658242263 47.9422594607891 2936.50896180289 17 20 13
-96.6894764295452 48.7385873521256 2910.71000136226 19 22 15
-100.057541839169 48.5886866989891 2897.74980355991 20 23 16
-92.8864390587783 47.7317869266128 2894.18674100678 20 23 16
-43.9957165026956 44.0549889792922 2927.26645358111 20 23 16
-35.9371430022741 43.1298275707709 2924.25789146437 24 27 20
-35.4922722122453 42.7212721826788 2914.61149627868 25 28 21
-57.2491545084244 43.826923783946 2885.82094152009 21 24 17
-28.5587771195122 41.4975352833667 2900.66972044757 13 16 9
-54.3205509275086 42.8880515880679 2868.73188331271 15 18 11
-27.0732622693517 40.6514911220529 2882.18400032935 18 21 14
-36.0311014928882 40.8987153606392 2864.80294541687 19 21 16
-52.8157585867706 41.6909170468728 2840.96827264452 23 25 20
70.5517625750796 37.0948931465764 3277.97064754637 19 18 13
51.3019521715434 37.9617931427024 3247.00867057912 30 31 25
30.4690406551584 38.9457366648394 3214.77122854829 20 23 16
25.1178210649092 38.4759178549001 3186.32863695977 16 19 12
50.2120540969635 36.3529999096683 3198.99931101482 14 17 10
55.1018300251434 35.6046116046782 3192.1194942876 12 15 8
-132.921724298195 47.3326100656961 2980.50030861713 22 25 18
-150.64500205459 48.1863373653126 2953.50867529467 26 29 22
-136.867477129052 46.866424492508 2956.13256841426 25 28 21
-145.176511662364 47.077827731073 2938.18940327673 27 30 23
-139.509138328481 46.3211739929436 2933.28219023197 25 28 21
-104.912153734746 43.545157757984 2954.92468893077 22 25 18
-131.152543265851 45.0168530806034 2920.75400643483 19 22 15
-109.83177225425 43.1630308508555 2930.07722755109 19 22 15
-101.889104917492 42.2448625775949 2927.16908015691 18 21 14
-108.185276075432 42.3300186130156 2911.45189468172 17 20 13
-111.539772381933 42.2115648424095 2898.47973227338 15 18 11
-119.468876390571 42.4204451156776 2881.53054491464 16 19 12
-97.9826499070824 40.5451270140209 2890.71018360714 22 25 18
-82.4768334073571 39.0903243522626 2894.48381564289 24 27 20
-61.5970107195567 37.2489719207545 2902.86556533155 27 30 23
-69.6036663019277 37.4686330413668 2885.98352484917 15 18 11
-50.1684342560393 35.7258354084078 2892.96987727779 14 17 10
-68.9805200096951 36.7267106446217 2866.92099946101 22 25 18
-42.5860094100821 34.4803264803462 2879.78936817229 24 27 20
-41.508436195139 34.0546175585741 2870.91795908013 19 21 16
-33.503535645151 33.129445626392 2867.95591730698 21 23 18
-30.9093882955551 32.5959444123832 2860.41757465348 24 26 21
91.2992872859375 26.9785697711273 3299.75424192437 28 27 22
55.6753607375051 29.1070773136471 3252.53891608417 25 26 20
17.4916596045502 31.0423084991356 3191.66309880547 14 17 10
15.1253077858655 30.8231405466167 3177.83544419435 12 15 8
65.497095150667 26.8121499408168 3214.92698924069 12 15 8
78.4092753969827 25.4881330314802 3215.65441254828 15 18 11
-159.493412930529 40.9153272135717 2936.08117773325 26 29 22
-142.785285512804 39.3524979511013 2941.46026095192 28 31 24
-139.328451833495 38.7578381952909 2934.49785422853 29 32 25
-143.300811545827 38.710121418354 2920.73749699328 26 29 22
-121.29939379598 36.7525537382854 2930.79471026114 22 25 18
-142.459586571101 37.9761388603372 2901.48621903474 21 24 17
-130.867086937319 36.7854022590617 2902.03301691992 21 24 17
-110.244904574489 34.923351930629 2910.63820686189 19 22 15
-112.849163952388 34.7826054982479 2898.33950798252 17 20 13
-129.069792621302 35.6587147595131 2874.01542777731 19 22 15
-134.82668964225 35.7610602670992 2859.15429902035 23 26 19
-90.6178528297783 32.1303035469395 2888.35147565051 24 27 20
-75.0829245807791 30.6365170083806 2892.10012810325 24 27 20
-51.8747103687671 28.5635290087558 2902.43537629821 21 24 17
-59.9032951097982 28.8360809437338 2885.57199987208 22 25 18
-54.9814717643677 28.1364289971443 2879.98703604283 23 26 19
-54.3961764212071 27.4393382593179 2860.95734243534 32 34 29
-12.4418577330854 23.9325339230241 2886.81442874582 16 18 13
-13.6614984885997 23.697132154115 2875.96308176287 19 21 16
49.3209099031606 21.3974267816856 3259.41976662994 28 27 22
113.648947700877 16.1905243730905 3310.89010334463 29 28 23
43.5573083078733 21.0788346470414 3230.01004501052 22 25 18
-9.00427625179878 24.6710379060284 3167.02850275282 19 22 15
-3.51271296120848 23.8954589370781 3160.95053235588 17 20 13
37.3973930284959 20.4376320519576 3189.03593435569 15 18 11
56.029391692948 18.6596991537766 3195.39544483319 13 16 9
34.0164292686222 19.9698386544251 3162.85542071054 13 16 9
-41.7865664465955 24.7037211547157 3057.81296862583 20 23 16
-134.316451163736 31.4618321880731 2960.63826004258 19 22 15
-148.506183908084 32.2293719875415 2937.2014701297 27 30 23
-142.10578838286 31.4173963699877 2932.98253976279 28 31 24
-135.702155350198 30.6051194963012 2928.76080528396 26 29 22
-135.242858355943 30.2525312375239 2919.10154372014 26 29 22
-118.412001847222 28.633095042491 2924.37462003853 26 29 22
-126.937431243835 28.9791377420539 2906.61782412734 19 22 15
-123.178349088346 28.0626813623671 2890.13207590522 22 25 18
-143.18822103835 29.315883151655 2862.47320561219 24 27 20
-126.306609993214 27.6903082037685 2867.70201541594 22 25 18
-85.872513407653 24.215178101025 2893.55326674453 21 24 17
-65.7668240042382 22.3265670447261 2901.28303094164 19 22 15
-53.2031911329538 21.0273316535689 2902.3123922027 17 20 13
-49.7711015595277 20.4461549299943 2895.37134471491 20 23 16
-57.8423485585366 20.7743601545867 2878.54426905369 23 26 19
-46.7870968544601 19.5933342986411 2878.23339523273 27 30 23
-57.26657491229 20.1179119044255 2859.52256487884 18 20 15
-51.618277381837 19.3665744116978 2854.63185106919 22 24 19
2.80246360311587 14.7354702046434 2890.86487808363 28 30 25
36.5763946697744 13.8321753379025 3248.01790670689 25 24 19
55.1244259625627 12.0182254053629 3254.45042811485 30 29 24
8.34981408223845 15.0236370124552 3185.13365017809 18 21 14
-1.2413740863888 15.4455125566648 3164.329996175 15 18 11
9.3126610468115 14.2704229995969 3163.13024543257 12 15 8
14.8171196194493 13.4965808014851 3157.04108697685 11 14 7
65.3801001772276 9.12608131300832 3193.96924763699 11 14 7
58.6109865882749 9.32798026340137 3176.01470012529 9 12 5
-132.848821427067 23.4224483787654 2952.80137261764 20 23 16
-141.186392591295 23.7954648078955 2934.88189394636 25 28 21
-141.449762213139 23.5198003780288 2924.52491866139 25 28 21
-151.408925887234 24.0315426680782 2905.3631963018 26 29 22
-130.897792365658 22.0750354192067 2914.06524834929 25 28 21
-116.284287186553 20.5939796719797 2917.28918792894 16 19 12
-124.10462128908 20.9376055392287 2900.24453711524 17 20 13
-137.259853865175 21.7204693238839 2878.55753116625 22 25 18
-94.7592234690076 17.9603668359896 2906.58958811779 24 27 20
-83.0362056139968 16.709705878941 2907.02396499337 24 27 20
-72.0390361532579 15.5170689837598 2906.76350838027 19 22 15
-70.1299827401911 15.0696396233617 2898.49482713427 15 18 11
-65.1954469818739 14.3744960924859 2892.89913129803 13 16 9
-64.0848215631973 13.9948724236367 2883.99877603926 15 18 11
-33.8995524914472 11.2166329548724 2900.20162443447 17 20 13
-39.6727817975964 11.4050712572924 2885.35377805985 20 23 16
-50.1275749782018 11.9844440429973 2866.62119736145 29 31 26
-53.7220909816796 11.9992372585593 2853.85620520809 18 20 15
44.7986663890303 3.53285651623861 2927.32256449264 21 23 18
69.4917534022279 2.25917965264094 3269.85167475886 23 22 17
36.5705678809536 4.65934526699141 3225.58538477169 14 17 10
14.1989352092771 6.19527476361859 3192.03150904777 12 15 8
10.3942345589263 6.19551746282415 3176.80194851353 12 15 8
-18.034288860258 8.25033976641357 3137.90771727209 14 17 10
24.3475626742824 4.405804606995 3167.36653213037 16 19 12
45.8617083453792 2.29571567880155 3176.52349358022 14 17 10
75.4768356787743 -0.496753949924988 3193.22059652536 13 16 9
64.3013543616142 0.125814202152297 3171.14228410356 11 14 7
-142.485015920613 16.3504133799635 2934.73212519811 24 27 20
-157.568660504357 17.3503094976082 2910.7453542609 26 29 22
-143.046322269046 15.8485418061511 2914.04813020875 27 30 23
-128.475442349119 14.3404687310692 2917.30918970563 24 27 20
-140.006503728539 15.0478285504204 2896.86178272495 23 26 19
-111.175870411581 12.3254801353945 2912.91511957313 22 25 18
-135.558050814332 14.1321359649081 2881.10178800981 23 26 19
-122.439968530756 12.7460904218505 2882.97441143983 24 27 20
-97.1962177063084 10.3217136516977 2895.5177620234 18 21 14
-67.3023736547909 7.49438872753674 2911.97351703376 16 19 12
-46.3918850088061 5.43126514558062 2920.33012451677 12 15 8
-77.1818354136462 7.80373010127558 2883.480568592 10 13 6
-51.6674914708029 5.34389304353575 2895.78930066421 12 15 8
-42.1248550910116 4.25469041957729 2894.1423481541 12 15 8
-34.0979974573163 3.2954281702364 2891.16149629336 14 17 10
-30.6780154036423 2.73363823455372 2884.23081720127 16 19 12
-54.2819053511638 4.50983703902399 2854.38994794439 25 27 22
-48.6387314477752 3.76023756090066 2849.5036637041 17 19 14
50.2670556063292 -5.00696957567262 3240.24389502556 14 17 10
9.7782803151869 -2.08141604518836 3177.38945293209 14 17 10
39.1448771919372 -4.92883763426832 3194.3023222474 14 17 10
38.9427582467343 -5.20276507582096 3182.56898667153 15 18 11
67.7600529511366 -8.00992753556487 3198.63443417179 14 17 10
76.3063039513314 -9.04916820822518 3195.2039236731 15 18 11
70.253349592416 -8.80954022624217 3177.95167160172 12 15 8
-151.170740640795 9.56238856116801 2927.74752545612 23 26 19
-153.677882319723 9.53040155783794 2915.36394641239 25 28 21
-132.460128677876 7.40395016226333 2924.77790751688 26 29 22
-123.075239377134 6.32102003289703 2923.26763942441 24 27 20
-114.417788946352 5.30186762804527 2921.06387908184 22 25 18
-115.481833180405 5.14490028869136 2910.07684723099 21 24 17
-143.621284934355 7.39569731170034 2874.90057988196 17 20 13
-132.785118033371 6.18667024088237 2874.77977618332 16 19 12
-108.328424984496 3.76294764508275 2886.68203292028 11 14 7
-58.7828540132174 -0.90354365031256 2920.52415445739 8 11 4
-29.500251452351 -3.76991862108378 2936.18637109886 11 14 7
-30.54318409843 -3.9288457688606 2925.18105377547 9 12 5
-77.4243017066269 0.0198367707521796 2874.47739002294 10 13 6
-70.2464382860732 -0.867564721844766 2870.90866543188 8 11 4
-33.899012026593 -4.37464128345433 2892.36199158132 9 12 5
-20.4731298902168 -5.82754540617264 2893.96826706044 10 13 6
6.88017059058454 -8.53593571420128 2907.33187280181 0 2 0
8.04554521228074 -8.88836324834 2898.38388820922 5 7 2
8.40976643615576 -9.16727321590652 2888.80655479589 22 24 19
39.0732148297461 -12.1828910235229 2904.59648620245 22 24 19
71.5824725257974 -14.6303603216114 3298.58622663229 20 22 19
66.7200284078651 -14.4737467955417 3281.6259153505 21 22 16
23.8617833603398 -11.1519233522955 3215.52925102434 15 18 11
56.0418899645811 -14.339819105134 3235.2991156107 13 16 9
63.7962849078799 -15.5888526862829 3219.32273942324 9 12 5
39.7700544964739 -13.6725732815179 3184.55366110025 10 13 6
61.3226624784877 -15.9023742906308 3193.67806161998 13 16 9
73.4932196214397 -17.2794353449999 3193.72535918387 12 15 8
73.2800196325538 -17.526194289536 3182.00145189433 13 16 9
-93.2962417142771 -3.03685900581641 2992.7991596064 24 27 20
-104.461937350272 -2.25174485924859 2972.034573153 21 24 17
-127.57212921328 -0.364284048643193 2940.44213168068 20 23 16
-123.365614839598 -0.984821839051991 2934.15337831492 24 27 20
-116.18928034286 -1.87853005034111 2930.58601976479 24 27 20
-120.206851960307 -1.73934674777379 2916.86363819565 17 20 13
-123.529844466995 -1.66200839767164 2903.8629015738 15 18 11
-126.90297356767 -1.57785819052067 2890.90557599909 12 15 8
-106.233536606695 -3.71823044434916 2899.47161221531 12 15 8
-85.4828488241743 -5.8692232414442 2907.96760975821 10 13 6
-52.5396369563245 -9.1552086656331 2927.07638369376 8 11 4
-18.6905197974476 -12.5310799761682 2946.72445131178 9 12 5
-50.1444900792016 -9.83645038875852 2909.12476126246 7 10 3
-68.0637649983833 -8.394505425563 2883.62245493301 9 12 5
-78.4589804955096 -7.64906695537881 2864.83716000507 7 10 3
-42.9073357177381 -11.1899916947401 2885.65717703367 7 10 3
-23.3519569548473 -13.241798075733 2892.54139636843 9 12 5
-11.4369675508619 -14.581357298646 2892.80996066515 15 17 12
-1.03706890064625 -15.7801096304858 2891.74395888826 7 9 4
22.5684512444189 -18.2180863710911 2901.73721288618 9 11 6
37.7149096691394 -19.8654233414921 2904.4999847247 9 11 6
47.5235129715412 -21.0651094166304 3275.80960958109 18 20 15
58.2525564063863 -22.3292082202787 3274.45874963516 13 16 9
15.4781468407248 -18.5520774018483 3220.19676606771 10 13 6
51.152369290123 -22.1650614127612 3243.55784482522 10 13 6
74.791413022536 -24.6475415070565 3254.84559197993 9 12 5
90.6099419306039 -26.3939434127299 3258.35007450142 10 13 6
53.0592397572951 -23.0891495554715 3210.15029473078 11 14 7
21.0490485236754 -20.2996492774546 3167.73872760792 12 15 8
22.2173758668189 -20.6501392079901 3157.4649103577 13 16 9
53.9353670449776 -23.9016971921626 3176.31245865513 13 16 9
67.5429580595002 -25.4359342441277 3177.76176755753 13 16 9
-64.449878729306 -13.3316001349493 3031.38494466918 29 32 25
-63.6838834868021 -13.6275181333829 3021.45948948477 26 29 22
-45.2274433841211 -15.6122053688419 3027.97250265139 21 24 17
-68.9041834462345 -13.5696439890356 2995.54652742707 19 22 15
-109.079583908506 -9.94115675534826 2948.29630959392 19 22 15
-116.008081416713 -9.48956682169244 2931.80154872233 22 25 18
-115.541781740221 -9.74472013370078 2922.13558630123 20 23 16
-124.088207321012 -9.13294955250232 2904.39526661427 17 20 13
-119.20182070149 -9.80967644638306 2898.84118402705 11 14 7
-83.460182508726 -13.4558511563301 2920.82046982817 12 15 8
-60.3860820431472 -15.8873121596471 2931.27428214182 12 15 8
-65.9766806974007 -15.557389677424 2916.2672263956 11 14 7
-67.8354332424194 -15.5853545322181 2904.64489999191 11 14 7
-61.3662091091749 -16.4164733955038 2900.36675295797 12 15 8
-64.0493056834095 -16.3621904630068 2888.13480580244 13 16 9
-53.7736188729872 -17.5609831267536 2887.1764631532 15 18 11
-64.9511557225639 -16.6809863124517 2867.74478593528 15 18 11
-46.9948403033387 -18.6243568237983 2873.36774653633 19 22 15
-26.6606441899997 -20.8008325591635 2880.90132112465 18 21 14
-49.5469817089718 -18.7782320981789 2851.7605030819 14 17 10
-5.91755332184007 -23.2226048398916 2878.81862432878 12 15 8
20.8116681935802 -26.0277982924547 2891.40019264356 13 16 9
61.3154212560341 -30.3851296386365 2905.28649249848 4 9 5
48.3064833071758 -29.7495688410509 3277.83409381809 13 15 10
52.6352238253529 -30.4028713309241 3270.1163541035 7 10 3
66.2263984491971 -31.9638824698535 3271.58006517852 9 12 5
-0.283680330666058 -25.6621936120376 3194.20351618106 13 16 9
69.1313309820907 -32.7035451067748 3250.54013450728 11 14 7
60.4643135187835 -32.0759540569927 3230.2577118783 13 16 9
48.1016296553607 -31.0811849666862 3206.55914144845 14 17 10
45.04031804594 -30.9993084985427 3192.00830630771 15 18 11
31.0374561346691 -29.8357330227611 3167.08340602083 13 16 9
46.0338120352737 -31.5321215632747 3169.97691048061 15 18 11
53.0493558074818 -32.4409534890231 3165.22543664808 14 17 10
57.872342718126 -33.1326778234151 3158.40314117912 12 15 8
-56.2267311151068 -22.0440559512373 3040.19449650162 29 32 25
-77.5174483737748 -20.1343312137177 3009.67111295001 27 30 23
-61.3157156790432 -21.9401473629478 3014.16742036623 22 25 18
-39.1361747378403 -24.3414974797312 3024.07280806998 19 22 15
-105.193196556973 -17.9722907643089 2952.92007618848 17 20 13
-109.873186367578 -17.6979662185781 2938.44769968698 18 21 14
-102.670186493175 -18.6052287978727 2934.85700161534 24 27 20
-125.395123274704 -16.5286386636169 2904.25268102544 22 25 18
-137.020390342347 -15.5543452798996 2883.88519576478 16 19 12
-91.5517656477363 -20.2795888145593 2914.6443985138 14 17 10
-83.5935979335134 -21.2616994766764 2911.72323073358 14 17 10
-94.5387862146125 -20.3524933902452 2892.08997938288 14 17 10
-107.09216960372 -19.279095286327 2871.20302282563 13 16 9
-103.770591410682 -19.7936176798645 2864.35732760179 14 17 10
-75.292127184484 -22.8314417151246 2879.39436996444 15 18 11
-65.0464123439165 -24.0422175593292 2878.46208275011 17 20 13
-63.2122439967495 -24.4083124619527 2870.25778003313 18 21 14
-58.3238675390527 -25.0807709528406 2864.70194512229 24 27 20
-47.2733258697371 -26.3732694147184 2864.39587600301 23 26 19
-45.4705569981657 -26.7347541886869 2856.21907397927 19 22 15
-25.0892656092874 -28.9688421042107 2863.71188721498 17 20 13
-3.07684578799794 -31.3697918205092 2872.43917684661 17 20 13
-4.3526839105974 -31.4211780253947 2861.63503020342 21 23 18
14.6434397972799 -33.5204356446273 2867.68102260965 17 22 18
63.4692193405284 -38.6393954340554 2898.17984712802 4 8 7
112.20578742635 -44.8649050740883 3342.9737915801 9 11 8
85.4273661557303 -42.3482316966698 3303.96931004707 11 14 7
36.29674530728 -37.7474056741461 3231.39087244235 13 16 9
41.951806154882 -38.5234141412724 3225.17119561906 13 16 9
50.3611562273143 -39.7776190327086 3209.9504406614 12 15 8
55.9933811781885 -40.549878435682 3203.7505322366 11 14 7
46.3826313445375 -39.7602275320563 3182.96144983823 13 16 9
49.778870183772 -40.3011388506084 3174.72795367748 15 18 11
66.2927489344507 -42.1873564991292 3178.95391837792 14 17 10
5.29516629712834 -36.1145999334883 3110.03452957581 10 13 6
-94.2871911637311 -26.2398272294129 2995.13198331049 29 32 25
-86.2509260417319 -27.2415880286387 2992.14325303315 24 27 20
-70.0634755603784 -29.083336056381 2996.65185668369 21 24 17
-111.698079796882 -24.9640778136185 2948.01636574673 16 19 12
-130.529359647042 -23.1901150181329 2920.65585364457 15 18 11
-148.750549997574 -21.4750106418316 2894.09051283263 16 19 12
-134.932067952761 -23.0674717114133 2896.68067306386 19 22 15
-106.064757023965 -26.2177727549409 2912.70467773835 23 26 19
-102.64864196096 -26.7367999692984 2905.77738871542 23 26 19
-118.104289546684 -25.300172774402 2882.10990061041 23 26 19
-121.57346858535 -25.1027480962626 2869.23509094804 23 26 19
-122.81722163508 -25.1346432678914 2858.40332422937 22 25 18
-146.152856073381 -22.8713902706729 2828.32679215702 22 25 18
-92.6298765055922 -28.5900346498354 2865.34498854877 22 25 18
-71.7265291421678 -30.923795264701 2873.70953937278 23 26 19
-65.3078471327753 -31.7523744335237 2869.47518255701 23 26 19
-71.9535003144642 -31.2203605293087 2854.05801006368 23 26 19
-61.7099319172034 -32.4464326849357 2853.12768236939 24 27 20
-32.1238695692441 -35.6902952149664 2868.52932563444 25 28 21
-31.0796601427477 -35.9587638182258 2859.6858152158 27 30 23
-24.6228840969538 -36.791694648265 2855.41846912828 27 30 23
-28.2889128031241 -36.5666220906669 2842.71409698946 18 20 15
-14.8242115704647 -38.1316358846939 2844.28745303596 25 30 26
22.1698527142458 -42.1601655412589 2865.18369379484 66 70 69
129.642605737852 -55.3851765618443 3374.24613166353 9 11 8
128.865931734927 -55.6753849167158 3348.45407297747 14 17 10
36.3834006353247 -46.2545127149736 3232.69415229237 14 17 10
31.9998335826428 -45.9643691253177 3216.64149215189 14 17 10
57.0431659674409 -48.7911390924587 3229.36116011901 14 17 10
52.4723659643005 -48.6510391845501 3201.56114389325 15 18 11
60.2677801652405 -49.6493793860947 3197.45788472883 14 17 10
57.885874769136 -49.565876272763 3183.64143413343 13 16 9
73.6919763411348 -51.4154353138771 3187.1573563346 13 16 9
72.7243828533051 -51.4807111024726 3174.76287211948 10 13 6
-102.453966977832 -33.4437428663246 2967.8497962354 24 27 20
-104.104963398177 -33.4171334646886 2956.04704648821 19 22 15
-137.040851299306 -30.0455273853719 2915.75730275285 17 20 13
-142.591428839871 -29.597105089294 2900.71479138712 14 17 10
-154.188159781856 -28.4998157970716 2880.32177582408 16 19 12
-138.12880066514 -30.3616453699748 2884.9418465063 22 25 18
-101.706935896336 -34.4067926874963 2907.65740170804 25 28 21
-84.7251880327096 -36.3714171592718 2912.80193189403 26 29 22
-119.859310520771 -32.7454900693377 2871.76899182627 25 28 21
-130.194007380788 -31.7763973363412 2852.92979393504 27 30 23
-133.773268155153 -31.5307462722346 2840.15008356165 27 30 23
-110.721228267979 -34.1465902322987 2850.62421137771 26 29 22
-88.3403015799082 -36.692415971686 2860.35630253441 26 29 22
-74.300916885226 -38.3424434617041 2862.75537153058 26 29 22
-79.4289186617734 -37.9290940378772 2848.6704022189 25 28 21
-53.0244383940044 -40.9122527035303 2861.53458866471 23 26 19
-18.7846333196457 -44.7428741890366 2880.84697981572 23 26 19
-14.6040940835892 -45.3337735544594 2874.58054797768 27 30 23
-40.7219571482771 -42.6532926528605 2842.9426716855 31 34 27
-39.7541086990514 -42.8944926529846 2834.16548488224 35 38 31
-30.2238739201752 -44.0604383301646 2832.52946306947 32 37 33
-36.3296110432469 -43.5356875884516 2817.96794937149 30 34 33
79.8709571500811 -59.2174893474767 3300.9546819194 17 20 13
92.1139552330601 -60.7139799098973 3300.93965071005 17 20 13
21.4557642726327 -53.1197847618295 3219.2098479104 16 19 12
52.1668440703746 -56.6381608807324 3237.60859061031 13 16 9
80.1404825101471 -59.8589672385277 3253.08436935782 13 16 9
46.2216210653654 -56.2825887088441 3208.3519181935 13 16 9
51.1224632557936 -56.968111886308 3201.46178705858 15 18 11
50.9377983488353 -57.093731253101 3189.71236240037 15 18 11
76.1696593927028 -60.0155682204364 3202.26924183861 9 12 5
68.6881506471844 -59.337071022204 3183.6054880624 10 13 6
53.0827643744956 -57.7613749174015 3157.42036094548 10 13 6
-88.1429236707194 -42.5956040345198 2992.55903340648 25 28 21
-90.5836123696502 -42.5848006647701 2969.53086189122 18 21 14
-116.033330940835 -39.8989313729861 2935.99058496136 16 19 12
-111.827018546337 -40.4896635636729 2929.70181351719 14 17 10
-127.81977615099 -38.8443424475246 2905.17524475788 11 14 7
-127.436093605198 -39.0097390422447 2895.58030794782 10 13 6
-97.7587254667283 -42.4200972183144 2912.22746848316 15 18 11
-97.3542576953768 -42.5878887591118 2902.61453189031 20 23 16
-94.7113727957305 -43.00318069389 2895.03318065125 19 22 15
-117.100812820354 -40.6398901669118 2865.45916049642 25 28 21
-107.719500067893 -41.8008044935924 2863.95249766645 26 29 22
-124.230738344723 -40.0855390294654 2839.87486150116 27 30 23
-103.417585167887 -42.5161309178839 2848.31821433774 28 31 24
-94.7828672788784 -43.5939944830957 2846.13453755602 28 31 24
-47.4250689582782 -49.0995553847136 2867.3215013484 25 28 21
-13.9490341966533 -52.9462153252804 2885.97240722751 23 26 19
-18.2721224937947 -52.5839384685888 2872.51338229455 27 30 23
-28.084453856418 -51.6084191047507 2854.54465067788 32 35 28
-43.4292490174339 -50.0139486584048 2832.10332083573 37 40 33
-44.0549920314077 -50.0596338497424 2822.05925283673 32 37 33
-24.3676555036014 -52.3723190963824 2828.83079013502 32 36 35
70.698523088427 -66.9010889883308 3293.07415762044 15 18 11
53.6950181356004 -65.1010178922375 3264.12927813373 18 21 14
38.6994309036832 -63.5258644083617 3237.4156197854 18 21 14
57.9858582457393 -65.8408216674308 3244.53465420819 18 21 14
84.5341602289737 -68.9819031157392 3258.5987849321 13 16 9
64.338005808763 -66.811797669813 3227.12533266417 12 15 8
43.2660758350938 -64.5388789998984 3195.08670393062 15 18 11
37.987519132622 -64.0595837837364 3178.48496139745 13 16 9
50.8190546746636 -65.6401319055419 3179.28394469762 10 13 6
72.4359426028212 -68.2216026121215 3188.35491030591 10 13 6
65.622868434768 -67.5652958842127 3170.43552043455 12 15 8
29.4062027602497 -63.5557665718571 3125.04501470486 10 13 6
-77.6603328029246 -51.5712673917735 3003.38204827684 24 27 20
-143.523411634699 -44.1620180103919 2932.05416402177 20 23 16
-105.446614285996 -48.7199403584372 2946.7220325923 20 23 16
-104.93677702771 -48.8828933362123 2937.01773712365 13 16 9
-109.689606794074 -48.4433097933633 2922.60742274759 12 15 8
-119.748016729402 -47.3955752388688 2903.52824744676 12 15 8
-85.5448517884918 -51.4115126538164 2924.19654212953 13 16 9
-88.8727104981917 -51.1330278082232 2911.19903529929 17 20 13
-110.38925821977 -48.7701161769585 2882.19202684985 18 21 14
-97.1945802403509 -50.3819324523751 2883.99972503705 20 23 16
-102.196793842556 -49.9082023181139 2869.8050238119 21 24 17
-111.828557521768 -48.9023840884747 2851.67959135619 25 28 21
-132.238643589466 -46.6583058166736 2824.36118012021 26 29 22
-70.8259573833003 -53.8030879455582 2867.78388084394 26 29 22
-47.5181557232793 -56.5775347355581 2878.03735848851 25 28 21
-52.6108613098288 -56.0910417651318 2863.92132272824 27 30 23
-48.4961812962621 -56.6614837953126 2857.71184088157 28 31 24
-83.1002893899915 -52.7803973490646 2818.86470210514 27 30 23
-58.1476146818418 -55.7450183942751 2830.34057874558 27 30 23
-54.1074438978706 -56.3051716376803 2824.19561005481 28 31 24
-43.0532408881024 -57.6723249762127 2823.88716679847 30 35 29
-22.5832257010348 -60.1239656587205 2831.3044896765 37 42 38
18.358471935132 -64.9348414949841 2855.40117972255 19 23 22
75.0289513593505 -76.1011142492643 3298.64389330583 12 15 8
69.5088345489596 -75.6597835929829 3269.01821035277 17 20 13
50.1859657906567 -73.4933510955278 3238.11113468467 16 19 12
39.3382810277148 -72.319479595504 3215.7451367474 15 18 11
78.119444945123 -76.9734183432014 3241.71342207073 14 17 10
72.2738498226443 -76.3858923261223 3224.27887439491 16 19 12
63.4585824486211 -75.4479032756083 3204.12293390555 12 15 8
61.0978898635306 -75.2673518176457 3190.28746852868 10 13 6
84.1990611723045 -78.0811037844703 3200.72029482444 10 13 6
69.383830825295 -76.4339197643038 3175.17342430639 10 13 6
24.6920946825422 -71.3597437486892 3110.65455732821 22 25 18
-33.2768263134868 -64.6220669413098 3045.72242979122 27 30 23
-145.562643021378 -51.4777549191549 2931.22252357712 22 25 18
-162.147134227509 -49.605634073526 2905.88410105983 21 24 17
-114.191074901853 -55.3426892377054 2939.78727037013 18 21 14
-98.0508868257859 -57.3296143234049 2944.33777879711 11 14 7
-106.517188540351 -56.4133861112453 2926.52635549509 11 14 7
-97.0764811234677 -57.6097043559472 2924.96812707997 10 13 6
-93.6277358228184 -58.0985339232691 2918.01204506284 11 14 7
-81.1499445127946 -59.6535557436827 2919.11746579302 14 17 10
-97.3478236640792 -57.8204450326515 2894.76746636993 15 18 11
-109.877295942709 -56.4190516299594 2873.85765977605 18 21 14
-86.0421832607439 -59.3158792462875 2884.97815190683 21 24 17
-97.9101415006887 -57.9909665900682 2864.81874378701 25 28 21
-76.2678653965963 -60.6293796266279 2873.86807353838 26 29 22
-92.0648733073981 -58.837731106564 2850.49446966298 26 29 22
-57.2993753637752 -63.0303967853483 2870.67651532303 28 31 24
-45.4760857200007 -64.5080856409306 2871.0254541815 28 31 24
-64.4989465140342 -62.3319374514242 2845.15164687042 27 30 23
-47.2760287532443 -64.4489028103667 2850.08813361053 24 27 20
-70.3466947607394 -61.7904222540025 2821.10264366269 23 26 19
-74.8954941515922 -61.3258479688479 2807.8389032707 23 26 19
-59.2155295972399 -63.2596198310724 2811.46438314734 24 29 23
-20.018033312259 -67.9840299314228 2834.42575315473 28 33 29
82.0184632115946 -85.5812525641538 3319.11437419983 15 17 12
28.7785410270591 -79.4408954499929 3218.32685453733 16 19 12
45.8952208055701 -81.5904444517628 3223.35563269818 16 19 12
58.749772318095 -83.2235731184655 3224.13500795267 16 19 12
62.969847607719 -83.809436865897 3216.51101529287 16 19 12
86.0164744004894 -86.6792327530747 3226.99148044724 11 14 7
88.0836700693401 -87.003574119693 3217.26167313843 10 13 6
56.3344739340539 -83.293208782172 3164.03089143866 9 12 5
64.8201106740562 -84.3943682332509 3160.65331873326 9 12 5
-10.457139026935 -75.3187668008854 3078.94763800827 17 20 13
-157.514873987384 -57.6381489023587 2911.18466263161 19 22 15
-73.8889246816576 -67.8691423898939 2977.72183154256 16 19 12
-71.7962021471346 -68.1864860230344 2969.29311470833 12 15 8
-102.138710115952 -64.6176215990553 2921.46095812748 11 14 7
-87.4327568512401 -66.4680490530358 2924.60716316618 10 13 6
-102.057816613843 -64.7474382171272 2901.54151090361 11 14 7
-91.8676133834455 -66.0476712230601 2900.65760176895 11 14 7
-102.553562173191 -64.8630415900589 2871.53473186388 15 18 11
-88.5687068299843 -66.625093641661 2873.98178933096 18 21 14
-95.9192420294528 -65.7865746759156 2857.85031638659 22 25 18
-90.3250152252006 -66.5255101145549 2853.00638725327 23 26 19
-80.8936296920941 -67.7322058559354 2851.45630569633 24 27 20
-52.9699505336487 -71.1946773001394 2865.65369107241 24 27 20
-67.3742645642426 -69.4938082967794 2843.72009934897 22 25 18
-67.1839125732885 -69.5727735693599 2834.29216900286 21 24 17
-74.7814985202981 -68.7006695037057 2818.37460618923 23 26 19
-71.5593727077426 -69.1486794605719 2811.61467891608 25 28 21
-67.5706066124455 -69.6900524948745 2805.51414282048 19 24 18
-47.9515400141581 -72.140212707733 2812.34605847466 31 36 32
-55.7001912250374 -71.2476596539074 2796.55929684526 23 28 24
116.768729098244 -98.6924784393157 3355.24780703993 2 4 1
11.8138107784755 -85.7338190861254 3214.54466007505 17 20 13
13.112292619339 -85.9462528454659 3204.15713863588 17 20 13
9.35364737938027 -85.5258007586419 3188.88525276755 18 21 14
35.0686823088693 -88.7910131851331 3202.34883398527 16 19 12
60.8938560156442 -92.0705191916545 3215.71704658857 14 17 10
70.1678676471116 -93.2797363855113 3212.9801221159 10 13 6
88.1750069640161 -95.5816629143835 3218.56135526991 11 14 7
106.975430768114 -97.983085898267 3224.77892585619 11 14 7
56.4421325489786 -91.7054627960795 3165.31566784785 9 12 5
53.2072590837824 -91.3470137565698 3150.91347280897 9 12 5
-69.853319415194 -76.0684514199645 3003.39079138991 25 28 21
-75.8410817726314 -75.3602577053346 2987.40257513487 16 19 12
-18.7395375202115 -82.598742856278 3018.68211223348 14 17 10
