ply
format ascii 1.0
comment KinectMotionCapture
element vertex 785
property float x
property float y
property float z
property uchar red
property uchar green
property uchar blue
end_header
98.9852979799055 1091.30959293435 2717.43578319658 23 23 13
73.8759917149625 1109.78083715717 2769.70444084166 23 23 13
83.8489075178455 1107.30927258796 2767.28803161819 22 22 12
-96.7747455811068 1110.52396308738 2681.1836987856 45 50 43
76.1053350005789 1070.96038215602 2651.14514224366 24 24 16
25.3266103139256 1103.38610185595 2739.30675690132 25 25 17
102.695732099059 1065.25733319517 2647.92909876141 23 23 15
103.505265816134 1068.02324637727 2659.02476148403 22 22 14
97.6887709744005 1074.6872019675 2680.35451540566 21 21 13
99.1830797205933 1077.11874216698 2690.65116500733 21 21 11
108.441704731385 1075.00050681554 2689.02167449803 22 22 12
69.9271704589601 1101.12149402078 2761.6981204154 22 22 12
67.3358332624965 1106.12706263507 2778.95199003616 21 21 11
92.0203057890907 1094.91706640308 2753.4282861056 20 20 10
94.8875593484384 1096.67959709123 2762.12802874869 21 24 17
-74.5596996819613 1091.23890406734 2650.40585845231 64 69 62
86.2787845331858 1051.74087996689 2611.17550077286 18 21 12
78.8862108793069 1059.0237668487 2634.02029371274 16 19 10
49.9868803967265 1078.58668747517 2689.0618697732 15 16 8
80.3286689937555 1064.51368956824 2656.14068613819 20 20 12
70.9715095667638 1073.06737957368 2682.49588965146 21 21 13
69.6177253884289 1077.09120829974 2697.02159540097 22 22 14
96.8478612725203 1064.65618735007 2668.22240811358 23 23 15
75.4703449430425 1080.28722052854 2713.39258953658 23 23 15
103.101513519917 1067.54210025282 2683.67931987525 20 22 11
102.964734121372 1070.91417594454 2696.54484885013 19 21 10
103.986528102334 1073.63828573283 2707.72677111077 19 21 10
82.105143932927 1089.86881554584 2754.84626950114 18 20 9
88.1907262043513 1037.53310546644 2584.00625395042 20 21 13
106.566528883942 1030.30850111808 2568.84473265818 18 19 11
62.2307473645318 1058.08858966525 2645.62498451208 18 19 11
57.7955088060684 1063.69486183592 2664.28533462947 19 22 13
84.2000720169154 1051.97741877493 2637.3043132739 16 19 12
89.4563676518627 1052.13179177501 2641.58899638432 19 20 12
87.9509567633077 1056.1293714814 2656.05376573815 19 19 11
62.3588510809343 1073.88645646874 2707.0535463025 19 19 9
107.242721203922 1054.66290896218 2663.8759801105 20 23 12
91.5034893693414 1066.95590990154 2700.56551131094 19 25 13
109.070133916732 1060.07326168402 2686.15258382269 16 22 12
119.945759315107 1057.02817079646 2681.9478917635 18 24 14
103.445661025634 1069.93457406983 2720.48257760827 17 23 13
86.0686481273016 1083.46262295127 2760.81511131221 19 22 15
-62.056937588326 1069.9879662649 2631.89363497611 38 41 32
14.3021277964721 1058.90083475463 2642.39601987201 19 20 12
84.5290989125538 1026.63689584612 2565.34406082708 22 23 15
40.1065413049764 1053.90881987574 2641.01422126169 21 22 14
30.3174094684795 1062.3419739155 2667.19543583111 19 20 12
66.258264375602 1045.59942747552 2626.85146402704 18 19 11
60.1441030413317 1055.12634602632 2659.90691289588 19 22 13
96.7946010610736 1037.78162871406 2617.69696134705 14 19 12
99.1572414085751 1039.52448241063 2626.19253881564 18 19 11
80.1038071385058 1053.3334197308 2666.92323767437 16 17 9
100.303024297153 1048.22789053419 2661.11492159745 20 20 10
98.9360545402897 1052.17804380049 2675.63584703936 18 18 8
113.16441707323 1047.25200506094 2666.32980551962 15 21 9
112.420247983004 1050.88052612666 2680.02652828786 14 22 11
123.279753402449 1047.85894910503 2675.81513113451 10 17 9
117.691769565786 1054.32827595123 2697.23914000538 13 18 11
110.581678060363 1061.73757374468 2721.27615795255 17 18 12
-42.5659180053117 1076.0748321335 2697.99902954489 24 25 17
40.4985415752723 1034.67341626049 2592.76877088955 21 22 14
47.4143538787406 1033.87250822421 2594.49619690219 20 21 13
60.1983262228545 1029.90645954069 2587.83473720389 21 22 14
43.0924687167098 1045.07251991054 2635.81681558483 20 21 13
41.9792586606342 1048.69100650078 2649.36419233453 18 19 11
42.0860357901669 1051.67328465736 2661.25248204079 17 18 10
54.8928939480913 1047.707335609 2654.60028789143 17 18 10
59.0609064622012 1048.47791820009 2660.59753567545 18 19 11
71.2254002283097 1044.8334776187 2654.76162392367 15 18 11
99.7893559029466 1032.0559954519 2624.34721308571 19 20 12
75.6392256110545 1048.57806711212 2672.70377592181 17 18 10
80.9951977199208 1048.71545696438 2677.0289460592 21 18 9
88.6000097258517 1047.5944863777 2677.95896102208 20 18 6
101.766740464942 1043.33126863219 2670.37566458148 21 21 9
73.0282884385023 1075.98477960241 2779.32742165329 16 17 9
-115.363391245827 1082.7923784881 2701.91855501108 29 32 23
48.2961976098388 1023.45429007421 2580.90668167528 18 19 11
58.7170107253405 1020.7747820749 2577.59413369062 18 19 11
53.8266764710511 1026.25989406035 2596.07139436703 19 20 12
56.6373147902706 1027.65988168788 2603.67189650741 21 22 14
55.3889058613348 1034.21405861283 2629.01019894084 17 18 10
45.0383442199012 1042.80808647885 2656.04168331646 16 17 9
54.9571951064056 1040.43841974742 2653.60261123287 16 17 9
75.7226406931635 1032.129018387 2635.10111489256 15 16 8
72.4252935635834 1036.95697761154 2652.07047231522 18 21 14
80.5619675943197 1035.53144819336 2652.13907755346 21 22 14
80.7749191903306 1038.47787170084 2664.07088554532 20 21 13
70.3579755893571 1047.34800771573 2692.15246488044 22 19 10
82.179723696892 1059.92311954717 2750.7879567319 20 20 10
85.5688622269384 1061.2835447641 2758.6232466152 21 21 11
75.5039136346298 1077.13496351384 2814.84549956086 1 0 0
-126.965862114295 1081.17341802594 2716.65290060468 12 15 6
-82.1946693786411 1061.23798470331 2668.04055286574 33 36 27
-17.982120102247 1045.39940046918 2649.92559149447 19 20 12
6.30781058092933 1038.48351695423 2639.31393507187 19 20 12
46.2752159698263 1023.18186090902 2605.98366146836 18 19 11
38.5803335038897 1030.16183800757 2628.70860490836 18 19 11
47.3221170287244 1028.43036992978 2627.94546826297 18 19 11
33.9963481469923 1038.50432506498 2659.15590721975 17 18 10
55.0215274481174 1033.17494645457 2652.60464872052 14 15 7
64.3361410295975 1031.13482603151 2650.99723549766 14 15 7
31.4357741744422 1052.02608361032 2711.96092325204 14 15 7
77.2144033372177 1030.1577833452 2656.2189585452 19 20 12
74.6120016302691 1034.62127351556 2672.39364888734 19 21 10
73.7780929668883 1038.15110077759 2686.05478480919 25 23 11
74.6900702600475 1040.74875736789 2697.19320155036 25 21 9
82.9009759373396 1039.32714999633 2697.29183292926 24 18 4
81.6611815550896 1043.15484832289 2711.86517895599 84 74 62
81.0445390039283 1046.66901617674 2725.61440308417 79 69 57
84.9359136992787 1050.90961316641 2745.49887517908 36 28 17
91.033816580532 1050.71557370649 2749.04815183955 32 26 14
81.9474087655077 1059.13854516242 2776.5930369466 47 43 34
72.4673237534883 1067.85812154407 2805.05508489969 80 77 70
-46.179311218105 1038.39089065891 2629.93089122205 20 21 13
-57.3180933417443 1046.88250526497 2656.6440069635 18 19 11
-32.5860638002655 1037.08396116767 2634.36554176628 17 18 10
13.4228149403275 1019.07028785801 2593.792186604 15 17 6
7.21790678799605 1025.07871854808 2613.89083527976 17 18 10
-14.9589889758099 1039.42398616568 2656.58922586227 18 19 11
-9.61903679706722 1039.54369080843 2660.90830091887 17 18 10
15.2154464146024 1029.47669584835 2637.59454512909 16 17 9
21.080615525398 1029.29344410768 2641.04950776387 16 17 9
21.6821011472577 1031.88491567823 2652.06225550396 16 17 9
26.9970382612841 1032.00809662024 2656.37117578837 16 17 9
40.4477323877397 1027.82011491579 2648.90228384637 15 16 8
39.3912225264763 1031.33009883707 2662.4734405246 15 16 8
63.7160820939677 1021.30419771635 2638.95303024538 15 16 8
9.40509810216938 1053.39554525584 2731.08154771126 14 15 7
63.9908786083283 1027.08893726767 2662.75576917597 10 11 3
66.4827904585159 1028.74760598627 2671.30432586095 17 19 8
71.8365674337194 1028.87010076299 2675.62897733141 18 20 9
71.5726573105355 1032.05779170751 2688.44468678764 25 23 10
76.972394788928 1032.1771885186 2692.78771359599 27 21 7
75.1312738458603 1036.27657296369 2708.19459281421 26 18 5
73.9211770519661 1040.06437901345 2722.78026555702 94 78 65
73.3344762818422 1043.5413251682 2736.54189503092 90 73 63
75.5646938092178 1045.48524541523 2746.06113954994 24 10 0
76.7400021341791 1048.0371121466 2757.30652423818 30 21 6
80.6918190755927 1049.05920891566 2764.29339492485 28 20 7
85.2119915043363 1049.7742142012 2770.43365102857 29 22 14
89.7526776765349 1050.48789310181 2776.58222305557 38 33 27
101.303191027448 1047.23939950399 2771.57377917564 222 219 214
-81.3922228940507 1046.03955119492 2665.24423332469 8 11 2
-10.3924419768173 1015.83041903087 2591.72628628457 24 25 17
-16.6653326555355 1033.00109260014 2658.10489666958 17 18 10
-12.5072985945938 1033.72769346441 2664.09843761798 17 18 10
-8.32942522203539 1034.45331484426 2670.10027601411 15 16 8
12.9245257783503 1026.31030192407 2651.79531088194 16 17 9
18.8268717924005 1026.12243099617 2655.2653611941 15 16 8
19.4864525270273 1028.68311786681 2666.30186457412 15 16 8
28.9051365122104 1026.6623089241 2664.73644234595 16 17 9
46.9699474566292 1020.06860182519 2650.52302881379 16 17 9
66.661127885689 1012.56821311615 2633.73831152658 17 18 10
48.4157207624765 1025.18257449649 2672.64735590913 17 18 10
68.6125222356608 1017.38335232193 2654.99056071307 13 13 5
65.9679996106084 1021.76350430469 2671.1488282741 15 17 6
76.410760416431 1019.14448435399 2667.84470827111 17 19 6
86.2557466888194 1016.83202286373 2665.37503810098 24 22 7
75.3328164609892 1025.75839010751 2694.33038618191 27 20 4
70.1458100642651 1031.63817413884 2714.84215118627 29 16 0
70.6191713695157 1034.47711119584 2726.88021194571 110 83 72
72.2542289227428 1036.70580358359 2737.23513004851 77 49 38
75.0355994878573 1038.3254592591 2745.90118222827 104 82 68
77.8524249371135 1039.94247982494 2754.58186703984 89 72 56
81.7957878905318 1040.95186195458 2761.5651539135 46 33 16
79.7928853889382 1045.28524435255 2777.98356342554 48 36 24
80.572819152106 1048.10187027369 2790.14566509082 76 63 55
82.4839550089325 1050.31041758791 2800.61277526697 148 141 133
-18.1944603626441 1012.61526506528 2601.53814360882 27 28 20
-5.1296869107238 1008.77688750201 2594.98941058089 12 13 5
13.9137658910304 1001.90114167246 2580.09557184888 18 20 9
-1.99989299939807 1012.6673318891 2613.48936992029 13 15 4
-11.1455504959299 1020.07764733833 2637.78125925004 16 17 9
-13.0101159728315 1023.83469514116 2652.10217539078 17 18 10
-11.8377631751942 1026.06967508527 2662.26995717898 17 18 10
-4.12069664245585 1024.9657590254 2663.24503671066 15 16 8
4.7627527375067 1023.25695466372 2662.53934500988 15 16 8
19.4844159583381 1018.52125331764 2653.43159474437 16 17 9
25.9696706957631 1018.0288983611 2656.06116043869 16 17 9
28.389533534537 1019.65418181663 2664.58079803969 15 16 8
68.4325360040128 1001.62765685424 2618.355060296 16 17 9
70.759715173973 1003.26070189585 2626.83711210426 18 19 11
73.6955193801789 1004.58943716936 2634.48909032705 19 20 12
56.6858644556709 1016.47685084382 2671.74637581395 14 14 6
73.4078552482742 1010.55778194753 2659.1417666122 14 16 5
84.3823440814682 1007.65943388307 2654.97624861454 16 18 5
98.1329149914416 1003.25849341487 2646.55158068737 23 21 6
74.2527827463857 1019.02775865658 2695.02291266402 25 18 2
67.9476365435872 1025.45247360953 2717.23569385417 29 13 0
71.204517389069 1026.75846050733 2725.01784616395 142 112 101
74.4919421942885 1028.06238612106 2732.81238113099 90 58 47
77.2592679034712 1029.66438484792 2741.47288048278 133 105 91
78.9658514918465 1031.86391293961 2751.85723725531 135 114 97
81.2638225473028 1033.76008394475 2761.40427662491 79 64 45
80.8869077036052 1037.15160685949 2775.25149442164 49 33 20
77.8729952012973 1042.03560483572 2793.41399590531 66 49 39
83.0208654694904 1042.42380783864 2798.73207135381 104 94 85
-21.4310238184698 1004.38989963934 2593.81666466932 23 24 16
-31.4795805760124 1012.0523967963 2618.82013037514 14 15 7
-20.7847316026157 1009.44717787062 2615.61797448037 23 24 16
1.34335101182814 1001.11648395845 2596.58955348403 15 17 6
-21.1396620991018 1015.09351478903 2639.16679045207 14 16 5
-13.4529903845717 1013.99660419958 2640.12976746381 17 18 10
-13.525020238961 1016.81294350077 2651.94691725813 17 18 10
-5.23211060073536 1015.41508581708 2652.0785714447 15 16 8
8.3651019233606 1011.31400675194 2644.66834506738 13 14 6
11.8971455232197 1012.32387176187 2651.48534521018 14 15 7
5.49212109561292 1018.43513482792 2672.58125414991 15 16 8
20.7873835190024 1013.43908989366 2662.62865810837 15 16 8
15.0919080056664 1019.24151960984 2682.93513388805 14 15 7
29.7486374214742 1014.55035529914 2673.80075480553 14 15 7
49.5188411854721 1007.17025172892 2657.04712177921 15 16 8
41.0747247376693 1014.46066630921 2681.62396893403 19 19 11
65.8757540573973 1004.39793248398 2657.21757023181 24 21 14
81.4213130194927 999.129070420218 2646.28983445125 18 20 9
77.6459886537015 1004.02031245203 2664.14399074831 18 22 8
91.4266758396316 999.652791813274 2655.73126337508 19 18 0
64.7588262737915 1016.76555067023 2708.45824017868 23 14 0
66.3062416918094 1018.95234429017 2718.77824740854 32 13 0
70.1227320165005 1019.94428129312 2725.71029668141 172 134 121
73.4112976104062 1021.23221608097 2733.50541475183 154 114 102
73.9763772380735 1024.00537107657 2745.5808529949 153 120 103
76.7902457053245 1025.58526585433 2754.26062194872 145 118 99
78.5482833695466 1027.7567525328 2764.6657674324 124 106 84
79.2652776341969 1030.51888239623 2776.80305563166 70 47 33
77.8751054159927 1034.46370954076 2792.39343507502 92 65 54
83.5580446503261 1034.54775175538 2796.85165347623 141 123 113
-18.2658715802784 995.707126357428 2588.69091939332 18 19 11
-36.8585537171713 1007.48648026745 2625.30781019447 16 17 9
-21.8984711433656 1002.80631065083 2616.29617332345 24 25 17
-26.3301994304166 1007.69348835063 2633.88458712156 18 19 11
-26.4627492413683 1010.48407153207 2645.67768526439 20 22 11
-28.9349556533238 1014.46453384359 2660.82968661024 16 17 9
-5.09636531377455 1005.31792725369 2639.2633408336 16 17 9
6.72146782047478 1002.14353751827 2634.36257115632 15 16 8
12.5819048571649 1001.95133561894 2637.81568564753 13 14 6
11.382720112459 1005.33083448809 2651.33006331561 15 16 8
19.0422123730285 1004.24391335926 2652.28170261472 15 16 8
11.5155260873885 1010.8871160977 2675.07730015644 15 16 8
15.1522697150235 1011.8769154424 2681.93658746574 14 15 7
12.4488079456946 1016.13094695027 2698.07194694291 14 15 7
13.2829326492614 1018.59902012598 2709.17982392809 14 15 7
51.4547309548978 1001.7905210523 2665.42389820462 17 17 9
61.3646450750789 999.522768720052 2662.98017797764 21 18 11
68.4015975696037 998.738146025978 2664.75652935846 17 19 8
75.433770016085 997.954081374459 2666.53094110181 19 23 8
46.9547552020939 1015.80279716889 2721.75569320921 19 21 7
57.5023136619965 1013.23453308599 2718.49362031957 28 19 2
65.2222865009322 1012.14586877554 2719.46976098997 42 23 6
69.0401274193861 1013.1244828408 2726.40271531949 149 109 97
71.7763802606586 1014.69128446801 2735.05090027122 156 112 99
70.691074208636 1018.31898623497 2749.68831344969 147 105 91
75.7102008527202 1018.70089114956 2754.95430925309 149 120 102
76.9228160290967 1021.14262357678 2766.21563400963 136 115 94
79.273162659113 1022.99214415425 2775.78423347648 74 46 32
78.4182459563669 1026.60302181739 2790.51531442178 97 67 56
84.095832564268 1026.68217345139 2794.97114542512 147 127 118
93.5353893596718 1024.70508085703 2793.41384309219 136 119 112
-44.4521591883682 1001.29665420484 2623.35893838039 15 18 9
-41.023324222792 1002.28450930953 2630.13431690617 13 16 7
-36.50638989244 1005.44032107917 2647.04361439267 21 24 15
-37.8042703413062 1008.79033913586 2660.51825432465 16 18 7
-21.666506250219 1003.56040166723 2649.82974594824 15 16 8
-18.1348532568721 1004.54280061692 2656.64679612247 15 16 8
-0.917212166958725 998.731332161047 2644.24205663875 14 15 7
12.0700437810672 994.993004421736 2637.66117897132 13 14 6
14.4015494848855 996.568142293228 2646.14542148311 15 16 8
14.4226816208628 999.320014366406 2658.00078055248 15 16 8
22.6737383044755 997.944177120056 2658.11557909135 15 16 8
25.6775670472542 999.219109707769 2665.79525055106 15 16 8
4.3990191930694 1012.84761558058 2708.86306593402 15 16 8
10.45090380004 1012.6404847535 2712.39380934967 14 15 7
40.6094332395557 1000.09387204001 2680.4656639376 15 15 7
48.851645824441 998.720175535463 2680.57660811066 18 15 8
61.6295450302775 995.000467125929 2673.9108222495 17 19 8
64.7253866081192 996.269902992264 2681.62779071903 18 22 7
45.863508427779 1008.96605488373 2722.44448389395 17 19 5
46.3119684109012 1011.68813534751 2734.47309079874 33 21 5
59.1087665414682 1007.96776647703 2727.81496198465 52 31 14
65.1756635821816 1007.76141885436 2731.35177789208 130 88 76
67.9255215355579 1009.30831310167 2740.00562235001 156 110 97
66.8523056158679 1012.89751218361 2754.64847980396 136 90 75
72.4345763980998 1012.97853678206 2759.06570390702 149 118 98
76.3886656413391 1013.93404227075 2766.05399937637 141 119 96
77.6499264681174 1016.34532022854 2777.33525124931 85 56 40
78.9619910275208 1018.75275243013 2788.63710234408 119 87 74
81.4021943239836 1020.57411264417 2798.24229758756 139 115 105
87.0998353950117 1020.64670857014 2802.70655541822 158 139 132
-60.4211854316081 1004.39412269619 2655.70963727886 15 18 11
-34.4428642132424 994.499629276023 2631.77889775047 15 18 9
-46.6893133144011 1003.1005336897 2660.20057209279 15 21 11
-21.6354620613346 998.969061450592 2660.66596974159 17 17 7
-6.18455159322795 994.083758395078 2650.77581232587 17 17 7
0.908436473127994 993.298288087812 2652.57460131155 16 16 8
12.7092260701367 990.175879038937 2647.66653682715 15 16 10
6.28032715049209 996.110368279084 2668.75386182477 17 18 12
25.6622582145911 989.195482851018 2652.91855907147 17 18 12
36.7917220967506 986.372314256203 2648.81496230868 15 18 11
29.350722733499 992.879791126746 2671.64628264435 15 17 12
28.9494921457407 995.882959048361 2684.4075334233 15 17 12
42.9598881641484 991.604477337699 2676.08713864099 14 16 11
48.9036781344121 991.403872844618 2679.57432306143 17 20 13
48.5937404932801 994.400764214829 2692.37258528337 20 22 11
54.575850234351 994.197601926953 2695.87530449539 13 11 0
40.2595918499082 1004.44641693574 2729.91980029752 36 30 18
46.9044720230172 1003.94583858672 2732.61405953292 32 15 0
54.1087906259563 1003.15543321639 2734.45796287194 75 49 34
61.3084049692243 1002.36557447007 2736.30021457277 104 68 52
65.7336815190248 1003.02413774828 2742.40247582126 161 122 107
66.8708665975239 1005.41756965948 2753.63362556938 182 143 128
70.8033439168554 1006.36121824507 2760.61326039568 138 102 86
73.6686259371442 1007.88115438128 2769.31404357712 136 103 86
77.1134700012206 1009.10960394988 2777.17288857661 112 79 64
80.0476288167771 1010.62432221111 2785.90159903542 109 77 64
80.3230787583009 1013.57877422916 2798.93745945485 145 121 111
82.2686061514533 1015.66367512452 2809.41917450043 139 121 111
-33.1349883942051 986.633523043644 2629.13138870405 20 26 16
-1.87933484869252 974.223495505761 2597.64616857844 24 30 20
5.09499246311651 973.448676351857 2599.3970891575 14 17 8
-19.1026613059588 987.769417212439 2644.51415667783 17 19 8
-23.9447583736203 992.788100196797 2663.01448365463 17 17 7
-22.1536110551532 994.611084991875 2672.35712563557 17 17 7
8.08608737975036 982.524966686641 2641.53690547046 16 16 8
0.408172931157358 988.984085331949 2664.27266710576 15 16 10
-2.45445404565214 993.119638207546 2680.3444797518 14 15 9
10.5396562527649 989.442521539017 2673.7656561726 16 17 11
28.7146017482285 983.169395236125 2659.59440542622 15 17 12
17.8256944023858 991.342335527183 2687.4901745324 15 17 12
26.6976385429001 989.692545075936 2686.77937713218 15 17 12
40.7180395190372 985.449016800672 2678.46276834899 15 17 12
47.2407265861463 984.957222940871 2681.10748587591 7 12 5
42.3793954515261 990.225748458186 2700.67693952015 19 19 9
42.152468194024 993.184316546755 2713.50935976592 21 17 6
43.1146934896709 995.563395873117 2724.669778324 18 8 0
47.4976945442165 996.214010876162 2730.7549827692 44 22 8
51.9012093422166 996.863299494276 2736.84850313769 87 61 44
58.5517038301098 996.362993646853 2739.54503350395 82 49 32
61.8778559557367 997.583930318197 2747.35587792269 134 97 81
65.2345987244367 998.802682454639 2755.17912483465 176 139 123
66.4254466626424 1001.16532216842 2766.43223569161 160 123 107
70.9467984132035 1001.80611165108 2772.57353182995 146 108 95
73.3122002762849 1003.59011493013 2782.148980884 128 95 80
77.3431998217409 1004.51329066459 2789.16840461497 113 81 66
79.2434671715945 1006.57750291666 2799.63220822993 142 120 107
81.1896354230723 1008.63825785463 2810.11462300084 152 134 124
104.008577897194 999.566569272855 2787.05605301319 132 122 113
25.6627320729446 956.506162450019 2570.09212659122 19 22 13
31.944517451558 956.029509556691 2572.63918996378 16 17 9
-22.0762989426511 984.579109171463 2659.51774177796 16 17 9
-17.3242724421401 984.945652731013 2664.6757070571 16 17 9
-6.04466013393545 982.154164936735 2660.6326641983 15 16 8
-0.700354128509773 982.234371286657 2664.95380147483 15 16 8
-17.0652419411312 992.919281947985 2700.32338973706 14 15 7
1.83597168918603 986.403479468753 2685.36923109801 13 14 8
19.467887460479 980.468439959332 2672.05435699443 14 15 9
14.9846362600914 985.410931152117 2690.70055563806 15 16 10
15.2128062488435 988.059664879178 2702.64052463034 15 18 11
36.7511514014225 980.134291601174 2683.37025088653 17 18 12
37.5694865398832 982.496556754494 2694.47253678444 19 19 9
40.1466565098947 983.999329255691 2703.05679552999 19 13 1
42.7593325609596 985.499707109355 2711.65544858743 27 18 3
46.5363087644539 986.427640764702 2718.57224122656 34 18 3
50.3389011939759 987.353849188959 2725.49916154467 90 64 47
50.2514073388325 990.270107328662 2738.38835808684 119 90 72
54.6794763188643 990.907049523077 2744.4919138525 94 59 40
57.4650642465357 992.395162519315 2753.16067067018 98 63 44
61.9417158613425 993.028668621384 2759.28418047227 101 64 46
63.6925108381108 995.079682516332 2769.68730659387 144 109 90
67.6761295766453 995.992918001819 2776.68787874213 147 111 95
72.2296969420031 996.620813835929 2782.8423164854 129 98 80
75.1785778176233 998.096945855608 2791.5772802754 142 113 95
78.1632742905964 999.570359824844 2800.32676614955 142 120 106
82.7938331948779 1000.19263397245 2806.51241983328 149 133 120
21.2497486779522 954.096710947988 2586.66462838031 15 18 9
-9.51821383996565 973.906504207562 2652.8156558014 15 18 9
-1.82581270794824 972.845488971545 2653.78042331022 15 16 8
-23.6294766194505 985.991123279783 2696.63928295014 15 16 8
-6.43593699876388 980.380200327593 2684.22326487173 14 15 7
0.14285531261593 979.883542921729 2686.89073587962 13 14 6
21.2764162328873 972.298747715139 2668.5330517439 15 15 7
23.7352140163785 973.790694300077 2677.06946448578 16 16 8
20.4578266301019 978.111904307205 2694.05074448826 16 17 9
23.5872246005824 979.314237510708 2701.7820655503 18 18 10
35.9013281630747 975.990059652467 2696.00430224286 22 18 7
34.4946370113048 979.452000405798 2710.51284529065 23 15 2
39.3968062416366 979.80234455888 2715.73172508633 31 18 2
42.6205988954209 980.998394570605 2723.50131351293 38 19 4
45.3129725803896 982.474226418773 2732.13242163073 117 90 71
49.1601473791281 983.383811698975 2739.07751903374 138 107 87
52.4756610764696 984.573371913669 2746.8842938531 110 75 55
55.2673621497726 986.04217110447 2755.55567223359 113 78 58
56.9905677206577 988.070917016338 2765.94805361166 109 74 54
60.957540858926 988.972021678414 2772.94197802243 147 114 95
66.5912589147084 989.028526778672 2777.38021861382 148 115 96
70.6019845230397 989.926344342859 2784.39188300559 130 99 79
73.5545037871228 991.383418403575 2793.12846440748 152 125 104
75.4638982089013 993.398374753379 2803.59607962908 143 122 105
80.6407179687003 993.72905102339 2808.92631255894 138 122 107
-28.4924432225446 973.019552241903 2666.71755359591 13 19 9
-8.25117036984202 966.042676628011 2650.15159675412 13 19 9
-24.8559847462726 976.533195534462 2685.42551388398 14 17 8
-17.0779553277005 975.471971501099 2686.42495326307 15 17 6
-10.4846155849592 974.974221305617 2689.09832270609 14 16 5
8.97678443815586 968.294361241664 2673.29315771753 18 15 6
18.4272010499538 966.397225535332 2671.73964639605 18 15 6
19.1547496063942 968.711809077055 2682.80553486257 20 16 5
22.2422819133821 969.901020790349 2690.52000427086 21 17 6
23.635848887108 971.928869965951 2700.77866688268 24 16 5
29.6535089385874 971.712968260556 2704.29587672528 28 14 1
34.5368809328834 972.056791685649 2709.50719507837 33 16 0
37.7340465956808 973.238518289676 2717.26585376561 62 39 21
40.9615565666444 974.418194013688 2725.03707142028 93 68 48
44.7819067829249 975.316329965984 2731.9716517489 155 123 102
49.1876480703091 975.933641296852 2738.06631598631 146 111 89
51.3849690158132 977.665332565106 2747.57384954977 140 104 82
53.6228680284145 979.393982823497 2757.0980931622 135 100 78
55.3491601097569 981.398215099209 2767.4919100532 136 101 79
59.8699797479367 982.007186077373 2773.63323191859 146 115 94
63.8642043195856 982.892866778621 2780.63804992487 133 105 84
67.8839170517356 983.776761791124 2787.65345866867 140 114 91
71.3872726786127 984.936435840025 2795.53651588582 137 113 89
72.7627041221817 987.20429159485 2806.86508173526 126 104 83
79.0232843328462 986.971540238635 2810.48051872153 128 112 96
-72.7817274298701 983.768251656994 2715.59465562836 14 19 12
-37.9789883999455 970.135261623131 2679.0815317384 13 19 9
-33.1694955971524 970.473879779083 2684.26297638386 13 19 9
-23.603673228205 968.58087098573 2682.7561607564 15 16 8
-27.0453961905919 972.8209536307 2699.67151736962 15 17 6
-6.89715360027221 965.915110179561 2683.06735482809 15 15 5
17.8168195441235 956.791550473516 2659.69739715577 19 15 4
30.7233485230221 953.242653007293 2653.08239787964 20 16 5
15.1512727525354 963.316774399518 2687.69881160353 23 15 4
14.2095724912226 966.433002950167 2701.31943843518 24 16 3
16.7838053274834 967.879340409556 2709.90293571829 27 15 1
23.4013021101036 967.381648908473 2712.58608573102 46 29 13
29.4492538352347 967.161200724824 2716.11533769256 51 30 13
34.9349654247573 967.217591017676 2720.49390960925 108 83 63
38.7363272402081 968.103667624026 2727.42063584867 136 108 87
42.563075444835 968.988086156989 2734.35791065182 147 112 90
47.5354144583637 969.317807311775 2739.60535801317 154 118 94
50.2935426926292 970.751308590438 2748.26341053712 153 117 93
53.0871770079477 972.182415221568 2756.93585737296 152 117 95
54.8117629447245 974.162513574198 2767.32916638666 141 109 86
59.3316693048183 974.760916763383 2773.47019857316 150 122 100
62.2299535317488 976.184270163087 2782.18507618549 138 111 90
66.7987906328493 976.778975989682 2788.34594810798 134 108 85
70.845720410774 977.647444351851 2795.37249377093 123 99 75
72.7590801315901 979.613488566907 2805.84208525471 123 102 81
77.9422273556722 979.927882632655 2811.17500354478 129 116 99
-48.700925083297 965.18028339882 2681.25121610093 0 3 0
-31.9278208888496 959.979263513841 2669.7409251083 12 17 10
-22.3839478191377 958.101269431109 2668.22485133084 19 22 15
-22.9433395630307 960.920717805371 2680.92371354685 22 22 14
-26.9841276876372 965.391599876524 2698.67382888584 22 19 10
-13.8876429902004 961.857904696722 2692.135368881 16 12 1
-6.69914876623934 961.084707867741 2693.97299183138 19 11 0
3.98124217491391 958.659723628713 2690.76361585182 23 13 1
5.34235257119842 960.641122459882 2701.00974633247 23 9 0
10.7934644723227 960.694222048788 2705.37407679612 27 14 0
16.2548560467208 960.746681112785 2709.74283150833 70 51 34
21.7268673072213 960.798423765134 2714.11563426 93 68 48
26.6389875772302 961.124188627098 2719.3387294656 112 84 62
32.7018519422504 960.900461365374 2722.87430153063 138 108 84
38.7703696697308 960.676291612309 2726.41190872956 146 112 87
44.8444638910566 960.451859372397 2729.95177580099 157 120 94
49.2433614129637 961.048372853294 2736.04382668819 156 119 93
51.9897283015467 962.464090627198 2744.69750914712 156 120 94
54.2168518109392 964.150322124089 2754.21745413061 153 119 94
57.589871672332 965.287445574884 2762.04791024547 148 118 94
59.3432235269857 967.241115312245 2772.45306669757 141 115 92
60.5947857212432 969.464269189813 2783.73181759203 136 111 89
64.0776088624828 970.593176755345 2791.60653732597 130 106 82
67.5910984351673 971.719888367432 2799.4939475524 130 108 84
71.1353397125649 972.844342907901 2807.39382603457 116 95 74
75.2478235741212 973.694287471979 2814.4470544877 130 117 101
-31.8530941965174 952.621172576877 2668.74814559749 20 23 16
12.8261282460664 934.61188653055 2617.92608655272 10 13 6
-12.7939685780245 948.895720644273 2665.70443556629 2 2 0
-27.5132186395293 958.24048098834 2698.51380723292 27 23 14
-19.1188881933251 956.921621929739 2698.68592719933 22 15 5
-14.8378585787563 957.514442673612 2704.73028219438 25 13 1
-6.45555458115377 956.197074432917 2704.89752143681 29 15 2
1.91204932810018 954.880990404874 2705.05879898345 54 36 22
10.8428809835586 953.293902073995 2704.37136945658 67 48 33
16.3012971196943 953.341401769421 2708.738699799 98 75 57
21.1971415941712 953.660266806082 2713.95525734889 110 83 62
26.6789100662252 953.70632935845 2718.33231100666 123 95 71
32.1711111797895 953.751864232699 2722.71359276686 141 109 84
38.2392871455901 953.525210960456 2726.2510804133 147 113 88
42.6243639907329 954.111940176968 2732.33760956828 159 122 96
46.4694594519386 954.968304725455 2739.28252568742 160 123 96
49.7825114821595 956.093566972521 2747.08853392968 158 122 96
52.5706460520869 957.487325427259 2755.75929427305 153 119 94
57.0531688892928 958.067051493697 2761.88533170303 148 118 94
58.2543331902152 960.266880622934 2773.14385364214 135 110 88
60.6021201587559 961.922690320257 2782.71288499582 125 103 82
63.5358311248744 963.305697533288 2791.44241245739 129 108 87
67.0481267790841 964.416304413451 2799.32946134415 110 92 72
70.0509348924256 965.794076293428 2808.08700543436 106 87 70
74.7026615904352 966.361287882687 2814.2819043938 113 99 88
9.9323500778683 928.787598927235 2621.11405255026 20 21 15
-22.8074990467959 946.173699428594 2678.93261927682 27 24 15
-27.4518269597384 950.818654678013 2697.51585434005 20 13 3
-19.059603296945 949.5083909664 2697.68705613437 23 15 4
-13.6107947918551 949.550549279973 2702.05079412769 32 18 5
-6.40202344532614 948.782082199469 2703.89659129139 48 32 17
0.221427042407241 948.283978773592 2706.58215503949 92 70 56
7.42348637020895 947.516467320442 2708.42497008434 103 80 64
15.1963734444396 946.48015349354 2709.42239577854 114 87 68
20.6672169985425 946.521647395302 2713.79480341688 118 90 68
27.2896838493872 946.024518542673 2716.47996151037 128 98 72
32.7763284826206 946.065113797197 2720.85903093195 142 111 83
38.2735159333418 946.105172644565 2725.24237313158 149 113 87
42.6551412505884 946.68147539677 2731.32758381709 161 124 97
45.3755676278629 948.061236201384 2739.97077846392 162 125 98
48.6897685401737 949.170322239063 2747.77763171823 160 124 98
49.8124232641823 951.348814751558 2759.00452741062 155 120 98
54.8571574249495 951.649427718343 2764.28150768722 150 119 98
57.7154727826969 953.01910070292 2772.98060907 137 115 94
61.1574731688826 954.118778741054 2780.83927873752 126 105 84
63.5393425452757 955.750488308299 2790.42229248952 103 85 65
64.3330764641112 958.180106349597 2802.59291515445 124 107 89
68.9658084167386 958.738003382331 2808.78019387762 112 95 79
72.5436687014591 959.827401118142 2816.69369295257 119 105 96
-33.4214218815032 943.632843659499 2692.99565777631 23 20 13
-26.7995091973845 943.134144757687 2695.68060339215 52 43 34
-19.5887174665599 942.367914064003 2697.52694441741 56 46 34
-12.382778450067 941.602480860528 2699.37157179475 90 72 58
-5.18156859595531 940.837541891931 2701.21428062152 103 81 67
-1.4701712450198 941.675811975752 2708.10494324591 111 84 67
5.15844024660805 941.177837638135 2710.79259566954 114 85 67
11.7875559347878 940.679942906175 2713.48045163539 127 96 76
20.7102847859721 939.116151688235 2712.78956475462 130 100 76
27.9009340978023 938.353065605355 2714.62798364813 134 104 78
34.5187352789076 937.856545509406 2717.31124803073 148 117 89
38.3081152948204 938.689892471003 2724.23352260058 157 122 94
41.5597248528814 939.787319747799 2732.01512142844 163 126 99
43.7202678560531 941.413784479638 2741.50881867816 163 126 99
47.0383731301351 942.506307496075 2749.31712109758 160 126 101
47.6081242204227 944.922881170174 2761.39741079859 154 122 99
50.9999915424737 946.010032952654 2769.2358768886 148 120 98
58.2778407917048 945.241059789893 2771.10938981598 130 107 89
63.9064452583915 945.266462610108 2775.54605292467 118 97 80
63.5430290901589 948.200107072849 2789.40220683346 102 84 70
62.7024778416536 951.393093013547 2804.14201452837 125 107 95
66.7989082178335 952.204020371927 2811.18903877859 108 91 81
72.5356507177239 952.22115991294 2815.669291619 87 74 68
-49.5139494721142 940.970302431134 2702.68323955878 211 212 206
-35.7313401249961 937.284797696849 2695.34518633035 120 117 110
-27.3287485213072 935.990330309277 2695.52046629878 107 97 88
-16.5865306807744 933.637499037343 2692.3355766937 87 75 63
-8.22341195107357 932.346517668209 2692.49484795155 108 89 75
-1.62584021108247 931.85064389532 2695.16991667755 107 84 70
0.323565032450679 933.470051201192 2704.57792200842 116 87 71
5.78484618298147 933.50135827349 2708.94679233712 123 92 74
14.1368450858597 932.212154548935 2709.10154778167 126 94 73
23.621418011248 930.396482868544 2707.56099140834 131 101 77
30.2259980750488 929.901010256939 2710.23889471439 133 103 77
34.5571630044366 930.459373061385 2716.30381032563 148 117 89
38.9086971136963 931.01641552043 2722.37724050815 157 122 94
41.0270222269415 932.624292680819 2731.85372769499 163 126 99
42.6250626173841 934.492055317563 2742.19665078603 164 127 100
45.385763476858 935.83108585791 2750.85646101018 159 125 100
47.6263241771122 937.429995835082 2760.38250849053 156 124 101
52.6747840597117 937.714353400474 2765.66112049706 149 121 99
59.3917174911551 937.211174764192 2768.38457329665 129 106 88
64.4639287015669 937.493770108605 2773.67281540499 117 96 79
63.5471370944309 940.654420172051 2788.38199901501 120 102 90
59.4408340901933 945.379233259996 2808.26153662804 104 86 76
70.0393524354903 943.039227070168 2805.01810967644 112 95 87
-46.4678785901824 932.20820164326 2697.50962313812 183 182 180
-33.2920083055981 928.819205913766 2691.00246624025 185 184 182
-23.1275916894489 926.746722900106 2688.66031218579 195 191 188
-15.3484043230943 925.725870132304 2689.6601716331 198 193 190
-5.23349079721602 923.657608036215 2687.29794213409 209 201 198
3.6839115762537 922.115638669906 2686.60473319647 215 207 204
7.93155317152183 922.668723427117 2692.63587080658 226 216 214
13.3571282138079 922.697544768274 2696.99004559918 230 221 216
20.5218787643815 921.941890444954 2698.81792193672 237 226 224
31.1245767020447 919.619958739533 2695.57630749939 243 232 230
35.40902502072 920.171024010577 2701.62236319866 249 235 232
38.0079018775137 921.502850568925 2710.2167066328 251 236 231
38.9438568404636 923.61376348396 2721.36852114725 205 188 180
42.7489647922037 924.419318347087 2728.29763173016 145 125 114
45.4574112009163 925.74324100454 2736.93639901039 144 122 109
49.3188951768002 926.544628181454 2743.8883674367 153 130 116
53.2061522380249 927.344158147404 2750.8505280536 155 131 119
58.2263229412137 927.622507909278 2756.11773150897 147 123 111
61.0577294854424 928.937525531099 2764.80635197621 138 111 104
62.279047719384 931.027503379911 2776.07386674302 120 95 88
63.0052627859425 933.372627330885 2788.21779194435 89 79 77
-63.8946367408659 927.602535176175 2696.96192501867 187 185 186
-57.2365905384411 927.10091370733 2699.66152299279 186 184 185
-42.2266628661088 922.95812734352 2690.6659948311 184 182 183
-30.8510359765013 920.380437764546 2686.66046429164 181 179 180
-20.1065942536185 918.065632642212 2683.4759296664 183 181 182
-10.5752296793737 916.272908475041 2681.95440219142 185 183 184
-0.481856765076616 914.222791429492 2679.58331351657 193 191 192
8.99752155707567 912.434425140047 2678.04070414426 199 197 198
15.5448273796062 911.942952274302 2680.6953871981 209 207 208
22.0926373986885 911.451559014216 2683.35027379416 213 211 212
28.640904930987 910.960368610625 2686.00534409649 217 215 218
36.3375036468199 909.952460643772 2686.97140863869 220 215 221
40.0244610733622 910.752975724767 2693.85246188317 234 228 232
42.0301948506741 912.32571288397 2703.28388521254 232 223 224
42.9439186918563 914.411308554567 2714.42689040082 245 235 234
46.7279873802025 915.204787229436 2721.34731664245 230 217 211
49.4147397959479 916.511474222747 2729.97768804653 149 136 128
54.9318098716476 916.529041585012 2734.36899383319 158 141 131
57.6776253272564 917.831472971067 2743.0230544742 136 118 108
63.2283916737837 917.846604331392 2747.42827933338 155 135 128
61.6226212617106 921.19831845982 2762.93586022777 146 121 117
65.0321283109934 922.235654036544 2770.78184611185 132 107 103
78.8521975395364 918.400128904218 2762.38103186825 255 253 253
-62.621295216186 919.642865729674 2694.30114246435 200 198 199
-52.3754819802125 917.596511790389 2691.99174727434 195 193 194
-38.5791713763772 914.008432548552 2684.65850312919 194 192 193
-28.4081424151939 911.968362283806 2682.31878068666 207 205 206
-15.3083502707807 908.645708170441 2675.78031743651 220 218 219
-5.20942308224348 906.611469946206 2673.41135729089 229 227 228
3.09969477065297 905.349633824072 2673.5485430626 237 235 236
13.1465890237623 903.319876728401 2671.15848118368 242 240 241
23.1637866485979 901.292412664824 2668.75637796943 248 246 247
31.4138245058302 900.035675772732 2668.86960401795 249 247 248
35.6124540412599 900.571417733131 2674.88128567187 250 248 249
42.7025406647854 899.827183708232 2676.67858732409 253 253 255
48.6446757512597 899.594550785211 2680.16534446055 251 251 251
55.1615174582565 899.106268623577 2682.80766862479 255 255 253
55.446315013973 901.424496990229 2694.77307085898 251 250 246
59.7355515374547 901.953962384303 2700.82122898969 247 242 236
61.798974798098 903.501147501804 2710.27620406038 241 237 228
68.9350043465133 902.754050594413 2712.09212937784 255 254 244
70.5008570891408 904.551257224496 2722.42255471321 199 190 183
70.4504019890486 907.107538191313 2735.32947651419 120 109 105
66.0487594540296 911.691311832019 2755.09024505393 105 94 90
74.924615953972 910.176006523576 2754.38001237965 153 139 138
-84.9499849812434 917.042567238547 2700.38472358612 184 186 185
-77.6607982170689 916.283515300325 2702.26275179295 212 214 213
-60.7450747872169 911.444139065717 2690.80746515982 209 207 208
-49.3095335971694 908.905279367925 2686.82589917697 198 196 197
-34.9290833066032 905.096250752252 2678.65177842587 199 197 198
-24.1802661477239 902.819529592424 2675.46898394421 220 218 219
-9.32253184571485 898.765320049581 2666.41090514852 232 230 231
4.87563649233924 894.970793067454 2658.16286980555 250 248 249
12.5528757951416 893.974754762415 2659.12126311608 253 251 252
22.5581648017779 891.964553072389 2656.71420734246 255 254 255
31.9518529846212 890.210298945001 2655.13638685132 255 254 255
41.3208357655435 888.458116318535 2653.5488048428 255 254 255
45.4734441337312 888.986511060821 2659.54165131494 255 255 255
51.9439867162024 888.501538435428 2662.16520420571 254 255 255
60.1305497705347 887.258258963485 2662.25262775187 253 255 254
67.7331401884835 886.26885226291 2663.1807459911 247 249 246
70.2249892844555 887.552072252015 2671.73212306635 249 250 244
72.1883779386674 889.084832075428 2681.14644694561 253 253 245
75.8777320077548 889.858611271332 2688.02893045098 248 248 240
82.9485486112143 889.119191659656 2689.81839331641 255 255 246
88.34449470143 889.135291455286 2694.16092520826 248 245 238
87.6545157855102 891.916915190651 2707.88600844572 191 186 182
94.7546258230219 891.175468181642 2709.6876046091 89 84 81
-98.2650893040835 912.858492460048 2705.8140992731 219 220 222
-81.840908920827 908.308949286015 2695.23640162452 233 234 236
-75.7762658656185 908.058964359069 2698.77263566803 214 215 217
-60.0716233145551 903.77129024602 2688.98042548724 212 212 212
-46.2411755965513 900.246080769332 2681.66052668251 219 219 219
-29.4849126754952 895.465844099898 2670.14022735532 228 228 228
-15.7867519189105 891.951120885187 2662.76642978591 246 246 246
-2.74058302688363 888.692730448766 2656.20576775895 250 250 250
11.429838187287 884.935908824294 2647.94621200543 254 254 254
19.0773527548977 883.947551041426 2648.89225453808 255 255 255
32.5610601735289 880.44987833883 2641.43149709057 255 255 255
41.3282838652518 878.963563455209 2640.677060021 255 255 255
48.9166247592776 877.980247134235 2641.59936256535 254 254 254
53.0331527009118 878.500561434287 2647.5776615755 255 255 255
60.0429385329859 877.768123701965 2649.34261781903 249 250 252
69.3364601082 876.035673642994 2647.72407530797 244 248 247
77.466303170618 874.805017539674 2647.78843764884 252 255 255
81.6125104734751 875.323578160593 2653.77876691486 253 255 250
84.0859417507698 876.589188782172 2662.32282021979 251 252 246
88.2808460667059 877.104364024868 2668.3331494488 255 255 250
95.8534573211522 876.122956884857 2669.24881147571 250 251 245
101.745745495575 875.889197684487 2672.71513726033 251 252 247
104.871337334726 876.898994733158 2680.44637661827 255 255 253
111.339392095306 876.41487675036 2683.0689157296 252 252 250
122.752821626136 873.695149614899 2678.00070244823 245 243 246
134.121532005816 870.978840527789 2672.91461401749 240 240 242
-108.571683901599 907.371413917593 2707.07692051419 191 193 192
-95.1416200077844 904.112197370584 2700.67170112015 244 245 247
-81.7664360465142 900.857453823945 2694.24397009888 228 229 231
-72.0756914818341 899.106319204058 2692.78665921743 229 230 232
-57.5906413390179 895.360136900421 2684.65441384884 229 229 229
-40.1712792128956 890.371763619288 2672.32511094902 237 237 237
-24.0368371675659 885.88910589226 2661.62985054961 243 243 243
-10.3615996325801 882.409015921842 2654.24650901934 250 250 250
-0.300258683280097 880.426891541356 2651.86193546254 253 253 253
12.0906949240684 877.45241236169 2646.11263757412 252 252 252
21.4951341463896 875.724558938479 2644.53922721924 253 253 253
33.799002048146 872.757098948247 2638.75461574098 253 253 253
43.1416711369998 871.034204647008 2637.15590028057 252 252 252
50.7204028163883 870.05709468542 2638.07400785281 252 252 252
57.1350184832788 869.576373716415 2640.67488410459 255 255 255
64.1247294448319 868.848335955287 2642.43167882444 254 254 255
72.2545931437686 867.625807766949 2642.49598791352 251 251 251
79.7999958209576 866.651811194587 2643.40083443638 253 253 253
86.2015808484689 866.172481275333 2645.99642413066 254 255 253
91.4744591445309 866.186859903869 2650.28888256246 253 253 251
97.3199618691642 865.953932760091 2653.73651616913 250 252 249
103.730822690421 865.474166817597 2656.33586487163 244 246 243
108.470951088134 865.733045276799 2661.48957153865 254 255 255
111.562660819838 866.729028536978 2669.20719697566 247 251 252
117.445754564445 866.493422007658 2672.67007122948 252 255 255
127.731747006808 864.291631702374 2669.29905711131 252 253 255
136.888747792882 862.5836214671 2667.62531027758 255 255 255
143.842939608658 861.858577149626 2669.36770085701 245 245 247
145.914203113825 863.339871009013 2678.82609259849 251 251 253
-123.210755841467 903.593936634571 2714.12502269162 204 206 205
-108.495996776984 899.864703272037 2706.0856563725 240 241 243
-93.2362517069694 895.893228544547 2697.18997901286 236 236 238
-79.2616343805981 892.42199725039 2689.9277870965 232 232 234
-66.5571401645415 889.44981518662 2684.3054221716 231 231 233
-54.50514689879 886.728631799775 2679.49576986842 236 236 238
-37.6976814057624 882.03717073411 2667.99552920563 241 241 243
-22.7677864031939 878.092068513631 2658.96609799005 246 246 248
-7.3126686070879 873.905997263899 2649.07208687867 253 253 255
2.14196900298558 872.187676115736 2647.51892924393 254 254 255
13.3421613797171 869.733401118613 2643.44117383549 254 254 255
22.7399607923602 868.019762482608 2641.86496732441 254 254 255
34.4531246484958 865.325663019224 2636.9179201008 254 254 255
43.791687975155 863.616782737359 2635.31743602387 254 254 255
51.9454461101303 862.400485573643 2635.39162979819 254 254 255
58.9299100437881 861.675319758884 2637.14602103843 254 254 255
66.4846151845446 860.705966019018 2638.0545988716 255 254 255
72.8850391619649 860.226668311483 2640.64971822076 255 253 254
80.9958756602851 859.01395649087 2640.70624892548 254 252 253
88.5246729482634 858.046720571694 2641.60406357323 253 253 253
95.4791640447104 857.324342467397 2643.34655512013 255 253 254
101.304400734029 857.090276676857 2646.78573455651 255 255 255
108.254988987926 856.368327339665 2648.52664262012 254 254 254
112.414396148566 856.864382539704 2654.52248700016 253 253 255
117.704176285415 856.872275908265 2658.8220952508 253 254 255
123.557075549749 856.63613801596 2662.27249077414 254 255 255
132.714623947638 854.941658983725 2660.59860587518 252 253 255
138.01635817805 854.948605251859 2664.90306143253 251 251 253
144.418510894755 854.469469460064 2667.49887950871 253 253 255
147.567589442373 855.444767948742 2675.23988995849 252 252 254
151.827190919896 855.933124045261 2681.27636066594 244 244 246
152.34681364456 858.114211642154 2693.33788143995 242 242 244
-120.614862321104 892.885554879962 2697.99503180649 192 194 193
-115.750630563973 893.114570454212 2703.19947062513 246 247 249
-105.355954152829 891.138136297039 2700.94981910907 248 248 250
-90.108774764406 887.205973606814 2692.04875601929 240 240 242
-74.9313616724758 883.279284007365 2683.11914633839 239 239 241
-61.034840829741 879.847111593773 2675.825294879 242 242 244
-50.2119116922428 877.640792987901 2672.67197418118 243 243 245
-35.822396360377 873.97331329055 2664.50045089898 246 246 248
-21.4976729079575 870.310847380161 2656.30265583988 250 250 252
-5.45213874459827 865.922571958074 2645.57042464914 254 254 255
5.17882135901737 863.731642027255 2642.33926040519 253 253 255
15.1848599563016 861.786895557185 2639.9320120028 250 250 252
25.7489558485304 859.601442480818 2636.67373339948 250 250 252
34.5226775069833 858.147489631986 2635.92168201528 248 248 250
43.2768857216816 856.695207762906 2635.1614598836 247 247 249
51.4311093994122 855.487063041187 2635.2357803596 247 247 249
61.8817668270344 853.310722447928 2631.93124502754 248 246 249
69.4217051825923 852.347978278126 2632.83379379507 248 243 247
74.6617322318051 852.353721742058 2637.11301644154 251 245 249
81.0526343918214 851.875297982475 2639.70427384988 252 246 250
89.1468633587047 850.672151047629 2639.75400778335 252 247 251
97.7917043373959 849.228767830109 2638.94969340847 252 247 251
104.729315666671 848.510536554957 2640.68531902518 251 246 250
110.542404955406 848.27468347947 2644.11959361211 250 248 251
115.245981039258 848.520073843863 2649.25885996838 252 250 255
121.075380574996 848.282988314179 2652.69974780064 252 250 255
127.462994264993 847.805064198324 2655.28966994356 251 250 255
135.501215245354 846.6062894812 2655.31695072571 253 252 255
140.787664202049 846.608893009336 2659.61499307407 250 250 252
146.08465986731 846.610715303652 2663.91756885823 249 249 251
150.850002193551 846.851391372737 2669.0818796623 250 250 252
154.551368381239 847.56970847926 2675.9693899505 247 247 249
157.740946213228 848.525479409493 2683.72694628766 242 242 244
160.426552420555 849.717910944153 2692.35746239874 239 239 241
-144.614847199015 892.699361191748 2717.40889664444 184 186 185
-122.386705008275 886.121507938666 2699.4867683785 237 239 238
-111.978719523452 884.160158876274 2697.24239127134 247 248 250
-100.374520203702 881.716854184172 2693.32813226497 244 244 246
-85.7579359713045 878.066592367952 2685.24841706787 243 243 245
