ply
format ascii 1.0
comment KinectMotionCapture
element vertex 755
property float x
property float y
property float z
property uchar red
property uchar green
property uchar blue
end_header
127.394440560649 605.495553977173 2650.68293872462 160 158 159
164.372125707361 610.367783081032 2667.56560060353 162 161 159
217.678352585177 618.114119463666 2695.42095380168 140 139 135
243.898561423609 620.962122362597 2704.43697071754 104 103 99
249.682263620922 620.153548849441 2699.42926770689 113 112 108
250.319705407197 618.436148430567 2690.94770653738 116 115 111
252.651550223993 617.024737719624 2683.64239979281 128 127 125
257.551620314533 616.068760333145 2678.07826679957 129 128 126
265.901910981218 615.716140006229 2674.8131528487 140 138 139
270.801106356275 614.760579849864 2669.24977529915 139 137 140
275.695496503432 613.80582428252 2663.69024188673 169 167 170
276.236432870546 612.10279777623 2655.29223228954 198 198 200
278.496441200938 610.702618433933 2648.04911603033 182 182 184
-238.166124968331 627.473108027117 2861.51624810269 173 175 170
-237.900671480129 625.567366732207 2852.03506214355 202 204 201
-238.403481136628 623.499942261114 2841.89754430573 196 198 197
-238.198650599086 621.601706402692 2832.46885380158 195 197 196
-238.766363604852 619.54234161904 2822.38722228967 193 193 195
-234.151328789937 618.638374467929 2817.06980258766 191 191 193
-231.035428515155 617.406342481308 2810.40702528862 186 186 188
-226.433964219999 616.503454315453 2805.10136065202 182 182 184
-220.334743920448 615.928015917572 2801.14193691174 177 177 179
-212.725348612333 615.678406941486 2798.5183160832 170 168 171
-203.593657926704 615.752883092741 2797.2196887972 169 167 170
-197.471681189473 615.173264410542 2793.2408838356 172 170 173
-189.827523332593 614.917716299877 2790.58717154227 159 157 160
-182.171736230222 614.660242744117 2787.92339224079 153 151 154
-173.740841375537 614.562722127571 2785.91002356252 153 151 154
-166.059899303841 614.301022507675 2783.22446892994 147 145 146
-154.529176113381 614.844075755617 2783.81357567766 148 146 147
-136.038929426166 616.831861427696 2790.27154573891 139 137 138
-122.110273370774 617.845189156668 2792.74964413154 96 94 95
-115.101908864983 617.407640432694 2789.32459977248 105 103 104
-114.292852742978 615.687220262496 2780.69431385765 116 114 115
-114.286939280135 613.810083680809 2771.43789520829 142 140 143
-113.530337370118 612.096390478373 2762.85334516636 169 167 170
-113.581357313525 610.226569633801 2753.64590982764 172 170 173
-112.877433011495 608.519611287407 2745.10697371999 175 173 176
-112.985160779183 606.657127940368 2735.94864154375 177 175 178
-113.122171217563 604.798490559296 2726.81598030164 176 174 177
-111.708053390898 603.260197306167 2718.98366185667 173 171 174
-108.730942232279 602.040418496095 2712.44109867243 174 172 175
-104.178239422504 601.137509634277 2707.17769750203 185 183 186
-99.6307130317984 600.234976260982 2701.91846497408 189 187 190
-96.6844812201968 599.018846986777 2695.40264238076 190 188 191
-93.7512563063443 597.80437954189 2688.89808256455 194 194 196
-90.830953752449 596.591524852114 2682.40502808436 185 185 187
-86.314983512068 595.692672274639 2677.17312255452 163 163 165
-80.1906323177475 595.106266114171 2673.19230354865 168 168 170
-73.2547334008995 594.674793441008 2669.83002834731 176 176 178
-66.3111963005223 594.242254432751 2666.46145528048 181 181 183
-60.9855845007106 593.498337011179 2661.85037671013 187 187 189
-58.1046528550333 592.28998374408 2655.39110172909 186 186 188
-52.78669966025 591.54688811682 2650.78665582175 182 182 184
-45.0132193831418 591.266438188931 2648.02101650276 182 182 184
-30.6622579940132 592.215744769204 2650.13318702884 186 186 188
-17.089907003534 593.005180856822 2651.59798226694 189 189 191
-5.95203762472396 593.328807645787 2651.20575055101 178 178 180
1.07929007330121 592.883128249301 2647.76117136764 171 171 173
14.7493623079118 593.658715378324 2649.1413578325 160 160 162
31.7831665146273 595.038677322438 2652.89551952657 163 163 165
49.7065080575263 596.562964452893 2657.20132839146 151 151 151
57.6698206702311 596.255482306293 2654.27132973322 148 148 148
67.3186868082363 596.249679862358 2652.52496810028 150 150 150
78.6654943174603 596.543821198696 2651.951833263 158 158 158
90.8814573797123 596.985242168514 2651.94799207572 170 170 170
103.129126606262 597.422221309047 2651.9163832865 168 168 168
112.873195717551 597.403140844254 2650.08790736934 170 168 169
132.803894613224 599.184242772249 2655.29872504088 161 159 160
174.884397665866 604.854431100985 2675.69361668469 158 157 155
225.652388102365 611.996969843966 2701.78276513698 130 129 127
248.475061453444 614.180024086558 2708.45449806534 102 101 99
252.559934448248 613.071746131054 2702.27433622342 113 112 108
252.34925894146 611.220723718454 2693.20547379878 115 114 112
253.82847093121 609.670939315202 2685.31681036582 124 122 123
259.594065572789 608.865463121829 2680.32478175389 128 126 127
265.359269871353 608.060219155055 2675.33308996145 135 133 136
270.258448769561 607.107505810808 2669.76970824555 144 142 147
272.550213278825 605.713387926821 2662.4987129734 189 187 192
273.955861243716 604.174738168485 2654.67373797224 184 184 186
279.698891685367 603.373318794933 2649.70124027516 184 184 186
-240.885909269732 619.82668241852 2859.95303381749 200 202 197
-238.414616188892 618.429459336652 2852.52677031388 198 200 197
-239.654281375912 616.221214284457 2841.7055632991 191 193 192
-239.450021350563 614.342226579009 2832.27692703702 197 198 200
-238.531893272323 612.628998173107 2823.55237344721 193 193 195
-233.914426647215 611.727585808973 2818.23251393996 190 190 192
-230.048483179792 610.664982886918 2812.24212572625 184 184 186
-226.191580148504 609.60315605406 2806.25925264157 180 180 182
-220.090216746765 609.024853935985 2802.29798995457 175 175 177
-213.23216159583 608.606372073335 2799.00341607528 170 168 171
-204.856288330511 608.507128656191 2797.03774775003 169 167 170
-196.464757789378 608.405327503764 2795.05852527523 172 170 173
-186.538865883948 608.620589032261 2794.39419933699 159 157 160
-177.350446944689 608.672685759344 2793.04686416657 151 149 152
-169.66905364773 608.403289885368 2790.36096831275 151 149 152
-160.445392520785 608.449779890578 2788.98280829035 145 143 144
-145.829533791429 609.603638286875 2792.18763365411 140 138 139
-128.856879079265 611.225481534367 2797.31648928833 133 131 132
-118.767581358295 611.416042077024 2796.51069371921 105 103 104
-114.843353816112 610.340769113722 2790.46987070508 110 108 109
-112.479657031886 608.951456455116 2783.13649800667 114 112 113
-113.243659965632 606.935346600653 2773.22503325073 151 149 152
-112.481793650982 605.237450819483 2764.63550247955 169 167 170
-114.0906364194 603.072882713013 2754.13367640396 173 171 174
-113.385342004578 601.382358264107 2745.59344627824 176 174 177
-114.277349413886 599.382895850376 2735.79250421366 179 177 180
-113.626966739264 597.699474763935 2727.29950652414 176 174 177
-110.631930865162 596.485785841723 2720.74136788207 174 172 175
-106.857804719296 595.428990561312 2714.83052340762 176 174 177
-103.092770950928 594.373187966721 2708.9272376781 186 184 187
-99.3365844974679 593.318389448594 2703.03192924082 190 188 191
-95.5895106499169 592.264616283564 2697.14419686948 192 190 193
-93.4516022552261 590.903786784799 2690.0066540254 190 190 192
-89.7265344012603 589.852737655493 2684.13797738788 179 179 181
-83.5976120461219 589.263208416968 2680.15290111739 161 161 163
-77.4651779391666 588.673138613058 2676.1651001011 168 168 170
-71.3296181871628 588.082446018495 2672.17427849875 179 179 181
-66.8114051363697 587.185798871274 2666.94073026611 181 181 183
-59.0483626502785 586.899179015754 2664.18417773706 188 188 190
-56.9752698559562 585.546217728637 2657.10244640454 186 186 188
-51.6530896421057 584.802732500847 2652.49433931247 182 182 184
-44.6945374842596 584.362302547283 2649.11280328914 182 182 184
-30.3435118811741 585.281777166256 2651.22511147053 186 186 188
-15.94823392904 586.195104849705 2653.29941989551 190 190 192
-3.1584057051699 586.800741574322 2654.12007038238 178 178 180
4.70740674167436 586.499053866364 2651.27454107438 170 170 172
17.5571259932621 587.096347741711 2652.04365142949 158 158 160
33.7657425645057 588.287708352678 2655.19099417749 160 160 162
51.6923872173036 589.770828051572 2659.49420688429 148 148 148
60.4959927093405 589.603830582976 2657.15824671144 147 147 147
70.9890747359645 589.732497168454 2656.00287784513 150 150 150
79.8280370023257 589.560558491114 2653.63630470424 155 155 155
92.0462936732727 589.979939643144 2653.63030286959 167 167 167
102.610633751547 590.09874031135 2652.41323601997 168 168 168
114.888924680357 590.509879097433 2652.3555692597 164 162 163
138.210509093602 592.834417908282 2659.9172220859 161 159 160
186.240563627608 599.417419829621 2684.41296568224 152 150 151
227.664567423844 604.796431096316 2704.05549479169 114 113 111
245.370487021619 606.044706501988 2707.22796324948 105 104 102
249.449834792072 604.942884019904 2701.05286399933 110 109 105
253.520340560432 603.842379822238 2694.88510437485 118 117 115
257.582068636077 602.743177502057 2688.72494425596 128 126 127
261.635318402018 601.64537871014 2682.57243901079 130 128 129
264.816443997954 600.40363449529 2675.85319151688 150 148 151
268.850291848602 599.308845595031 2669.71716759207 191 189 194
272.87565701761 598.215400925637 2663.58880271453 214 212 217
275.153322032234 596.834530271439 2656.32994213881 174 174 176
282.643245903712 596.32092275957 2652.48832134375 200 200 202
291.014347361451 595.950288724362 2649.20528666152 205 205 205
-241.401158056059 612.67661409369 2860.44595108184 206 208 205
-242.611491144928 610.48948120637 2849.59918407591 196 198 197
-241.643658893066 608.786724198778 2840.83116672446 197 198 200
-240.70100864136 607.087059058342 2832.08495548232 192 193 195
-239.04077692555 605.549756393714 2824.03931486413 191 190 195
-235.167565689069 604.492051301333 2818.04228016284 189 189 191
-231.303162748851 603.435233004662 2812.05287418206 184 184 186
-223.703263076117 603.171661789445 2809.43757403768 180 180 182
-216.842565083081 602.747883402089 2806.14074383376 175 175 175
-209.974545029477 602.322677541774 2802.83726107397 169 167 170
-203.098843594854 601.896070154949 2799.52744517992 167 165 168
-193.944471214305 601.940175887486 2798.20967116756 163 161 164
-184.011427392607 602.138192964197 2797.53894263805 158 156 159
-174.815499275176 602.175774087188 2796.18519305447 151 149 152
-167.889389500514 601.74082109257 2792.83174051995 150 148 151
-157.895089334021 601.929331075153 2792.10798052077 147 145 146
-140.971255544297 603.517527799458 2797.27968454647 146 144 145
-123.217475705832 605.252633063501 2803.05435340076 123 121 122
-115.426848133235 604.958824884737 2800.27393846622 112 110 111
-113.812203644601 603.422459170234 2792.26748835213 118 116 117
-112.218691736558 601.888722064403 2784.27965308464 118 116 117
-112.979045341707 599.894136663734 2774.36457033259 161 159 162
-112.993234777536 598.058124348939 2765.12530910183 170 168 171
-113.818381987688 596.072077396165 2755.2666454797 172 170 173
-113.89349096509 594.243999720321 2746.08013398869 175 173 176
-114.78375501581 592.266340637042 2736.27753960643 177 175 178
-113.344134198246 590.752489870518 2728.42295841464 174 172 175
-107.976936678374 590.005217768621 2723.77585774434 178 176 179
-104.986031283068 588.800289509755 2717.22124236739 182 180 183
-101.214353169409 587.749251354369 2711.31216687129 190 188 191
-100.635250832978 586.091359420462 2702.88078498348 194 192 195
-95.2936762108871 585.346879245041 2698.25587450795 193 193 195
-93.1528072277152 583.996729981116 2691.11569640723 183 183 185
-87.0190525996044 583.404274298563 2687.12645079549 171 171 173
-81.6860167465281 582.660345190352 2682.50893760706 166 166 168
-74.7414340968216 582.217424841025 2679.13952559639 172 172 174
-70.2139853109678 581.32261804125 2673.89796049471 181 181 183
-66.5016806685923 580.278378077531 2668.04030206787 186 186 188
-59.5492699192617 579.833864530653 2664.66411548584 188 188 190
-55.8466903767227 578.790664773053 2658.81487941204 186 186 188
-49.7041159349729 578.195943361779 2654.81800403278 181 181 183
-41.9214475215619 577.898266445844 2652.0445126571 182 182 184
-29.2049182583134 578.490111668142 2652.92909886997 187 187 189
-17.2750553926178 578.928538869989 2653.17293489364 190 190 192
-5.3131357860412 579.362431594207 2653.3893310841 178 178 180
5.02758572510897 579.49643565602 2652.36598396611 170 170 172
19.5346501261513 580.364054915844 2654.34338373658 157 157 159
36.577473506954 581.666776739175 2658.09022870619 159 159 161
53.6768257586173 582.96160849998 2661.78844471216 144 144 144
62.4858798715491 582.783157632639 2659.44783624204 145 145 145
72.1470298116538 582.748692247073 2657.69101353287 149 149 149
80.1507204464524 582.419633007946 2654.7261576116 152 152 152
90.688107938139 582.52595404153 2653.53253240592 163 163 163
101.249205470919 582.629022121878 2652.31837793459 167 167 167
116.05820581573 583.454332342155 2654.03435313327 161 159 160
142.767464852258 586.301203626827 2663.95007638156 161 159 160
195.044734621444 593.470351384362 2691.37774301576 153 151 152
228.824597805219 597.434606916065 2705.74459682445 113 112 110
243.120025091129 598.068785241333 2706.58368192079 110 109 107
247.195413767408 596.973103039789 2700.41165885785 111 110 106
255.547417327485 596.595818476876 2697.14522010558 118 117 115
259.615563418664 595.501381132985 2690.97946638477 123 121 122
261.952896131096 594.122647842655 2683.6691913333 129 127 128
262.547198190023 592.461211784857 2675.22465826566 169 167 170
267.442454962421 591.514865540961 2669.66463473822 207 205 210
273.200310607193 590.711269976387 2664.67930160647 200 198 203
278.95773108019 589.907912675569 2659.69434410979 182 182 184
286.457309677176 589.38770502103 2655.84439798619 215 215 217
295.711074923616 589.148885143931 2653.11873358438 224 224 224
-240.01330881682 607.850809761043 2872.50819436516 129 131 126
-241.182187252621 605.68307439284 2861.62505591209 200 202 199
-243.12488043902 603.362637840219 2850.0903391532 201 203 202
-243.632462642921 601.361858402805 2839.95621047944 194 195 197
-241.951851169251 599.836004188083 2831.89283180633 193 194 196
-240.292558839496 598.312639540862 2823.84759955626 189 188 193
-236.420524437831 597.260804317712 2817.85186233594 186 186 188
-230.317615421997 596.677982245089 2813.88928929907 182 182 184
-222.713910556314 596.405843888692 2811.27074657247 178 178 180
-214.347888129729 596.287206483477 2809.31374199677 172 172 172
-208.977175533761 595.545240016539 2804.66356030303 164 162 165
-201.34274270754 595.267705869656 2802.01841951339 161 159 162
-193.696653849517 594.988302556497 2799.36318813425 166 164 167
-182.244658104081 595.478598578768 2800.02087265654 159 157 160
-173.043276373447 595.502030752966 2798.66248791591 153 151 154
-165.348216436312 595.214744877888 2795.96486262146 150 148 151
-153.051280626537 595.846568801252 2797.21286649959 141 139 140
-133.814661885439 597.852025090432 2804.34707543976 141 139 140
-119.119724563093 598.929538722749 2807.48385526051 119 117 118
-115.173159286007 597.862763394188 2801.42330075089 114 112 113
-115.874784739656 595.882748495793 2791.45753729461 123 121 122
-115.059522257482 594.211198028207 2782.82155542744 155 153 156
-117.3787842376 591.935695548526 2771.61293320376 164 162 165
-117.401621222473 590.120250931862 2762.38103383539 171 169 172
-117.45410238446 588.308596686015 2753.17448806633 172 170 173
-115.968827133345 586.802670818284 2745.2802851824 175 173 176
-114.504922967508 585.299451114677 2737.40427233741 178 176 179
-111.486969320971 584.099735634065 2730.82649500279 176 174 177
-105.323929996453 583.501958755244 2726.81190177354 181 179 182
-101.532535582582 582.453984505312 2720.88571759717 184 182 185
-98.5436471565389 581.257622109525 2714.33279489297 190 188 191
-98.7507259323839 579.465821832923 2705.26043129142 193 191 194
-94.9982698599374 578.422754348039 2699.36828009207 190 190 192
-93.6543815452393 576.934649352465 2691.59619135548 180 180 182
-87.5206290374249 576.33970867933 2687.60696368429 169 169 171
-80.5796188865155 575.892239005391 2684.24067756648 166 166 168
-72.8254149062097 575.591358812502 2681.49187809543 173 173 175
-68.2914758693771 574.698612383233 2676.24467430868 181 181 183
-66.192630099275 573.364580332169 2669.14049928445 185 185 187
-59.2384457419888 572.914647776974 2665.76281056796 183 183 185
-54.7191044691169 572.023477990522 2660.52824897127 181 181 183
-46.1241336778215 571.864905064952 2658.37306540158 180 180 182
-38.3317875041516 571.557870140324 2655.59124660335 183 183 185
-28.0672843081611 571.686658062432 2654.63399443946 185 185 187
-16.1348306367279 572.10311744857 2654.87572727067 183 183 185
-3.34606299034323 572.660321571218 2655.69792635549 181 181 183
9.47863983228636 573.212446704689 2656.48901204335 160 160 162
23.1675630955555 573.904139772935 2657.85340327968 156 156 158
41.0482256560667 575.312224104056 2662.19664103688 159 159 161
56.4923294070274 576.279474175441 2664.68480589609 134 134 134
64.4743307872297 575.945460829427 2661.73878093413 146 146 146
71.6312463491255 575.46625765917 2658.18525195699 142 142 142
78.7958471092765 574.986011765361 2654.625384212 148 148 148
86.8083167432041 574.647685611974 2651.65297926646 152 152 152
99.0452441098744 575.021254651053 2651.63109173234 172 172 172
114.692840928408 575.960081938597 2653.94306601577 156 154 155
145.628488249637 579.450467905071 2666.80807650412 154 152 153
202.99558476966 587.321200933634 2697.75985730992 149 147 148
235.087962396858 590.910564365852 2710.94490755956 111 110 108
246.839347728569 591.091861521124 2710.02184181425 108 107 105
251.780160306787 590.141356451682 2704.42236038171 122 121 119
256.71612064238 589.191632359719 2698.82676398867 117 116 114
260.788868436602 588.102226794462 2692.65730471322 125 123 124
263.991730072009 586.874053994635 2685.9191298695 133 131 132
268.044896635906 585.787682469662 2679.76630717671 207 205 208
271.224477920657 584.56306407304 2673.04828721709 194 192 197
277.859591314278 583.897512487638 2668.62528511827 159 157 162
284.498056128005 583.23163708006 2664.19906480872 235 235 237
292.882358450597 582.842936225729 2660.90470553586 221 221 223
299.532103700187 582.175930924922 2656.46871538881 228 228 228
-242.72746551065 600.205183314495 2870.9400972516 173 175 170
-243.166353715159 598.217789725279 2860.74634227876 191 193 190
-245.846999189226 595.770364283733 2848.52879731204 199 201 200
-244.88233043734 594.101150362415 2839.76330451969 192 193 195
-243.202698529196 592.589149746872 2831.70036958672 191 192 194
-238.574754991575 591.695391449822 2826.37169527712 183 182 187
-234.695845542924 590.648379426189 2820.36996795201 180 180 182
-230.079613569779 589.755397626197 2815.05112393173 177 177 179
-223.22254807473 589.32195772673 2811.75750475123 175 175 177
-215.607517159877 589.039790237794 2809.12921031973 170 170 170
-207.228316968862 588.908299221364 2807.16086739365 169 167 170
-199.588032683296 588.622012188771 2804.51071165278 157 155 158
-190.422904302569 588.637578648103 2803.18348445081 160 158 161
-180.479228291962 588.801757706685 2802.50407540504 147 145 148
-172.033270380013 588.659539628115 2800.47794067428 146 144 147
-162.046016966475 588.816981702501 2799.76080518285 142 140 143
-145.151252459221 590.328067240688 2804.95820428295 135 133 134
-121.293860783662 593.185022106882 2816.02210175537 156 154 155
-112.717922931367 593.023442962 2813.88343419842 138 136 137
-113.378096045333 591.060063384081 2803.88163471206 122 120 121
-114.844965953889 588.951293178831 2793.25639408388 130 128 129
-114.799235692669 587.146287114923 2783.96499737662 163 161 164
-116.337225871232 585.046795353051 2773.4013391183 167 165 168
-117.13354281411 583.101151608591 2763.51742545344 172 170 173
-117.182214250119 581.308349731446 2754.30777100696 173 171 174
-116.477047252737 579.667645540101 2745.76701296916 175 173 176
-112.65607313531 578.622035680992 2739.81517567918 179 177 180
-109.63141433083 577.429719187698 2733.23122328469 179 177 180
-103.462057019508 576.828628376716 2729.21149101639 183 181 184
-99.6639466452724 575.785468807651 2723.27945467651 187 185 188
-97.461619135204 574.44973969011 2716.08591481853 191 189 192
-99.254183054243 572.383423864396 2705.74268979074 192 190 193
-96.2988595586158 571.199726227863 2699.21877695025 184 184 186
-94.1561378856291 569.87163505836 2692.07685011968 176 176 178
-87.220692927283 569.419914361977 2688.71541510103 166 166 168
-81.0816948344004 568.821512494075 2684.72166332134 168 168 170
-73.3278662201875 568.51277787764 2681.97324009043 175 175 177
-68.7936905441298 567.622934002223 2676.72581239134 182 182 184
-65.8839742738193 566.444539953239 2670.24139460499 185 185 187
-60.5517338538486 565.700568251777 2665.62457112302 183 183 185
-54.406512198061 565.100609613194 2661.62543524556 181 181 183
-46.6260738658528 564.787423076335 2658.85397726415 179 179 181
-41.28807895367 564.042287148594 2654.23217370116 183 183 185
-31.8509387375863 564.012807355878 2652.66947596496 185 185 187
-17.4617397977781 564.837543654748 2654.74962736281 183 183 185
-3.02865438727906 565.65601812555 2656.79146584299 181 181 183
9.79646785265986 566.183743046661 2657.58234612078 159 159 161
25.1417438359942 567.132300990372 2660.15597417112 154 154 156
46.346626598758 569.066053201149 2666.90825896445 158 158 160
59.305998962766 569.574919934944 2667.58290203567 133 133 133
65.6270488938846 568.949575480921 2663.43153397263 146 146 146
69.442680627211 567.901233887589 2657.48466033353 143 143 143
78.2793443648289 567.697505768555 2655.12028540649 148 148 148
87.9719243586727 567.631858872889 2653.33642319696 147 147 147
102.738867967546 568.403507937987 2655.08951371886 178 178 178
116.705347610472 569.029256365245 2656.2137641872 155 153 156
146.794897264079 572.298584029067 2668.49028952792 149 147 150
209.245325816603 580.838967106386 2702.97170513935 145 143 144
241.347899325287 584.342487998647 2716.14847451382 109 107 108
252.261617493217 584.364262381262 2714.62921784839 108 106 107
253.798449370684 582.86157395394 2706.69030800453 122 121 119
255.31411352355 581.361893677796 2698.76940998271 131 129 130
259.385174071963 580.278464408965 2692.6013743773 143 141 144
264.307827835203 579.33370630031 2687.01727908912 166 164 167
270.088855575969 578.52693022838 2682.01188247863 188 186 191
271.54556531409 577.036079978646 2674.14234066121 188 185 192
279.048939542348 576.50437979449 2670.28886368658 214 212 217
286.560142199007 575.971737370105 2666.42892315025 226 226 228
294.0790728898 575.438293744372 2662.56228964077 198 198 200
298.986565756099 574.496685270796 2656.9913144372 231 231 231
296.890499434338 572.472342720187 2646.91118937609 252 252 252
-244.708845426576 592.727186827119 2870.05905079107 199 201 198
-245.88383611211 590.609800468824 2859.18088378172 198 200 199
-246.3602131497 588.649276320707 2849.01976312622 195 196 198
-244.656108673552 587.148202913229 2840.93554613033 197 198 202
-242.232932779296 585.80114680785 2833.55066243863 191 192 196
-237.600381798536 584.909702441883 2828.21797969811 183 182 187
-234.461008782103 583.716639267466 2821.53460521128 178 177 182
-230.58840427012 582.675574410067 2815.53798855078 175 175 177
-224.479660464877 582.086569055793 2811.57071387286 173 173 175
-217.617387918719 581.646656645605 2808.27230798317 168 168 168
-209.242807534935 581.505008274689 2806.30803502998 165 163 166
-200.097992449557 581.510367196825 2804.99879574918 156 154 157
-190.17701084822 581.661792596468 2804.3391394077 161 159 162
-178.715216129227 582.107531160191 2804.98861954083 151 149 152
-167.981962264526 582.399801304747 2804.94728582654 144 142 145
-154.932866644128 583.133015787541 2806.86596961948 142 140 143
-131.138326635579 585.933660341722 2817.98502329594 133 131 132
-110.313251967158 588.129271687296 2826.38806543506 154 152 153
-110.932151308685 586.182529280977 2816.35006916442 141 139 140
-115.438472243985 583.503864309754 2803.06956392396 125 123 124
-118.453030583373 581.126350008895 2791.14098021404 141 139 140
-117.639082692253 579.488243347654 2782.50592103349 164 162 165
-117.627276287033 577.70699937873 2773.24377337264 166 164 167
-116.866003817934 576.07565722223 2764.6543260396 171 169 172
-117.692033519894 574.155933278781 2754.79599753009 178 176 179
-115.419344861694 572.82273569652 2747.5414567315 178 176 179
-113.163974658101 571.491638618316 2740.30159733586 178 176 179
-110.138540324075 570.307691576583 2733.71691852779 181 179 182
-104.75851414492 569.559410453814 2729.05870533585 185 183 186
-100.170502524275 568.666568328575 2723.76463551721 190 188 191
-97.9672251619359 567.341880064017 2716.57020084312 193 191 194
-98.1671782925506 565.587776689839 2707.49141691185 191 189 192
-95.2070288226743 564.411813196099 2700.96327110858 177 177 179
-92.2599556796517 563.237490938714 2694.44644839256 170 170 172
-87.7229914205273 562.350774861646 2689.19658346008 164 164 166
-82.3874375225282 561.60722527858 2684.57688533227 174 174 176
-75.4417559482969 561.14847450473 2681.20630791291 182 182 184
-69.2961030982233 560.546413920433 2677.20712743738 185 185 187
-64.7665829276862 559.660019405339 2671.96339696747 182 182 184
-58.6183966980798 559.057318216133 2667.96202487197 180 180 182
-52.4671296521828 558.454000273431 2663.95767100598 178 178 180
-46.3125988508164 557.850123023503 2659.95049195013 177 177 179
-41.7901525185735 556.964224260325 2654.7132049305 183 183 185
-30.7141410350495 557.20230997138 2654.37514198419 185 185 187
-15.5011529796303 558.137115571475 2657.06383336507 183 183 185
1.40771416304197 559.344782448561 2660.92739897968 182 182 184
14.2433401048927 559.846719148379 2661.70934242979 158 158 160
29.5986126784409 560.761382701858 2664.27452571257 150 150 152
47.492179151472 562.086306246858 2668.60743358177 156 156 158
58.78980437411 562.293049746477 2668.07749314026 131 131 131
65.9449520103261 561.803716611448 2664.52587764313 142 142 142
73.107246209311 561.313338955044 2660.96775921884 141 141 141
82.7916128552548 561.235495686943 2659.1914103588 145 145 145
92.4954003998124 561.154835121767 2657.39793145117 140 140 140
103.06125217094 561.208785085658 2656.1799745972 179 179 179
118.716473804604 562.081549145354 2658.48576827064 163 161 164
154.730604153257 566.228965650104 2674.88501365921 146 144 147
216.340171699866 574.449222158599 2708.7740472849 142 140 141
246.754506763572 577.594383351837 2720.76987403823 110 108 109
254.271643584741 577.054691405897 2716.90452031645 114 112 113
254.960824951438 575.429285038282 2708.37751846909 124 123 121
254.768754080613 573.672173847686 2699.29192219066 136 134 135
260.556815564465 572.864390644774 2694.28043570845 184 182 185
265.483925680304 571.922078840848 2688.69277760002 179 177 180
272.9939292476 571.383886516531 2684.83359680818 138 136 141
275.32412563363 570.03977031456 2677.52928274772 149 146 153
282.837400397775 569.501459080875 2673.66758297538 156 154 159
289.48947798353 568.828630153036 2669.22960904599 175 175 177
296.14511015698 568.155502182015 2664.78855616548 200 200 202
299.313755834504 566.94992534525 2658.08020661278 254 254 254
302.469576308368 565.746293045933 2651.38264501159 248 248 248
-247.009314608199 587.055519770852 2878.70663805015 187 188 183
-248.8847407101 584.809064181668 2867.1128235799 202 204 201
-248.600355916841 583.016862723147 2857.61449343723 203 205 204
-247.609390729484 581.377665874077 2848.82632958051 192 193 195
-244.430314720494 580.188717852784 2842.10851641663 185 186 190
-239.78453093951 579.298643175918 2836.76403994405 174 175 179
-234.401407401125 578.557370812393 2832.1030967426 163 162 167
-230.506799438793 577.519413417222 2826.08770427718 164 163 168
-228.11332922427 576.186366557587 2818.72816127276 172 172 174
-222.74451751142 575.445943638144 2814.07961714052 171 171 173
-215.125920097468 575.147366121711 2811.44833783345 165 165 165
-205.991337646983 575.141047902819 2810.14804321328 159 157 160
-197.591349991682 574.984779182145 2808.16184360484 157 155 158
-186.150429252366 575.412091482096 2808.82985088195 160 158 161
-173.919396699196 575.980845207605 2810.13506866505 154 152 155
-163.172865362261 576.252403224652 2810.08236110343 130 128 131
-148.586255249225 577.248118652589 2813.31356206466 132 130 133
-115.604211545948 581.726138597001 2832.33868361733 155 153 154
-101.638406060158 582.555860595222 2834.78545752017 154 152 153
-109.916311315191 579.179408543951 2818.16182178197 142 140 141
-115.957074017082 576.24645242765 2803.5660829314 129 127 128
-118.196676417497 574.043104533631 2792.28794932314 154 152 153
-115.829782083797 572.709167421946 2784.95176187159 168 166 169
-114.256769880343 571.233585751138 2776.98131758625 168 166 169
-114.262799617086 569.473825294382 2767.73417442421 170 168 171
-115.078900340171 567.574862197702 2757.86710558101 179 177 180
-115.928501261355 565.68023096481 2748.02904449307 179 177 180
-114.457008481304 564.217610180394 2740.14619124136 179 177 180
-111.432838326225 563.042307280846 2733.56255212836 182 180 183
-106.843626802756 562.152537416152 2728.26742240249 185 183 186
-103.05046211264 561.121512091722 2722.3395940346 189 187 190
-99.2661671518107 560.091493862334 2716.41976236675 193 191 194
-97.8764250606354 558.639193875754 2708.60769849656 189 187 190
-94.1164057557882 557.612093314901 2702.70857299292 175 175 177
-90.3651555928722 556.586136018268 2696.81735612425 169 169 171
-85.8217459115274 555.701486348863 2691.56189132228 164 164 166
-81.2833672331381 554.817342300003 2686.31046828213 177 177 179
-75.1389137640226 554.213137620541 2682.31234124697 185 185 187
-68.9914691361326 553.608328261896 2678.31131007247 185 185 187
-62.8407000675395 553.002861594196 2674.30740174511 181 181 183
-56.6866694294452 552.396805970574 2670.30067031466 178 178 180
-50.5291942826713 551.790218837301 2666.29127236178 177 177 179
-45.9997753198613 550.906443000474 2661.04761264315 176 176 178
-41.4749564244805 550.023248972304 2655.80825171102 183 183 185
-30.3982173350197 550.242342608394 2655.4696811916 186 186 188
-13.5419663231229 551.419539003376 2659.37936406035 183 183 185
3.37040722445536 552.588795777841 2663.24013944622 182 182 184
16.2104871718434 553.065788921204 2664.0183840845 157 157 159
30.7419263005655 553.81083234558 2665.97545169682 147 147 149
47.8068291756735 554.958619529347 2669.7041635554 155 155 157
58.2733200626286 555.010320282845 2668.57234092616 127 127 127
67.9296266462575 554.923058751169 2666.82005824848 133 133 133
76.7697742763156 554.697534227659 2664.45312046073 138 138 138
87.3013346603364 554.740172542798 2663.26495848432 141 141 141
97.0164259710273 554.644575179892 2661.46177898709 140 140 140
106.751301872722 554.546245763757 2659.64178469032 171 171 171
123.258365735465 555.519641926268 2662.53186485827 168 166 169
160.969886805562 559.836382544672 2680.10534521628 144 142 145
220.038691607585 567.475070030352 2712.23021969197 137 135 136
248.757224103004 570.273767282938 2723.05126732408 107 105 106
254.575713383759 569.461736607205 2718.01343550031 116 114 115
256.12245932885 567.985440334913 2710.06576175586 129 128 126
259.360665042629 566.777330512812 2703.29682292039 157 155 156
263.444223968245 565.703424529035 2697.11757729824 141 139 142
266.658831158125 564.498852072839 2690.36906922946 131 129 132
271.585538826037 563.559678605026 2684.78173960062 126 124 129
273.914351782948 562.226887539482 2677.47855122073 134 131 138
281.425092222338 561.683677567117 2673.6190797827 119 117 122
286.337828812589 560.746872441109 2668.04352852929 143 143 145
292.116698182229 559.941524877542 2663.03999339987 179 179 181
297.894995707853 559.136404040503 2658.03695243902 219 219 219
304.547674504353 558.461629929091 2653.59878553635 212 212 212
317.339956491717 558.694922993407 2653.0964611823 202 202 202
-246.798844869203 580.019565477571 2879.89307039329 207 207 205
-249.401358517988 577.652862233926 2867.60696717048 188 190 189
-249.848773265349 575.732843286736 2857.4204813823 196 198 197
-249.59407791907 573.963654010422 2847.94773503098 189 190 192
-244.942870149953 573.076254642375 2842.5988555697 171 172 176
-238.817162185412 572.481199616605 2838.61660113432 161 162 166
-232.687941166564 571.885282222387 2834.63130739667 148 147 152
-228.042756274671 570.997556127055 2829.28765029677 154 153 158
-223.402349462749 570.110114185943 2823.94813268919 173 173 175
-218.018870002132 569.367835711085 2819.28688751678 174 174 176
-210.386264480831 569.059376897744 2816.6435309106 167 167 167
-201.990148769082 568.893269309854 2814.66075101092 151 149 152
-195.086476014608 568.436433041512 2811.3265717396 158 156 159
-185.150891945514 568.553493485863 2810.6544816002 146 144 147
-172.15896851279 569.241078797665 2812.62301426139 157 155 158
-157.606442703949 570.209255479236 2815.88393576598 133 131 134
-140.718993846855 571.599285955441 2821.08814453 152 150 151
-103.899697517833 576.690365804055 2843.40034404623 187 185 186
-102.164135883788 575.207603157233 2835.28874334668 148 146 147
-111.975130900734 571.59581151623 2817.34857936076 146 144 145
-118.016618730157 568.704326652308 2802.75351578238 146 146 146
-117.940750339701 566.953471199888 2793.4356463779 173 171 172
-115.571049384416 565.630242804287 2786.09664142094 181 179 182
-114.771226372413 564.027177611612 2777.47391322409 175 173 176
-114.775707301702 562.286581751163 2768.2253034679 173 171 174
-116.370636016333 560.269009094611 2757.71078056043 177 175 178
-115.655261969472 558.676785542432 2749.16086155021 178 176 179
-115.749918324714 556.948026565718 2739.99064888655 184 182 185
-112.72699212017 555.781335141079 2733.40803214762 186 184 187
-108.13944480776 554.894783706789 2728.11432399778 185 183 186
-105.138575983463 553.730733408935 2721.55080806859 187 185 188
-102.150837058649 552.5682117898 2714.99866238935 189 187 190
-99.1761274459639 551.407355018561 2708.45779889501 185 183 186
-93.0266042511896 550.800648809536 2704.45497844352 173 173 175
-87.6728580994128 550.055457711481 2699.8195230725 168 168 170
-83.9221261461374 549.035027590838 2693.92840402568 164 164 166
-79.3770742775908 548.153001358757 2688.67149888109 180 180 182
-72.421487109493 547.682488643445 2685.292727658 187 187 189
-67.8803832411035 546.800612580685 2680.03892790112 183 183 185
-62.5347406865671 546.055734286083 2675.41049418213 180 180 182
-54.756177425717 545.719265002438 2672.64081226524 177 177 179
-47.7793244604077 545.245199699105 2669.24363223218 175 175 177
-42.4259817346182 544.498835264517 2664.60853412822 175 175 177
-36.2560920256279 543.887739396523 2660.58808973189 183 183 185
-26.805055113452 543.81619674724 2659.01393531088 186 186 188
-11.5844234526694 544.684854506011 2661.69611483106 183 183 185
6.15506982252878 545.950130135881 2666.1629499989 182 182 184
23.1292840285264 547.072671699361 2669.97042857901 156 156 158
40.1599418198044 548.187394572026 2673.72935165307 144 144 146
54.7578146935339 548.893368519202 2675.62909192184 154 154 156
62.7466440144988 548.526695973084 2672.67736057062 134 134 134
71.5805270368728 548.291393064569 2670.31560039486 130 130 130
82.1014546882184 548.319383868782 2669.13674910629 141 141 141
92.6461328374799 548.344056385207 2667.93733391005 135 135 135
99.8551203007692 547.836700794688 2664.33885477266 141 141 141
107.071752505491 547.32836781517 2660.73407150942 148 148 148
122.734502738865 548.134991775237 2663.03376846437 165 163 164
157.055124145871 551.823977686026 2678.25697230976 139 137 138
222.03921500628 560.211004734794 2714.51346360754 144 142 143
248.208770373367 562.543921226851 2723.57672148048 114 112 113
253.17523234016 561.601729548228 2717.95495492992 118 117 115
258.136987287354 560.660171771049 2712.33726401475 113 111 112
263.09400131603 559.719402175959 2706.72367711663 125 123 124
268.046160916114 558.779383909652 2701.11397734479 128 126 129
269.55334127093 557.322788676401 2693.20046885637 134 132 135
273.625910428732 556.256411204604 2687.03069967606 129 127 132
274.23308814765 554.676273339287 2678.57447999679 135 132 139
279.146634659321 553.742195986804 2672.99852459218 141 140 145
282.318877333557 552.552521351306 2666.28663883363 130 130 132
289.830207236048 552.004411158233 2662.42668824029 131 131 133
299.093680984648 551.710595869544 2659.69296550234 140 140 140
309.24731053723 551.542136136318 2657.51016129777 159 159 159
320.297393586516 551.498206035558 2655.87313805478 193 193 193
-224.402744068169 579.236553144555 2912.09759891593 139 140 134
-242.942693468377 573.700981010804 2884.53194620945 202 202 202
-246.992917877874 571.073538720187 2870.85579379164 194 194 196
-249.630475842432 568.741498033357 2858.59984012273 192 192 194
-249.372064051836 566.991091605159 2849.12375088222 190 190 192
-243.980931777714 566.249908473438 2844.45586564341 169 169 171
-238.59039948784 565.508416882387 2839.78850243134 164 164 166
-231.717380432743 565.052796568445 2836.48119945654 149 149 151
-225.580551020455 564.452920117971 2832.48933690559 138 138 140
-219.440275796996 563.852190354783 2828.49449327574 155 155 157
-213.296414465979 563.250700411009 2824.4968618764 171 171 173
-206.399612419392 562.790327911488 2821.16866060943 171 171 173
-197.991503835856 562.611907797492 2819.17588135502 152 150 155
-189.56793895813 562.430934817916 2817.16940660464 157 155 160
-178.86103033164 562.67075934497 2817.15124710419 142 140 143
-166.610226099251 563.188095298503 2818.43997676352 151 151 151
-154.323528030918 563.700066145652 2819.69731519822 136 136 136
-138.952423876723 564.767815156644 2823.57136106835 178 178 176
-91.4376801089869 571.70687591714 2855.12837114447 193 193 191
-103.456197956493 567.718632154298 2835.13388783427 148 148 146
-111.728705082427 564.440265312136 2818.50493774894 140 140 138
-115.454549856806 562.00664719248 2805.86963872832 151 153 152
-114.596688616761 560.41272143681 2797.19623197645 172 172 174
-112.989826529533 558.960577936274 2789.1962969002 180 180 182
-114.509719479351 556.957940265945 2778.61632550631 176 176 178
-115.288920010919 555.09827139189 2768.71670380037 173 173 175
-116.881848499323 553.105371952365 2758.20028734187 176 176 178
-115.382692204114 551.66702246583 2750.2932998486 178 178 180
-112.335648357569 550.505676747536 2743.68974484214 179 179 181
-110.088309062661 549.209069941462 2736.45693813875 182 182 184
-107.069486550599 548.051195458986 2729.8778210836 184 184 186
-106.435761955556 546.486017255887 2721.39849533359 184 184 186
-103.449282837754 545.332199076334 2714.84738517587 186 186 188
-100.47590683312 544.179965854317 2708.30762168675 183 183 185
-93.5315568048862 543.706564827992 2704.93860881302 169 169 171
-88.1775914359553 542.961583752318 2700.30296207767 163 163 165
-82.0236787744522 542.351471757105 2696.29635918716 165 165 167
-78.2750694318484 541.336978988586 2690.40735692196 186 186 188
-71.3158316580689 540.860682460784 2687.02514355411 185 185 187
-67.5770594871965 539.847244991275 2681.14466068088 179 179 181
-62.2292678929406 539.102346770019 2676.51436444105 179 179 181
-55.2603148397619 538.624262781486 2673.12374207412 176 176 178
-46.6574660840071 538.411382365602 2670.96239781621 176 176 178
-42.1151945476108 537.531834327352 2665.70757091383 180 180 182
-34.3088443395012 537.18323886949 2662.91388362887 182 182 184
-26.4911229286122 536.832902432964 2660.11035179532 182 182 184
-11.2705037229994 537.669185646995 2662.79306741154 184 185 189
6.46810192100578 538.893836021943 2667.26061966106 178 179 183
24.2671321658898 540.110011804346 2671.67617016547 162 163 167
42.9539478375855 541.448868055903 2676.64471102899 145 146 150
59.2168006902671 542.385983955864 2679.74669275443 149 150 152
68.8801165843156 542.270979407924 2677.9885146309 132 133 135
76.0627173350872 541.762229000399 2674.41323035699 132 133 135
84.0881151132602 541.382487205535 2671.42988849853 138 139 141
92.9625793870636 541.130819875315 2669.03306113534 137 138 140
101.012933667685 540.747537492038 2666.02811152226 136 137 139
109.916440418826 540.491869138249 2663.60613792677 142 144 143
125.585022539848 541.265219461044 2665.90099578907 160 160 160
149.758699686329 543.317984423274 2674.04913118866 144 144 142
184.194395522395 546.898462115857 2689.17361453889 147 147 145
245.110854968657 554.42925813656 2722.34459671767 131 131 129
254.330395753285 554.129681563036 2719.64898959201 116 117 112
261.003957473852 553.445515384085 2715.1924680564 116 115 113
267.680930551969 552.760949678629 2710.73299236353 115 114 112
270.07180233021 551.441509795077 2703.37592885653 115 113 114
271.585961384887 549.997898264692 2695.45628754339 118 116 117
273.940970349746 548.683565314475 2688.12995901992 133 128 132
273.687204787811 546.993570861777 2679.09740082973 149 144 150
277.734821457834 545.936654422441 2672.94951307261 191 190 195
281.773649698392 544.881168825159 2666.80891777846 196 197 201
289.284368540789 544.327840998276 2662.94953062327 207 208 212
299.418944046407 544.148413027544 2660.78331232054 186 187 191
307.825326137798 543.717153897886 2657.47009149711 170 171 173
317.995940476461 543.533164207616 2655.27298211528 185 187 186
-246.012952983907 567.814186183675 2892.52455606909 137 139 134
-244.921545745288 566.212134099329 2883.64877926435 193 193 193
-246.779716277802 564.04592996103 2872.03980425332 194 194 196
-247.946413562105 562.026598218201 2861.15381365866 184 184 186
-246.945031735464 560.435621984124 2852.35599334262 176 176 178
-240.808032466969 559.834397416791 2848.36430781988 169 169 171
-236.146388834043 558.950960193852 2843.00604203267 168 168 170
-230.748006584867 558.208171892231 2838.33188338143 171 171 173
-225.350320812707 557.465148012279 2833.65832991841 165 165 167
-216.97137800026 557.281073909277 2831.69086632414 150 150 152
-210.81941059444 556.67589500598 2827.6859174901 152 152 154
-204.663995191481 556.069892438667 2823.67798549037 158 158 160
-195.498748786889 556.018931663579 2822.35140260384 152 150 155
-187.821041258017 555.687570880473 2819.66910287187 143 141 146
-177.109083422371 555.907761449555 2819.64669426889 147 145 148
-166.369176487324 556.12385869724 2819.60008770167 133 133 133
-156.361065158986 556.197914960692 2818.86541424788 160 160 158
-122.712426323729 560.532356115698 2838.63696510541 181 181 179
-98.8435027371013 563.061228610781 2849.69299343793 172 172 170
-103.982320863808 560.37087679977 2835.63751110703 151 151 149
-109.179196604175 557.688283809154 2821.63229911939 149 149 147
-112.894292107045 555.286245292555 2808.98747868216 162 164 163
-112.798851533086 553.571500377699 2799.65241136553 169 170 172
-114.281233322369 551.588843442468 2789.03979822482 182 182 184
-115.024937928965 549.746724074313 2779.10961271644 180 180 182
-115.024051580952 548.044263773666 2769.85641934155 174 174 176
-113.492218777659 546.615586942758 2761.92104726513 175 175 177
-112.763926191159 545.054890399706 2753.35972699645 177 177 179
-109.707903152337 543.900809333315 2746.74834232617 180 180 182
-109.810570126106 542.211695853282 2737.58481584972 180 180 182
-108.365680151544 540.79418102267 2729.72504343089 184 184 186
-106.942253105745 539.379354781798 2721.88354076892 185 185 187
-102.369915467611 538.500510900553 2716.60296544535 186 186 188
-99.391731531171 537.356074137304 2710.05898422766 180 180 182
-92.4434807149401 536.876937689026 2706.68662756644 165 165 167
-88.6826412816379 535.866794239171 2700.78668134549 165 165 167
-83.3294068433443 535.122031371374 2696.15166672 171 171 173
-78.7796120344897 534.24538496061 2690.89061583719 188 188 190
-72.6253690948324 533.632383893184 2686.883745404 185 185 187
-68.8882610076007 532.62489740402 2681.00435077653 177 177 179
-61.9246699793963 532.142587172038 2677.61871876839 173 173 175
-55.7647441625999 531.528371636671 2673.6069306511 175 175 177
-47.1625817679042 531.304953858591 2671.44624956935 177 177 179
-42.6200019772103 530.428358615854 2666.1911363577 180 180 182
-33.9970160696819 530.201837072974 2664.01242690137 182 182 184
-25.3587378812199 529.972994354029 2661.8201626039 183 183 185
-10.1363944294395 530.776445087019 2664.50128099644 184 185 189
10.896008360052 532.476423930573 2671.40457523957 183 184 188
29.5296495300299 533.77935317209 2676.41943716299 164 165 169
44.0915920989937 534.430908540804 2678.35067215214 144 145 149
59.5268872932158 535.204385441852 2680.84772735907 147 148 150
73.3477700043212 535.715357058636 2682.09891567824 130 131 133
79.7088414149294 535.072196470862 2677.91297500936 130 131 133
88.579372866858 534.810511067197 2675.51993679446 135 136 138
96.6277365079171 534.419539651811 2672.51644685251 135 136 138
105.5274000947 534.153841150264 2670.09818477417 134 135 137
117.808071770598 534.391835572289 2670.03926100177 140 142 141
135.181570159062 535.382543306712 2673.50151991533 158 158 156
152.611563519469 536.365515259259 2676.91517824693 144 145 140
241.163899226409 546.20461817531 2720.52518648888 133 134 129
254.632711099697 546.520913545111 2720.75952789305 127 128 123
262.161895182668 545.958900757605 2716.88419252889 116 115 111
269.698317671891 545.395861023108 2713.00227451964 115 114 112
272.953708521647 544.210828589578 2706.21829116706 120 118 119
276.196246633639 543.027706712181 2699.44543536383 124 122 123
275.978976636755 541.35190103536 2690.38115321198 140 135 139
277.460243028209 539.927002061588 2682.48989989452 158 153 159
280.652392506707 538.751264959326 2675.76066987762 161 160 165
285.567593146314 537.823043289362 2670.1832428359 163 164 168
290.478035572749 536.895649819961 2664.60961902896 162 163 167
298.871903003176 536.457991425427 2661.30728657941 200 201 205
309.025615075265 536.262743714133 2659.12489995183 170 171 175
319.198949220676 536.06495104412 2656.92520714654 200 201 203
-247.261699961514 560.457688984979 2892.33129937326 205 207 204
-248.357451221703 558.454194570674 2881.38371468309 193 193 193
-247.298001033911 556.872645400101 2872.5355033436 192 192 194
-246.996666203485 555.155444359044 2863.02199598987 179 179 181
-243.78467913815 553.995929786158 2856.27546690101 176 176 178
-239.848661041321 552.975998523538 2850.22375046092 163 163 165
-235.18225599836 552.094846750438 2844.86165849157 151 151 153
-229.038391080378 551.489381639473 2840.86373422961 163 163 165
-221.404637984634 551.1578019337 2838.21953280337 166 166 168
-213.759260015336 550.824237485435 2835.56526854256 153 153 155
-207.596966073008 550.215122729564 2831.55139483257 149 149 151
-202.180544587802 549.468617504075 2826.8616250128 154 154 156
-194.510634325155 549.130671303702 2824.1861261254 167 165 170
-184.568794809018 549.19871089241 2823.50893182157 152 150 153
-171.581172769919 549.805849489076 2825.48171395194 136 134 135
-158.553325109606 550.407151637342 2827.41966891085 139 139 139
-142.44677332324 551.543081502152 2831.97941045413 150 150 150
-95.5542887378718 556.347061174873 2853.50255679378 200 200 198
-99.9142146730945 553.827770564245 2840.09413299482 152 152 150
-107.399235579476 550.779612926625 2824.10440940787 147 147 145
-112.645309520692 548.142010371331 2810.14123221733 163 165 164
-115.633746586167 545.912460350368 2798.18904944817 168 169 171
-116.3462356664 544.088444739066 2788.23169100826 182 182 184
-115.540461403179 542.534441066629 2779.60317121535 182 182 184
-114.759999531802 540.983756422995 2770.99656907491 175 175 177
-114.004973054004 539.436257657566 2762.41199205977 174 174 176
-113.275277010494 537.892140236914 2753.84934793133 177 177 179
-110.218552243167 536.746348731724 2747.23730133116 180 180 182
-109.533301920422 535.207969592477 2738.71345823513 181 181 183
-108.085426629614 533.803894176768 2730.85069573481 185 185 187
-105.868434809006 532.533502251363 2723.64402240515 185 185 187
