ply
format ascii 1.0
comment KinectMotionCapture
element vertex 754
property float x
property float y
property float z
property uchar red
property uchar green
property uchar blue
end_header
-189.574787063197 722.987295159659 2674.53560765103 182 182 184
-185.96861712631 721.843437272244 2668.77090102788 175 175 177
-176.053813413738 722.381099861798 2668.11378094519 183 183 185
-162.947820288601 723.75434301543 2669.97931773673 157 157 159
-152.977033091646 724.283747590481 2669.27372826797 189 189 191
-148.553103294783 723.345031807521 2664.1221713263 166 166 168
-147.325272600375 721.571141618575 2656.45284130888 155 155 157
-144.51884054925 720.217237050368 2650.05908098035 146 146 148
-140.121367161041 719.281642791943 2644.93011901862 165 165 167
-137.336497187857 717.930342590498 2638.55503044171 173 171 174
-132.14635241365 717.204129742432 2634.06125128568 170 168 171
-126.956803529105 716.477817485213 2629.56798925282 164 162 165
-119.337449214293 716.373109345949 2626.93479763417 166 164 167
-115.767232430422 715.231937421801 2621.20123549595 170 168 171
-112.205890992863 714.091938557157 2615.4750428251 166 164 167
-108.653299907003 712.952998343255 2609.75642753851 168 166 169
-101.836147099604 712.639555678393 2606.49662453397 175 173 176
-96.6521558716611 711.91339301747 2602.00817855246 178 176 179
-90.646376231553 711.392668336194 2598.12938864416 169 167 170
-84.6369437954504 710.871473924159 2594.24775128298 175 175 177
-76.9711900519137 710.759618811135 2591.57438992422 186 187 191
-68.4653801772912 710.850741536447 2589.49486729183 190 191 195
-58.2826596725541 711.348333190024 2588.60610926873 161 162 166
-51.4063578336028 711.026243891012 2585.29478019001 158 159 163
-40.3494796286816 711.722041214566 2584.97033476135 176 177 181
-29.2645473650683 712.413940683297 2584.62159912982 190 191 195
-15.6354156175054 713.711641643499 2586.0342023886 196 197 201
-8.69184330040618 713.380253382852 2582.66462782596 201 202 206
5.00130958813294 714.669070777769 2584.02148371353 208 209 213
21.2690702769027 716.559452561112 2587.11303445435 211 212 216
30.8149762333212 716.825917005037 2585.45446332828 197 198 202
36.9854261270959 716.282596728654 2581.43309421215 202 201 206
44.0104783361668 715.940317530793 2577.99328418477 209 208 213
57.8664722431625 717.206905448815 2579.20914395594 204 203 208
70.0527324932727 718.066117790913 2579.22802445226 201 200 205
81.4144069057736 718.720328773047 2578.63967067524 204 203 208
88.5092345221081 718.368952246505 2575.13944274526 202 201 206
96.4729114480281 718.216855595954 2572.20812142177 201 200 205
105.311476450069 718.263045913063 2569.84047912282 205 204 209
115.031026239329 718.506702144535 2568.03123693022 196 195 200
127.37236534892 719.345590954618 2567.91615221462 201 200 205
147.568573474858 721.970724101856 2572.89137414935 195 194 199
173.06107709401 725.778519806637 2581.20863898243 182 180 185
192.534232147473 728.184918136825 2585.48871353987 192 190 195
212.947488004267 730.780641479638 2590.27600298084 180 178 181
219.392649571337 730.202181838398 2586.01675908703 215 213 214
-206.719429985931 733.063871371302 2750.20460676053 206 206 204
-208.341136538361 730.435300892717 2739.71693693585 207 207 209
-211.538360138414 727.391120318564 2727.95099578723 207 207 209
-208.612121895552 726.032459642091 2721.45342594564 204 204 206
-207.24506936186 724.255869731678 2713.6634448501 204 204 206
-205.899210784382 722.481932188064 2705.89150061798 202 200 203
-203.796996421222 720.919751512371 2698.78619983468 199 197 200
-200.153284556493 719.777223420377 2692.98863014329 199 199 201
-196.518135177648 718.635571217235 2687.19879170326 194 194 196
-192.891990704752 717.494869976902 2681.41643646378 184 184 186
-190.059992853695 716.1472239836 2675.00047678177 180 180 182
-184.878431742931 715.424023581784 2670.51411787465 176 176 178
-173.381218243146 716.359704162937 2671.13003995372 169 169 171
-159.477458457698 717.911894603878 2673.62590948175 168 168 170
-150.290859106609 718.216866192986 2672.2785127784 117 117 119
-147.449740756413 716.866734318676 2665.85466414052 119 119 121
-146.216931497291 715.105685736905 2658.18062029534 141 141 143
-142.605797706003 713.965291505565 2652.41158887658 148 148 150
-138.201918797695 713.031529483796 2647.27706314739 165 165 167
-133.802532256856 712.098274880395 2642.14674333933 163 161 164
-129.407888265803 711.165479304826 2637.02053109513 159 157 160
-125.825864523767 710.028444195467 2631.27639312236 157 155 158
-119.012822160262 709.710524651872 2628.02018179757 160 158 161
-116.252147352353 708.37032793839 2621.66599208922 156 154 157
-110.248290911235 707.847466810361 2617.78888293084 157 155 158
-107.505090020409 706.509443677184 2611.44982440966 166 164 167
-99.8661786526802 706.39335837898 2608.79975571455 169 167 170
-95.4960860411496 705.463150540732 2603.69480626487 166 164 167
-90.3085309269382 704.73650792586 2599.20327444514 166 164 167
-85.9458162702595 703.807211604973 2594.10439831462 178 178 180
-76.6301362618176 704.091985056822 2592.64525365022 193 194 196
-68.9512769892957 703.969980938367 2589.96059902422 161 162 164
-56.2787334343691 705.056420943585 2590.88010424503 143 144 146
-50.2290248081971 704.526666198444 2586.96329802053 158 159 161
-37.500565566726 705.605156750455 2587.8343906186 182 183 185
-28.9180774371398 705.674574726672 2585.68854883378 187 188 190
-18.6428933419123 706.142886154541 2584.71983902983 193 194 196
-11.7058604108142 705.806928921263 2581.35596199515 199 200 202
-0.548368459630577 706.46977331993 2580.94452455186 202 203 205
18.2383315283756 708.925739092194 2585.81925319061 205 206 208
30.3169572188668 709.777670373387 2585.93178712293 194 195 197
38.1844165580043 709.629728223408 2583.08383411914 193 193 195
46.9142841564416 709.679058839153 2580.81038341777 202 202 204
62.4817013590264 711.314508221393 2583.18702261498 200 200 202
73.8241117442358 711.952172141044 2582.61578840108 198 198 200
83.4807616985889 712.190106165642 2580.86110083635 197 197 199
86.2869775980792 710.844015909223 2574.46747721727 192 192 194
95.1066186018235 710.881615921843 2572.11629269325 195 195 197
103.942441484747 710.917358323994 2569.75141030311 196 196 198
117.118495318542 711.934949577352 2570.23463569554 184 184 186
130.331119372575 712.947817719197 2570.68651048231 191 191 193
150.531963596092 715.525914733097 2575.65801893994 186 186 188
173.414913025616 718.682475688615 2582.27120007676 170 168 173
196.378998135345 721.828050093298 2588.81412919628 171 169 174
212.423513391966 723.399389928763 2590.77798130528 171 169 172
220.622460581218 723.208362849539 2587.64299505802 218 216 217
-210.210189413473 727.45756010297 2757.23660059605 195 195 193
-211.039866378397 725.058219903379 2747.38454122574 208 208 206
-211.903029123123 722.663067656702 2737.56116253353 206 206 208
-212.030470361025 720.479816135907 2728.42231082912 206 206 208
-209.103453847948 719.129255054132 2721.92401394718 204 204 206
-207.735153582825 717.366211043161 2714.1328636202 203 203 205
-206.388092102675 715.605825436147 2706.35978897221 201 199 202
-204.284884689754 714.05435042202 2699.25355810403 198 196 199
-200.64057324947 712.917191225906 2693.45543394838 194 194 196
-195.4426376356 712.192564165245 2688.95489191563 192 192 194
-191.028475778378 711.262290299911 2683.81174649451 182 182 184
-186.619038428498 710.332413146433 2678.67269340303 177 177 179
-182.214468068316 709.402809923986 2673.53754141852 174 174 176
-170.710413774646 710.315830564761 2674.14768117262 169 169 171
-159.17454287605 711.224065129099 2674.72995983264 154 154 156
-149.986645315751 711.515327611605 2673.38152676005 116 116 118
-145.551805328974 710.580592178508 2668.22048777185 119 119 121
-141.919266298654 709.442802602281 2662.43257127195 138 138 140
-138.29554486317 708.306080732532 2656.65229037966 154 154 156
-135.482109022808 706.967342333632 2650.25236133809 167 167 169
-130.270684259017 706.238383449555 2645.74015584457 157 155 158
-125.059904585583 705.509271896085 2641.22851046336 158 156 159
-122.272644561097 704.173841285975 2634.85156302058 156 154 157
-117.069216249288 703.445420320625 2630.34628485369 157 155 158
-113.490044191369 702.313919462642 2624.60458267597 154 152 155
-108.291945575136 701.585976710762 2620.10392084898 153 151 154
-103.910158204753 700.657188230253 2614.98882593396 171 169 172
-98.7153003749093 699.929502261458 2610.49097134906 163 161 164
-95.1609136935772 698.801099742908 2604.77073147081 159 157 160
-91.6152954063869 697.673818191076 2599.05808421104 172 170 173
-86.4303130191293 696.947282504544 2594.56878157334 181 181 183
-75.4633419138093 697.617721206375 2594.32274169692 182 183 185
-66.9529009702559 697.686301919791 2592.23935122342 144 145 147
-53.4458986096125 698.946470591586 2593.75773610906 139 140 142
-49.0526600062822 698.015459011545 2588.63241489173 164 165 167
-37.1559193309245 698.870805090144 2588.90257297647 182 183 185
-31.0809534511334 698.33483426242 2584.96391566277 187 188 190
-21.6492256191825 698.589666583472 2583.40438219772 193 194 196
-13.8782812897942 698.44675739487 2580.64004960835 197 198 200
-0.199193333255021 699.682972519183 2582.00943694206 199 200 202
17.74190063596 701.89841840436 2586.29506490217 201 202 204
29.8189393138149 702.728824730613 2586.40911383763 193 194 196
38.5341503898458 702.769110106786 2584.14842508443 189 189 191
47.2651903894183 702.807323664077 2581.87403025967 199 199 201
61.9797541275666 704.214210549905 2583.66808842854 198 198 200
74.1751724397259 705.0284948534 2583.67963795095 198 198 200
82.1197298053189 704.86208516251 2580.7649809865 197 197 199
88.358831256214 704.304249494075 2576.68420315826 192 192 194
97.1835852198684 704.330141881063 2574.32866291381 196 196 198
106.024606348283 704.354105285874 2571.95935134564 193 193 195
119.204829913293 705.346581664828 2572.43912542716 178 178 180
133.288291864932 706.527979815112 2573.45838249962 186 186 188
152.625163267231 708.865477518377 2577.85702547397 181 181 183
178.122664824908 712.54701884116 2586.17077654562 164 162 167
201.967841097004 715.829821542565 2593.27271942643 166 164 169
220.648682853851 717.944806068893 2596.91783238118 168 166 169
226.236238385745 717.165432630564 2592.07994751866 215 213 214
-213.757882697285 719.660538108047 2755.06867978099 202 202 200
-215.358660459749 717.078495323175 2744.56256872116 206 206 204
-213.163442349208 715.526905754556 2737.37658961639 204 204 206
-214.060012046711 713.157953463646 2727.58231166743 203 203 205
-210.365527015167 712.020624793063 2721.74070135496 201 201 203
-208.998268909422 710.271352981624 2713.95004954793 201 201 203
-204.552563561488 709.340603935545 2708.77956732878 198 196 199
-203.21902124685 707.59553556041 2701.01842648428 194 192 195
-199.570035185962 706.463136581528 2695.21621982059 189 189 189
-195.148683860076 705.53488880817 2690.06682989943 188 188 188
-189.949125112342 704.809863499103 2685.56488361888 175 175 175
-185.535410860583 703.882083049717 2680.42179448326 171 171 171
-180.339168331546 703.156905479117 2675.92272347532 171 171 171
-169.619408835911 703.845545226733 2675.8908328437 166 166 166
-158.871934566715 704.529951297742 2675.83463274313 168 168 168
-148.889822422983 705.008783950471 2675.11955524324 103 103 103
-145.245706445803 703.875146672423 2669.32189319321 116 116 116
-140.813139675553 702.943352368386 2664.16280542489 157 157 157
-137.984123330935 701.610839897301 2657.74933185608 160 160 160
-132.763768900414 700.880798213854 2653.229393716 143 143 143
-128.347603226497 699.950651497903 2648.08419517815 153 151 154
-123.130565569373 699.220757058484 2643.56713085065 153 151 154
-120.336707532203 697.892500320419 2637.1841026734 149 147 150
-115.127070437399 697.163243208881 2632.67344854937 152 150 153
-112.352632744142 695.837504262331 2626.30755187973 157 155 158
-107.150315852713 695.109053315128 2621.80323721513 164 162 165
-102.764435267418 694.182326389939 2616.68426569184 173 171 174
-96.7475419086141 693.65210245716 2612.7962201923 155 153 156
-94.0062942362951 692.330571519403 2606.45874772597 160 158 161
-91.2778719607257 691.010707911035 2600.13238068767 184 182 185
-85.2670472242165 690.481039507308 2596.24927596852 188 188 190
-75.9491425432293 690.738265151019 2594.78838161094 152 153 155
-67.4394032625103 690.796100961351 2592.70566892108 138 139 141
-55.5942914165337 691.636758867641 2593.0203552349 155 156 158
-50.3727506223539 690.905000374344 2588.49939995576 182 183 185
-38.4796634544404 691.739039909811 2588.77286273366 184 185 187
-29.8988159101201 691.786820373454 2586.62858311468 186 187 189
-18.7878978347187 692.417909227321 2586.25771870033 192 193 195
-11.009397998476 692.265718235498 2583.4868976279 192 193 195
0.149334874063101 692.890128253692 2583.07463368921 192 193 195
14.7128625703963 694.287771622691 2584.99966012268 194 195 197
26.7821191231272 695.097367526823 2585.12058895776 187 188 190
37.1870002599692 695.515155291322 2584.03979346053 185 185 187
46.7654433509859 695.73625357192 2582.3529996914 194 194 196
60.6254893479701 696.920251733624 2583.56588255421 193 193 195
72.8172541526848 697.713229493987 2583.58073676978 194 194 196
83.3281292638803 698.116660806817 2582.40785000239 194 194 196
91.2878717690733 697.940061590877 2579.48009756 192 192 194
98.3991191769724 697.570064975146 2575.9657586651 195 195 197
108.968086684224 697.965934638694 2574.74288564247 190 190 192
120.425598857486 698.550047710781 2574.07192006956 172 172 174
137.110850441062 700.277368434098 2576.80267308504 180 180 182
157.323114268189 702.76104410041 2581.76489561443 174 174 176
183.698733477034 706.569232800943 2590.63999074818 158 156 161
205.808487743447 709.412783678864 2596.60209536605 163 161 166
223.621737359062 711.295800833204 2599.6774238971 163 161 164
229.217263666025 710.515234186209 2594.83263820934 211 209 210
-211.172821786039 715.664957041919 2767.41082216671 195 197 194
-213.492351643702 712.898873176022 2756.20561110172 204 204 204
-216.617837435439 709.935459682088 2744.37696884336 205 205 205
-217.489634715414 707.585306939009 2734.56078241531 204 204 206
-218.394601097527 705.239403781149 2724.77363281576 202 202 204
-213.939079981346 704.310686456343 2719.59462975184 201 201 203
-211.033490410232 702.979300011925 2713.11478011855 200 200 202
-204.267656579485 702.655678795468 2709.89920756013 197 195 198
-202.154313531641 701.124697252742 2702.78405897464 193 191 194
-198.500411966404 699.997287792398 2696.97787504729 190 190 190
-195.636170333887 698.670331900093 2690.53383444853 187 187 187
-188.870872229434 698.345585107271 2687.31873351711 172 172 172
-182.882679129079 697.819705371042 2683.45553541268 169 169 169
-176.891239013209 697.2930068405 2679.58921279616 171 171 171
-167.740557705224 697.562729521085 2678.27286045278 163 163 163
-156.196990605853 698.426472462573 2678.84907235862 157 157 157
-147.00068562854 698.689272414432 2677.49322120057 107 107 107
-140.964630683486 698.155509783129 2673.58859059632 126 126 126
-137.316753400816 697.026493978358 2667.78732302752 154 154 154
-133.677711755425 695.898608196039 2661.99370630057 153 153 153
-130.84834813352 694.574215672744 2655.58019462943 136 136 136
-128.032109291373 693.251388828062 2649.17773301819 152 150 153
-123.618333277814 692.324139036666 2644.03458691273 152 150 153
-118.401824267215 691.594136132358 2639.51798148502 150 148 151
-111.567130817958 691.257011765623 2636.24312883371 152 150 153
-107.970692871092 690.134025081362 2630.48640651736 153 151 154
-103.569433017999 689.208063853804 2625.35441578097 174 172 175
-99.9884965228599 688.086985114958 2619.6111167665 172 170 173
-95.5987035332657 687.162388488721 2614.48905593023 155 153 156
-92.8527414038918 685.848307281088 2608.14744900007 166 164 167
-89.297918408128 684.73076748346 2602.42707607456 187 185 188
-84.1046383286885 684.003174220354 2597.93058838192 192 190 193
-73.1323685516161 684.634609881537 2597.67989318406 139 140 142
-64.6152705011462 684.680495505805 2595.59087982146 137 138 140
-56.0824014717012 684.724137456157 2593.48821172355 159 160 162
-48.365535499479 684.572341815276 2590.7708083746 183 184 186
-36.4680182442561 685.383844208551 2591.04026196498 180 181 183
-27.0458469592656 685.612835088441 2589.48917895587 185 186 188
-18.4418160935897 685.646534249741 2587.32489676615 191 192 194
-10.6619427471739 685.485953879704 2584.55293958647 191 192 196
1.33956828985404 686.283054266825 2584.73266686635 190 191 195
15.0611116344712 687.458935671273 2586.06564755318 191 192 196
27.1306292000091 688.246555888775 2586.18617704923 185 186 190
39.232333813854 689.029841427842 2586.27883696239 183 183 185
47.965973169946 689.045928556158 2584.00264807456 190 190 192
60.9757820792076 690.011948842671 2584.63029809983 189 189 191
72.3138740357379 690.592883265317 2584.06317443184 190 190 192
83.6797294118217 691.169936777157 2583.47169684574 189 189 191
93.357242233437 691.364158912619 2581.69920993817 183 183 185
101.334276829861 691.17708642527 2578.75653768581 188 188 190
112.77227042158 691.744544746941 2578.10259749231 184 184 186
123.374159075309 692.119631945068 2576.85132519958 165 165 167
140.064891649443 693.810761921456 2579.57756216048 168 168 170
158.54513654118 695.870978816991 2583.39721003705 157 157 159
190.142823781758 700.741154772816 2595.67946565706 144 142 145
209.64749485228 702.96832139964 2599.9333855756 151 149 152
229.216823410261 705.186638535779 2604.13100635774 140 138 141
233.949814409104 704.216900866097 2598.71177598583 202 201 199
-214.712661848015 707.867296644946 2765.23609881886 200 201 203
-215.513774813887 705.529924591141 2755.35888044872 207 206 211
-219.405285184853 702.396778937084 2742.87170271129 203 202 207
-219.515004750107 700.268751309033 2733.71713314399 201 200 205
-219.654010610201 698.144488052049 2724.5879226679 201 200 205
-214.429745801094 697.418051897857 2720.06457189822 200 199 204
-211.523386703636 696.094646453344 2713.58400357171 199 198 203
-204.757699788928 695.765655266838 2710.36859314824 194 192 195
-202.643328161135 694.245554259289 2703.2524825494 189 187 188
-198.98880023403 693.123569973643 2697.44572057644 183 183 185
-194.562764795878 692.200178714808 2692.29192378363 180 180 182
-187.010799125809 692.066937390336 2689.71732522139 162 162 164
-181.016437078909 691.537531995027 2685.84880311561 160 160 162
-173.445511358913 691.401056347295 2683.25747664224 164 164 166
-165.073937306546 691.45937576449 2681.29482910114 159 159 161
-153.52371235247 692.300401319328 2681.86510210139 159 157 160
-144.319833887605 692.548669260164 2680.50309641008 120 118 121
-138.275842884208 692.011060907196 2676.59129674634 111 109 112
-135.416073361839 690.690995328752 2670.15108763679 138 136 139
-130.971291441053 689.762766088871 2664.98138945673 141 139 142
-129.735372954647 688.055555654328 2657.30430185996 144 142 145
-126.914298839679 686.740282041672 2650.89760039884 150 148 151
-124.106211394048 685.426637591057 2644.50214439382 148 146 149
-117.275193216911 685.084798081833 2641.23050778719 154 152 155
-112.055129063915 684.354196628783 2636.7108248684 151 149 152
-107.646845386682 683.430164028456 2631.57273383361 175 173 176
-103.243487198414 682.506533009688 2626.43859378205 181 179 182
-98.8446082618073 681.583587301478 2621.30864713092 156 154 157
-94.4504718749863 680.6611006211 2616.18280804365 164 162 165
-91.6998313734441 679.35459377554 2609.83709711812 176 174 177
-87.3191255716064 678.433855926166 2604.72288746915 192 190 193
-80.4729391918357 678.088933430456 2601.43780850107 196 194 197
-70.3172427797378 678.508599493566 2600.5729781902 144 144 144
-63.44760678064 678.160301654294 2597.26791197932 142 142 142
-56.57055961816 677.810863773312 2593.9561141214 171 171 173
-47.1910135630167 678.032180554858 2592.44202565948 180 180 182
-35.2909634466219 678.82154327739 2592.70942739367 186 186 188
-24.1944857713241 679.416429350386 2592.35131358806 187 186 191
-16.4207165734638 679.248586402079 2589.58469415503 192 191 196
-6.11611540533819 679.647360830269 2588.59093811811 191 190 196
5.05417774678829 680.232066516765 2588.16891175462 191 190 196
15.4086602068597 680.623943697475 2587.13196650334 191 190 196
27.4786977113917 681.389755213679 2587.25218667051 181 180 186
39.5810335883362 682.151239256057 2587.34475623233 178 177 182
50.0155266377238 682.53222151745 2586.23853352669 190 189 194
61.3259238840849 683.097639970653 2585.6951988905 194 193 198
73.5182454968104 683.84686352887 2585.70953851603 187 186 191
84.030825870852 684.217269766078 2584.53570325219 185 185 187
94.5673940024063 684.584505421903 2583.34109748214 183 183 185
101.68757923295 684.202144111355 2579.81877646578 181 181 183
113.126405196808 684.750528616578 2579.16455393707 181 181 183
123.728777766389 685.109119637183 2577.91265359987 165 165 167
142.151349913154 687.136261039335 2581.78250284756 162 162 164
166.712180912914 690.453327430297 2589.58720089453 155 155 155
196.583670303328 694.869355284525 2600.7217198727 145 145 145
213.484406887628 696.49633188666 2603.26635452495 134 134 134
228.689089130325 697.747025198241 2604.63662150708 142 142 142
236.927511668304 697.517265430339 2601.46767154494 192 192 190
-218.992722567278 702.012605612784 2771.63055708998 183 185 184
-216.73134064394 700.485799381384 2764.38675532094 202 203 205
-218.296657759448 697.973022562622 2753.84977591144 207 206 211
-221.427750193069 695.070467643219 2742.0252832532 202 201 206
-221.539948426495 692.961937396102 2732.87273569319 201 200 205
-220.145077669968 691.250709805728 2725.05821999455 201 200 205
-214.920588717071 690.524243465753 2720.53467514699 201 200 205
-212.013379734326 689.208987857599 2714.05331738322 198 197 202
-206.02201387569 688.678825929432 2710.18708157101 191 189 192
-203.132439527915 687.365406228674 2703.7209964825 188 186 187
-197.14228805607 686.834771292719 2699.85613180093 181 181 183
-192.709663410852 685.913247419309 2694.6966118048 179 179 181
-184.369540093745 685.965898939422 2692.76094496171 163 163 165
-178.367014220565 685.432699231564 2688.88537156149 161 161 163
-170.001655575188 685.481293523995 2686.92785864325 165 165 167
-162.40913876821 685.333428532366 2684.31820771479 163 163 165
-149.270794393218 686.539042993428 2686.15647524048 159 157 160
-140.055602115858 686.772170928265 2684.78444605599 127 125 128
-132.409939152063 686.616250370808 2682.12878364336 110 108 111
-130.329801068824 685.10926348282 2675.04225950827 134 132 135
-126.669257216846 683.989321362925 2669.22995457085 142 140 143
-126.220566260664 682.101804206669 2660.91340840389 149 147 150
-122.585812060394 680.985155559628 2655.12343494282 151 149 152
-119.764757294284 679.67790929972 2648.7166982346 149 147 150
-112.921813426751 679.328954211952 2645.43477131257 153 151 154
-110.925261825502 677.832565293918 2638.42062591079 155 153 156
-105.701638158174 677.101424589521 2633.89786132734 181 179 182
-102.104830392223 675.989287384416 2628.14074817061 176 174 177
-96.0715544400688 675.448810239229 2624.23825421677 156 154 157
-93.3032980977142 674.148195333462 2617.8772368289 168 166 169
-90.5479343952456 672.84925681282 2611.52738309242 183 181 184
-85.3417884622347 672.119930885771 2607.01975532973 190 188 191
-76.0198590392838 672.335951800811 2605.55563959129 179 177 180
-67.5036263693856 672.360275173031 2603.46751600906 142 142 142
-60.6261845536999 672.005476471019 2600.15572634212 149 149 149
-53.7414212321492 671.649549801608 2596.83728265929 176 176 178
-43.5233325823674 672.044105165877 2595.91853747131 181 181 183
-34.9482703566486 672.060086669711 2593.77947825396 184 184 186
-25.5219019337574 672.261264106572 2592.22493766637 187 186 191
-17.7507938139514 672.085575124145 2589.46067552784 191 190 195
-4.93076362388756 673.028727481448 2590.25327728815 188 187 193
6.24221429775673 673.593967917202 2589.82905007373 188 187 195
19.9740259821448 674.713850280222 2591.15349369657 189 188 196
30.3634873396286 675.084607988911 2590.08636783231 179 178 184
40.7766819003741 675.452087428284 2588.99837727812 176 175 181
49.5147325535421 675.445722027884 2586.71851045349 188 187 192
63.3789913584026 676.54746810618 2587.92827491984 192 191 196
76.4295017214973 677.45884051943 2588.52100165166 184 183 188
85.2374896092187 677.443116452137 2586.18057835638 179 179 181
94.9189174803804 677.609383475319 2584.40487928447 179 179 181
102.040694624791 677.221320448326 2580.88153095924 180 180 182
113.479897424914 677.750528318869 2580.22679056523 184 184 186
124.08320070235 678.092607385389 2578.9745060608 165 165 167
145.968525785872 680.811075440495 2585.13162654545 152 152 154
176.61133578903 685.346776024525 2596.92041512644 148 148 148
207.371933908765 689.866314474039 2608.60721724398 144 144 144
222.552173259953 691.090057030046 2609.99884440034 141 141 141
233.406338267651 691.398352168258 2608.52934793787 175 175 175
242.532134902292 691.340345095503 2605.91342686021 193 193 193
242.892249093456 689.4669724944 2597.67356170227 207 207 207
-224.038504053839 693.847673338674 2768.11662997912 188 190 189
-221.788153234268 692.333393935078 2760.88262360291 205 206 208
-223.363906615462 689.846673489933 2750.35420532121 204 203 208
-222.685550074705 687.948566023922 2741.83835284949 200 199 204
-221.266354074904 686.247956108113 2734.00268478535 200 199 204
-219.100520540181 684.743898740929 2726.84155082596 195 194 199
-215.411550784712 683.629433015065 2721.0048881619 198 197 202
-212.503487544744 682.322386540667 2714.52273678729 194 193 198
-207.286120883045 681.596340394865 2710.00536236266 185 183 186
-202.845492410135 680.677174342469 2704.83920539549 185 183 184
-196.075323955364 680.336201247566 2701.61998830323 175 175 177
-190.077724614879 679.801546790505 2697.74837881994 174 174 176
-181.729808658738 679.842331663861 2695.80635022551 168 168 170
-175.719279484078 679.305277178603 2691.92354954243 167 167 169
-168.132567249557 679.15052846754 2689.31897425223 165 165 167
-160.534270598305 678.99386034854 2686.70437076946 165 165 167
-146.601209870747 680.362566044557 2689.17603310347 156 154 157
-135.793626390318 680.962342589816 2689.06828259036 130 128 131
-128.930555388463 680.60636514609 2685.76895626259 112 110 113
-127.635971005311 678.918681953219 2678.04089428738 136 134 137
-124.765244019121 677.613369869095 2671.59109234706 144 142 145
-122.707992943674 676.120184833767 2664.52431576794 149 147 150
-119.062324929343 675.007598131487 2658.72517210327 152 150 153
-116.230338179311 673.707084050308 2652.30891662696 151 149 152
-112.604599617396 672.596799763674 2646.52671610249 153 151 154
-109.796380853023 671.299366780697 2640.13104122809 161 159 162
-105.379383595021 670.379610350906 2634.98537010995 184 182 185
-101.780039873048 669.272701038739 2629.2260250721 167 165 168
-97.3745318929238 668.354312228846 2624.09030326186 161 159 162
-93.7907612377495 667.249260620432 2618.34444392281 174 172 175
-88.5778330464602 666.519200974926 2613.8309424876 188 186 189
-82.5442745786669 665.975833443486 2609.92853790992 188 186 189
-74.0383730107199 665.990828496082 2607.84942911285 171 169 172
-65.5167452925562 666.00358591192 2605.75670439605 143 143 143
-60.2878842950014 665.271021254288 2601.22940965749 155 155 155
-54.2304887412213 664.723942260285 2597.3060531581 179 179 181
-45.6758180494989 664.73203238105 2595.18503466544 181 181 183
-37.1056265611163 664.737830437363 2593.05026308022 182 182 184
-28.5197493793388 664.741456191471 2590.90191021728 188 187 192
-17.4060586289992 665.295936548435 2590.52913905086 190 189 194
-6.26450187887118 665.84642460441 2590.13224129101 185 184 190
6.58789533124482 666.760664715811 2590.8969767437 185 184 192
18.6328780046212 667.486313157159 2591.03917309134 187 186 194
32.4009350170078 668.574006212787 2592.33241017309 177 176 182
41.1243335197047 668.558654870211 2590.06530112308 174 173 179
49.8633555923851 668.541177281059 2587.78434882866 186 185 190
60.3214217877834 668.886346947677 2586.65792649655 192 191 196
72.510556259429 669.592342703827 2586.67530864904 184 183 188
82.1650083161631 669.748610750351 2584.92337079159 178 178 180
93.5546616387608 670.265268062793 2584.31165803871 178 178 180
102.393261498962 670.234559841032 2581.9444838314 181 181 183
110.386031646187 670.020814892879 2578.98834584976 185 185 187
124.437025919949 671.070104929093 2580.03659988954 166 166 168
149.783932006642 674.458542834997 2588.48277678643 151 151 153
186.50615586205 680.17501568733 2604.25812455635 146 146 146
212.066040115887 683.53411275373 2612.51989574973 141 141 141
226.384366871273 684.547041403627 2613.33667874123 144 144 144
232.877425783897 683.941530511414 2609.03609578915 160 160 160
243.754353297728 684.230650808338 2607.54699449787 189 189 189
249.387375043597 683.444675276893 2602.66974521516 208 208 208
-222.264468570648 687.448743088007 2770.59057301543 191 193 192
-222.285633762942 685.367058953797 2761.35894988304 205 206 208
-226.905740593132 682.135877020885 2748.18064729135 203 202 207
-225.470574793716 680.447047709239 2740.3307457764 199 198 203
-223.290623984173 678.95242983057 2733.15763021221 198 197 202
-218.824437214457 678.033894063395 2727.96931686625 194 193 198
-215.132912712732 676.924571616993 2722.13009107036 195 194 199
-210.678272610757 676.006932109123 2716.95177982859 191 190 195
-205.454558307854 675.280091003059 2712.42890882652 181 179 182
-201.007537237563 674.362856503187 2707.25688313607 180 178 179
-194.231146391035 674.015737756898 2704.03262821002 175 175 177
-188.227418560828 673.47762297531 2700.1557293674 172 172 174
-179.09188104163 673.696108596794 2698.85315022036 169 169 171
-173.857225748248 672.966296896717 2694.3208155181 168 168 170
-165.478709826032 672.991320712292 2692.35205145237 164 164 166
-157.084498911849 673.013991314895 2690.36969922183 150 150 152
-142.352772036122 674.539828876096 2693.47168706405 156 154 157
-133.118714873095 674.74328781249 2692.08349926091 113 111 114
-126.247654367685 674.380844654794 2688.77729004122 103 101 104
-124.147316593331 672.89299589655 2681.67313409221 146 144 147
-122.862494310796 671.22028142767 2673.9534362828 152 150 153
-119.997838555807 669.923811712435 2667.50883919802 153 151 154
-117.146124641397 668.628965122085 2661.07544875377 153 151 154
-113.502663220828 667.522065340574 2655.27818077184 155 153 156
-110.674721664012 666.23024055103 2648.86537510306 159 157 160
-107.051185323922 665.125702482563 2643.08504608778 175 173 176
-103.436261225111 664.022286548267 2637.31248985296 172 170 173
-100.642967371661 662.734888272608 2630.92968591016 155 153 156
-98.677244321808 661.264329876334 2623.94209333958 176 174 177
-92.6447920889983 660.718514021051 2620.04034792788 187 185 188
-88.2464392880977 659.803783687684 2614.91080406165 192 190 193
-82.2111759593351 659.257409599345 2611.00662578941 178 176 179
-76.172514388829 658.710458092312 2607.09950588059 155 153 156
-67.6556633785492 658.713079283713 2605.0109869912 153 153 153
-61.6038092304474 658.164253536772 2601.09276025915 166 166 166
-55.5486233359495 657.61483712937 2597.17133409738 181 181 183
-46.9969217834909 657.61240562856 2595.05264173197 181 181 183
-38.4295389095728 657.607742528148 2592.92037226241 179 178 183
-29.8462201599436 657.600955516069 2590.77461987241 189 188 193
-20.4103011867058 657.773516474789 2589.21167140218 189 188 193
-7.59773859807567 658.668807389151 2590.01105574442 180 179 185
6.0920120401855 659.740157191421 2591.37226968001 181 180 186
21.5085995019448 661.16747549453 2593.88130264253 183 182 188
32.7469190970753 661.685589118483 2593.40074683394 173 172 178
42.3185850311421 661.839329853305 2591.72026354892 172 171 176
50.2115818944868 661.630637460029 2588.85056991805 178 177 182
60.6704226448764 661.959294005109 2587.72358325673 188 187 192
72.8599381973059 662.643439874033 2587.74077670062 185 184 189
85.0817969509063 663.323252231976 2587.7302807236 177 177 179
94.7630735704346 663.462291416319 2585.95488918399 176 176 178
101.026452768277 662.88467984042 2581.85351262103 177 177 179
109.878028108797 662.84144468021 2579.4751732734 179 179 181
125.654183776648 664.219680641747 2581.67287360197 151 151 153
156.194127138714 668.611292400201 2593.55143858462 152 152 154
193.793388394095 674.405713190031 2609.88969779561 138 138 138
218.497217222241 677.52318238755 2617.57143236666 124 124 124
229.342733352158 677.79952523025 2616.10963924911 148 148 150
234.969932840812 677.013794815437 2611.23743473764 128 128 128
244.975821939038 677.109559346726 2609.18128582836 179 179 179
252.368137831751 676.674859611682 2605.42343853976 201 201 201
-225.035694995375 679.892127729535 2769.07136349492 194 196 195
-224.302068223125 678.019993421737 2760.50743802019 204 205 207
-228.162128175799 675.014062439214 2747.99217672051 202 201 206
-225.200724654742 673.71755885538 2741.46372508879 198 197 202
-223.017732343073 672.233490542445 2734.28790498394 196 195 200
-218.54903141134 671.317430839342 2729.09739647843 195 194 199
-214.854840839253 670.213258877012 2723.25582652826 194 193 198
-209.626119940652 669.486162728343 2718.72861778242 189 188 193
-202.850590007758 669.134428915029 2715.50513894692 178 176 179
-198.394801911486 668.218850593385 2710.32581934069 174 172 173
-192.388330717493 667.678030798154 2706.44656025462 174 174 176
-186.378438312676 667.136331060089 2702.56434158421 169 169 171
-178.019529782802 667.153934555975 2700.61262003406 167 167 169
-171.212625689614 666.796358610447 2697.36198594326 169 169 171
-162.826518109986 666.809520648968 2695.38671877978 166 166 168
-152.84866066608 667.191992773358 2694.67626891264 150 150 152
-138.896956678817 668.498241695541 2697.13217718479 151 149 152
-129.653286319745 668.686893930288 2695.73606873973 106 104 107
-123.566463883143 668.132737892578 2691.78725276268 104 102 105
-122.253085159419 666.47003358707 2684.04305470598 152 150 153
-119.364596036751 665.178738260232 2677.57776685459 155 153 156
-118.089567013082 663.520876939128 2669.86646096588 156 154 157
-116.835433310407 661.865791933103 2662.1735633252 152 150 153
-113.189623244928 660.764003300861 2656.37391105509 157 155 158
-110.358926580606 659.480071768521 2649.9586662871 163 161 164
-105.924322159993 658.563633341845 2644.7977129075 180 178 181
-103.115376187215 657.282511235661 2638.40130204054 162 160 163
-101.131809401195 655.820628738239 2631.39818744239 157 155 158
-99.9798435076493 654.178921311635 2623.79344011437 181 179 182
-93.1328651468908 653.812534992147 2620.50812930686 190 188 191
-87.9156651077762 653.082079708955 2615.99092787133 193 191 194
-81.0577616458512 652.714042431068 2612.6961585842 173 171 174
-78.3058504144676 651.440122190323 2606.34913510943 145 143 146
-68.1444380336047 651.793900009841 2605.47946200758 159 159 161
-62.0927357938483 651.2423998429 2601.56138427026 170 170 172
-55.2090184086453 650.870444764958 2598.24395100254 181 181 183
-49.9792520920575 650.137877958986 2593.71587160535 180 180 182
-38.9200972486967 650.66191457461 2593.39056594599 177 176 181
-30.3375741913539 650.644335436363 2591.24557314434 190 189 194
-21.7394767647217 650.624576791301 2589.08678008743 188 187 192
-13.1256980166294 650.602586546637 2586.91440992637 178 177 183
4.75511855100308 652.540575124512 2591.25439592019 179 178 184
21.0102362139777 654.113945357432 2594.35895906866 182 181 187
35.6274659220297 655.324398649387 2596.23865303463 172 171 177
43.5121937406233 655.108555569168 2593.3761728187 172 171 176
49.710245690286 654.536785093293 2589.33106436658 174 173 178
56.7631739564409 654.141525351557 2585.86743647378 186 185 190
70.6494425861393 655.158622595277 2587.05867276036 185 184 189
84.5759543247939 656.170120580184 2588.21506518123 174 174 176
95.1136208699417 656.471812611489 2587.01993210095 172 172 174
103.097258416621 656.242888753406 2584.07180803219 174 174 176
110.231232898553 655.836931743208 2580.53768827672 178 178 180
128.597175389213 657.708210297971 2584.45763047801 150 150 152
160.005231506159 662.195500472754 2596.90672731848 149 149 151
200.20954525366 668.412735344859 2614.95413666754 133 133 133
221.447470745568 670.770972036569 2620.35177059771 117 117 117
232.29966153189 671.030044871532 2618.88398871277 134 134 136
237.93465248058 670.243145396678 2614.00503863836 127 127 129
247.947564753243 670.324250173133 2611.94289748693 179 179 179
254.469843403612 669.709773776259 2607.61704683455 207 207 207
-220.991735373921 674.036862120824 2773.54445685784 199 201 200
-223.281023335654 671.431033188259 2762.31199559866 200 201 203
-228.656887141703 668.083412416328 2748.46591288495 198 197 202
-227.22110506312 666.422010059044 2740.61561500419 195 194 199
-224.275863615769 665.135647906937 2734.10110590596 193 192 197
-219.041457686897 664.408594609967 2729.56896946237 190 189 194
-214.57710521037 663.495575852938 2724.38221021388 192 191 196
-208.574725961633 662.953600370264 2720.50650525273 190 189 194
-201.795214327097 662.596000465892 2717.27961334571 176 174 177
-195.783937646445 662.052197947814 2713.39620849974 171 169 170
-189.769280211793 661.507580821455 2709.50987871144 167 167 169
-182.971400238145 661.146429274006 2706.26708931941 161 161 163
-175.384397624087 660.967986419269 2703.66241588546 164 164 166
-169.353402814944 660.420210935252 2699.76194637369 168 168 170
-162.533106798149 660.055142292822 2696.4997535742 164 164 166
-150.190914059927 660.970398840638 2697.70637948239 146 146 148
-135.443017564018 662.428782887496 2700.79478963403 148 146 149
-126.981880540202 662.419983135388 2698.75463406733 95 93 96
-121.680844753096 661.679854491959 2694.16483185919 112 110 113
-119.564288303227 660.21179976519 2687.04649033532 151 149 152
-115.868890682876 659.109261832998 2681.20386360448 148 146 149
-116.182563331692 657.100745920828 2672.22529306682 149 147 150
-114.921192886446 655.458460151237 2664.52604014187 157 155 158
-112.877091522964 653.999661774273 2657.47012255152 157 155 158
-109.23735774274 652.904223169143 2651.67601118076 178 176 179
-107.222987337531 651.449331129712 2644.64615268029 183 181 184
-103.60521834628 650.35652892825 2638.87074638484 151 149 152
-100.808568244174 649.085177301816 2632.48492947801 166 164 167
-97.2103540831095 647.994911003339 2626.7267711369 185 183 186
-91.1719635397774 647.44305538678 2622.81991791583 193 191 194
-84.3119156075027 647.069377243752 2619.52301097926 196 194 197
-78.2645124909158 646.516060599357 2615.60867121733 152 150 153
-73.8588842536516 645.605718030637 2610.47247752322 137 135 138
-66.9842671680869 645.229800603657 2607.16327300128 161 161 163
-59.2756090265079 645.03054263848 2604.45329123121 172 172 174
-53.2126129434869 644.474684665733 2600.52513743982 179 178 183
-47.976749915799 643.741296806464 2595.99177912443 174 173 178
-36.9127989793552 644.245643722383 2595.66244410854 176 175 180
-28.3248765018107 644.216557925151 2593.51284599876 190 189 194
-20.5581104364763 644.008995388697 2590.75255381634 189 188 193
-11.1022998880705 644.151689196975 2589.1725581428 174 173 178
3.41823497683968 645.345700533101 2591.13616754926 173 172 177
22.1974667041103 647.410537415002 2596.01990372299 176 175 180
35.1269582324676 648.240555468351 2596.71836451997 171 170 175
42.1641528452779 647.841905073691 2593.26839552158 166 165 170
49.2088165660349 647.442286492352 2589.81164353988 175 174 179
57.9631676651733 647.390166442635 2587.51762951124 181 180 185
72.7046775108207 648.553722306909 2589.29022482411 184 183 188
84.9250801502532 649.19011143215 2589.28095678436 172 172 174
94.6065005292214 649.301965131034 2587.50593231874 165 165 167
102.589453835138 649.064988901337 2584.55845348562 172 172 174
114.889925008452 649.690654962294 2584.47985665525 173 173 175
135.854771397852 652.037399375015 2590.11425252953 166 166 168
171.601253085226 657.302472113256 2605.41465980817 149 149 151
209.224401640391 662.891837368885 2621.73322828994 131 131 131
226.134450956361 664.339937426097 2624.27095038737 116 116 116
235.255155589315 664.238382416811 2621.66004043517 124 124 126
240.898166513767 663.45034299353 2616.77414654638 144 144 146
253.543989695522 664.029380205282 2616.39652287287 164 164 164
260.957663853227 663.580747375446 2612.62056940794 188 188 188
266.620281323305 662.790905915441 2607.71769349856 200 200 200
-229.059927467341 667.220006935299 2776.61152421524 196 198 197
-228.304351346665 665.378153500875 2768.02837823046 200 202 201
-226.815008923543 663.723798746209 2760.1312964924 200 201 203
-226.868772169443 661.703815707461 2750.92752744016 198 197 202
-225.425571847289 660.055218086683 2743.07071692605 194 193 198
-222.473363575139 658.776152050361 2736.55012215133 191 190 195
-217.999676962164 657.865080161257 2731.35526005553 189 188 193
-215.069301371769 656.588325560377 2724.8535734727 190 189 194
-209.066791943022 656.043817326954 2720.97777209214 188 187 192
-202.287469867314 655.680883138387 2717.75107904887 173 171 174
-194.725557297175 655.498610660379 2715.16786136105 169 167 168
-188.706583313357 654.950859309234 2711.27812608713 165 165 167
-180.346003521988 654.946918256682 2709.32509560378 162 162 164
-173.532667315894 654.578025951827 2706.06895989982 158 158 160
-167.495517230715 654.026846422101 2702.16317744735 162 162 164
-160.669429757689 653.655555940173 2698.8956897894 163 163 165
-145.17208259818 655.267317271394 2702.65679109569 148 148 150
-129.622343181572 656.871543768804 2706.37253097545 138 136 139
-121.145299513509 656.849784644595 2704.31898803831 100 98 101
-119.002780202535 655.389350091228 2697.17777867775 113 111 114
-116.87712818223 653.931059562751 2690.0514904238 151 149 152
-113.970823350454 652.653893550835 2683.57066949864 150 148 151
-113.477033375163 650.842264813791 2675.21422711906 152 150 153
-113.810309277739 648.855552476374 2666.25250613835 154 152 155
-111.761031236008 647.407128143804 2659.19235002367 159 157 160
-108.116884502034 646.316552627438 2653.39406676149 182 180 183
-107.713460752267 644.516936184825 2645.11618571062 177 175 178
-104.905237947818 643.252410109118 2638.72029409696 155 153 156
-102.109930197635 641.989563437113 2632.33558554247 171 169 172
-96.8851098243464 641.25838134286 2627.81178399916 189 187 190
-91.6609416540179 640.527257138679 2623.28854736846 195 193 196
-83.9827909165716 640.324412278654 2620.6050307053 193 191 194
-77.1134578186925 639.944034046718 2617.3001193987 147 145 148
-70.2363968797686 639.562577405375 2613.98883259544 137 135 138
-63.3519544975347 639.179917092306 2610.67115582978 165 165 167
-55.6337856783995 638.97115170749 2607.95267690909 175 175 177
-50.3891340281588 638.236610214227 2603.4117086542 180 179 184
-45.9754959271654 637.327786247234 2598.26887819556 176 175 180
-37.4042044302625 637.290168404681 2596.13343452951 178 177 182
-27.9826100954161 637.424137742652 2594.58346732578 189 188 193
-18.5413171455355 637.5553721554 2593.01612883388 186 185 190
-9.08024397658824 637.683815217522 2591.43197971599 172 171 176
2.0818933952782 638.155446268916 2591.01775498687 174 173 178
20.0133074196018 640.004756414117 2595.31446098472 178 177 182
34.6263040502262 641.155953495473 2597.19820789278 169 168 173
42.5098109893751 640.924165452745 2594.3368891807 165 164 169
50.4049242049334 640.690754489062 2591.46552140825 173 172 177
59.1625142000138 640.627298969084 2589.16877356621 179 178 183
73.0529227454317 641.589402154018 2590.3567780019 180 179 184
82.7092776519169 641.691037296982 2588.60354489875 172 172 174
93.2422087301328 641.9607069004 2587.41240821116 166 166 168
103.799288090661 642.227266387286 2586.20067700577 171 171 173
116.963356050999 643.000960689142 2586.69618695672 172 172 174
143.10862300387 646.317305110935 2595.77412383381 166 166 168
183.191925699547 652.333210376283 2613.92772243204 147 147 149
214.767025610484 656.633938597223 2626.2335608509 125 125 125
226.473885998587 657.031103082674 2625.34768764896 126 126 126
234.724307578817 656.749782318417 2622.16867180214 129 129 131
240.367139188238 655.961767043762 2617.28293317566 146 146 148
253.011187298452 656.519184854408 2616.90698811471 169 169 171
260.424288666918 656.065239407512 2613.1315655327 169 169 171
266.08667762127 655.275368835893 2608.22888787475 198 198 198
-228.050693191933 660.59455739588 2778.42623941449 200 202 201
-228.802956769213 658.404544125461 2768.5057266348 202 204 203
-231.106216369895 655.855452507908 2757.28500743809 199 200 202
-228.886049343227 654.400003905339 2750.07678121507 196 195 200
-227.445879502282 652.765536083655 2742.22219025366 190 189 194
-223.731860524833 651.676112929688 2736.36365425204 186 185 190
-219.259969120731 650.767985428092 2731.17001353574 185 184 189
-214.792661927583 649.86034777048 2725.98065845849 186 185 190
-208.788085383657 649.312866277804 2722.1030847017 181 180 185
-202.779922732172 648.764624604542 2718.22272317542 165 163 166
-194.443027564163 648.753842262249 2716.2902653382 164 162 163
-187.645008798397 648.382259575869 2713.04710773124 159 159 161
-178.501562485266 648.545902325932 2711.7380291314 163 163 165
-172.463619087277 647.992280398875 2707.831574913 146 146 148
-167.98892001001 647.081431476705 2702.63583383317 147 147 149
-158.021346190127 647.416840599374 2701.93460212203 155 155 157
-140.943434000567 649.347804161271 2706.97022420982 141 141 143
-125.383726345656 650.915295493487 2710.67756230392 99 97 100
-119.269538134284 650.349780889267 2706.70541654286 104 102 105
-117.913430305419 648.72253162302 2698.92363837247 111 109 112
-114.987281865433 647.451077306439 2692.42558126687 148 146 149
-112.8716827123 646.005039896026 2685.30792679374 148 146 149
-113.172101291834 644.033215903637 2676.31763071326 154 152 155
-112.700177802215 642.240940770309 2667.98001539096 158 156 159
-110.645879235098 640.802889314678 2660.91544058997 172 170 173
-107.802880474062 639.542123858554 2654.48938303581 177 175 178
-107.396352843921 637.758476025932 2646.20839275042 159 157 160
-103.775576249463 636.676377670852 2640.43031029597 167 165 168
-100.163476953452 635.595440154378 2634.66005675857 180 178 181
-94.9324122669819 634.863596787548 2630.13084732964 196 194 197
-90.5181989320214 633.957936952489 2624.98718227854 196 194 197
-83.6544202899559 633.573178733541 2621.6874291137 179 177 180
-75.9631487217485 633.360392408972 2618.99260457584 139 137 140
-68.2603244497613 633.145870605812 2616.28777814029 149 147 150
-62.1942929956552 632.584513530459 2612.357029118 169 168 173
-55.2985459677355 632.194911105132 2609.02959919464 178 177 182
-50.0517764360251 631.460234109001 2604.48679617382 177 176 181
-43.145260459803 631.068979557821 2601.14972760885 175 174 179
-35.3988549676489 630.848079573423 2598.40716909405 179 178 183
-26.8062795614954 630.796748251279 2596.25368227535 187 186 191
-15.6891760018292 631.255669759386 2595.87857232814 182 181 186
-2.86746771257951 632.051762977806 2596.67035705361 170 169 174
8.30975757649766 632.502400396954 2596.24350663642 174 173 178
22.8845882343012 633.62903380638 2598.16049253818 180 179 184
34.9700399733921 634.24038910042 2598.26835351436 166 165 170
43.7015342523592 634.169660672769 2595.99458640894 165 164 169
51.599929134067 633.927611102913 2593.12011476402 171 170 175
62.9128631131186 634.359523281415 2592.57576208726 177 176 181
75.1060678848785 634.956157710111 2592.59032502846 178 177 182
84.76753144501 635.043570588163 2590.8327562322 172 172 174
92.7351441151738 634.792229297221 2587.8983512526 167 167 169
105.008524372986 635.378088568848 2587.8438085543 170 170 172
119.035496263132 636.294372695136 2588.91374553904 170 170 172
149.496425700191 640.380987564015 2600.86308663091 165 165 167
192.182769735848 646.787242217409 2620.72810438993 143 143 145
218.572767396117 650.004454165273 2629.59456674708 126 126 126
226.812624921063 649.716172014267 2626.42475225665 126 126 126
234.193501134544 649.260517874347 2622.67727144715 137 136 141
239.836068143352 648.472598120029 2617.79176154056 152 152 154
