ply
format ascii 1.0
comment KinectMotionCapture
element vertex 773
property float x
property float y
property float z
property uchar red
property uchar green
property uchar blue
end_header
-20.9003058530435 454.280593053076 2596.24837427327 204 204 206
-16.4706943716375 453.446571657445 2591.09121438914 213 213 215
-10.3666464560561 452.817483855259 2587.12795403 203 203 203
-2.57568023092913 452.391640947209 2584.34810116146 168 168 168
11.1332682773111 452.675177859926 2585.69778066023 132 132 132
27.4196383107936 453.257025919073 2588.78168134421 124 124 124
37.8232549071162 453.124660006274 2587.70554687924 126 126 126
48.2505771725963 452.988981842843 2586.60888732218 120 120 120
59.553485607168 452.950528548343 2586.07595661232 123 123 123
75.1541247433995 453.409044666651 2588.43174323521 123 123 123
85.6668753200211 453.261652141861 2587.26111579956 123 123 123
98.7772883539511 453.409822689796 2587.80686830049 124 124 124
109.343694582069 453.255144391164 2586.58978279505 130 130 130
121.658199444683 453.295322024425 2586.50313195417 132 132 132
134.004419215468 453.331176423194 2586.38870516422 146 147 149
162.839537692355 455.233426938213 2597.11451253274 167 168 170
217.829774854068 460.066174580901 2624.85272999934 168 169 171
263.478452865808 463.790020696655 2646.13766662472 129 131 130
283.145970743186 464.559642993009 2650.25957077301 122 124 123
292.386890885457 464.152468511569 2647.54644613958 122 124 123
-203.034768714228 465.972196267121 2714.33443232309 173 173 173
-204.013366654677 464.384127580912 2704.60619105556 165 165 165
-199.57737272076 463.555923958901 2699.4434615711 165 165 167
-199.828649869397 462.082330189512 2690.407028789 166 165 170
-196.979471952645 461.042034178395 2683.97450240383 154 153 158
-195.712610379895 459.789205008397 2676.26765091998 164 163 168
-190.53442144344 459.073076164365 2671.78416897368 162 161 166
-186.14558351296 458.250354763109 2666.66227576748 142 142 144
-179.3901680635 457.746741391709 2663.45689954825 146 146 146
-175.005121980313 456.924171327228 2658.33829189173 134 134 132
-166.651812522191 456.630342245471 2656.39344134918 118 118 118
-158.282985201165 456.334213748066 2654.43515581734 127 127 125
-132.326189689691 458.34768743134 2666.3317275591 133 135 132
-108.666446994115 460.031979200157 2676.25127252086 147 147 147
-93.7447965884761 460.553519768408 2679.19515468251 110 110 110
-88.4335454572049 459.817465050769 2674.59647206926 114 116 115
-85.543936113833 458.769486093181 2668.12863658618 149 150 152
-83.4762956245822 457.619546817957 2661.0506308876 171 171 173
-81.425896164752 456.471869532047 2653.98755395119 180 181 183
-76.9537639570168 455.635782608708 2648.79323769699 169 170 174
-73.3014271564252 454.69746486314 2642.98718468838 158 157 162
-70.4752947798051 453.657735013731 2636.57431351961 160 159 164
-66.8431613308145 452.721996114914 2630.7854392582 186 185 190
-62.3987291167305 451.88942224369 2625.61542433234 198 198 200
-57.9591876092143 451.057447125138 2620.44964447772 167 167 167
-53.5247421618226 450.226016331564 2615.2879625215 161 161 161
-47.4403687499576 449.597534248398 2611.34206634969 154 154 152
-43.8409307673879 448.665988895851 2605.58150324997 158 158 158
-38.5876010994002 447.936776370454 2601.03297891333 206 206 206
-32.5017382921566 447.307891852849 2597.08547892395 217 217 217
-21.399813098737 447.278479537472 2596.72668902769 221 221 221
-12.7825044709811 446.946095233718 2594.55358626712 186 186 186
-5.82897370797975 446.412657349644 2591.17668964806 133 133 133
4.49836007071447 446.274814496014 2590.1667077338 133 133 135
16.5365902273722 446.331388016757 2590.31940786539 131 131 131
31.9890003045646 446.777864953958 2592.80343244312 126 126 124
42.4036364583689 446.627935583598 2591.71786074323 134 134 132
51.1425536935013 446.278672778748 2589.43914929174 132 132 130
59.8970713364491 445.927309043402 2587.14693002014 130 132 129
72.0823518588771 445.963629922881 2587.17230755167 139 141 138
84.2992959028126 445.995544658929 2587.16995421006 139 141 140
98.2638959063444 446.216925300943 2588.29845414275 138 139 141
110.548902927777 446.23957631741 2588.23748371402 150 151 155
123.727674800077 446.354249288363 2588.72451973058 152 153 157
138.670118730941 446.656059340806 2590.32822687078 163 164 166
167.512299152663 448.483998252704 2601.04839493892 154 155 157
232.919471170269 454.30694337772 2635.63154103291 127 128 130
266.415489226125 456.568982586937 2648.93218314874 124 126 125
282.599671976781 456.914904405618 2650.7826056468 123 125 124
-204.3064857533 458.934482435456 2714.15901888103 172 172 172
-202.181102367589 457.790630485855 2707.03092589252 165 165 165
-199.294924905699 456.754132760526 2700.56599054581 160 160 162
-198.762295654586 455.404505391154 2692.17289098944 166 165 170
-196.690627496203 454.267438206103 2685.09131095378 159 158 163
-194.636159910418 453.132567675813 2678.02462503828 160 159 164
-191.026404430732 452.208016914377 2672.25507406783 159 159 161
-186.637206859293 451.388331217572 2667.13284947644 145 145 145
-179.882030724055 450.8796298073 2663.92771365007 140 140 140
-173.119382049813 450.36976459719 2660.71642415984 147 147 145
-165.554925357677 449.961670315669 2658.1327802338 131 133 130
-155.589575804885 449.859790727102 2657.43631001664 124 126 123
-131.226706293261 451.59725061263 2668.06934603471 126 128 125
-109.1684653328 453.014843054199 2676.73186107685 138 140 139
-95.0515616375176 453.402430374607 2679.05085328694 111 113 112
-89.742211911231 452.666991039081 2674.45381470204 117 119 118
-85.2406065248266 451.830288543847 2669.2339569734 135 136 138
-82.3614064270513 450.792185308391 2662.77507956271 181 182 184
-79.4950729306367 449.755837034379 2656.32765823856 192 193 195
-77.4550825889864 448.620768020543 2649.27320604427 144 145 149
-72.9873679367854 447.788352407637 2644.0830103669 160 161 165
-72.6093333329381 446.457358687764 2635.82378280164 184 183 188
-68.1617128941996 445.627499477522 2630.6509869358 207 206 211
-65.3610926827164 444.599739169413 2624.26015051466 171 171 173
-58.4582578583577 444.068629374839 2620.92749431463 159 159 161
-55.6736502573836 443.042905736842 2614.55052340091 154 154 154
-48.7665914834023 442.511025241277 2611.21389563323 177 177 175
-45.9978084340338 441.487432719558 2604.85062661751 198 198 196
-37.4236127696328 441.150584025283 2602.71492034132 218 218 216
-30.5006999170638 440.616358835396 2599.36456646754 224 224 222
-19.3939567708821 440.567553307296 2599.00172634694 131 131 131
-12.4459268910653 440.029847993846 2595.62994070696 123 123 123
-3.81198193351384 439.684511371973 2593.44218705987 138 138 140
5.67902173848589 439.433527180688 2591.8345547972 130 130 130
16.876288372456 439.372111514489 2591.39333642991 131 131 131
28.1013422785379 439.306863865106 2590.92805866643 142 142 140
38.5066501055866 439.142171203676 2589.85066782913 132 132 130
48.9357554452772 438.974183865999 2588.75267218182 139 140 135
57.6854263965343 438.612962818813 2586.46471758774 142 144 141
67.3041375729788 438.344308721833 2584.74619562916 133 135 132
79.5095905181857 438.35641381501 2584.75424591568 145 147 146
93.4620492085627 438.552510711833 2585.8934330002 153 154 156
107.454531236041 438.743097833022 2586.99796612331 142 143 148
120.625395306486 438.834641746233 2587.49200599285 141 142 146
135.559712904383 439.107902529222 2589.10294151791 137 138 140
179.108471628419 442.445955911813 2609.56361636013 141 142 144
247.134115200079 448.357022922045 2645.8467661355 124 125 127
271.090290447493 449.510715704016 2652.8662988999 118 120 119
282.05301787568 449.269644753056 2651.30595187846 143 145 144
-200.935054820574 452.519662691901 2717.89538208486 172 172 172
-201.126334099185 451.077214361155 2708.80674516899 165 165 165
-200.568870368879 449.741152592158 2700.39234828426 158 158 160
-197.697049269266 448.715032210043 2693.93978886733 163 162 167
-194.838378297547 447.690473173922 2687.49861702135 158 157 162
-191.20882397274 446.769184803093 2681.7118845398 153 152 157
-188.374380204099 445.74761899325 2675.29169188539 155 155 157
-185.55301494828 444.727664771062 2668.88282440502 158 158 158
-180.374245978638 444.011727300858 2664.398838483 144 144 144
-174.403952946565 443.396273034136 2660.55173545635 141 141 139
-165.2535948842 443.181110971318 2659.23880534678 136 138 135
-154.490932812595 443.163013070682 2659.17399367518 120 122 119
-130.128326354384 444.835224708562 2669.80799601421 124 126 123
-107.269585654343 446.295087696436 2679.09967611633 136 138 137
-92.3461764429803 446.751444850449 2682.04245624799 116 118 117
-87.8329940440441 445.916439311511 2676.81286882299 118 120 119
-83.3249344915479 445.081921818734 2671.58740287774 169 171 170
-81.247392919138 443.953286122583 2664.50067750677 180 181 183
-79.1870497333589 442.826876729891 2657.42884416918 153 154 156
-79.5818774108565 441.409676921148 2648.51678186888 169 170 172
-76.7474007870272 440.386100499895 2642.09657376651 199 200 202
-73.9260655472211 439.364204019429 2635.68774488798 181 180 186
-68.6615418383543 438.634531983636 2631.12952125138 152 151 157
-65.0394918929194 437.711858792049 2625.34930205884 157 156 161
-61.4262602901099 436.790275604442 2619.57703449042 173 173 175
-57.8222380633306 435.869940403712 2613.8124254194 214 214 214
-50.0925324529233 435.429291379116 2611.08576527163 196 196 196
-43.180264860879 434.891641276352 2607.74497573415 161 161 161
-36.2609469214856 434.352869780432 2604.39776716102 135 135 135
-29.3340782701117 433.813073672429 2601.04433626676 141 141 141
-20.7298042063924 433.461372566961 2598.88234069188 133 133 135
-13.7841588632828 432.918957944249 2595.51265233201 147 147 149
-5.15299847454997 432.563486301333 2593.327377846 169 169 169
5.17616320711278 432.393328236299 2592.3160210259 169 169 167
17.2152694215892 432.406793252018 2592.46792567803 165 165 163
27.5957895582462 432.229509064638 2591.41210081638 149 150 145
38.8472153058586 432.141845735417 2590.92411088408 144 145 140
50.9758891859065 432.142971304198 2590.99877949376 133 134 129
58.8794048612176 431.67808435539 2588.12131346472 129 131 126
67.6481401434992 431.303748173426 2585.81723562893 123 125 120
78.1428852582557 431.110759507977 2584.66219412556 112 114 111
92.9488871342938 431.371948792711 2586.38473923546 124 126 125
106.939448805461 431.535875697006 2587.49110955928 166 167 169
121.831484928665 431.785246821265 2589.13884676382 175 176 178
139.35826609961 432.300476257638 2592.47133109134 178 179 181
182.90892484866 435.518493671291 2612.9314524625 177 178 180
252.665811866923 441.413888762176 2650.3606946125 125 126 128
269.674818888985 441.790922527833 2652.81958704532 116 118 117
-193.697839401075 446.578605649602 2724.89468079923 171 171 171
-198.521041064916 444.552256712906 2711.88460045219 165 165 165
-199.509774070695 443.032094214314 2702.16438806345 156 156 158
-196.633118252961 442.013826569785 2695.7075873366 161 160 165
-193.769563362427 440.997173531491 2689.26213119158 154 153 158
-190.135188117424 440.081126961677 2683.47150179105 154 153 158
-187.295862615937 439.067437500962 2677.04702692437 153 153 155
-183.68182246814 438.153718032506 2671.273692091 156 156 156
-180.076596291032 437.241147865427 2665.50830470819 157 157 157
-171.72841505475 436.916449396567 2663.56809901424 136 136 134
-162.570648956269 436.68693506604 2662.24884109654 140 142 139
-148.616432729318 437.038042736245 2664.7090767722 121 123 120
-128.233084209992 438.158516094294 2672.1783693784 123 125 122
-106.972518843899 439.364930224189 2680.21068161176 129 131 128
-94.4562051748989 439.499686603525 2681.27144831108 107 109 108
-88.3381203727733 438.860526223889 2677.29640246121 107 109 108
-85.4422805215749 437.837489191316 2670.82300514876 173 175 174
-81.7513087107256 436.911642577474 2664.98306946195 146 148 147
-82.1213061535482 435.510681621653 2656.04938067657 145 147 146
-81.7084481585328 434.208654211565 2647.75978272407 195 197 196
-79.6918406484255 433.099423311775 2640.72574535159 166 167 169
-75.2427683658636 432.275746456818 2635.5516510587 153 152 158
-70.7988818009429 431.452626001152 2630.38173229537 152 151 157
-67.1802370124217 430.536302428816 2624.60473884187 210 209 214
-63.5708551725602 429.62111428572 2618.83545104848 210 210 212
-59.1456044482857 428.800405971329 2613.6819845202 193 193 193
-51.4184374688993 428.352343568772 2610.95757273407 153 153 153
-43.6798949147974 427.90259948495 2608.22331222577 155 155 153
-35.9299253993193 427.451256628798 2605.4791579194 195 195 195
-30.6671029972914 426.721843653654 2600.92240718788 199 199 199
-22.9006242665069 426.268105564303 2598.16364375951 194 194 194
-16.796207830827 425.629618143883 2594.20044041336 181 181 183
-5.65505159170643 425.538509750551 2593.80804735176 130 130 128
8.03688673767233 425.716602226864 2595.17315346654 116 117 112
20.0825800752593 425.707651066031 2595.31949407968 112 113 108
28.7801286617833 425.332481510083 2593.07712171216 118 119 114
34.9516998795694 424.684628626019 2589.0554580781 109 110 104
47.9198003858343 424.755540134379 2589.72537411547 125 126 120
57.5189592788306 424.463019541978 2588.02395347923 115 118 111
68.8441791361276 424.346464275146 2587.47219076005 124 127 120
77.6316172430125 423.958957363255 2585.15167234772 146 148 145
92.4355020256362 424.190818048251 2586.87624246864 154 156 153
102.986968868955 423.974133341594 2585.67250726806 156 158 157
117.868729064772 424.195274628614 2587.32933391829 152 154 153
131.067927300319 424.234524880998 2587.7991544127 122 124 123
186.70682159203 428.563386676389 2616.30136798112 106 108 107
256.45967484208 434.25765057143 2653.73572519102 90 92 91
268.259590823546 434.075999479861 2652.77294810084 103 105 104
-188.011825733324 440.387131481388 2730.59324728132 169 169 169
-192.040457238253 438.491495048876 2718.21689826887 167 167 167
-195.341478319201 436.699589353754 2706.53280735549 155 155 157
-194.790544424573 435.397741368438 2698.12353289503 156 155 160
-192.701677689555 434.292223655181 2691.02684179345 158 157 162
-189.062867631124 433.381336661114 2685.23201963369 153 152 157
-184.647209315857 432.567459641822 2680.08682292413 148 148 150
-181.024429355678 431.658372128281 2674.30588296603 144 144 144
-177.410485780567 430.750436934695 2668.53290986628 143 143 143
-169.054740227889 430.414119915523 2666.58622319591 151 151 149
-158.301826316698 430.359905957066 2666.53009463828 141 143 140
-142.745594635092 430.868898229606 2670.24730458366 116 118 115
-123.147201381696 431.8417261942 2677.07495752031 110 112 109
-105.076453652187 432.616486907536 2682.58080645392 107 109 106
-92.5554560237449 432.726380788232 2683.63799001967 112 114 111
-88.0396021059453 431.897213690583 2678.40604926 123 125 122
-86.7533699512659 430.696182442038 2670.6820729447 126 128 125
-84.68016042639 429.590767122178 2663.59895184643 172 174 171
-84.2446862279167 428.302581854215 2655.28966192003 141 143 140
-83.0222346592468 427.110012514938 2647.62122721066 170 172 169
-82.6354040352353 425.828318264484 2639.35405635677 229 231 228
-78.1921541083941 425.008569538985 2634.18498305449 235 235 235
-73.7541325419846 424.189412898632 2629.02012201056 225 223 224
-69.3208028864882 423.370820492551 2623.85963947106 204 203 201
-67.3597680301561 422.280332246305 2616.87364746227 178 177 173
-62.9424444272648 421.46386545643 2611.72702416985 146 145 140
-56.0506128117981 420.918884423872 2608.4036792196 160 159 154
-45.8370264820664 420.732880769078 2607.49259839114 159 158 153
-38.0916599064487 420.274372595472 2604.75248004963 25 24 19
-32.0002501097583 419.635368870544 2600.80023785783 14 13 8
-25.9053712040411 418.995860266086 2596.84530764902 24 23 19
-17.2973036254218 418.622538406708 2594.68016420144 25 24 20
-6.15742614463954 418.51285785395 2594.28899983372 40 41 35
11.7363962745354 419.105885772183 2598.62611305425 65 66 58
22.1051655723956 418.898174929245 2597.58067023245 84 85 79
31.6529136824371 418.599514972954 2595.92416446581 99 100 92
34.4449446799633 417.598333067158 2589.54060039643 113 114 106
44.8644535740761 417.383699216859 2588.45122460401 93 94 86
52.7547548199632 416.905103553555 2585.5856163416 138 141 134
68.3334127184101 417.20453568403 2587.96117024874 134 137 130
81.3952595584211 417.238388673902 2588.5500731091 122 124 119
92.7787266902182 417.09515495759 2587.94799826045 92 94 91
104.190028108852 416.948112869635 2587.32182311325 41 43 40
125.962789576711 417.823344610336 2593.58876625972 46 48 47
155.580705384029 419.455031070794 2604.96142469139 60 62 61
256.782291956373 426.735109391813 2654.82810846805 107 109 108
-184.648811006549 433.866757946116 2734.33758910456 168 168 168
-188.664712030742 432.002554076563 2721.95000244308 167 167 167
-190.398597539698 430.428145929737 2711.55273115409 155 155 157
-192.170123348972 428.858717029778 2701.1880518007 155 154 159
-190.072163784186 427.763233371676 2694.08341459579 159 158 163
-187.991449620757 426.669952405491 2686.99371032662 149 148 153
-182.785909171501 425.951757018533 2682.48653523228 149 149 151
-179.156424735497 425.047635447928 2676.69975208457 143 143 143
-172.377438716095 424.515268650649 2673.4744482409 126 126 126
-164.799618937789 424.07411416049 2670.87943627872 151 151 149
-153.242013509625 424.091699036623 2671.44864827289 146 148 145
-139.265203089054 424.380207114869 2673.88970639572 121 123 120
-120.457906386611 425.211681876346 2680.08037073604 113 115 112
-106.380973449594 425.486025359315 2682.43442534909 106 108 105
-96.2692158045333 425.299302559985 2681.6116077619 113 115 112
-92.5652210131145 424.383679356012 2675.76031834178 126 128 125
-90.4820516102931 423.28839092622 2668.66849903679 159 161 158
-87.608182682192 422.28544019617 2662.21401455337 165 167 164
-84.7474731805571 421.284231722882 2655.77092452802 175 177 174
-81.0876999661136 420.37431661453 2649.95824206243 193 195 192
-79.065221589139 419.286991935303 2642.91897424575 177 179 176
-77.8762397831216 418.112951130009 2635.27911340452 96 95 91
-75.8902563871668 417.030481398854 2628.2714456395 31 30 25
-74.741757135671 415.861862497268 2620.66663734933 26 26 18
-71.9699113483743 414.872441776163 2614.30049231443 8 8 0
-70.0353957386404 413.796843403383 2607.33738900315 23 23 13
-60.6809981058132 413.511885696674 2605.8483782541 24 24 14
-48.8220372889319 413.486041994052 2606.15667611905 24 24 14
-40.2529584279234 413.107700325746 2604.02535812294 33 33 23
-35.8306282950061 412.293433835149 2598.874381233 38 38 28
-30.5786380740951 411.566318052608 2594.32700425634 37 37 29
-20.3082795126162 411.356349813783 2593.36687218508 42 42 34
-10.0143967829802 411.143063824253 2592.38637237081 18 19 11
7.0278453690702 411.61138006292 2596.13912808124 19 20 12
14.014907430179 411.047967098994 2592.73367843295 19 20 12
23.5432004134903 410.738700096363 2591.09378834504 20 21 13
34.7844755891007 410.596260474039 2590.6149512301 24 25 17
37.5662471290794 409.605143719791 2584.24021417892 25 26 18
48.8427041359176 409.457846334747 2583.73091518468 39 42 33
79.7615403801268 411.236995440179 2596.62190080808 33 36 27
73.1887476034521 409.319195562878 2583.8039741813 26 29 22
99.9761962749082 410.660418768478 2593.66168429957 32 34 29
103.6744054487 409.744616543626 2587.81541064226 46 48 43
-183.607359861624 427.041800678608 2736.12567360002 175 175 175
-186.066413641223 425.393747334848 2725.03414806768 171 171 171
-188.56724782336 423.751320621035 2713.97879865129 160 160 162
-189.551456200186 422.297164403556 2704.25455239449 156 155 160
-189.006869202058 421.029587648195 2695.85055693895 155 154 159
-186.137885794707 420.03774499557 2689.40023493136 153 152 157
-180.926040901737 419.319089839766 2684.88759852836 145 145 147
-177.289923604981 418.419883970435 2679.09503458795 147 147 147
-170.50508237467 417.881578432288 2675.86469430571 145 145 145
-162.130128772212 417.521474931242 2673.90151346517 121 121 119
-150.565600753041 417.516620649651 2674.46518632003 122 124 121
-134.991855340644 417.952716157621 2678.16737334541 97 99 96
-118.568019731611 418.470350934308 2682.45612016253 114 116 113
-106.086269283765 418.537299727105 2683.54728344283 105 107 104
-97.5767809213015 418.157932643073 2681.46793683133 91 93 88
-93.0706859733466 417.336375594959 2676.24408969545 48 50 45
-90.9865984312059 416.252311947496 2669.15140186924 46 48 43
-88.1120551156145 415.257894005389 2662.69627757727 19 21 16
-85.2506242117643 414.265241931586 2656.252506841 22 24 19
-79.1547316338468 413.621674270114 2652.29672434885 13 15 10
-76.311424664071 412.631283315386 2645.8686476256 17 19 14
-77.5610939404618 411.21120805189 2636.37394951406 36 36 26
-80.4801284613648 409.62366374155 2625.68071372397 54 52 39
-80.9807311403508 408.29898003852 2616.85973091283 53 51 36
-79.8665461496184 407.149167566691 2609.28485767258 51 49 34
-75.4773793498318 406.34284837653 2604.16225762395 44 42 29
-65.3099548573661 406.13129179203 2603.29135250274 53 51 36
-54.2908920805312 406.00102159934 2603.00503600295 44 42 27
-45.7347290876688 405.613909307381 2600.88496948788 55 53 38
-37.162901377612 405.224679677996 2598.7516550326 52 50 35
-30.2444827505446 404.665727881617 2595.40535669464 50 48 35
-20.8095471519516 404.356150185859 2593.8467003339 48 46 33
-18.0620140831631 403.378387759335 2587.50155246 28 30 19
-9.44477572464031 402.982691038557 2585.3286053575 25 27 16
21.3478351154071 403.502356798009 2590.39664478816 28 29 21
140.193556465744 408.570226909252 2630.27853242011 23 26 19
66.9062444181052 400.385765108987 2572.10348097721 26 29 22
-185.658257577766 419.847227576958 2735.30335963797 176 176 176
-187.344423665296 418.316427879996 2724.86444562733 168 168 168
-188.291428942796 416.87957681016 2715.10752645647 163 163 165
-186.934853097976 415.713110803561 2707.32267226567 159 158 163
-186.380744265687 414.461079742653 2698.91032315771 156 155 160
-183.502866951641 413.476573113641 2692.45224494388 154 153 158
-180.638110793207 412.49371375814 2686.00552863289 147 147 149
-176.999187684401 411.60005101057 2680.2108123876 143 143 143
-169.423327383482 411.143679830807 2677.61759737943 145 145 145
-161.045003139476 410.772492604892 2675.65156690551 122 122 120
-149.477966666391 410.745749230498 2676.21289192222 115 117 114
-137.083676694786 410.800873559857 2677.38025247667 96 98 93
-120.666711790555 411.281473538172 2681.67487885418 103 105 100
-107.391128136033 411.410836327247 2683.40117030094 47 49 44
-102.090313981897 410.679061709332 2678.81150605577 21 23 18
-100.807911101733 409.520997704422 2671.09088579437 16 18 13
-100.352514607218 408.280733285835 2662.7640179696 26 28 23
-97.4997047252781 407.297955656064 2656.32765539626 39 42 35
-92.2311240794751 406.570192599482 2651.76590309637 12 15 8
-82.9051797861564 406.263113837857 2650.30138171155 20 23 16
-76.8143035915383 405.617826293437 2646.349958244 19 22 15
-77.246464212132 404.303418343865 2637.46958765359 27 27 15
-85.8861953621135 402.160040863289 2622.47451442954 43 41 26
-85.5776449563779 400.93945485384 2614.2751113845 36 35 17
-82.828969538808 399.970431681978 2607.92891676527 51 50 32
-75.1497859974286 399.497900073844 2605.24625251066 68 67 47
-64.9816698564956 399.270208596272 2604.37453695453 64 63 42
-56.4456097513713 398.875435536589 2602.27225948967 78 77 56
-49.554352848427 398.315290870736 2598.94951092414 81 80 59
-42.6555922482281 397.754097981259 2595.62058093984 74 73 53
-34.9155192141239 397.272917146838 2592.88519762044 66 65 45
-26.3279069206757 396.870849905309 2590.73796977457 75 74 56
-23.5920251869035 395.90331013349 2584.40285428848 35 36 22
-14.9876983245911 395.498902086456 2582.24115449346 30 32 19
-13.9479349148148 394.373155388661 2574.73062916566 29 31 20
62.9709661062319 392.966451061801 2570.26904648063 24 27 18
56.2824887934763 391.142194645064 2557.5510971484 41 44 35
-186.163509754414 412.836276009329 2735.78671100134 177 177 177
-185.523607882714 411.589758629092 2727.29996625354 166 166 166
-188.793002053516 409.915454824352 2715.5873855843 166 166 168
-187.435262131579 408.762935243165 2707.80143207284 163 162 167
-186.879861914175 407.52749839755 2699.38785614405 152 151 156
-183.218393728375 406.636855720024 2693.57326418719 153 152 157
-179.565764113612 405.747335713754 2687.76664117544 156 156 158
-174.348386164387 405.028504331534 2683.24921021566 136 136 136
-167.553980079937 404.47866291941 2680.01033897044 137 137 137
-159.961111423828 404.0119614802 2677.40244914981 127 127 125
-149.184504049298 403.879354627112 2677.32629260376 115 117 112
-135.994700610396 403.993859765732 2679.12702912468 71 73 68
-119.57606802813 404.436319462346 2683.42077272851 33 35 30
-101.502755696041 405.037117038716 2688.92584162718 2 4 0
-105.800924177086 403.309439306587 2676.78202162377 15 17 12
-104.525761864157 402.166431396447 2669.06726394554 11 13 8
-108.909258262078 400.450326986796 2656.99764123218 28 30 25
-102.039262653067 399.888883522593 2653.69332901058 37 40 33
-98.3995475050321 398.999515743524 2647.89789844492 11 14 7
-83.4083933308776 399.251258919783 2650.78297197309 28 31 24
-78.9447652446071 398.441401818988 2645.59617208958 29 32 25
-81.0107348650453 396.985196273973 2635.48596408082 35 36 22
-88.8372966960391 394.97002599955 2621.10914889087 41 39 24
-85.2552491638425 394.088147692425 2615.36333687589 32 31 13
-81.6822143979898 393.207453205077 2609.62532887827 59 58 40
-73.9995230702091 392.726619081097 2606.93967809961 80 79 59
-67.1312404292483 392.164694896083 2603.63716919692 70 69 48
-58.6001361539523 391.760086968647 2601.53893534525 85 84 63
-51.7130779142398 391.195529444576 2598.22017002033 87 86 65
-45.6507584563299 390.551280775261 2594.29317545816 65 64 43
-37.9173056562001 390.063206295432 2591.56357480451 50 49 29
-29.3366010843306 389.651574275615 2589.42239610923 69 68 48
-26.6061832239748 388.69343885524 2583.09195541819 35 36 22
-23.8886727669967 387.737086609013 2576.7726904826 30 32 19
-18.6581074463357 387.014128731314 2572.24385629378 28 30 19
-60.696727173025 381.9835255141 2534.6048649498 30 31 23
44.4801302885387 384.289226312468 2558.56157577057 28 31 22
62.6426245659442 384.682911910735 2562.66711317747 35 38 29
85.1673778226352 385.441720889038 2569.60629330503 37 43 33
117.259056024814 387.00782662729 2582.80537604457 33 40 32
99.3400438539789 384.2580043348 2562.62367925198 35 42 35
-186.669069696331 405.82452748251 2736.27033428025 178 178 178
-184.478929556237 404.762210849987 2729.08527042133 169 169 169
-186.18856940991 403.284569607668 2718.6666730123 166 166 168
-185.600217774341 402.061612988279 2710.22445603279 165 164 169
-183.475978287693 401.007864119195 2703.09677063251 151 150 155
-180.586401127484 400.038969185498 2696.62845057729 149 148 153
-176.925255096339 399.154089022424 2690.81410050221 156 156 158
-172.486264915916 398.35240072555 2685.64860224324 135 135 135
-164.108212365206 397.960334843514 2683.68294254988 132 132 132
-157.296417156299 397.402903825408 2680.42936421913 126 126 124
-146.512817634241 397.250610957502 2680.34727489335 116 118 113
-136.496667992787 397.01333715141 2679.60733625842 32 34 29
-114.501670590616 397.983061409238 2688.32788447562 8 10 5
-98.0152043120488 398.378081407405 2692.5628260742 14 16 11
-107.908203112754 396.121074541769 2676.00821954826 4 6 1
-117.87959832229 393.874782379664 2659.52180808908 30 32 27
-111.021213230282 393.309991855251 2656.22758080893 34 37 30
-103.348252286661 392.823371625463 2653.55040119809 25 28 21
-93.236159980997 392.572106349959 2652.72771178538 33 36 27
-79.8554284584929 392.632378125761 2654.36331550695 25 28 19
-75.3813072459666 391.824221980725 2649.16740983151 30 33 24
-88.8503464492798 389.297240932978 2630.42067649997 22 20 8
-92.6053073803215 387.717748219464 2619.12833961709 29 25 13
-85.7530175448167 387.153216859078 2615.83970914829 44 41 26
-82.1795084075294 386.278342303782 2610.1012522826 55 52 37
-74.4973395096395 385.789808305447 2607.41610420808 53 50 33
-67.6293311748042 385.222935537858 2604.11386512331 62 59 42
-57.4436753989826 384.960835122999 2603.22748581878 51 48 31
-50.5531103384351 384.390692808675 2599.90540168293 50 47 30
-46.1500656601412 383.591794245512 2594.77104060516 54 51 34
-40.0846890371387 382.944798302458 2590.84141409052 33 30 15
-31.508693391733 382.523335332379 2588.70438049587 45 42 27
-27.1061013729557 381.724437843385 2583.57041174741 38 39 25
-22.7083049383099 380.926201154495 2578.44059522209 30 32 19
-25.8921648561898 379.458146949406 2567.97611882374 24 26 15
-23.2102366401601 378.51534496995 2561.68760648931 25 26 20
3.99031442372966 379.718457131745 2572.51142175036 25 26 20
11.9573437759017 378.045682227851 2561.64685253323 29 31 26
32.5449795544661 378.636033934777 2567.61925635823 27 29 24
44.6647638586146 378.488341816058 2567.7025942252 24 26 21
29.4214129255517 376.015276401587 2549.17011039998 26 29 22
50.1207871243192 376.590310638836 2555.04576577739 31 34 25
100.35930786329 378.427466923255 2572.36474652821 38 45 37
46.973824344116 372.828749686772 2528.68377876789 42 49 41
-185.758145991783 397.679888682081 2728.91664603888 172 172 172
-185.915307852513 396.388886352742 2719.79777246958 165 165 167
-186.101926579244 395.101791137889 2710.70440490666 165 164 169
-182.41596908766 394.219692939 2704.86853181978 155 154 159
-179.521550651427 393.258739688985 2698.39596419431 146 145 150
-175.071091503626 392.458785616843 2693.22051413124 154 154 156
-171.412352164388 391.579948696002 2687.40821086218 139 139 139
-163.819425691551 391.09775889514 2684.80037129468 132 132 132
-157.005848130817 390.535027463511 2681.54528248235 123 123 121
-145.428799450301 390.442363465371 2682.09835672628 110 112 107
-133.025071626101 390.423470057781 2683.25801679142 34 36 31
-109.430348891912 391.491156815028 2693.23791250667 0 1 0
-87.3402991157244 392.390537361288 2701.87621573085 8 10 5
-108.413306804264 389.097706539879 2676.49152267303 24 27 20
-113.563450761024 387.366145788307 2663.76290472828 22 25 18
-111.522765784235 386.333560492747 2656.70750188454 22 25 18
-93.3590599333351 386.834631054306 2662.13486970485 20 23 14
-91.3120683104456 385.801001803128 2655.0740074291 24 27 18
-94.9600872263057 384.237544193591 2643.6888761498 16 19 10
-98.6537573291808 382.680361495993 2632.34358724646 27 28 20
-91.7958637675724 382.110164807264 2629.0501365383 28 25 16
-90.6514425421583 381.012730839139 2621.44840153977 32 28 19
-80.5164603402737 380.741869334872 2620.60599961529 31 27 16
-75.2855353293995 380.020105655212 2616.07684593159 36 32 21
-69.2322788165862 379.372675872789 2612.15772716339 38 34 22
-66.477278861738 378.428641849025 2605.80588891007 52 49 34
-57.1159342772361 378.076409679129 2604.3112929285 47 44 29
-49.3940960869419 377.574493638687 2601.59184876832 49 46 31
-44.1553019813385 376.851385756832 2597.05588336784 52 49 34
-39.750863321697 376.055428516565 2591.92029501648 30 26 14
-31.17357173514 375.623295968541 2589.78220732218 31 27 15
-29.2814875170917 374.61019895772 2582.85547581286 34 34 22
-24.0480324056365 373.887750200104 2578.32413363937 26 28 15
-21.3402863337491 372.950020041995 2572.01321117572 23 25 14
-7.6776084922483 372.943711062417 2573.40487333313 26 27 21
-17.6553663890036 370.937499141812 2558.24536627698 28 29 24
-8.20852132358585 370.573303346658 2556.6767414799 29 29 27
-9.78945456658664 369.287773960499 2547.46828989473 32 34 31
15.0029915894248 370.188786710654 2556.41115572034 31 33 28
32.2037290480246 370.446090894796 2560.02822072775 29 31 26
38.3338395563615 369.787936780083 2556.04255933309 27 30 23
36.7459698786803 368.503506221038 2546.84011268476 31 34 25
62.6439076557244 369.440127630825 2556.14815482592 33 39 29
112.774437611178 372.29490693853 2581.49433710623 12 22 11
-188.45346783611 391.720203003959 2736.58475627644 179 179 179
-185.48921409193 390.758947625589 2730.05166183717 172 172 172
-183.314282092931 389.721278379938 2722.87993521795 165 165 167
-182.713077529593 388.53018697967 2714.42637165654 160 159 164
-181.356880406001 387.419990119719 2706.64148109157 170 169 174
-180.022325526206 386.312505998134 2698.87501554576 150 149 154
-175.571524779889 385.515649946419 2693.69924933173 156 156 158
-172.698573529009 384.565956807192 2687.24521512164 156 156 156
-165.896535963189 383.999913732666 2684.00014989723 137 137 137
-158.29686582778 383.508791005566 2681.38652324056 129 129 127
-145.930843065968 383.470938844056 2682.57867097892 119 120 115
-131.939574426984 383.579128849757 2685.00836610976 68 69 64
-111.531666741487 384.283244889995 2692.45907040966 1 2 0
-92.6440586654911 384.826698133864 2698.58230789522 12 13 7
-108.117899780185 382.148414388567 2677.60409075815 17 18 12
-110.855152487245 380.67548985198 2666.75255539695 11 12 6
-104.781614745796 380.023741782298 2662.8158861415 19 20 14
-100.318413888395 379.223748577678 2657.62939263432 19 20 12
-86.962898745234 379.23368341383 2659.28717848288 24 25 17
-96.2727291171905 377.185744023873 2643.54902502765 24 25 17
-95.0885191224367 376.09715189 2635.91306189008 19 20 12
-93.9257600336223 375.011411413707 2628.29535703208 19 16 7
-90.3331128170279 374.145914020859 2622.54056725374 22 20 8
-77.7400924767777 374.075440651048 2623.53617941778 20 18 6
-72.5009780283821 373.352993290663 2618.99993208448 21 19 7
-66.4395289265127 372.70219175062 2615.07404986679 26 24 12
-65.3260945874026 371.622914254393 2607.49905466204 24 22 10
-55.1345216547712 371.328082666023 2606.60775884383 26 24 12
-50.723972157328 370.534566266353 2601.466858193 31 29 17
-43.8247308217212 369.95314971348 2598.13732707504 37 35 23
-41.9179190208943 368.949447689454 2591.1977697606 42 40 28
-33.3455167688177 368.507493515445 2589.06398347262 43 41 29
-32.2939649061023 367.436631908796 2581.54288501218 32 33 25
-21.1906302960081 367.200976439853 2581.18420998459 32 35 28
-7.53516041830515 367.168749276556 2582.58228749379 33 36 29
-1.43126592390708 366.511790151361 2578.61934071717 34 36 31
-30.8362980556955 362.976612132228 2549.87116514883 39 41 36
-46.0004792573767 360.624597219804 2531.26896214859 41 43 38
-25.57962812004 361.140431636582 2537.3867226039 45 47 42
6.83651910073735 362.593777223887 2551.6285679428 40 42 37
20.6013952102397 362.546531698707 2552.9319164577 39 41 36
12.1580988921366 360.748825276792 2539.08792253196 13 15 10
39.6737715003184 361.767314800845 2549.63980698295 25 27 22
50.0990511835786 361.440253768797 2548.54584245824 78 81 74
136.672407173303 365.792139311542 2589.93687824366 45 52 44
128.274621881515 363.988438594824 2576.05347711872 53 60 52
-188.18783448269 384.784951451628 2737.7230392887 178 178 178
-185.994853546073 383.756252618729 2730.53529536514 172 172 172
-185.371003806995 382.579089288102 2722.06201416171 166 166 168
-183.994404511163 381.480337859478 2714.25936613403 160 159 164
-183.419321348281 380.309532395761 2705.82831147594 169 168 173
-181.305493428045 379.29111118433 2698.7094212304 159 158 163
-176.856414299068 378.497616037894 2693.53512542526 145 145 147
-172.4125230737 377.704647642053 2688.36500723645 157 157 157
-165.608681834658 377.133286311076 2685.11841316606 163 163 163
-158.007406949099 376.634147295984 2682.5034475605 129 129 127
-146.433249667217 376.498889387126 2683.05930389316 126 127 122
-131.649683858399 376.650469563138 2686.12526629083 65 66 61
-115.225292535635 376.9404248802 2690.41469130661 2 3 0
-99.5430063186333 377.15022761381 2694.02458401084 14 15 9
-98.2174833401874 376.05690247037 2686.2661705009 16 17 11
-102.531237749268 374.464465649965 2674.13498301707 14 15 9
-105.285647493671 373.021653832738 2663.29812314566 14 15 9
-99.2090580520482 372.367084367571 2659.35882715469 16 17 9
-101.215897399435 371.003329797734 2649.19676972825 18 19 11
-90.2890052356149 370.774016448952 2648.99129812675 18 19 11
-93.1512101007761 369.345661677363 2638.24777447913 19 20 12
-92.7959578361506 368.203053847882 2630.00707244092 21 21 11
-90.0157427192769 367.273110822281 2623.6332879903 24 22 10
-74.9657708269202 367.386785304889 2626.4682767765 21 19 7
-68.8973557141335 366.732829853276 2622.53637730418 21 19 7
-62.0031306961542 366.14723807557 2619.21122106458 25 23 11
-64.1761542765158 364.805841069688 2609.19337212155 23 21 9
-54.8086508419248 364.426272621911 2607.69329967015 26 24 12
-50.395852337779 363.63562731221 2602.55043111963 28 26 14
-43.4949620436353 363.048943281633 2599.21950492342 30 28 16
-42.4183086399679 361.988789434426 2591.67658066862 36 34 22
-34.6816984087375 361.46923875855 2588.94444732247 39 37 25
-33.6313800596733 360.412624267689 2581.42401015814 33 34 28
-22.5314267876122 360.158739683076 2581.06838398289 36 38 33
-2.9908914468546 360.564781276144 2586.6265963698 46 48 43
-21.3307380166827 357.98725107925 2565.48495903552 51 53 48
-38.0946264950253 355.557168416412 2545.62326396955 59 61 56
-25.3069810832103 355.435354598783 2546.45083578857 61 63 58
-20.1281350828295 354.721382998398 2541.96677036235 56 58 53
35.2848496653686 357.840717751601 2571.99620200266 48 50 45
41.4356449432534 357.175121837865 2567.99266059777 45 47 42
-0.318345788085317 352.902231675995 2531.42563745812 32 34 29
26.3062080769476 353.790562462181 2541.42715360161 27 29 24
89.1337696910215 357.346658777442 2575.61399273507 44 46 41
81.5817360521787 355.652816651466 2562.32041275088 58 63 56
92.967879411245 355.359821496723 2561.71698877771 60 65 58
-184.836509830209 378.136386648532 2741.4780284893 180 180 180
-184.179664937191 376.971682682626 2732.97606846295 174 174 174
-184.324043972388 375.737692233755 2723.84574612088 173 173 175
-181.386703244534 374.797039001642 2717.33584465782 164 163 168
-181.581955807557 373.56969016604 2708.24957319312 156 155 160
-178.679193353963 372.633484040774 2701.7696131459 168 167 172
-175.005505940792 371.77044243002 2695.9445670027 165 165 167
-168.983046653443 371.122249490411 2692.05214624208 152 152 152
-163.745431848147 370.402489365354 2687.51718129001 147 147 147
-156.138494116846 369.894802523946 2684.89736288263 164 164 162
-145.351700451419 369.667012179694 2684.81299430352 146 147 142
-130.566244406714 369.785894461262 2687.87753024896 51 52 47
-119.713897964737 369.548841850785 2687.73640474186 8 9 4
-107.237440429917 369.446980667625 2688.83324947298 23 24 18
-91.5238485787473 369.617159725154 2692.41626522122 20 21 15
-107.851778220095 367.020241034283 2670.85452919039 27 28 22
-98.5505501518356 366.637403408012 2669.41223667843 24 25 19
-100.51996690322 365.293656471935 2659.21761409292 25 26 18
-95.250724283273 364.568424286307 2654.65527163614 25 26 18
-100.519081285694 362.960863032618 2642.02830966735 26 27 19
-100.966045106579 361.766214809057 2633.15999349672 32 33 25
-102.257233278451 360.508213524622 2623.70023106085 29 29 19
-93.7821298658399 360.059158374662 2621.65113870175 29 29 19
-77.1051826444045 360.275367132269 2625.72214232168 28 28 18
-68.5790638955819 359.819105070691 2623.62856432508 30 30 20
-60.0375317048645 359.3606624568 2621.52164107439 35 35 25
-63.8522276920397 357.911434283725 2610.28055010718 36 36 26
-53.6567111609387 357.584122332385 2609.38604670399 36 36 26
-50.8973547622325 356.665402389005 2603.03026852832 38 38 28
-44.8275781167666 356.008696218635 2599.09689127856 38 38 28
-43.7519987949351 354.962835127717 2591.55480535168 36 36 26
-34.348183705101 354.564872202736 2590.02337948014 33 33 23
-25.7617145016344 354.1000185364 2587.87754924904 27 30 23
-12.125589528948 354.016648741591 2589.29272508829 38 40 35
-11.906488320343 352.909211820073 2581.1701176687 41 43 38
-15.9284176262169 351.488304049141 2570.10814423797 41 43 38
-20.8408612120521 350.010591033387 2558.495434283 43 45 40
-4.62358976408961 350.110258892286 2561.64234973447 44 46 41
-9.5844591454104 348.639194970222 2550.07125355795 42 44 39
38.1822125375222 351.035212863579 2574.8224122993 47 49 44
31.5418772909903 349.436531997388 2562.06127477263 46 48 43
126.11357916344 354.002184331059 2609.75202672969 43 45 40
113.540699531133 351.964187909941 2592.87191279751 30 32 27
122.41736368976 351.459616699367 2590.47513305136 49 52 45
133.036182014655 351.074123050174 2589.21380027409 44 49 42
53.6698787620109 344.414092603909 2528.35786991678 56 61 55
-179.172965469991 371.671473944244 2747.19784181639 180 182 181
-180.045383352613 370.380783409828 2737.37564345831 173 175 174
-183.278229145142 368.884756604253 2725.63054526935 173 174 176
-181.113796529298 367.882419617415 2718.46737437614 164 165 169
-178.966475576326 366.882289508528 2711.31933598845 162 163 167
-175.272939024355 366.02257837297 2705.47706430162 160 161 165
-170.021085639864 365.30158940791 2700.92976622407 161 162 164
-165.556116318502 364.512040497972 2695.74135673347 156 158 157
-160.3081389739 363.791289065746 2691.1974166198 148 150 149
-152.691416337082 363.274469330918 2688.56917646447 149 151 148
-142.687530346376 362.959011076032 2687.84068932647 140 141 136
-129.484172265407 362.909803496862 2689.63073841438 29 30 25
-117.832828742795 362.720770494176 2690.12035863457 5 6 1
-114.928528099649 361.791917847777 2683.63901773244 18 19 13
-113.637737579297 360.731619054004 2675.91017856795 17 18 12
-98.7316284175708 360.801045915764 2678.87046059241 23 24 18
-107.098995584344 358.949636330006 2663.63774326772 20 21 15
-105.86205423931 357.896454742162 2655.95553099939 18 19 11
-100.604968973094 357.17335386665 2651.40371194713 21 22 14
-109.934406827175 355.277373468797 2635.68188381623 23 24 16
-105.528389475831 354.494506100141 2630.54452682049 25 26 18
-110.085416235911 353.001671327746 2618.62386231668 24 25 17
-98.3639105543301 352.801999503941 2619.05242389872 23 24 16
-80.8812501734657 353.046174801457 2623.74848212341 24 25 17
-69.0819928282154 352.835672726579 2624.1097237241 26 27 19
-63.8313093141165 352.112939923782 2619.56345091538 29 30 22
-64.3536439185244 350.94790500334 2610.76026941706 31 32 24
-61.5988963678795 350.038519178477 2604.40842541034 32 33 25
-52.2278367397315 349.631994378556 2602.90576086883 34 35 27
-49.4829985305918 348.723913116602 2596.56249719098 35 36 28
-41.7547315028406 348.190065343333 2593.83768784473 33 34 26
-29.0066694873063 348.025351716479 2594.6995304951 31 32 24
-18.7330881573504 347.671192707375 2593.73753949434 32 35 28
-13.4689341397292 346.946331409111 2589.17960510874 33 35 30
-18.2961436317188 345.490159787577 2577.49256459931 33 35 30
-13.0580296576275 344.768880199041 2572.95717684586 32 34 29
-2.75101591099292 344.410084051975 2571.96623881662 32 34 29
-11.0539492664623 342.725553689464 2557.9998538822 33 35 30
19.6321513130937 343.802455026718 2571.09711045477 35 37 32
6.18475657265449 341.765886707042 2553.65170007466 42 44 39
54.9221753210709 344.068706593874 2578.88534223876 40 42 37
46.5737361947003 342.390581275324 2564.95867279966 34 36 31
39.8735569938395 340.838953328967 2552.24878376234 42 44 39
106.14642534298 344.26216136908 2588.74398734183 35 37 32
128.785159508329 344.67991444981 2595.58658616958 51 54 47
87.6245695006577 340.803998982215 2559.82592975938 37 40 33
-171.198909357855 365.365852331981 2754.88443298946 179 180 182
-176.687139384573 363.689164075508 2741.12522994668 168 169 171
-179.132090271961 362.28919132618 2730.0198733623 168 169 173
-177.731807013406 361.229477839848 2722.19612911314 163 164 168
-174.01452265886 360.372520000661 2716.33294099794 156 157 161
-171.087822108146 359.450277426961 2709.83214245733 158 159 163
-167.390523921909 358.595838722001 2703.98657626139 154 155 157
-163.702583806766 357.742473398849 2698.14879857366 150 151 153
-159.235936422821 356.955759921696 2692.95923178507 147 148 150
-150.825962457633 356.495885849442 2690.96634405314 136 138 135
-143.192201400358 355.968836607032 2688.32340237382 134 134 132
-129.990700804499 355.892900457835 2690.11523461264 3 4 0
-116.749248486611 355.811404291343 2691.87247528699 16 17 12
-120.223054568556 354.377531513242 2680.33582328243 23 24 18
-120.543166632314 353.205220044379 2671.35741539154 25 26 20
-124.100710993595 351.782617201645 2659.89295382132 19 20 14
-116.448064435223 351.252276043118 2657.23366473107 23 24 18
-117.650424183265 350.027174068471 2647.69701383187 23 24 16
-112.421811752756 349.308431676773 2643.16984496667 26 27 19
-106.384145515382 348.652187205509 2639.26429596999 28 29 21
-111.713395024394 347.125079103864 2626.68959038699 23 24 16
-108.954626247595 346.224179574782 2620.33420604761 24 25 17
-99.6790766844495 345.817896248961 2618.91432194775 22 23 15
-83.8378718492954 345.89946024179 2622.38730516361 24 25 17
-76.9681786978023 345.302290493947 2619.08348660001 25 26 18
-75.025120243744 344.339490056624 2612.11224796505 25 26 18
-79.694385984832 342.895097331968 2600.28855111479 27 28 20
-57.141422380738 343.444308660726 2608.52789939034 26 27 19
-51.0730932564134 342.78332093888 2604.59580450375 25 26 18
-49.1539361813036 341.823634535578 2597.64526187403 26 27 19
-38.9266045870249 341.459924042026 2596.72341907546 28 29 21
-40.3598661286342 340.265731077082 2587.38638325641 31 32 24
-19.2378675445775 340.663890411126 2594.22045742676 36 38 33
-33.2625322383988 338.593435774734 2575.95234637705 39 41 36
-17.9577315775972 338.57457101412 2578.56764028037 44 46 41
-12.7175194121651 337.853502919901 2574.03043257858 42 44 39
-4.94383954605482 337.305574470227 2571.26635353611 36 38 33
7.07510555290103 337.043134199983 2571.43752042487 34 36 31
5.54487919804014 335.862336232168 2562.18475620776 43 45 40
17.5948851614316 335.595638090658 2562.32902911995 33 35 30
31.3824803015774 335.437747451822 2563.61340321746 36 38 33
46.9198974045164 335.386942050162 2566.02728706522 35 37 32
30.7980731254629 333.257346439441 2546.93040558751 44 46 41
71.2671736379864 334.81981935981 2566.102054088 42 44 39
98.9869996071748 335.527778223207 2576.47900372922 56 59 52
122.496369528978 335.945523933224 2583.89025217207 53 56 49
135.70968892164 335.693038368532 2584.3497238074 53 56 49
154.161408459932 335.763329219792 2588.20667489062 63 68 62
-160.91639216581 359.195020596335 2764.53910714245 181 182 184
-171.011910646545 357.164124114019 2746.83530562966 168 169 171
-174.9888280871 355.660410088491 2734.41159451182 167 168 172
-175.906705160191 354.420322065985 2724.62846936259 164 165 169
-172.182715236836 353.568344994084 2718.75943701438 164 165 169
-170.030403042699 352.590164708568 2711.60693030316 157 158 162
-166.328708313888 351.740980562606 2705.75720390322 157 158 162
-160.279707135292 351.0822287011 2701.84216226634 154 155 157
-155.015128957825 350.360050072944 2697.28384286238 144 145 147
-145.804098940664 349.950605976172 2695.91958514119 138 140 137
-141.32262424972 349.16481513405 2690.71716101396 134 134 132
-127.32328389935 349.123318321386 2693.14051456387 0 1 0
-118.05358743973 348.705501662033 2691.72577829551 22 23 18
-113.550446233421 347.916373754343 2686.50459664489 26 27 21
-109.052510973164 347.127834913221 2681.28760784483 29 30 24
-122.198175036589 345.00100109287 2662.25800069197 18 19 13
-126.596754693062 343.553451375614 2650.19971093986 22 23 17
-122.98705346965 342.715668012209 2644.42964474037 25 26 18
-99.997209616058 343.319431047034 2653.61355608873 26 27 19
-104.455978783363 341.879860144561 2641.60706753338 27 28 20
-98.4090711982475 341.22000562325 2637.69353212165 33 34 26
-97.2428274007111 340.204588536176 2630.07266675687 29 32 25
-91.2018470485192 339.545397500393 2626.16426439156 30 33 26
-90.8842505606784 338.475412432958 2617.9557293713 35 38 31
-85.6712768088386 337.758865955007 2613.44210088146 37 40 33
-94.4357866578258 336.055440553363 2598.55264245337 34 37 30
-81.0173501860696 335.921558931056 2600.15682405899 37 40 33
-93.1720916595493 333.999805469688 2582.91385701033 37 40 33
-48.262902832636 336.037719149807 2607.4971821212 38 41 34
-41.3529163402555 335.429830335915 2604.15882484339 37 40 33
-49.4179392663927 333.801128201796 2589.98587261996 36 39 32
-39.192533788865 333.421732408081 2589.06580089715 34 37 30
-45.6718166193411 331.917182225719 2576.16446348335 40 42 37
-12.801823702361 333.04385778003 2591.33832214611 38 40 35
-15.0987881660432 331.819663794154 2581.42682223033 30 32 27
