ply
format ascii 1.0
comment KinectMotionCapture
element vertex 758
property float x
property float y
property float z
property uchar red
property uchar green
property uchar blue
end_header
-36.0769317427658 678.756346113037 2641.06269483026 182 182 180
-26.5692345084243 677.413524368954 2639.52791725248 183 183 181
-18.8882075873511 676.583901528597 2640.486582759 155 155 153
-10.6181284375522 675.584795872049 2640.60597061061 135 135 133
-2.3624230504955 674.586888797884 2640.71952954241 146 146 144
6.47211100092204 673.420333375449 2639.98992227191 156 156 154
14.1060762815293 672.594504330732 2640.92924687055 158 158 156
22.9070024574711 671.430551821177 2640.18601227957 146 146 144
29.3461042363108 670.94514116269 2642.79683833149 136 136 134
35.2030783749526 670.628729888299 2646.24949219296 157 157 155
40.4851112146469 670.480802999787 2650.54714469285 161 161 161
46.356196283067 670.163393295084 2654.00551953783 139 139 137
53.9599754469917 669.339985727864 2654.93260363717 171 171 169
61.5544124543719 668.517342796278 2655.85615659421 152 152 150
67.4281926319151 668.199659787027 2659.31562474139 144 144 142
73.307812136268 667.881514138858 2662.77746069737 141 141 139
78.0623179372884 667.898380283328 2667.93908028722 114 114 112
84.5218573599615 667.411350388626 2670.55819366995 117 118 113
93.2242546945343 666.254755813728 2669.77500967679 107 108 103
104.697499464217 664.263592969532 2664.7254928439 131 132 127
117.792653971575 661.77487531731 2657.10002269287 130 131 126
130.828593862327 659.290436109427 2649.45028730636 133 133 131
142.153762575941 657.310227964276 2644.34073249196 138 138 136
150.14704440813 656.331767254186 2644.34789058418 133 133 131
155.399052650526 656.185412180856 2648.63337442303 172 172 172
161.747948534371 655.705982732351 2651.20763141007 172 172 172
168.097747066541 655.226392104557 2653.78225509473 180 180 180
174.986380612098 654.580933205832 2655.49749835843 187 187 187
179.729591960873 654.597498666529 2660.65454718355 193 193 193
185.554569298181 654.282187812269 2664.09423742557 190 190 192
189.264367744543 654.626505196995 2670.9879966916 191 191 193
194.055813058685 654.638920402456 2676.16460656598 195 195 197
197.287516991518 655.144079071826 2683.94263498155 196 196 196
200.027721430334 655.811176379341 2692.59923942065 193 195 194
197.08158393493 658.282914477476 2710.8077240241 197 199 198
192.15653430354 661.403878613647 2732.52527271623 195 197 196
-218.115013152081 705.378757183124 2743.01330393977 192 192 192
-192.850521611251 699.92204510665 2721.99632708074 163 163 161
-170.255008032175 695.156398888203 2704.20920885652 153 153 151
-152.811938621891 691.758436569546 2692.95651535683 142 142 140
-139.835393395683 689.554163403214 2687.43848142184 168 168 166
-123.791117147227 686.506893903376 2677.77438459435 153 153 151
-112.789164947005 684.819056487425 2674.68961912247 192 192 190
-102.440219988246 683.302964860596 2672.41796199387 163 163 161
-90.8890930007404 681.45172765846 2668.4779838919 157 157 155
-77.5368762700832 679.097657019557 2662.03412674628 162 162 160
-64.2395085770204 676.747896665075 2655.56828616901 183 183 181
-50.388153762188 674.234151449778 2648.24892865002 169 169 167
-37.8082504597739 672.061183927432 2642.57005991698 176 176 174
-27.6914764709684 670.563541133521 2640.20451579404 180 180 178
-20.0074095387484 669.738823597587 2641.16411777215 161 161 159
-11.7343455068537 668.747461564142 2641.28465548686 136 136 134
-2.28382267836102 667.422589376141 2639.72659234376 141 141 139
7.1422129990022 666.099741509409 2638.15885640908 156 156 154
14.1805776116406 665.446364921664 2639.93478473683 158 158 156
21.2147962282281 664.793411891541 2641.70877394309 148 148 146
27.0730683266245 664.473903563122 2645.16223404067 137 137 135
34.1038714879083 663.821221133121 2646.93483830216 157 157 155
39.3880349517404 663.667386933388 2651.2333982525 151 151 151
45.2614439513179 663.346804302837 2654.69273809068 154 154 152
53.4438289513715 662.362566823021 2654.77650650453 144 144 142
61.038682446821 661.545031638702 2655.70018937931 162 162 160
66.9121974200495 661.224380835954 2659.1595726422 169 169 167
71.6551439809396 661.233674590763 2664.31656937413 148 148 146
76.4140681597361 661.241732356903 2669.480044699 114 114 112
81.75230942932 661.083648976002 2673.80027535153 119 120 115
89.3441755663964 660.266171146179 2674.72274823131 99 100 95
99.1597527721428 658.791470493232 2672.23482053932 125 126 121
112.835849380049 656.169001147389 2663.76651816767 128 129 124
128.106911331768 653.059157047134 2652.71101849479 132 132 130
139.994618619218 650.938460545241 2646.75148829057 134 134 132
147.996118692436 649.967328829036 2646.76191833869 132 132 130
152.709809786707 649.978103574192 2651.90705851358 170 170 170
158.525626541684 649.661032373465 2655.3433102701 169 169 169
167.050519120144 648.527652325387 2654.48782267021 172 172 172
175.018146841502 647.55851682695 2654.48452291182 182 182 182
180.829359775963 647.241362057523 2657.91891124739 191 191 191
185.58061690512 647.248712195375 2663.07928760173 188 188 190
189.287010236734 647.579341640967 2669.97177191173 189 189 191
194.603396887158 647.421340503783 2674.28341038668 194 194 196
197.829021337567 647.910243530379 2682.05910047615 195 195 195
200.040008258089 648.72018053444 2691.57915394228 194 196 195
197.088073878596 651.14273926947 2709.78540696798 196 198 197
193.191829111291 653.881048146885 2729.76505283592 195 197 196
-223.118018517295 699.080143093787 2748.58753568438 163 163 163
-196.563211578782 693.365826209667 2725.93733469188 142 142 140
-172.056727363918 688.165154308805 2705.69031345605 149 149 147
-155.234223302995 684.979879057797 2695.26381069514 141 141 139
-142.248337544391 682.801944433139 2689.74935903669 166 166 164
-128.064702801898 680.29463060628 2682.56449056227 154 154 152
-114.562063139505 677.958584653943 2676.18165920223 189 189 187
-104.206968444444 676.458175230828 2673.91237319154 161 161 159
-94.4976332170551 675.126247444677 2672.45915483788 158 158 156
-79.9037952468695 672.46911466024 2664.36270219275 159 159 157
-67.2078926611486 670.31415485885 2658.73066425554 181 181 179
-50.9098826734709 667.169931607295 2648.0912291642 161 161 159
-38.9341532336818 665.189194244894 2643.24534302478 173 173 171
-28.2101183156811 663.542205166677 2640.04774119156 180 180 178
-21.1268218766585 662.887635284574 2641.84161391633 178 178 176
-12.8507792661579 661.903927709492 2641.96329961775 151 151 149
-3.99293434294745 660.756805702958 2641.24298345438 138 138 136
3.6585109922227 659.940022676212 2642.18931703714 141 141 139
10.1185592715181 659.452354704726 2644.80864128876 162 162 160
16.5793850861464 658.964714794728 2647.42828014624 147 147 145
23.6270220181356 658.31320383897 2649.20794862954 147 147 145
32.421022063525 657.171170030491 2648.46174355951 137 137 135
38.2907440999944 656.847801041825 2651.91961169224 152 152 152
43.0094569810107 656.850466802975 2657.06684661695 153 153 151
49.471994725617 656.362751036076 2659.68717919775 160 160 158
57.6558751309062 655.386345299772 2659.77149372812 141 141 139
64.1126816235171 654.899053721175 2662.38950255029 139 139 137
68.296652042376 655.061614666382 2668.3978202154 144 144 142
73.0675395522464 655.060236393634 2673.56621093102 131 131 129
78.9812467064639 654.733436908661 2677.04217155563 120 121 116
86.0228966259766 654.082166602241 2678.8191568893 108 109 104
94.1771123781854 653.107722596131 2678.89144554206 105 106 101
106.208292689451 651.003424995204 2672.98988225131 138 139 134
121.510260373076 647.934733544725 2661.94684139139 133 133 131
135.08021800566 645.355373418607 2653.43523734314 132 132 130
145.295760185356 643.746668767527 2650.03146021083 138 138 136
151.656415482513 643.265889210027 2652.61048873462 169 169 169
156.931551048296 643.10611065225 2656.90518118295 167 167 167
164.921537585619 642.143333256707 2656.91088615833 164 164 164
172.897411092001 641.181524569896 2656.91086952475 174 174 174
180.859169466278 640.220654870237 2656.90513065674 185 185 185
186.140570043388 640.05986643651 2661.20262464499 184 184 186
191.433089989577 639.898077483807 2665.50462837079 185 185 187
196.208463883694 639.894729808469 2670.6748505192 195 195 197
197.846051720811 640.845507530215 2681.04047936084 195 195 195
199.006741045021 641.951711706573 2692.29090264712 195 197 196
198.136200811703 643.689368162614 2707.02985624146 196 198 197
196.301169469588 645.738741041942 2723.53329054169 195 197 196
-230.032798809615 693.237605235395 2756.62092800478 155 155 155
-200.911428313504 686.946523427103 2730.69879236616 133 133 131
-176.384536605582 681.820598650083 2710.45946741712 150 150 148
-158.286413780198 678.348791124369 2698.39375199565 143 143 141
-145.288598353726 676.196989909033 2692.88393249123 160 160 158
-131.092810492129 673.721321077378 2685.70374486835 153 153 151
-115.713968845795 670.922811751883 2676.84739811221 188 188 186
-102.880203348715 668.784037793023 2671.27105720853 160 160 158
-93.1773657798336 667.465984763142 2669.81510283202 157 157 155
-81.6578529563567 665.660440526207 2665.8619780384 158 158 156
-68.3437842668169 663.369043421676 2659.40245719897 180 180 178
-53.8665818638495 660.756210138883 2651.2584438594 163 163 161
-42.485366896057 658.961538731656 2647.24898360246 174 174 172
-30.5397928695947 657.007465037822 2642.39042841956 180 180 178
-22.2465361778392 656.03030854299 2642.51929155188 186 186 184
-13.3685708676821 654.892267884223 2641.8067959302 162 162 160
-5.70269389374856 654.079506684703 2642.75919952363 144 144 142
2.54784890632753 653.105739745422 2642.87048518483 134 134 132
7.23653336283259 653.102087179412 2648.00560970403 159 159 157
15.473588010313 652.129508433385 2648.11142510146 156 156 154
21.3515241904119 651.802440072274 2651.57264712309 138 138 136
31.3212456786076 650.348553153514 2649.14697359849 143 143 141
37.7745606162938 649.861239323756 2651.76356888342 141 141 141
43.0711934387282 649.694940188384 2656.06727206968 159 159 157
48.3789884224997 649.527762109862 2660.37524417173 151 151 149
54.8449227119405 649.039508248619 2662.99695606812 155 155 153
60.740514052319 648.711125352434 2666.46559372965 148 148 146
64.936311684384 648.861541230441 2672.47879220604 133 133 131
70.2852293116505 648.691189332134 2676.80369585885 127 127 125
76.2089457115802 648.360523778064 2680.28348123346 117 118 113
82.1385565263084 648.029391220558 2683.7656567547 115 116 111
89.749873278564 647.220623956573 2684.69593902728 102 103 98
100.688685928689 645.459568629308 2680.50709839996 125 126 121
117.123664739736 642.115075566938 2667.7670227203 131 131 129
131.265061190818 639.410935888552 2658.40867063335 132 132 130
143.142738195094 637.345041776032 2652.44466385124 140 140 138
150.603044519733 636.547252479491 2653.31371985967 167 167 167
156.967227778207 636.065834751613 2655.8941816672 164 164 164
164.955457428265 635.111116884569 2655.89911420232 161 161 161
171.314053687076 634.629813035637 2658.47731301003 178 178 178
179.817470291209 633.519110486847 2657.61321527731 185 185 185
184.567775552096 633.509469962101 2662.7733350115 181 181 183
190.926865730515 633.027708548125 2665.35173727198 182 182 184
194.116739159987 633.486064521685 2673.11292633769 191 191 193
196.811745948379 634.098485528223 2681.75190222579 194 194 194
199.019856335086 634.86420690227 2691.27112614615 197 199 198
199.706748364735 636.095171207191 2703.40757475431 195 197 196
200.449961019291 637.321667920592 2715.56711827486 196 198 197
-259.888841789554 691.928194740535 2782.30346683664 191 195 196
-242.680649980372 688.799879800535 2772.03243734715 178 178 178
-210.968610398983 681.952036587923 2742.84771837231 140 140 138
-181.346297800443 675.604674898192 2716.0497718644 149 149 147
-159.452659684393 671.210472719086 2699.05446192787 145 145 143
-142.69127558856 668.116929867677 2688.60225959222 157 157 155
-130.378116473261 666.158265772433 2683.89282903269 156 156 154
-116.244720047181 663.719998521068 2676.68709606504 191 191 189
-103.409000010527 661.608088506145 2671.11134291924 159 159 157
-93.7054393712977 660.303397923824 2669.65558002509 152 152 150
-82.7984371910426 658.679810741503 2666.53188296237 153 153 151
-69.4797437965779 656.417785841389 2660.07401199996 180 180 178
-55.6065384472728 653.999983601099 2652.76277438624 169 169 167
-41.7929810940751 651.586782193565 2645.42760807423 166 166 164
-31.0586621803133 649.976642692345 2642.23363362186 172 172 170
-22.1633466710334 648.847862142139 2641.52835001056 203 203 201
-15.0842000547693 648.198547157222 2643.32075989731 190 190 188
-8.00939698496483 647.549695855554 2645.11140759822 145 145 143
-0.344719673856408 646.742205749931 2646.06302827665 143 143 141
4.35333897825041 646.729322277383 2651.2020183091 133 133 131
12.6009764479504 645.763825407802 2651.31206493771 182 182 180
19.6614120585024 645.116261853259 2653.09688559521 166 166 164
30.2212224184089 643.519793483448 2649.83240746665 145 145 143
35.5142826971016 643.347924749922 2654.13444914471 143 143 143
41.3970238690162 643.01751678123 2657.59764198686 147 147 145
45.5564611210075 643.159510326607 2663.59643946804 156 156 154
52.0324555007605 642.670160542751 2666.22223293064 150 150 148
57.3667342020328 642.495205479169 2670.54098705004 148 148 146
61.5741572945692 642.633456972443 2676.55924202242 155 155 153
67.5016871025165 642.299530372117 2680.04059613681 124 124 122
73.4352723869021 641.96506423164 2683.52440616035 118 119 114
79.3748050729117 641.630097001629 2687.01062804287 113 114 109
85.8791020719127 641.13832552599 2689.64789939161 105 106 101
95.7218955701793 639.709792142302 2687.17089867522 106 107 102
111.073253996511 636.724137311279 2676.14696915623 130 130 128
126.345099443417 633.744483264069 2665.09079990989 132 132 130
138.793688290895 631.548406311224 2658.28012990252 143 143 141
148.456968069805 630.133084683281 2655.73008798267 165 165 165
155.372618964465 629.495533049859 2657.45595321847 163 163 163
162.825256678676 628.703282851426 2658.32186227592 160 160 160
168.114300423131 628.530626482479 2662.62228365773 180 180 180
176.631217910785 627.429494430282 2661.7635797955 184 184 184
182.994458827703 626.947284608869 2664.34366605946 179 179 181
190.420853876499 626.156426142448 2665.19893909832 181 181 183
194.666791232284 626.290077458133 2671.23256586505 190 190 192
197.355614706826 626.883506761512 2679.86892489849 194 194 194
200.604259512385 627.320344114153 2687.65433041056 197 199 198
202.32101653323 628.214901062039 2698.05269765947 195 197 196
202.528707444976 629.565494452763 2711.07302251156 196 198 197
-247.057796526327 682.18527916504 2776.78366184994 181 181 181
-222.93439036 677.35326398256 2757.45780607399 144 144 142
-188.205723885821 669.827360701392 2724.10508233414 155 155 153
-162.506989686167 664.542851769089 2702.18381386032 140 140 138
-146.986178164866 661.809219303353 2693.3844579536 150 150 148
-132.783396401676 659.398002869728 2686.20661358041 156 156 154
-117.396840612497 656.674917569856 2677.3528185326 190 190 188
-104.556742164764 654.589679460075 2671.77863600871 160 160 158
-94.2332223569309 653.140220187375 2669.49617936124 152 152 150
-83.939261997521 651.69312732845 2667.20199359193 153 153 151
-69.3925356252636 649.14535148118 2659.08563689822 182 182 180
-57.3471815068427 647.232179585577 2654.26717194441 169 169 167
-41.7060204504069 644.37931959412 2644.43838305552 155 155 153
-29.7647766385203 642.474181532638 2639.57796090716 184 184 182
-22.0795820269317 641.670116960436 2640.53786293084 202 202 200
-16.8004199389191 641.49333644221 2644.83457178632 193 193 191
-12.1069597608947 641.472125289165 2649.97150582414 147 147 145
-4.42707117452756 640.668714793837 2650.92951174456 151 151 149
2.06035209060373 640.178041088094 2653.559942717 136 136 134
10.9051349999489 639.063993951512 2652.83408713809 157 157 155
17.9709471597846 638.418341105025 2654.62081301318 174 174 172
26.2007378471725 637.462118760068 2654.72356330748 130 130 128
33.8345707737651 636.662327280289 2655.66289418582 141 141 141
39.7222166076563 636.328422367078 2659.1280993968 152 152 150
45.6157059706836 635.994114258109 2662.59567366751 151 151 149
49.2187584222061 636.278230659947 2669.44692576876 163 163 161
55.1341749059271 635.942215194355 2672.92339111686 164 164 162
59.9174849258044 635.914388089649 2678.09701209387 159 159 157
65.2832726472849 635.731132929515 2682.42884413173 122 122 120
70.660222530103 635.546998826231 2686.76494508537 110 111 106
76.0480454470918 635.361997858857 2691.10571225079 111 112 107
82.5649386850518 634.868959414352 2693.74809333088 104 105 100
91.3086948830635 633.76219912152 2692.98127751875 104 105 100
104.465115749163 631.431253752039 2685.37916058565 121 121 119
121.422253297668 628.033611830275 2671.77184076987 133 133 131
135.540082007378 625.407189840287 2662.40361441877 147 147 145
146.856479613019 623.548962326067 2657.28958366485 154 154 154
154.86511418149 622.60861792307 2657.3026690602 153 153 153
162.318251015753 621.821468925128 2658.16874154211 169 169 169
167.607026955672 621.643065379916 2662.46909805379 179 179 179
174.515792268417 621.008116139817 2664.1924128673 176 176 176
180.886745732635 620.524906723069 2666.77562946376 178 178 180
187.789951589713 619.890069179658 2668.49669244635 183 183 185
193.102847892932 619.709246526397 2672.80683345873 192 192 194
197.900522085223 619.678517980203 2677.98629237969 192 192 192
202.190436487903 619.797262427292 2684.03809535825 193 195 194
204.937976291605 620.366343520108 2692.69841277091 196 198 197
205.128319232868 621.685075844887 2705.71195505063 198 200 199
-273.157583247041 679.680239513235 2797.52278150561 191 195 196
-253.98495714275 676.164483532416 2784.81339260999 194 194 194
-227.928025868344 670.934086339055 2763.03674544626 148 148 146
-193.805265934773 663.682473643485 2730.51568075531 149 149 147
-165.562868556511 657.853021744696 2705.31296423211 144 144 142
-149.402351696575 655.000349341419 2695.69445741319 148 148 146
-137.063153525653 653.088255494165 2690.99495966679 156 156 154
-121.658943225027 650.401759173741 2682.14803547132 188 188 186
-108.802061062925 648.34235956043 2676.58045270592 158 158 156
-99.0792629637904 647.062954412303 2675.13228726654 150 150 148
-88.1522013110525 645.475496676411 2672.01643829101 150 150 148
-72.3641939447519 642.651973431526 2662.24714129646 179 179 177
-57.260183308891 639.988902711257 2653.27849082015 171 171 169
-41.6186966167447 637.176694558216 2643.449525649 149 149 147
-29.0737478610146 635.141650187413 2637.75545864733 173 173 171
-21.9952015544382 634.497164852127 2639.5475888655 199 199 197
-17.9177253884912 634.622583859039 2645.51306928652 201 201 199
-13.2225826329095 634.592745777966 2650.65100720441 135 135 133
-7.32276262368714 634.254738082267 2654.12117275085 147 147 145
0.950227177598295 633.303073262202 2654.24137951606 145 145 143
9.20894708862918 632.352509130745 2654.3558001607 145 145 143
17.4534500962307 631.403011601796 2654.46445639713 166 166 164
23.3464174142195 631.065720746316 2657.93209913046 157 157 155
30.4090965901165 630.422766940488 2659.71753602451 129 129 129
36.8882377464634 629.932480418239 2662.34461069493 152 152 150
43.3683746889344 629.442174777824 2664.97208869701 151 151 149
46.9778806745362 629.711792270209 2671.82606368634 154 154 152
52.3290824568481 629.523899858701 2676.15176790314 162 162 160
55.9831630300172 629.790105342264 2683.02381668983 165 165 163
61.9305323782009 629.448449953768 2686.51326227586 138 138 136
67.3194964366928 629.257649958079 2690.85453543646 126 127 122
73.8429792216726 628.763790555601 2693.49959080017 112 113 108
78.6898658157746 628.722378415388 2698.69905645332 108 109 104
86.3363518364264 627.926342068823 2699.64322479053 102 103 98
98.4069792161952 625.927113896578 2693.75683694122 109 109 107
117.599689030718 621.97782501239 2676.7433760589 132 132 130
134.481109673873 618.637529671384 2663.10496433218 142 142 140
145.255245389772 616.953207412473 2658.84912278963 153 153 153
153.813663062457 615.870605655906 2658.00708160424 154 154 154
161.269973425512 615.088291607931 2658.87414515137 165 165 165
167.638947924461 614.605298756995 2661.45655883728 177 177 177
173.472538149655 614.271163472586 2664.89987906075 175 175 175
180.380083849926 613.638552463951 2666.62268233862 177 177 179
186.752137201628 613.154837472459 2669.20634810388 182 182 184
193.125199175306 612.670893129482 2671.79042399145 191 191 193
197.393430795963 612.780212633559 2677.83326197686 193 193 193
202.206744506434 612.739547574702 2683.01912854419 193 195 194
205.47186769665 613.141485206065 2690.81147056805 196 198 197
206.173869570339 614.279794949151 2702.95473934152 197 199 198
-267.287686568711 671.629121676274 2801.03929457914 195 195 195
-236.732162927056 665.399277558804 2773.53949972814 150 150 148
-196.879013962709 656.878876222922 2733.63820113087 146 146 144
-169.879154064939 651.447662841201 2710.08698771674 149 149 147
-151.819445350233 648.174545977788 2698.00421267248 141 141 139
-138.846517221488 646.133030834593 2692.48348053886 160 160 158
-122.190336819699 643.17810509063 2681.98763129163 189 189 187
-110.570940991858 641.450964002846 2678.07435414558 157 157 155
-101.459330216243 640.336972636937 2677.45627763339 150 150 148
-91.1382538164161 638.920040408492 2675.17284234772 147 147 145
-75.9493406317147 636.288325809837 2666.23807341557 176 176 174
-60.2205068599007 633.510108639754 2656.44447404341 176 176 174
-45.1731866156433 630.88937307997 2647.45229191294 155 155 153
-30.1954344077982 628.273964523038 2638.43215902584 168 168 166
-21.30796646392 627.177576719344 2637.72345246261 189 189 187
-17.2364056194767 627.292196590723 2643.6866196663 206 206 204
-14.3382141387018 627.707275202295 2651.33029403098 165 165 163
-8.4361315898005 627.366009780527 2654.80140035641 135 135 133
0.431849914196203 626.2713750673 2654.08479058354 145 145 143
8.69112033000063 625.328597989842 2654.19937509993 150 150 148
15.7621434228423 624.687398629303 2655.98843431527 139 139 137
21.6600497904136 624.34661351881 2659.4578460938 176 176 174
29.3096996260898 623.555850384644 2660.40351269436 180 180 180
36.3709493433728 622.915400876252 2662.18835182884 125 125 123
42.8510059838965 622.424742941394 2664.81579998753 147 147 145
46.4595795107556 622.68038692659 2671.66950334629 168 168 166
51.2382743111088 622.635859399741 2676.8413822382 149 149 147
56.6023997610305 622.441144788304 2681.17237086703 139 139 137
61.4106217233645 622.394277879754 2686.35622282987 121 121 119
65.6704114641995 622.494672153654 2692.39571040866 118 119 114
69.951267618291 622.593421849197 2698.44399732119 113 114 109
74.8127596657648 622.542334451646 2703.64944995493 113 114 109
80.8040338708109 622.194062318237 2707.15672246011 102 103 98
92.3449938098828 620.36774698068 2702.13337352125 94 94 92
112.671198579023 616.183678920499 2683.42302000507 130 130 128
131.774025365501 612.303708335069 2666.37264070656 145 145 143
145.293929450256 609.904145263978 2657.83940751812 153 153 153
153.306508363185 608.979239361037 2657.85397293102 160 160 160
160.763209771479 608.202064964169 2658.72115585245 171 171 171
167.132349763266 607.718670456878 2661.30363958969 174 174 174
172.965810402954 607.381526746096 2664.74693014795 172 172 172
179.339476243346 606.89750467184 2667.33125112607 185 185 187
186.777509044558 606.121206178721 2668.19112584795 193 193 195
193.677324243863 605.491299806785 2669.91077860025 196 196 198
197.413192631364 605.735399358217 2676.81585302494 192 192 192
201.175216767592 605.977361448627 2683.73179115523 193 195 194
204.963541756253 606.21709574551 2690.65813797418 195 197 196
206.182494108571 607.18009295712 2701.93323701825 197 199 198
-276.136510644275 665.925309644013 2811.52523640251 204 204 204
-251.255134999154 661.153293539738 2791.42701418794 163 163 161
-201.851167863862 650.505757738042 2739.2254891381 147 147 145
-172.308150296936 644.556929231309 2712.3924158598 153 153 151
-152.982753678672 641.030764424892 2698.66615341752 134 134 132
-137.506270314689 638.414517471721 2689.84795960322 157 157 155
-122.721605072506 635.953873203941 2681.82728224156 189 189 187
-111.720453136119 634.398114714326 2678.74119162626 155 155 153
-103.223149997118 633.444279531766 2678.95223772627 150 150 148
-93.5105335252453 632.192460748917 2677.49974072088 147 147 145
-80.1485878936528 630.046232492066 2671.0585045764 174 174 172
-64.4018512153843 627.307334322286 2661.27185593714 176 176 174
-52.3733566696225 625.46833536023 2656.44600245099 159 159 157
-34.9460179821615 622.293206061091 2644.10618530938 166 166 164
-24.233429537929 620.760130587792 2640.90308544581 179 179 177
-17.7536331714625 620.268925400983 2643.5304323694 201 201 199
-13.6620899903119 620.370783978063 2649.50178700702 187 187 185
-7.17065955239904 619.878806485837 2652.13385033772 140 140 138
0.506016371085494 619.091072758277 2653.09043664803 138 138 136
6.99408854284678 618.599391223235 2655.72113799724 162 162 160
14.6576307234574 617.812673583426 2656.67214161974 149 149 147
21.1424018182191 617.32131336263 2659.30150395074 150 150 148
28.210340711621 616.682719513491 2661.08929464648 175 175 175
32.9553775836942 616.632250882417 2666.24759071321 145 145 143
38.8708609518222 616.286994709823 2669.72415318438 124 124 122
43.6428951407191 616.234446908042 2674.89339603332 141 141 139
49.0030529460819 616.034242949708 2679.22307702522 185 185 183
54.944046255337 615.687025448396 2682.70998315748 167 167 165
59.7566802919571 615.631260996776 2687.89568897895 125 125 123
64.5852898453203 615.574230834908 2693.08787276791 114 115 110
69.4300973685449 615.515947226299 2698.2866245011 110 111 106
74.2909312941751 615.456334099764 2703.49187528865 107 108 103
79.1679589873404 615.395408083327 2708.70369276951 105 106 101
88.4975895108884 614.172946253632 2707.09590494451 94 94 92
107.739876715805 610.3450799332 2690.10159724701 101 101 99
127.966642229088 606.236502445066 2671.35015205489 146 146 144
143.145224966447 603.43752293544 2660.25510915984 148 148 148
152.255053000257 602.231280122972 2658.55820192552 158 158 158
160.256768698469 601.314916121376 2658.56830415432 173 173 173
165.546986685215 601.118998065625 2662.86963452233 169 169 169
171.92229255829 600.634666726345 2665.45462188223 167 167 167
178.833130596855 600.006612262161 2667.17846644068 187 187 189
186.271634974126 599.235417151791 2668.03849341813 196 196 198
192.113134216534 598.894049991418 2671.48507076237 193 193 195
195.853027524159 599.123867522008 2678.39214032913 191 191 191
199.619331860195 599.351448530035 2685.30966326018 192 194 193
203.933638947567 599.434312978043 2691.37135739832 194 196 195
206.191846981207 600.084816468226 2700.91199604832 197 199 198
204.357058024005 601.869326706631 2717.41779330165 196 198 197
-288.28669111754 659.801090600823 2814.20430562543 193 197 198
-279.889757653244 658.961522627286 2815.45291200964 205 205 205
-256.895547630704 654.709541572142 2797.82307248725 170 170 168
-215.049177836528 646.020829176849 2755.49340900266 130 130 128
-179.778700660845 638.833565864235 2721.27894286854 150 150 148
-156.656547781549 634.472300746895 2702.62292670401 135 135 133
-139.28968780791 631.449912226284 2691.33652979539 159 159 157
-123.252421657843 628.728977883407 2681.66712109711 186 186 184
-112.250164239395 627.191991168938 2678.58133579874 148 148 146
-103.134892505922 626.098924854705 2677.96484020285 150 150 148
-94.0388099917604 625.007414168374 2677.34030600999 147 147 145
-78.8372612339927 622.450698377628 2668.41034188805 164 164 162
-63.7051359490546 619.899303550204 2659.45222836149 174 174 172
-51.6798952788797 618.084801596278 2654.62487172347 162 162 160
-37.8843371905406 615.835437907943 2647.28117579118 158 158 156
-27.7628268527634 614.466212889335 2644.91631878416 157 157 155
-20.6704572694529 613.827930460249 2646.71374170644 188 188 186
-15.3749056083112 613.626747963149 2651.01727154452 201 201 199
-8.28366166656536 612.988698742821 2652.81449416138 177 177 175
-1.19635177356869 612.350936735721 2654.60986450617 146 146 144
5.29671239353813 611.85856081373 2657.24259234226 149 149 147
13.5528160608018 610.931810108979 2657.35603041557 165 165 163
19.455245406568 610.584479824766 2660.82732312661 146 146 144
26.5283145143462 609.94793033857 2662.61717551415 135 135 135
31.8577392963408 609.744278767925 2666.93418182766 167 167 165
37.7754873053113 609.395794590841 2670.41168570328 171 171 169
43.1242728740739 609.19066346348 2674.73679950362 147 147 145
49.0565090240909 608.841031418137 2678.22017822562 139 139 137
56.134360281076 608.203953610966 2680.01197087608 170 170 168
59.804208130233 608.426767730365 2686.89073261603 151 151 149
63.5002571616614 608.647511393173 2693.77986149632 133 134 129
67.2222245516842 608.866285843192 2700.67975668935 112 113 108
73.2097606377728 608.512152935358 2704.18556007968 113 114 109
78.0886663577407 608.442530143684 2709.39820387949 115 116 111
86.3123155639598 607.517758397996 2709.49822914453 100 100 98
102.805640268962 604.462118890245 2696.77933064695 94 94 92
124.156918085556 600.13588244495 2676.32722604238 136 136 134
140.995721811476 596.953634228294 2662.67036107316 145 145 145
149.569435177532 595.901681285378 2661.83428069618 157 157 157
157.581871417934 594.992388248933 2661.84867000071 163 163 163
163.421509236523 594.648682443444 2665.29476862046 173 173 173
171.95315948982 593.599529511158 2664.44137873674 183 183 183
180.465481952462 592.55172314122 2663.58041018725 199 199 201
187.894484878661 591.786391669796 2664.43654564957 199 199 201
192.666565398076 591.72352881961 2669.60588544265 190 190 192
195.346522065317 592.22013591187 2678.23938825449 186 186 186
197.538262988155 592.853823610665 2687.75298507396 189 191 190
200.815384733441 593.204509028532 2695.55057370571 192 194 193
203.084791315792 593.831923870489 2705.095664348 197 199 198
202.2935529068 595.292601310308 2719.86882611559 195 197 196
-285.651525951308 651.344695313242 2809.9410645921 194 198 199
-280.455805816161 651.240616949183 2815.28224547188 211 213 212
-264.444717057205 648.658772142494 2806.67999161571 175 175 173
-228.25491168533 641.426644087023 2771.7590296591 123 123 121
-189.774149231977 633.630949245061 2733.45444190505 148 148 146
-164.098479042355 628.75677751726 2711.52072473254 133 133 131
-141.073549333448 624.473840674886 2692.82474988694 155 155 153
-123.160378321641 621.358815058813 2680.68144447456 186 186 184
-111.538994526703 619.69613984917 2676.768226382 146 146 144
-102.428047076403 618.613996509975 2676.14989712127 151 151 149
-95.7974702246034 618.110127954691 2678.83838998189 148 148 146
-81.2007832842723 615.734643664222 2670.74095604583 163 163 161
-65.4483272396151 613.076647635611 2660.95600992139 174 174 172
-52.8087862374604 611.142333532455 2655.29947914335 166 166 164
-40.2184128263248 609.211800747145 2649.62275486753 161 161 159
-30.0885327346394 607.858016854342 2647.2614269017 153 153 151
-21.788273778206 606.93554411612 2647.39245348695 181 181 179
-15.2952983177002 606.442697013365 2650.02514897778 211 211 209
-9.99169353350648 606.235053726373 2654.33173121291 191 191 189
-2.89939798971628 605.599342121747 2656.12936189751 152 152 150
2.41828543781319 605.390727436516 2660.44190906523 141 141 139
12.4480415488677 604.044762040801 2658.03972511913 153 153 151
18.3527313331495 603.694144308939 2661.51195798369 164 164 162
24.845937651427 603.201428356012 2664.14474595312 147 147 147
29.0197106003587 603.274595088594 2670.14961231854 152 152 150
34.3696310071349 603.063575768177 2674.47523023765 173 173 171
40.8807430229254 602.569471068448 2677.11527862369 166 166 164
45.6751488033056 602.497995065915 2682.2937230424 126 126 124
52.7658404919313 601.862320867573 2684.09070405386 137 137 135
57.5824260314024 601.78909301827 2689.27788495214 154 154 152
63.5449810054387 601.433915209961 2692.77383881348 141 142 137
67.8261267479725 601.498664661511 2698.82224346435 112 113 108
72.6883458425276 601.421815937199 2704.02818573815 114 115 110
76.4518816972653 601.623165361341 2710.94478655896 112 113 108
84.1261597737639 600.845395003504 2711.90032647836 104 104 102
99.5258103107603 598.116567775123 2700.89400341023 99 99 97
121.445077617489 593.72332967223 2679.59331621761 134 134 132
140.4874323601 590.035637919777 2662.51699479508 151 151 151
150.151748193748 588.716557982774 2659.96690010723 162 162 162
157.617491915496 587.954059526819 2660.83763295779 161 161 161
163.454631905183 587.60744867626 2664.28248501719 174 174 174
171.447189640051 586.707292253549 2664.28875640237 190 190 190
178.890779274411 585.946125177722 2665.15076635468 201 201 201
186.325434688897 585.185432252951 2666.00889808406 195 195 197
191.631790045569 584.976041338665 2670.31686447961 186 186 188
196.422048332974 584.903100651144 2675.49364070966 184 184 184
198.604810352369 585.515173357251 2685.00376587038 188 190 189
201.873261378595 585.849778543115 2692.79796567308 191 193 192
203.094186586808 586.729411114018 2704.07449539381 198 200 199
203.849483728118 587.741614899428 2716.240298893 195 197 196
-282.373552981833 642.771614546133 2804.8599109664 192 196 197
-279.745540082396 643.232825041837 2813.47265041056 217 219 218
-267.549873388035 641.546941546816 2809.79238854154 241 243 240
-240.835531989086 636.58037237546 2787.20085697345 145 147 144
-197.884145858853 627.918535509642 2743.1607867924 137 139 136
-167.148878482488 621.984117424208 2714.65246428966 126 128 125
-145.985301801362 618.197376744035 2698.43576139214 161 163 160
-127.428194432517 614.987598315125 2685.47509131375 180 182 179
-113.929053379677 612.919721569527 2679.08855351541 146 148 145
-103.574069496715 611.564277975023 2676.81812383623 144 146 143
-96.3256643706372 610.918409816593 2678.67903917056 147 149 146
-82.3394508160618 608.719221771195 2671.41190074394 153 155 152
-66.5815480539018 606.101441959237 2661.62885512895 172 174 171
-51.5059601314924 603.630292691318 2652.64724178468 157 159 156
-41.9483148088324 602.430592754641 2651.13160301033 156 158 155
-31.209228380962 600.951846536762 2647.93882019199 151 153 150
-23.5063263537316 600.177283284332 2648.90566821107 151 153 150
-15.8128215710343 599.403489032054 2649.86896275003 211 211 209
-11.1050893757632 599.329973375904 2655.01232910713 210 210 208
-4.60298821959104 598.836134268924 2657.64872704672 186 186 184
1.30980133001635 598.481766450493 2661.12426787361 150 150 148
10.1674818758928 597.43026934362 2660.40316034435 141 141 139
17.8354051314178 596.658507281763 2661.35582447389 173 173 171
23.7458300998343 596.304386580771 2664.8304060255 168 168 168
28.5015077558042 596.227341288098 2669.99321191423 148 148 148
33.2732753068214 596.1490809993 2675.16254169701 137 137 137
38.6362804428473 595.93116694224 2679.49350979068 150 150 150
44.0105558150246 595.712335491413 2683.82879085032 166 166 166
51.1064286036893 595.078641848336 2685.62785464047 145 145 145
55.927336741852 594.996518130976 2690.81711038319 131 131 129
61.8948307654705 594.637846067654 2694.31483328973 130 130 128
65.0548161643283 594.965801875673 2702.06516652747 117 117 115
69.3664025567826 595.016841888164 2708.12600029603 114 114 112
73.6990553624934 595.066237322298 2714.19563339833 110 110 108
80.8288206402243 594.429564974296 2716.00818536883 106 107 102
94.0336163384121 592.289711414646 2708.42446386584 103 104 99
115.431194140336 588.107010775296 2687.98976060906 133 134 129
136.146049394712 584.07084260176 2668.35683974151 152 153 148
148.009708568316 582.221970378836 2662.38551227214 150 150 148
157.111211780181 581.056257786944 2660.68492716826 155 155 153
164.028295315619 580.43514521457 2662.41150509313 162 162 160
172.554044558396 579.407615134691 2661.55581926321 169 169 167
179.99069907561 578.652083897902 2662.41472129096 195 195 193
186.885739239759 578.032209683646 2664.13236462427 194 194 194
192.716783560719 577.682435439228 2667.57477256817 184 184 184
197.499052821446 577.601490060468 2672.74837477119 181 181 183
200.197633205625 578.05749817129 2681.38972592352 195 195 197
202.410168620513 578.644855724648 2690.91209345563 188 188 190
203.624266561053 579.497263207443 2702.1860652227 192 192 192
205.924491008125 580.077608133064 2711.74424780414 199 199 199
-284.859047905508 635.496214792762 2807.14537885327 188 192 193
-280.310567432786 635.516172254121 2813.30236495682 150 152 151
-272.563204450532 634.833492412625 2815.3655838209 183 185 182
-252.15689791903 631.35008489939 2800.99758469947 148 150 147
-204.10665565889 621.720706942198 2750.39835940254 150 152 149
-170.828802031406 615.328764099346 2718.60749020391 136 138 135
-145.268806770802 610.626886063774 2696.6256311315 154 156 153
-125.466621981525 607.190176349857 2682.01267343255 180 182 179
-111.97550996312 605.152609150653 2675.6229122234 146 148 145
-102.247582841843 603.952807953251 2674.17622011256 144 146 143
-96.8535149240146 603.726066695266 2678.51983221468 147 149 146
-84.7043735093764 601.974734939047 2673.74216329897 150 152 149
-69.5466167371819 599.535152964623 2664.79358026938 168 170 167
-54.4583894114679 597.100960125719 2655.81680441046 156 158 155
-46.7065955672141 596.32763412305 2656.80343900247 154 156 153
-35.3456087660768 594.728443730863 2652.78456403765 150 152 149
-25.2250612030771 593.407504417966 2650.41895121745 145 147 144
-15.7318152174482 592.22620690292 2648.87709812164 207 207 205
-10.4317656871433 592.00715364997 2653.18258457059 215 215 213
-5.12085751956159 591.787329751695 2657.49247344626 202 202 200
0.201106835706399 591.566695082466 2661.806587813 158 158 156
7.88594068948911 590.798758444522 2662.76632715506 142 142 140
16.1472537887974 589.895062540535 2662.8814425149 161 161 159
22.6454735717967 589.40117229086 2665.51626930159 176 176 176
26.8226138591314 589.45144698064 2671.52267259396 161 161 161
30.4429206125483 589.635929857523 2678.38140880842 141 141 141
35.815597123684 589.411421385521 2682.71634275735 137 137 137
41.1992933337364 589.18606973148 2687.05574489552 161 161 161
49.4463832261258 588.283351265262 2687.16509397077 160 160 160
54.8398009051545 588.057115259221 2691.50818173957 136 136 134
61.9403526984692 587.425352287332 2693.30912539166 128 128 126
66.2224927935622 587.467337927197 2699.35810519234 125 125 123
69.404932187014 587.776747550488 2707.11767046872 118 118 116
72.6186615580868 588.0836781275 2714.88992362624 114 114 112
78.085032232303 587.851597002313 2719.26285107782 112 113 108
88.5382085428292 586.412992831172 2715.95374378267 109 110 105
107.21208352245 582.970559072169 2699.8054338913 117 118 113
130.706744106116 578.334187850218 2675.90777352098 140 141 136
146.95742162478 575.443441772682 2663.089636273 144 144 142
157.148012778677 574.024440795307 2659.67431874468 154 154 152
164.60319909874 573.272851055813 2660.54069429287 164 164 162
170.973857255742 572.787423431849 2663.12380813494 172 172 170
178.415879336403 572.036602263934 2663.98510497668 193 193 191
186.38169343253 571.153867371899 2663.98041600122 186 186 184
192.212709939308 570.800957085752 2667.42283645369 210 210 210
196.994488443322 570.711502606033 2672.59630444946 215 215 217
200.216922632109 571.016189337981 2680.37209913385 205 205 207
203.470757514616 571.318304001638 2688.16037000608 201 201 203
205.19551629044 572.012216145662 2698.5634979419 199 199 199
208.001860453125 572.439870556234 2707.24869679933 189 189 189
207.754157308979 573.651014747792 2721.1647581757 196 196 196
-287.345505432143 628.204064331694 2809.43058395481 193 197 198
-282.152141076122 628.074498775467 2814.77100418225 175 177 176
-273.763806624681 627.256210366971 2816.01571036712 146 148 145
-256.517921411691 624.516113753707 2805.75700008118 128 130 127
-214.748256948364 616.433391545238 2763.39168591018 134 136 133
-177.652218299545 609.330503801325 2726.67905550519 131 133 130
-147.680332455933 603.750549186326 2698.93802385212 150 152 149
-127.243334281117 600.233438406933 2683.50389887818 181 183 180
-113.745173686282 598.22505137335 2677.11677041008 148 150 147
-102.774620785413 596.765690635465 2674.01730256647 148 150 147
-94.3021308975556 595.853148621926 2674.21824619216 150 152 149
-83.3902467047274 594.398436095816 2671.09498857141 148 150 147
-71.291495884843 592.675300599616 2666.29696036684 164 166 163
-58.0203332122637 590.684694383559 2659.8175300451 154 156 153
-50.8615505857255 590.050708936007 2661.64206779549 148 150 147
-40.6905667457809 588.741883311114 2659.29678444868 147 149 146
-29.3472907140149 587.165645395031 2655.27056454508 143 145 142
-18.6416499588995 585.727058519594 2652.06393541351 158 158 156
-9.75733148127822 584.694557317561 2651.35321218409 196 196 194
-5.04512708854787 584.603591372202 2656.49852157074 221 221 219
0.273746827655241 584.377338080627 2660.81168445474 182 182 180
5.60363834161204 584.150211885432 2665.12931490252 160 160 158
13.2873764050574 583.387448447607 2666.08831412882 148 148 146
19.7955397989018 582.892381839614 2668.72717592969 171 171 171
23.9819118604812 582.930627429803 2674.73740827945 172 172 172
28.7675632503845 582.83405163288 2679.91249835697 155 155 155
32.993549879379 582.869248299297 2685.93879347493 138 138 138
39.5332828931148 582.371740265594 2688.59045609697 147 147 147
46.0740583763106 581.874089862887 2691.24254188663 158 158 158
52.0475304673784 581.508781815931 2694.7429927959 144 144 142
59.1585777906063 580.878464208755 2696.5479178318 129 129 127
64.0130891664716 580.77643276421 2701.75093018296 121 121 119
67.7624960173517 580.93669426033 2708.66237893188 114 114 112
70.9800045548261 581.226558224249 2716.43629160742 112 112 110
75.8956916823417 581.119595689381 2721.66385373755 114 115 110
84.6986133718521 580.09279078705 2720.92038757444 114 115 110
100.63942926771 577.363879008128 2709.05437103034 106 107 102
124.167880480435 572.809468165499 2685.17002823596 136 137 132
143.177480842183 569.311978779741 2668.07900311418 143 143 141
155.013632132031 567.519084447367 2662.09611360007 154 154 152
163.017274034279 566.641721183539 2662.10670012031 162 162 160
171.006885537568 565.765320081666 2662.11159853831 173 173 171
178.447008849728 565.019675956224 2662.97183011499 189 189 187
185.87802949664 564.274657939763 2663.8286285677 184 184 182
190.648115242878 564.177701424839 2668.99741911192 214 214 214
193.32296298412 564.596556033381 2677.62944269838 206 206 208
197.084903808055 564.754186057454 2684.54572908363 210 210 212
200.35022333178 565.038618203719 2692.33904126108 196 196 198
204.687404109303 565.063032554771 2698.41043983039 193 193 193
208.527989029446 565.214217124174 2705.35887473535 191 191 191
208.272821507417 566.389907714441 2719.27218256654 188 188 188
-284.632733664578 620.756389138516 2817.05878071925 204 206 205
-276.236658123724 619.9425982748 2818.30658712632 196 198 195
-258.34675762498 617.110432519949 2807.23052379055 120 122 119
-224.765031992513 610.924104142524 2775.56113171608 135 137 134
-183.850780553025 603.143091791819 2733.9262453529 141 143 140
-148.214635119005 596.455185043588 2698.77698535391 163 165 162
-126.5262361599 592.72976492983 2681.69324912195 181 183 180
-114.894150822176 591.152343919056 2677.78397503135 148 150 147
-104.538538465807 589.844970294499 2675.51343545933 150 152 149
-96.0602875157885 588.939778038184 2675.71639876264 152 154 151
-84.5289051226981 587.370305644912 2671.7662905136 148 150 147
-74.8698346402115 586.202649859821 2670.29147518322 160 162 159
-62.1925669041852 584.373362155927 2664.64942362144 153 155 152
-51.9886710712141 583.077948971051 2662.3173644452 147 149 146
-41.8141694226997 581.784889106396 2659.97364316059 144 146 143
-30.466706144648 580.229784477498 2655.94870123229 143 145 142
-19.7572118115232 578.809661986563 2652.7434924322 137 137 135
-10.2737214573883 577.655707869589 2651.19748209469 168 168 166
-4.37534507101645 577.293061828912 2654.66750710694 210 210 208
0.347163709635501 577.192701615466 2659.81705987338 205 205 203
5.08565220935719 577.091135134933 2664.97309185823 169 169 167
11.0119459103049 576.726402223924 2668.45417898507 156 156 154
16.9443543780059 576.361184851407 2671.93774560981 148 148 148
21.1399519103399 576.387312177265 2677.95180514058 178 178 178
27.6701273868964 575.89017282465 2680.5995951889 183 183 183
31.3219202575803 576.044090821264 2687.47156880958 171 171 171
37.8666389631717 575.545799235872 2690.1252560421 142 142 142
42.6999464985454 575.436899749173 2695.31973516609 139 139 139
49.8225391455565 574.808172609977 2697.12957999317 137 137 135
56.941299515143 574.179605068654 2698.93761472197 131 131 129
62.9293061604061 573.809887678611 2702.44398399106 122 122 120
66.1196053095572 574.085026056311 2710.20673416709 121 121 119
70.4575200195927 574.099932221058 2716.2787591965 118 118 116
75.37260201209 573.984409871107 2721.5061411928 109 110 105
83.0698461820496 573.225113939616 2722.4708398899 114 115 110
95.7147371001175 571.311587766081 2715.73750954474 103 104 99
120.366163015329 566.583406722681 2690.15103765632 123 124 119
141.032553595431 562.763223703122 2670.49685667631 141 141 139
152.878291212461 560.996618550508 2664.51764933347 146 146 144
159.80893542054 560.381520473606 2666.24941506401 178 178 176
167.811822754009 559.511898222052 2666.25963738992 178 178 176
176.336214308244 558.516097267648 2665.40316134339 173 173 171
183.775253585675 557.775584694957 2666.26317233285 185 185 183
188.552561433748 557.669423753564 2671.43469959552 203 203 203
191.76176034074 557.941654586488 2679.20538141478 212 212 214
195.527694338479 558.084945328819 2686.12365052226 186 186 188
200.889128843569 557.847464898018 2690.45387375981 183 183 185
205.220573960447 557.860970801217 2696.5232899103 190 190 190
208.537396427148 558.124321578581 2704.3373578296 189 189 189
208.792670990551 559.138814348542 2717.37975374335 194 194 194
-287.114042521084 613.42139513898 2819.34613799671 171 173 172
-276.165422549555 612.083770527358 2817.31618953497 195 197 194
-259.54225775503 609.561438778225 2807.88250170071 188 190 187
-226.581224771989 603.62047519435 2777.03900113388 124 126 123
-188.166051450111 596.511519505853 2738.70239428225 133 135 132
-151.879707277055 589.815876002428 2702.73764565344 163 165 162
-130.174354765201 586.154442556801 2685.66054602014 179 181 178
-119.149467468268 584.728340873165 2682.58308292121 147 149 146
-108.15900596199 583.305026456501 2679.49165993639 151 153 150
-99.0515194904837 582.276094477129 2678.87126879567 153 155 152
-89.9634011894774 581.248721475683 2678.24328102962 147 149 146
-80.894616671366 580.222910141669 2677.60745331458 155 157 154
-66.3668763578484 578.028749657516 2669.48072899191 151 153 150
-51.9034363342044 575.839504236502 2661.32793268178 148 150 147
-41.7301449592584 574.562535781011 2658.98334217091 138 140 137
-30.9850070762774 573.158418790796 2655.79244387474 141 143 140
-21.4715805196901 572.015447429606 2654.25872847414 138 140 137
-10.7898229288306 570.616237802906 2651.04187352291 141 141 139
-5.48533271851515 570.379288437044 2655.34929361945 176 176 174
-0.169875796107943 570.14152997524 2659.66116019288 218 218 216
3.97941221081122 570.15984930627 2665.65652850679 193 193 191
9.32201101362495 569.920005634228 2669.97914321442 162 162 160
15.8426289530016 569.423234962703 2672.62306068903 158 158 158
20.6210103941038 569.310019632605 2677.79533333882 162 162 162
27.1512666303522 568.812455448833 2680.44315930628 182 182 182
31.3779886700185 568.824843628971 2686.47018229547 183 183 183
36.773257893586 568.580916642368 2690.81415383438 145 145 145
41.0374190652327 568.590344004225 2696.85610087897 145 145 145
47.0281352575748 568.217423136708 2700.363591506 126 126 124
53.5911053544991 567.717147542865 2703.02468363604 120 120 118
59.5915960026425 567.343308237249 2706.53588160605 118 118 116
63.9152522021604 567.34802191956 2712.60195349508 116 116 114
68.260007101377 567.351063991439 2718.67658076875 112 112 110
