ply
format ascii 1.0
comment KinectMotionCapture
element vertex 796
property float x
property float y
property float z
property uchar red
property uchar green
property uchar blue
end_header
-122.797862898913 161.092127625407 3342.85155318783 15 16 10
-87.2456498885752 159.061128692989 3357.04467347867 13 14 8
-94.3152520538813 158.392453951446 3336.70905878636 14 17 10
-102.819976837156 157.755007709819 3314.97090785912 15 18 11
-103.274292901872 157.006157238884 3302.13597723282 16 19 12
-105.131183864113 156.284115109347 3287.86969770941 17 20 13
-104.307398505572 155.525361557552 3276.57389206801 20 23 16
-104.886210732182 154.793415659647 3263.84675719813 19 22 15
-49.8856252409388 153.142551775507 3310.14461810763 18 21 14
-46.2483931563833 152.329311471663 3301.70400913737 18 21 14
-61.9703812882806 151.853495662341 3272.9864016343 18 21 14
-73.6674022213406 151.322039489947 3248.72076719346 18 21 14
-80.6073607959048 150.717432775727 3229.59626247644 14 17 10
-93.2020016129438 150.225853104563 3204.78479266794 13 16 9
-30.5433294020903 145.441128251521 3210.05843078359 10 13 6
13.3071972435119 143.833477374514 3242.19989519546 10 13 6
54.5295780581094 142.255605528463 3271.32571609658 10 13 6
47.44013435324 141.671508494616 3252.33032709909 10 13 6
35.2635107534915 141.205071569966 3228.47996020223 10 13 6
54.5507851862386 140.068346486056 3235.59094096007 10 13 6
62.3977195905523 139.175264984074 3231.44202979167 12 15 6
45.716489031669 138.829170517002 3203.55530709495 15 18 9
47.7189221627645 138.074704952958 3193.884419021 15 18 9
78.7258879708488 136.656970656352 3212.01277895607 15 18 9
68.386901594923 136.18644939152 3190.53979041999 19 22 13
63.0615920762287 135.60823415459 3173.98542292723 16 19 10
73.771746727711 134.654104794387 3172.64892595908 17 20 11
91.1114728266065 133.536849836116 3177.47769256564 17 20 11
80.5430826588052 133.097323784519 3156.20333569205 24 27 18
146.638624404711 130.764958011546 3206.12277062081 13 16 9
-94.1766739959475 159.171528649541 3494.06361753366 56 59 48
-96.6754891460076 158.411600140569 3477.70712502517 24 27 20
-102.499378228845 157.708009367592 3457.61592418219 24 27 20
-174.886611411809 157.27640108988 3348.3228040566 18 21 14
-204.884651311112 157.009413586435 3301.54020190627 14 17 10
-133.195926742542 155.107815198667 3370.42962162944 18 19 13
-143.414881185444 154.52656442475 3346.2067928883 16 17 11
-145.746294235813 153.822853215604 3331.02841905825 16 17 11
-127.424964064718 152.765452549345 3338.97578889107 16 17 11
-109.699478192479 151.710071996181 3346.11663994545 15 16 10
-100.641271058269 150.803956641808 3343.56479688008 11 14 7
-94.9375387731926 149.958094095672 3337.30307191578 12 15 8
-104.79029947679 149.40618825367 3314.08592061431 15 18 11
-89.6471280055797 148.385583575069 3318.17105651766 15 18 11
-70.3688991687756 147.278036341283 3326.61294921754 16 19 12
-88.542718257973 146.907164470776 3294.72639269463 20 23 16
-76.0661348050089 145.93262477543 3295.8290987793 19 22 15
-47.0774405227772 144.613918497277 3314.38286461563 18 21 14
-27.5927886563423 143.478848935695 3322.64602140131 18 21 14
-46.0131055112463 143.141386636282 3290.97289685735 16 19 12
-36.1833856335929 142.210297035916 3289.07577867137 16 19 12
-66.6307606750016 141.45771478602 3233.42232097555 11 14 7
-32.4300346228155 139.985703949865 3256.72308208029 10 13 6
14.7567169513509 136.767910595454 3268.78001631496 10 13 6
9.85387247500746 136.176690430941 3251.85956745692 10 13 6
41.0489602903907 134.718283423233 3271.14839971857 10 13 6
29.7177065368208 134.288059087765 3247.88866211603 10 13 6
46.8115730806944 133.16248466566 3252.93026243374 10 13 6
33.9249502437511 132.785158966178 3228.37143908133 10 13 6
52.4890710879169 131.618354303263 3234.78582157932 10 13 6
59.6123181202506 130.739292151516 3229.94112006386 13 16 7
60.2456804714886 130.029385563045 3218.80972884517 17 20 11
81.1033625367545 128.788865980531 3227.20677519539 17 20 11
81.7270709204765 128.080382761165 3216.08405770674 17 20 11
76.496180787319 127.533801375933 3199.44764855052 22 25 16
73.3877060684369 126.936388848567 3184.94209318162 19 22 13
87.0542822532729 125.881333523882 3186.33717240717 25 28 19
98.5597839581485 124.882394216729 3185.6348708011 18 21 12
120.394625578967 123.589014473578 3194.50889676103 31 34 25
157.072028668038 121.863335546442 3216.98793750243 32 35 26
-148.872268313842 149.908906281073 3405.22431092583 18 21 14
-141.806846684724 149.032990385453 3400.42970837803 19 22 15
-137.367267479073 148.208525545836 3392.61700992525 18 21 14
-128.323504707529 147.292999520301 3390.07774728959 16 19 12
-102.723929362015 146.036924767947 3406.27521947374 15 16 10
-153.017748600157 145.632697354088 3324.15036707968 16 17 11
-86.2079924688985 142.756643829072 3373.45460535155 13 14 8
-73.7172587955941 141.755158857144 3374.54490602485 13 14 8
-72.6462552213629 141.007154591057 3363.03475781411 14 17 10
-104.055841710698 141.006553130213 3316.15060677052 15 18 11
-86.8770568863861 139.902869338625 3322.44203989533 15 18 11
-77.1139426020335 138.966762450183 3320.60268368333 15 18 11
-74.1520111786262 138.191077075161 3311.42387784051 16 19 12
-81.4743788077337 137.667025939021 3291.3067224095 17 20 13
-51.1343068935384 136.226861903212 3311.33650947099 15 18 11
-35.1055552815298 135.127320969292 3315.9778536155 14 17 10
-14.8770681436567 133.915676931295 3324.92037422404 13 16 9
9.85137991485452 131.872855171087 3325.99758936382 12 15 8
-69.3311747742626 133.24365079011 3231.84599615079 10 12 7
-43.5280616988396 131.886052114084 3246.54445187382 10 12 7
-7.80084277286441 130.249960165794 3271.17004724243 9 11 6
-7.74105354984433 129.563523188328 3259.21237951505 9 11 6
4.96747180119872 128.533924059383 3260.11441000611 9 11 6
77.0877426781391 125.850905902395 3320.69466039338 9 11 6
78.6992172376828 125.106893716617 3310.03930155598 8 10 5
27.6699444759139 125.860123717262 3247.07130707426 8 10 5
49.7479164878922 124.551409708093 3257.05796342348 9 11 6
70.4854280617666 123.272173019343 3265.55941674588 12 14 9
54.0136632803625 123.074425402839 3237.48986572653 13 16 9
79.122311694368 121.660104054437 3250.14376924114 17 20 11
96.403512762405 120.468739095678 3255.02374183025 17 20 11
83.366983493304 120.18634346764 3230.59391710884 18 21 12
81.0991682551774 119.587353416565 3216.68331855815 18 21 12
94.7839543902607 118.502649922636 3218.06280668615 20 23 14
96.1082518103837 117.797870006171 3207.65610037187 17 20 11
123.005626833615 116.294298034028 3221.4067503297 16 19 10
114.072667198691 115.912944737929 3201.36136732453 17 20 11
134.477147754845 114.603782158823 3208.82840364907 23 26 17
-178.69481011724 142.814605613985 3384.80126545876 23 26 19
-143.619071891306 141.294392933151 3412.63729341095 18 21 14
-142.432182982224 140.552135376996 3401.02666597622 20 23 16
-133.391297599646 139.625925397788 3398.48996650929 19 22 15
-118.400115695826 138.553746319348 3402.70717143729 17 20 13
-115.26026277002 137.767140461136 3393.37390988519 15 16 10
-122.75587368611 137.248001209934 3372.08361793694 15 16 10
-138.007068088625 136.244939725675 3329.72781789174 15 16 10
-110.942861245263 134.857881501052 3347.30352734435 14 15 9
-87.7814076423791 133.559628340589 3360.32080608317 13 16 9
-102.919569491558 133.269218408787 3331.09597392078 14 17 10
-113.459101152599 132.869248993893 3307.14982626989 16 19 12
-71.907974127865 131.060582099768 3339.96230470082 17 20 13
-85.8950304340778 130.761000432028 3312.38666467845 17 20 13
-103.415790843339 130.573311371351 3281.25615256665 16 19 12
-73.1995770493184 129.053657529253 3301.39412252169 15 18 11
-68.2246199039653 128.239357728575 3294.44058776703 13 16 9
-54.3125316492068 127.168112160935 3296.94623864203 12 15 8
-79.0062033752745 127.218577000788 3258.79796360592 11 14 7
36.6410672449562 123.150184576418 3367.67904295889 10 13 6
39.0716391101416 122.38766912955 3357.63712381828 10 13 6
3.17689403494903 122.78179129895 3308.02092773306 10 12 7
-34.3661260315002 123.252279049367 3257.18633423426 10 12 7
-30.8406111289954 122.488110441438 3248.84223657549 9 11 6
-11.8764445560529 121.246815510715 3256.23362863176 9 11 6
106.123790413453 116.209510404279 3351.17160891067 8 10 5
24.2013452817944 117.489119498958 3244.83855198776 9 11 6
55.5332679654446 115.82066369433 3264.0104611849 10 12 7
66.2768540768002 114.813187670627 3262.64501814366 13 15 10
59.1214866287184 114.39577223171 3243.70600303597 14 17 10
84.241329099974 112.908839762459 3256.35067478067 18 21 12
84.2308756188084 112.257553643776 3244.45366115142 19 22 13
82.7364135837221 111.660515100162 3231.19570229523 19 22 13
73.2195270714944 111.342888152655 3210.33275588321 18 21 12
74.5193411796738 110.660962018755 3199.94712204235 19 22 13
115.169239363254 108.612378159324 3226.92534718595 19 22 13
123.833790517257 107.667081979714 3223.39169292905 13 16 7
131.043001654628 106.772180025705 3218.47227036328 15 18 9
175.026241789276 104.56641868566 3247.85606125038 15 18 9
-174.280990313175 133.614213481392 3378.38843069484 20 23 16
-133.887617572651 131.817414406023 3412.20429947513 21 24 17
-115.62006106921 130.61844961282 3420.19919421765 20 23 16
-142.75706916923 130.700330387199 3376.22824680724 18 21 14
-189.939466166986 131.380087011267 3309.92650293583 18 19 13
-133.618994383256 128.420093716276 3348.47223427074 18 19 13
-149.967445614825 128.240405266046 3317.64916419726 19 20 14
-100.854245538689 126.110704998513 3359.78947940696 19 20 14
-128.024788015457 126.267685546844 3317.17037166994 20 23 16
-131.827985875699 125.729895070574 3300.62004972262 21 24 17
-122.857216910488 124.803014498004 3298.14412702039 21 24 17
-112.514903667801 123.831657300516 3297.12656305996 20 23 16
-112.343783398817 123.179259005933 3285.07218014178 16 19 12
-95.1659834219547 121.988146776436 3291.36503340773 15 18 11
-79.2903673891345 120.832387398311 3296.13946996003 12 15 8
-68.8444315260259 119.847471931827 3295.03218040773 11 14 7
-79.7002236664857 119.5594609554 3271.35910607589 10 13 6
-83.7592476505482 119.056819146568 3255.0302900614 10 13 6
-74.0396799650602 118.099927397993 3253.22881193832 10 13 6
48.1453285248863 113.347595184011 3368.35812521764 10 13 6
-12.0740026659143 114.733277187562 3293.50121127159 9 11 6
-23.7557572531268 113.858389432121 3257.31427599788 9 11 6
38.7722943443132 111.045214464803 3309.00595316655 8 10 5
60.9657342343088 108.972120297207 3306.98718817051 8 10 5
7.27344736097368 110.249652805645 3241.03056724567 9 11 6
41.3404277322003 108.397103434357 3263.12645556662 10 12 7
48.4876320353536 107.507363095772 3258.26074310548 11 13 8
47.0620985989241 106.931344236497 3244.94290514715 14 16 11
42.7239149755714 106.467375229237 3228.8557962256 15 18 11
55.5740157559868 105.370437925994 3229.6355545562 18 21 12
85.0394057531529 103.647706442202 3246.45519279022 19 22 13
78.4911770316268 103.271383504375 3228.31294331655 19 22 13
57.3691304130532 103.456218200821 3196.33128331672 19 22 13
62.9892125625617 102.632557396442 3190.14223257669 20 23 14
113.076521525276 100.095266809588 3226.14753479464 19 22 13
173.644973775468 97.1278300311875 3271.59847051667 15 18 9
141.405068563909 97.7589924871998 3229.3999908383 22 25 16
143.501538584274 97.0598336380574 3219.64723922341 20 23 14
200.86742750726 94.1737674883782 3261.25648902604 12 15 6
-194.700314827181 127.163986731667 3381.57157471356 24 26 21
-198.800331445179 126.639033315378 3363.95485668321 21 24 17
-137.789785423287 123.403356052791 3409.0240365346 21 24 17
-123.477206887691 122.283696659391 3412.50645819548 19 22 15
-124.929256576179 121.67181343015 3397.88857435584 19 22 15
-164.106095039954 122.303973304905 3340.52882609125 20 21 15
-167.763442534555 121.787375822821 3323.85195305837 20 21 15
-132.907607581389 119.988090523471 3350.55712660682 20 21 15
-118.5563801454 118.863795142881 3354.00607991783 21 22 16
-118.570777001172 117.58857471418 3328.88297200346 23 26 19
-96.7539229569985 116.199599312888 3340.41972964907 23 26 19
-108.611721837363 115.980287887384 3314.96816365642 21 24 17
-119.903560368952 115.752152436562 3290.34937753827 19 22 15
-116.353866601625 115.006178363015 3281.98388977439 14 17 10
-75.8072988975456 112.308441399237 3301.1160009416 11 14 7
50.773935317602 101.944687757739 3322.48294444277 8 10 5
45.3448145127324 101.534094350354 3304.69420685746 8 10 5
9.48426801392932 101.724045808323 3244.46297466567 10 12 7
25.7925425474363 100.473167203176 3248.86302691866 12 14 9
49.2818476228654 98.9285707926144 3260.27448044004 13 15 10
38.5746216664247 98.7579161391403 3237.79545436941 16 18 13
22.0357848856536 98.8340552902839 3209.78226226971 17 20 13
44.1680624622141 97.3378940070658 3219.72306469711 16 19 10
65.6692264789833 95.8595259211256 3228.8871842466 18 21 12
69.1887520115082 95.119740347926 3220.54811978741 19 22 13
91.5344210262634 93.5952380631428 3230.30415183546 19 22 13
97.9800358914393 92.7309028256963 3224.72310666077 22 25 16
130.663413798167 90.7570942713614 3244.0489006041 22 25 16
139.373937808736 89.7899615953267 3240.47554152099 17 20 11
98.2546621903233 90.9549303809494 3190.08927974463 20 23 14
122.283587666134 89.3389649998441 3201.03348734127 20 23 14
-159.202747051231 116.277856653292 3398.51596120784 20 23 16
-153.472535223383 115.441632967977 3392.23122301196 19 22 15
-167.445851264295 115.322329388008 3363.31924472917 18 21 14
-167.055319698724 114.688995242427 3351.07456661744 20 23 16
-181.899476862175 114.622658580146 3321.59377353853 21 22 16
-146.159805587301 112.070201854255 3336.95074143213 21 22 16
-121.846067686902 110.539665738827 3351.61763640829 23 24 18
-167.666778865122 111.675761541395 3288.1031270446 25 26 20
-93.6885403808181 108.234395868138 3357.66464223595 20 23 16
-85.2605934661717 107.294201906011 3354.33602831545 19 22 15
-91.6746027300808 106.932613518205 3334.75377414821 15 18 11
-90.0401807615476 106.261970639904 3324.07805053167 12 15 8
-80.2832267164359 105.272279026907 3322.24469636364 10 13 6
18.3952846831859 95.2327995149884 3302.94931595083 8 10 5
36.7966951156253 93.8551185310301 3309.50609189503 8 10 5
13.0281378501809 94.2825328871019 3273.20006600499 8 10 5
22.9723560629242 93.26920162344 3271.20455643727 9 11 6
26.5633330849084 92.5304311119467 3262.8032403134 11 13 8
41.4999132501332 91.2970029918596 3265.74555455659 13 15 10
49.3630615373948 90.3705669288688 3261.58312188427 14 16 11
36.519879004516 90.3601413051114 3236.98426973725 16 18 13
35.7422786597636 89.8226405589987 3224.42785615245 16 19 12
42.825288649663 88.9369787844772 3219.61807229369 16 19 8
56.3953999893427 87.7589916309235 3221.09755766925 18 21 10
64.9484823441933 86.8047301969473 3217.66057552235 18 21 10
69.890238362698 86.0140165596261 3210.7356645388 18 21 10
95.1677405210485 84.2930388251396 3223.24520358483 20 23 12
105.249607042142 83.2624203796163 3221.13050130192 14 17 6
92.6992580559625 83.2776999125091 3197.60093409624 21 24 13
124.006585447402 81.2617656074032 3215.47283620161 22 25 14
167.209601937436 78.6774149355133 3244.21175184966 25 28 17
-177.132376981553 109.732041837664 3404.83517585414 20 22 17
-187.669181802938 109.543848166415 3379.56171605627 21 24 17
-179.395307554899 108.614926416457 3376.36656940978 18 21 14
-166.528337634049 107.500222083285 3378.4550826529 16 19 12
-182.504166817365 107.550447430074 3347.30724229648 19 22 15
-182.507758061045 106.377337180937 3322.17442260605 19 22 15
-172.960384153433 105.401175732904 3320.52231588781 20 23 16
-136.804920158737 103.314124581313 3348.74975621828 20 23 16
-159.577723127897 103.106930720971 3298.35123130523 19 22 15
-105.718992740268 100.243187350473 3345.64663856582 20 21 15
-136.846072801411 100.420102334814 3286.60618434795 10 11 5
-63.5799113388922 96.6739114381742 3354.14065133309 8 9 4
-17.3184970191049 93.4759775475999 3378.90914329887 10 11 6
-29.3084383093376 92.2535181649649 3328.43476065951 14 16 11
36.123440224058 86.9752373534011 3347.18835194511 2 10 0
-22.0837426666072 87.9611367789604 3250.73953669691 12 12 4
24.3642423788533 85.2327910010173 3285.93031168118 16 17 11
20.2254696033473 84.8661784394211 3269.66973533787 11 14 7
27.3506271066148 83.9718540332865 3264.82316133553 9 16 8
60.0376170116936 81.8608616826219 3285.46997445657 10 17 9
50.867569572473 81.7393713050533 3264.30513918313 12 19 11
43.7484027600008 81.5272289946346 3245.33310199551 17 20 13
42.2794617692848 81.0488611369964 3232.05256965667 16 19 12
54.4098270817961 79.9138607309501 3232.13281885281 17 20 11
48.5665702082372 79.6538020347178 3214.7020524155 18 21 14
50.5977917261373 79.0134726822347 3205.00547280642 20 23 16
48.2574904147031 78.5909565740772 3191.15624147256 19 22 13
61.8477934521406 77.3834885410928 3192.61841701472 16 19 10
70.3792313729452 76.4245738808089 3189.20022502983 23 26 19
62.1205692884725 76.3046926292982 3169.89197062708 26 29 22
117.51134205415 72.9930297698346 3210.56936073106 21 24 15
-177.883787059685 100.734023324001 3392.31120210258 19 22 15
-172.838414649204 99.9363472211371 3385.29652818461 19 22 15
-178.268355030706 99.604614454052 3366.18441355197 20 23 16
-182.108992750054 98.6459532922376 3336.43571406933 20 23 16
-173.210602211352 97.684287177308 3334.02274976214 20 23 16
-144.423026599873 95.8159885307878 3354.07765462387 19 22 15
-187.924383085899 97.2458269726801 3292.52107184974 17 20 13
-125.754258989557 93.835050891469 3349.81989360766 16 19 12
-104.023170610324 92.2678838326067 3361.43214212426 14 17 10
-111.036052332075 92.0323548837584 3341.04487450205 16 17 11
-116.113307050796 91.7134532868351 3322.95056776698 15 16 10
-89.9293762970839 89.3715223534892 3326.73830010215 9 10 5
-42.1523224509097 86.5418170392752 3366.07145471042 9 10 5
-29.5342938560905 85.3760188009383 3367.05248905374 9 10 5
-76.3014327316758 87.0694867926215 3304.35467080864 5 7 2
-65.8443198500196 86.0177604904332 3303.23781115564 7 9 6
37.2375029432446 75.4730973007765 3288.06939234387 13 14 8
69.1832818837344 73.301294957121 3308.03577282861 10 15 8
71.4668534122582 72.6432550540058 3298.12090267236 11 18 10
87.2491988858863 71.2898410796924 3301.65388459265 13 18 11
33.125731437905 73.5613646159027 3236.06485779669 16 19 12
48.0961808476081 72.2584214950125 3238.97795129436 16 19 12
36.5503424033062 72.3406577262055 3215.9008811992 17 20 13
38.5814191465879 71.7170935415021 3206.20431843278 18 21 14
44.1976008657861 70.906234679166 3200.018565379 20 23 16
49.0845785624283 70.1345983820263 3193.14100911435 19 22 15
59.0458883526876 69.0933044057347 3191.13055134828 18 21 14
69.7552493711191 68.0105116845864 3189.7955759922 12 15 8
95.0943713569905 66.1394250602127 3202.25267962816 21 24 17
82.4570348818772 66.3101461417843 3178.79750034077 27 30 23
148.293556923564 62.2356228814334 3228.95304169429 25 28 21
-195.86528363025 93.7181606264422 3385.44454657995 20 23 16
-92.7195145983215 88.2168894145837 3493.26043293639 19 22 15
-165.149635299514 90.5948784558266 3382.66301783171 21 24 17
-170.606967418486 90.3164802117636 3363.57429899349 19 22 15
-196.539762253069 91.0501911740771 3321.20191452932 17 20 13
-150.055856138055 88.2253976977487 3361.65585492901 17 20 13
-172.8546545876 88.8188889536027 3323.18496716111 16 19 12
-134.05625191828 86.3537673227976 3354.41748645031 15 18 11
-113.337398638367 84.241345124578 3352.3534771343 12 15 8
-102.941117707009 83.1804289312086 3351.28971778278 10 11 5
-75.0348130045544 81.2256117831439 3369.46249071612 10 11 5
-55.366227449376 79.1433316571677 3365.662069123 10 11 6
-65.8624126333063 79.151020268407 3341.67539437532 10 11 6
-66.2504609591403 78.6422408942259 3328.78147145108 9 10 5
9.79483081178811 74.1472381587285 3397.8818012389 13 15 10
30.5667373765965 71.9743796777799 3394.44893949042 9 11 8
45.0687159607952 66.447182540068 3297.22067920091 16 13 8
101.337247155487 62.3136093433712 3329.202414265 16 19 12
92.2991044636712 62.2960066867037 3307.92226369785 16 17 11
83.1697737891419 62.2907518254121 3286.72106901902 17 16 11
53.1935738305953 63.4594842960459 3245.20390841989 17 16 11
66.0731956224758 62.2366658258196 3245.95858002898 17 20 13
66.0323768173927 61.7400301121145 3234.08719849181 17 20 13
61.622333341897 61.4938807157845 3218.06064609773 19 22 15
52.0822870424733 61.5443193227036 3197.21507251893 21 24 17
89.6407008881375 58.9140211261987 3221.58352429531 23 26 19
109.17352618421 57.3030124840541 3228.48443515011 22 25 18
122.208656526007 56.0601719317824 3229.10476716574 15 18 11
135.279708020136 54.8126437995903 3229.69367989026 22 25 18
117.550295754998 55.3467160852581 3201.38617406738 23 26 19
-151.265104265025 81.956048594433 3413.0322785787 19 22 15
-153.346963111444 81.5402134847756 3397.63574170568 20 23 16
-143.677151374099 80.5059796887108 3395.87789002969 17 20 13
-134.644647771465 79.5041768247489 3393.34894519649 14 17 10
-128.235569524266 78.6416180048439 3387.79955611066 12 15 8
-141.68732692343 78.8471821476528 3359.75667992703 12 15 8
-124.99635905448 76.922673630775 3353.24268524659 10 13 6
-69.3814927869676 72.8633872695985 3389.76059194736 11 12 6
-54.8232770914607 71.5471136458088 3393.03106960469 11 12 6
-71.2370999267167 71.9382830669975 3362.26096027665 10 11 5
-71.5567498660139 71.4476304161229 3349.30763655062 9 10 5
55.1688914895498 56.733148967568 3296.46963746136 16 17 11
85.7915401299332 54.4353349272092 3314.93680183846 17 18 12
95.9227066220931 53.3435732780591 3312.77976570805 17 16 11
93.2312391963186 53.0143639687415 3297.91103716552 19 16 11
84.7614014480209 53.0347818968579 3277.46133077411 19 16 11
40.3260761224993 55.2196018605561 3222.00271906645 17 20 13
81.9533205904368 52.2444686156147 3250.78668437523 17 20 13
96.3572197654567 50.8995182291472 3252.86783866175 18 21 14
85.4748340507054 51.0844690267234 3230.5383255175 20 23 16
99.1698012896221 49.7817000587288 3231.91040238656 23 26 19
117.999866483366 48.1627179167057 3238.09721147884 19 22 15
136.898914383727 46.5346329136244 3244.22428976651 19 22 15
134.640288377009 46.2017861233909 3230.30368645085 18 21 14
175.637818099348 43.2059973472064 3256.98706026864 20 23 16
-145.473456374456 72.6058584174397 3408.07303863885 13 16 9
-137.08937203829 71.6294268622213 3404.7823612994 9 12 5
-127.541332968416 70.0905651346276 3389.9000846263 8 11 4
-135.295796759577 69.5615412204632 3355.6006585626 7 10 3
-124.602163644559 67.9714204177639 3342.37230825695 9 12 5
-77.3862688087887 64.7136747350559 3382.19429774956 10 11 5
-100.491651686067 65.5913450057572 3343.98729623814 10 11 5
-121.54977699555 65.8905221851404 3296.06941539626 11 12 7
-56.943205867753 61.5619123547457 3353.90926577755 10 11 6
-22.5987768059719 59.0224512926734 3378.41565229468 8 9 4
-29.7127892734492 58.9668381872304 3358.11487246574 8 10 5
61.6015810789152 47.6797678060826 3304.18641556887 15 16 10
80.8914606814057 46.0017440944226 3311.29833044819 15 18 11
77.4962043934067 45.752388156795 3295.71582268602 15 16 10
84.7415021216338 44.83266181457 3290.7652834375 18 15 10
40.487652596783 47.1884357646805 3235.14827234424 18 17 12
71.2649202806599 44.7774469815384 3253.48215621378 16 19 12
73.4041860516745 44.1899016605254 3243.69158872508 16 19 12
96.4409789218004 42.262556282453 3254.1744701909 17 20 13
105.100766247972 41.254796601302 3250.64534967987 18 21 14
98.5348060699871 41.2299305946068 3232.51619124719 20 23 16
101.353212384149 40.602336978393 3223.46050862438 23 26 19
90.2861730475317 40.8787263238903 3201.29044888743 17 20 13
101.072099586414 39.7376984994925 3199.88948880758 13 16 9
189.664592268586 33.5088563771767 3271.35949914369 17 20 13
-114.736630748389 62.2035690969853 3445.02067318083 11 14 7
-160.656416249451 64.5432297206668 3378.93739870687 6 9 2
-141.812531825317 62.919063198224 3387.7591010274 7 10 3
-140.314871837353 60.0806826097817 3313.69470637635 7 8 2
-148.820918090278 60.1705936615687 3291.95267200813 9 10 4
-92.4176969127584 55.7027808677908 3329.11319130487 14 15 10
-88.0881246033902 54.9778622703256 3321.39519472112 10 11 6
-43.6423750777584 51.6864056195137 3357.00176730032 8 9 4
-21.4793132803193 49.8099239008206 3368.24161329496 5 7 2
2.14662859895576 47.8327986056386 3380.86101796998 2 4 1
27.2475964836705 45.7534017703706 3394.84914905322 7 9 6
49.6508662104231 39.7975786015136 3293.42185497343 14 17 10
68.1951844904063 38.1227053073442 3299.85669336298 13 18 11
77.5657101272791 37.0584252328583 3297.03517753652 14 17 10
56.2906105685839 38.0537473773582 3263.85797668321 16 15 10
60.5984282706662 37.3349624159173 3256.15879585345 17 18 12
64.1758952423892 36.6665585325962 3247.76873339825 16 19 12
75.6478559103075 35.4641849986994 3247.09713678622 16 19 12
89.3114750915056 34.1111188474443 3248.4967100707 15 18 11
100.121940008608 32.9501008784968 3247.07429572022 14 17 10
107.329585791724 32.0340001662081 3242.15668278457 13 16 9
115.995231673429 31.0178908753525 3238.62253855856 13 16 9
86.0090475816393 32.6579027695881 3198.43392302343 16 19 12
88.7365094290313 32.0568917739804 3189.45720849572 20 23 16
122.987060063836 29.2792919633672 3210.07640783582 17 20 13
-131.003566364275 55.0587530140858 3440.63919531273 14 17 10
-129.742157406614 54.5264668141933 3428.96230254084 12 15 8
-123.926831273198 53.6982733450969 3422.60405619377 13 16 9
-132.576426283115 53.8214844648312 3399.66296403567 11 14 7
-103.07760266664 51.4353532286876 3420.42833663898 10 13 6
-122.602341316893 51.8465617663938 3372.50394936872 9 12 5
-114.879334294728 50.8983809433923 3368.46312307476 9 12 5
-85.1176676698913 48.4777133663483 3389.00058847845 9 12 5
-109.45421685654 49.6725111758119 3349.21179080972 8 9 3
-82.9300074433581 47.4617128675767 3365.93729691636 8 9 3
-13.1609290078814 42.3273496280318 3429.8948714674 8 9 3
-22.7533498846588 42.5340099471072 3406.4471587526 8 9 4
-41.2576264512294 43.3519125183009 3373.51574193055 9 10 5
-64.6739632591591 44.5142529363812 3335.57641069828 10 11 6
-13.9331242715324 40.6293881084596 3377.6409426536 8 10 5
-10.8097026510658 39.9852859219574 3368.32099927711 10 12 9
41.0074160883562 36.0013799336641 3410.77658354641 0 1 0
70.2141298471224 29.7104715769919 3315.36496572491 10 17 10
39.2044770510394 31.4893476558311 3272.09274484428 7 14 7
52.7566636246881 30.123201687699 3273.58898553266 8 13 6
54.9435500433888 29.5624201612237 3263.75697008685 9 12 5
58.5349664594381 28.9033286529743 3255.35507231527 12 15 8
65.6938831194069 27.9906840306988 3250.47935675381 14 17 10
75.0134562930231 26.9232570644735 3247.70233916351 13 16 9
102.376783250447 24.1582473294573 3250.47058797719 13 16 9
117.569112560673 22.6633114402605 3253.19261430762 12 15 8
87.5681455067716 24.0419175579741 3201.10852673851 20 23 16
93.2280222525104 23.2415755456589 3194.88483348518 22 25 18
139.219509912333 19.5046302329966 3226.50770878316 23 26 19
-116.061200452245 45.831618487862 3472.741926521 22 25 18
-126.428541540951 46.1210865881229 3447.31849115454 15 18 11
-159.757369674242 48.0134055820286 3395.46892978507 14 17 10
-137.003585234577 46.0134294932035 3408.8440972232 15 18 11
-129.917209612894 45.1021473003047 3404.03156227135 13 16 9
-118.871923794508 43.9133309240603 3403.7293767245 13 16 9
-165.985466925726 46.8116328816856 3337.35357850302 12 15 8
-116.593567379319 42.9275904997865 3380.58727942964 12 15 8
-102.862594191821 41.5479372871298 3383.25190773276 11 14 7
-101.099571250606 41.0141599563252 3372.46383413853 10 13 6
-99.3655663250572 40.4844851555995 3361.70088491702 10 11 5
-58.7127028322221 37.1824444142405 3393.97833686639 10 11 5
-43.445961895265 35.6820313112171 3397.95947984266 9 10 4
-44.3412233528697 35.3368454318152 3384.18054029642 9 10 5
-66.9679932571134 36.5563582117359 3346.87975344185 9 10 5
-19.7582020763085 32.7553982809808 3385.38729236138 10 11 6
-29.9135183562593 32.6821009710648 3349.19572019846 16 18 15
44.9483600906802 22.485378701125 3279.08295528287 10 21 13
32.2248112109262 23.0548963852625 3254.37665430143 8 18 10
44.332345253026 21.7711143410044 3254.47765628901 11 18 10
57.1869102884888 20.4295396800916 3255.25513054546 9 14 7
67.2105052391498 19.2990487641812 3253.19126599045 12 15 8
81.5670037351257 17.8408515245213 3255.31455350456 17 20 13
103.17649602798 15.8320801375027 3264.38821806995 18 21 14
145.979785720046 11.4528409431215 3269.6649489622 11 14 7
84.7511836804142 15.7437077437066 3199.63376328509 15 18 11
143.047175658373 10.9258797704901 3243.09621445958 9 12 5
205.367163357386 5.40454563227122 3277.78180812521 20 23 16
-104.505002704856 36.6754274879662 3501.16249180281 19 22 15
-99.1861021350826 35.8791073405468 3493.9107324107 20 23 16
-125.110238849266 37.3796097996948 3450.20261394228 14 17 10
-156.462439528585 39.2928657917448 3400.60980096628 13 16 9
-155.311371832467 38.8196503825499 3389.02816215175 14 17 10
-146.310374119022 37.767242216786 3386.52685252879 13 16 9
-146.5183955208 37.3978872519597 3373.47599032483 14 17 10
-162.632129977681 38.2152763676706 3342.44302169847 14 17 10
-103.95803092679 33.4599545088016 3396.16406684323 13 16 9
-99.5001462973901 32.7416055651771 3388.33481478806 12 15 8
-107.064234760538 32.9258588480341 3367.0993167901 11 14 7
-77.9060705633858 30.3546461746191 3386.83757410438 13 14 8
-81.5023443453065 30.2438543372071 3370.10513665876 12 13 7
-55.5324953949041 27.9034333236561 3385.98839047817 12 13 7
-67.2674258315302 28.4113313286441 3360.42561765365 11 12 7
-39.1420108675873 25.9005843639531 3378.4120822866 11 12 7
-30.5920478425117 24.8716232981996 3374.97828783041 12 13 8
-36.3438446284108 24.9327386033149 3356.14259204717 9 11 6
-43.5373259359197 25.1085232009245 3335.90919125548 19 21 18
40.8302600391761 13.8505828327593 3264.18130005246 9 19 11
45.1258740700058 13.1589378957711 3256.49252071519 12 19 11
64.4130347470888 11.2853028490009 3263.60805975122 7 12 5
72.3085528149925 10.3084999473225 3259.41789740487 11 14 7
116.142195742605 6.48453474541472 3290.26478092909 15 18 11
91.7251439066162 8.06649185392272 3254.51334712741 20 23 16
89.5351756049929 7.89056772121008 3240.53253436099 19 22 15
64.8268532852607 9.51181055209499 3205.03330058471 15 18 11
77.7362124575967 8.13967350826306 3205.76316532534 10 13 6
84.8508759261462 7.22923789812907 3200.92610679394 17 20 13
72.9641780194501 7.84147580348421 3178.14072190999 7 10 3
-190.14687220628 33.7780221343409 3375.58324844214 15 18 11
-164.443301535263 31.0581483526257 3379.78977520638 15 18 11
-170.574206646534 31.1801247997992 3359.95901098182 14 17 10
-145.162775430642 28.8335586074119 3376.32662085757 14 17 10
-122.936056058152 26.73082532763 3388.83633504446 13 16 9
-79.3986337588266 22.9444327337198 3425.23339467739 13 16 9
-94.1452961525631 23.7458472351358 3395.66216081516 12 15 8
-112.358748206803 24.8290076373394 3362.4772725702 11 14 7
-103.293580996673 23.758390852556 3359.92046293022 13 14 8
-74.7498849696848 21.1397816038926 3378.86834815327 13 14 8
-78.3828085385814 21.0754642550434 3362.1670597267 12 13 7
-67.8978669405219 19.8885547816962 3361.02727142807 12 13 8
-55.3566384713222 18.5361334530798 3362.07639603593 13 14 9
-30.5505723204509 16.1995358406438 3376.32179571945 13 14 9
-32.2084131896263 15.9813761306073 3361.87972715498 6 8 3
-63.988149686987 18.1887450433112 3315.30209072522 6 8 5
51.4675429267815 4.74047040346781 3288.1043487689 16 23 16
47.299665734132 4.75190126389211 3271.86654853928 16 21 15
62.2999373565336 3.18365857340372 3274.75551320108 17 19 14
73.0631789101572 1.96368662964505 3273.37472657322 18 20 15
75.2539238886616 1.45324379641015 3263.53904057895 13 16 9
110.539492594199 -2.13351979891421 3274.00325433782 17 20 13
91.0666244347897 -0.839145699208288 3243.23183950247 21 24 17
69.2713354149368 0.65670069462373 3210.50194663069 20 23 16
72.7471397140298 0.0481972837789446 3202.19992622437 20 23 16
63.0892512694903 0.540528610196045 3181.4536271927 13 16 9
94.2614492002045 -2.3871051089174 3199.44855869376 16 19 12
160.013502329023 -8.2265739809152 3249.6887491818 16 19 12
-148.443802084097 22.661011847073 3451.99511453364 20 23 16
-162.708353457638 23.4835561575868 3422.00588079924 21 24 17
-146.617833301589 21.4881065724507 3414.68951456221 13 16 9
-161.135512387187 22.3454735800698 3384.91945006247 14 17 10
-169.2199494602 22.679863273235 3362.81040763577 12 15 8
-164.223656175318 21.9391981691249 3355.83821844024 13 16 9
-107.707502654816 16.9371382945403 3407.46113328199 13 16 9
-72.7469346059859 13.7058759438762 3434.0848101388 13 16 9
-53.5630869897887 11.7759601932457 3442.61383540355 13 16 9
-106.314986356499 15.8277868748374 3370.53081032831 13 16 9
-98.5679783702618 14.8551668756977 3366.46902438971 13 14 8
-88.8000479177533 13.713615390407 3364.62714063061 13 14 8
-70.9362503736597 11.8938534454325 3371.65274968505 13 14 8
-65.1531381821977 11.0835325513852 3365.32230850466 13 14 9
-64.7912163742217 10.7289587963041 3353.10062112392 14 15 10
-42.734034943587 8.55118093635704 3364.43418984479 15 16 11
-23.9886183223561 6.64811299818435 3372.01946865266 23 25 20
73.6445426386276 -6.1160082456434 3299.39030487592 9 14 8
79.4639077873009 -6.92694449048886 3293.0284459419 14 15 10
73.1385680356631 -6.68609410458335 3274.68869577502 21 22 17
79.6294232166224 -7.55272663759052 3269.06845407903 16 19 12
94.7381491039336 -9.16744221746366 3271.86403418942 14 17 10
71.721321514588 -7.46847838858539 3237.54505475328 13 16 9
62.2591723996431 -6.94209739777335 3216.62888076621 15 18 11
83.8539670880976 -9.12043337504481 3225.7163830564 21 24 17
78.491757867472 -9.24038439096214 3197.28104942352 18 21 14
103.127258865912 -11.6899462193149 3209.02817880944 22 25 18
149.842201609717 -16.081388927254 3241.35182712622 20 23 16
168.86570114703 -18.0494396890415 3247.37324169336 16 19 12
154.070275625222 -17.0443197236147 3221.81305069966 9 11 6
-145.198861961223 13.7624255059063 3457.18046761055 21 23 18
-166.335259421971 14.3359298264513 3380.21470263291 16 19 12
-172.460954857593 14.561706048357 3360.37875037007 15 18 11
-145.08849874262 11.886421672709 3379.01889770873 13 16 9
-125.509459941779 9.88214541906321 3388.52913929877 12 15 8
-83.9864735964904 5.96468656048751 3422.70293416464 11 14 7
-84.1111084592021 5.66743341236084 3409.57933062841 12 15 8
-93.6093318100064 6.19082686726932 3386.04792109335 13 16 9
-96.520194744445 6.14303758595039 3370.04395053053 12 15 8
-79.3674628864363 4.34058473689586 3376.36249273859 12 15 8
-81.6593988665235 4.24150523562208 3361.14598468421 15 18 11
-41.4909529623966 0.413505146269894 3392.52344612748 15 17 12
-40.3764783250025 0.0140569339662777 3380.97304581899 14 16 11
-65.7738000411667 1.9538208152165 3340.77556955982 15 17 14
62.0544729856705 -13.2033698387894 3313.4518592531 25 27 22
80.8095771344628 -15.4621735471858 3307.79749144978 18 20 15
85.2280306393234 -16.1445732396009 3300.00249832838 12 15 8
88.9192515029871 -16.7604305273671 3291.51350078295 13 16 9
74.6946790953102 -15.7535055301467 3265.45883469235 21 24 17
99.8403858590402 -18.3099846078331 3278.08770410089 22 25 18
75.4079619236259 -16.3706676302846 3242.34727814947 15 18 11
105.678992957646 -19.3955396495017 3259.80065262647 13 16 9
89.0137704929734 -18.1542425239127 3231.88976880204 15 18 11
94.7289919568681 -18.9466693437256 3225.61773948864 19 22 15
85.1456798037811 -18.3427153361045 3204.80639469965 22 25 18
147.7737558563 -24.3323990298188 3252.46154729147 23 26 19
148.464601512769 -24.6688156162046 3241.27822851425 24 27 20
148.387120572578 -24.9332382168631 3229.43680310777 21 24 17
171.103016689168 -27.2864117221748 3238.87731582916 11 13 8
-95.1514445408783 0.0266574665979402 3490.64607441796 19 22 15
-150.478286825774 4.73990343678357 3412.85067816627 12 15 8
-185.921132175338 7.66900040333435 3358.85627951654 15 18 11
-182.917376771635 7.12096911155874 3349.63974812252 15 18 11
-152.949811047375 4.12358881897429 3371.32606687348 14 17 10
-128.776127309229 1.64737235620446 3386.12047985846 14 17 10
-121.048346176336 0.665738720692144 3382.07541693334 13 16 9
-100.025647253024 -1.52965583929965 3392.98246211191 13 16 9
-114.897798558601 -0.447093823843892 3363.51817215732 13 16 9
-84.4472031068868 -3.50808719164436 3384.78624389551 13 16 9
-90.0560024497401 -3.2690171796009 3365.82576945031 13 16 9
-47.3145004384357 -7.46582601211632 3400.26850405629 13 16 9
-26.6134420355528 -9.64522813264212 3410.13096213164 13 15 10
-52.5174594368201 -7.53692497505709 3369.04798871206 13 15 10
-46.0397620748108 -8.40570806894919 3363.43916530639 16 18 15
68.8113128088581 -23.0663232659472 3297.07265748801 15 18 11
77.4670421156243 -24.137719452017 3293.5474665744 12 15 8
64.7233140785137 -23.1927149881987 3268.85590691744 12 15 8
83.3611149909141 -25.2038924308938 3275.21189980853 18 21 14
62.5887227139943 -23.4948755576709 3242.91762059698 21 24 17
76.9325448736664 -25.1004744772197 3245.05253480113 19 22 15
89.1551198235172 -26.5067286748682 3245.05493583432 16 19 12
114.44116906492 -29.1523022256316 3257.56305822017 14 17 10
96.9977864052223 -27.746719713944 3229.00199284907 16 19 12
108.541062942202 -29.0896158602976 3228.26917928709 19 22 15
144.158240141823 -32.9711594940154 3238.44757071375 24 27 20
166.099204428127 -35.3090749455288 3247.23606944954 19 22 15
-128.931585015165 -5.57905244498944 3452.46982435024 15 18 11
-159.576874370703 -2.93795135871991 3403.58285033805 13 16 9
-123.765135332675 -6.58719497626642 3432.11801697675 13 16 9
-142.863677606546 -5.03132293806785 3397.05036779913 12 15 8
-136.462429436925 -5.89243052370525 3391.50775591895 15 18 11
-124.121071803753 -7.3185886278874 3392.73059358082 16 19 12
-142.860231553403 -5.7842337228744 3358.6751704681 15 18 11
-123.900583478551 -7.84041603129992 3367.39902023169 14 17 10
-106.195005269737 -9.77952075983379 3374.5628525282 13 16 9
-113.813332446655 -9.29879494106389 3353.37212851078 14 17 10
-101.408949307424 -10.7320334603543 3354.54038558239 14 17 10
-75.8153917921533 -13.6772654053919 3357.52046415751 13 15 10
92.2884313791497 -34.0539842123776 3321.78942004433 17 20 13
51.9238381544871 -30.3331786281001 3269.40922515235 10 13 6
59.8049031259134 -31.3341077909226 3265.23143065015 10 13 6
59.8226200283474 -31.5630603777174 3253.3075795179 12 15 8
87.0715012406005 -34.4666153878147 3268.08621473686 19 22 15
51.8283457456561 -31.2263821227967 3221.85691779967 23 26 19
58.2055616232933 -32.0761536386327 3216.33506211277 21 24 17
105.112867696972 -36.9208047039218 3249.81817989066 15 18 11
104.345268277535 -37.0690225380197 3237.25089109429 16 19 12
105.71937165604 -37.4271028845074 3226.79876954377 17 20 13
77.8667578332755 -34.8944916988819 3188.72522602969 20 23 16
128.874126112595 -40.1589997853286 3225.27432858907 25 28 21
157.375940722508 -43.2024986428047 3240.29116910782 23 26 19
-69.6465669805821 -19.6110535353001 3550.71550194482 13 15 12
-163.34083611248 -10.8422665870642 3413.51305130656 19 22 15
-130.22680937488 -14.3453836526299 3439.09243177209 16 19 12
-138.777104944783 -13.729956333924 3416.06208364683 13 16 9
-134.308137502147 -14.4011103591589 3408.22291989481 11 14 7
-136.429134614456 -14.4176910215308 3392.85771838487 15 18 11
-130.026123268085 -15.2787366259871 3387.31357789439 15 18 11
-87.2202721649278 -19.7589988371777 3423.02563648652 16 19 12
-143.77766105295 -14.3564335256255 3346.29233240073 14 17 10
-118.809723787088 -17.0636522347353 3361.72309507653 13 16 9
-97.734872068592 -19.3862318939916 3372.58576171551 12 15 8
-108.064754111731 -18.5755733880583 3348.44974279309 15 18 11
-80.8564448544651 -21.5135708005864 3365.91060362844 15 18 11
-98.6937362094862 -19.9479914611266 3333.71981816989 16 18 13
-70.6926119081692 -22.9687809775677 3351.81699956331 16 18 15
105.113960091937 -44.1434637263739 3335.88230302619 17 20 13
66.9353345269919 -40.465365919458 3285.57782626644 11 14 7
56.3154068308469 -39.5874098875331 3263.0160251195 12 15 8
84.9404554054649 -42.7091501281462 3279.2501377225 11 14 7
53.4302424421851 -39.6952621654324 3236.40376742344 11 14 7
92.9277172050456 -43.9299275568003 3263.07174435983 17 20 13
124.676628070404 -47.3777416629691 3281.89344968469 22 25 18
97.2364406297261 -44.7713561199594 3243.46227885393 27 30 23
92.0964542577352 -44.4432953922179 3226.74141243773 19 22 15
99.9880932401509 -45.4490698311563 3222.55479997048 14 17 10
128.319196136047 -48.5522216010836 3237.7199890203 13 16 9
109.207189298315 -46.7864383308026 3207.95600883537 22 25 18
131.045127936333 -49.2250940699612 3216.83477191615 22 25 18
-97.8693591781195 -25.8951658756775 3505.08005717669 24 27 20
-125.004906467356 -23.3110034514438 3459.76805239671 18 21 14
-167.336106130911 -19.153361186695 3397.17957640703 15 18 11
-158.354414439497 -20.2802129411953 3394.69548240363 14 17 10
-172.954233363167 -18.9718003339415 3364.99368866731 13 16 9
-162.698607474876 -20.2285111402974 3364.05310885137 15 18 11
-131.120425080222 -24.0854006546931 3361.85200549247 16 19 12
-120.764562297635 -25.3543601307264 3360.82431061611 17 20 13
-129.751613293623 -24.61494317242 3338.17171066166 14 17 10
-119.406266897967 -25.8818952753058 3337.15343322088 19 22 15
-95.5972129791212 -28.5500785831234 3350.94186705455 19 22 15
-83.139736529815 -30.039064887053 3352.06446749293 20 22 17
-95.6604971384527 -28.9255504626592 3325.8553011304 16 18 15
99.9518410306868 -52.2524606736437 3344.37914179811 15 17 12
69.0119378227543 -49.1698687618187 3301.03801833124 14 17 10
72.6940895012609 -49.7395601168502 3292.55658221818 11 14 7
77.7855610463303 -50.4575454928123 3285.5017516382 12 15 8
63.5565484512823 -49.3065370060772 3247.53939045274 10 13 6
121.775921008273 -55.6520129350866 3292.40141050234 12 15 8
123.30703607766 -55.9925667878786 3281.81308770351 18 21 14
119.74504991777 -55.7914774640709 3266.37217181782 28 31 24
105.968822213632 -54.503647348676 3241.25003434419 23 26 19
113.900932952073 -55.5199026185812 3237.0284114673 19 22 15
92.6595022822543 -53.4329801145059 3205.13790033952 17 20 13
91.7452839888324 -53.5053541919337 3192.69719992195 22 25 18
109.863439159355 -55.6036618383976 3198.18089218977 23 26 19
-89.6638761786433 -35.419070453706 3529.79025477753 24 26 21
-77.1618277111119 -36.9428196726471 3530.87444831015 25 28 21
-166.003319959394 -27.7778468039439 3400.05007222366 13 16 9
-132.941212065014 -31.6764916125611 3412.44346038695 14 17 10
-133.734432121824 -31.7647418117945 3398.57472845404 15 18 11
-133.913641053483 -31.9175659405534 3385.49749032137 15 18 11
-134.134272180356 -32.0645045025385 3372.45580064272 16 19 12
-118.471208285726 -33.9222507183265 3377.41932817833 17 20 13
-131.37107846976 -32.6998612453676 3350.21478332662 18 21 14
-150.399341273332 -30.8124317352322 3316.40733277734 16 19 12
-130.741351046617 -33.1002567527108 3325.85098173175 20 23 16
-116.375288339431 -34.8177762518461 3329.29092088703 19 22 15
-91.1789808961432 -37.7080631703335 3344.52524872079 20 22 17
-74.6542736425924 -39.6620627352289 3350.06552806916 17 19 16
115.113279954366 -63.3905307568249 3311.45986203733 14 17 10
80.8466796772462 -59.7851980449852 3265.70536012241 15 18 11
68.6356632439469 -58.5957730510115 3241.87407270416 12 15 8
145.734038139034 -67.2153418810082 3304.79502578544 10 13 6
96.6813792635031 -61.9763554710693 3245.37812018793 15 18 11
106.05380965284 -63.1561879135223 3242.55570222627 17 20 13
101.62396287079 -62.8170530361786 3226.54283692598 25 28 21
93.4850234685673 -62.0677901890049 3207.12518249573 24 27 20
88.9198601803325 -61.7101697707675 3191.22916557563 20 23 16
130.497976302258 -66.4382551479993 3218.74381048918 18 21 14
160.504513838617 -69.8939761007761 3235.10596202744 15 17 12
-136.028268375531 -39.6115092640168 3436.344293684 14 17 10
-132.16998906834 -40.1910042043304 3427.71058046466 15 18 11
-135.534366262496 -39.9634306506872 3410.77464178199 14 17 10
-115.302950216086 -42.3701752272642 3421.04531344073 14 17 10
-135.856234092877 -40.2192651954358 3384.58816349522 14 17 10
-112.934512217256 -42.9273375117074 3397.8226775152 16 19 12
-117.770018559035 -42.5305476949945 3379.51388556126 20 23 16
-165.260143590113 -37.3546264206576 3313.45004089141 20 23 16
-142.334916627974 -40.0622048471907 3326.68119821365 18 21 14
-132.027404417976 -41.3568194990425 3325.69589227552 17 20 13
-105.57804506742 -44.4628518654353 3342.49207476089 14 17 10
-94.4986730514668 -45.8456636709751 3342.16160257661 14 16 11
-18.0120652578646 -56.7181916423258 3216.38752366376 6 9 2
48.6690294857071 -64.4033421164386 3271.12779945427 15 18 11
113.560499229567 -71.8920966931959 3323.44752126705 15 18 11
114.461811820732 -72.1245835979759 3312.08110976546 16 19 12
108.878296525975 -71.6197599185375 3294.42025950866 14 17 10
124.789639900404 -73.5552506374684 3297.8455216962 12 15 8
86.6858869055158 -69.3519282057482 3248.79600759217 12 15 8
114.838588335735 -72.6779800381787 3264.1172680028 13 16 9
89.4631598490405 -69.9161046094951 3227.86558692053 16 19 12
82.0826461593125 -69.1987632531766 3209.11404538813 17 20 13
82.6436499444858 -69.3840728179255 3198.04228605061 18 21 14
105.105735479538 -72.0637219914722 3207.70458558375 23 26 19
130.590290991775 -75.0893570947633 3220.04311825776 25 28 21
-159.995739076813 -45.3386637878617 3422.74756736816 16 19 12
-146.420565459187 -47.0310209857423 3425.54925908825 14 17 10
-151.732296705432 -46.5373176184029 3406.32965501525 14 17 10
-133.542018993484 -48.7641366903612 3414.39819058544 13 16 9
-110.021987478793 -51.6097207379891 3428.43828008679 14 17 10
-102.211257702891 -52.6354403902465 3424.32192378255 12 15 8
-129.429231787464 -49.5974685909632 3380.40168144493 13 16 9
-132.984480784339 -49.3016636360442 3363.63105158615 14 17 10
-91.4307901905786 -54.5898590694107 3359.40971147698 10 13 6
-103.877404602839 -53.2555287195809 3333.1348490482 9 11 6
-92.1223113496761 -54.7357861253801 3333.54291281397 11 13 10
25.9965969801779 -70.2502917102892 3261.70275226083 21 24 17
88.6830757457888 -77.8061702490467 3300.05397697319 13 16 9
75.9397160531705 -76.4143225806814 3275.35951801657 15 18 11
85.2989455189928 -77.6147746630332 3272.54867538561 16 19 12
78.1450551240801 -76.8761814128553 3253.6005735849 18 21 14
80.2815519476092 -77.2273801222134 3243.81119002344 18 21 14
76.6103917360907 -76.89547610221 3228.46373601718 18 21 14
66.3577705671376 -75.7887171636521 3206.90567083685 18 21 14
73.4546103180049 -76.7204523792434 3202.08419878421 19 22 15
76.1810998140287 -77.1378783650588 3193.1068218801 20 23 16
95.6985001812112 -79.5306750422237 3200.02648359399 20 23 16
102.094568100803 -80.3795868507941 3194.48828259378 20 23 16
98.9338520662391 -80.1028234236056 3180.02234196901 11 13 12
-78.4714577448344 -63.5649202297125 3533.50563999415 19 22 15
-146.353196939576 -55.5264708051954 3440.10305074165 16 19 12
-145.746792000555 -55.6943219667204 3427.66825107634 14 17 10
-152.356387033851 -54.9955836781518 3406.9253863103 13 16 9
-124.349474492055 -58.4499575052506 3426.34393684971 12 15 8
-97.5203632034356 -61.7645720747903 3444.13558717031 13 16 9
-146.326863276413 -55.9960102515042 3375.23875361117 14 17 10
-124.105462148205 -58.7565279130669 3387.75702425787 17 20 13
-158.797081554058 -54.6772403342102 3335.75089507345 17 20 13
-167.809588239593 -53.6816905466738 3313.11869873301 13 16 9
-138.22843015648 -57.3268179358429 3333.82086742104 10 13 6
-87.0923611438341 -63.5672022973267 3378.20462487675 12 15 8
-100.782963450785 -62.0078670838144 3350.35999168961 6 9 2
-118.636571359035 -59.9452209895925 3318.18012736929 8 10 5
-89.3696119225442 -63.5560820256519 3337.83082488632 12 14 11
62.3110144549459 -83.2739477263786 3287.2164541115 17 20 13
83.7630362764949 -85.9503081024658 3296.43092998786 16 19 12
75.2986431581562 -85.0024703534756 3275.97081034926 15 18 11
70.3291209886752 -84.476880384813 3259.10091648709 16 19 12
67.4484727938545 -84.2034444827318 3244.39225256114 19 22 15
65.2341113348598 -84.0099167804441 3230.42987265108 19 22 15
49.9638713570705 -82.2318008713548 3203.95295050831 19 22 15
68.6260839513069 -84.5691948277971 3210.29021432127 15 18 11
83.7237150780679 -86.4744284579862 3213.09697771078 17 20 13
105.42841282642 -89.1820401222779 3222.09296830102 19 22 15
111.141455034064 -89.9484523476111 3215.82265925213 20 23 16
102.193571687667 -88.933825426164 3195.78116517754 20 23 16
