ply
format ascii 1.0
comment KinectMotionCapture
element vertex 758
property float x
property float y
property float z
property uchar red
property uchar green
property uchar blue
end_header
42.9537834728222 762.677922572269 2706.94974545451 199 200 202
52.3650757007534 761.181786245516 2705.37735348072 195 196 198
61.7522590690662 759.687356216135 2703.79492984035 194 195 197
70.5543499255739 758.394912362408 2703.05314074966 205 206 208
78.7792030511234 757.30380789069 2703.15491422984 189 190 192
87.5452474525062 756.013950937577 2702.3985105764 188 189 191
95.7391243190615 754.925061552389 2702.48772519863 192 193 195
105.019629714745 753.438390579678 2700.86230681661 183 183 185
113.179994173658 752.351887327272 2700.93793441576 199 199 201
120.78063678088 751.46530581854 2701.86422738673 219 219 221
128.371877941242 750.579433866799 2702.78696562665 184 184 186
136.494551938893 749.49537877407 2702.84731406821 202 202 204
145.141007846884 748.21383637311 2702.04216963096 205 205 207
152.697226111112 747.330141458758 2702.95071084658 230 230 232
159.178426804863 746.843128889129 2705.57859459346 229 229 231
164.069334909735 746.949552211248 2710.79476369248 228 228 230
168.448322600152 747.252289387073 2716.88097997402 225 225 227
173.898974026093 747.158311055717 2721.24649603162 225 225 227
180.406411768385 746.668651900933 2723.88502303429 223 225 224
185.353832514075 746.770005485386 2729.12385490259 222 224 223
188.245747258304 747.657875687958 2737.84046959962 217 219 218
189.628088565465 749.13291152135 2749.17784256282 213 215 214
191.574514950241 750.407356566262 2759.66606463815 209 211 208
196.118347061183 750.696250924311 2765.81938741108 208 210 207
198.144691409521 751.964155002402 2776.3400172834 208 210 207
-168.593285982667 794.864751607839 2783.96372782675 213 214 216
-156.144173279912 792.530891154246 2779.3121877994 217 218 220
-144.347991264785 790.401503254785 2775.47328182494 208 209 211
-135.621380761074 789.279492349655 2775.77844758133 212 213 217
-124.495421838801 787.356205213702 2772.74567619889 217 218 222
-111.000251830152 784.633969795165 2766.36274763974 219 220 224
-97.5594339869545 781.915836794436 2759.95752395144 221 222 226
-84.1733529042117 779.202035070673 2753.53036213258 216 217 221
-73.8089883687001 777.491884072197 2751.2664191987 223 224 228
-63.4740429203549 775.784034004804 2748.99054724405 213 214 218
-46.6959973080081 771.883948377488 2737.47239626956 216 217 221
-27.0729401493528 766.993674045981 2721.71937776648 220 221 225
-12.8103238537209 763.903912081219 2713.49209501905 196 197 201
-2.67847055291925 762.211614639093 2711.13387460551 200 201 203
7.42401874870513 760.521613763533 2708.76374750903 192 192 192
17.4970847608367 758.833854375897 2706.38169014085 194 194 194
25.247214929327 757.941879652999 2707.36880767381 201 201 201
33.5590936372949 756.852308737988 2707.5058055729 193 193 193
41.2883735421574 755.961901692214 2708.48421187246 193 193 193
52.4032190540236 753.88529387084 2704.36929473434 186 186 186
60.6622006857931 752.799734563722 2704.48484457449 199 199 199
70.0285105316929 751.320348151415 2702.893855366 169 169 169
77.1373946584146 750.631705599728 2704.69860385266 183 183 183
87.0209479411066 748.958034420846 2702.23970733583 180 180 180
95.2154430074035 747.87710605462 2702.32911192041 162 162 162
103.946362636401 746.600522677422 2701.55838588496 168 168 168
112.109824254551 745.521784040664 2701.63520864831 200 200 200
119.713482991131 744.64025375475 2702.56268454183 169 169 169
128.937388431392 743.171038504718 2700.91421692852 176 176 176
138.137072734895 741.703508559514 2699.25567234754 219 219 219
146.236168698239 740.629152179712 2699.30640069616 221 221 221
152.714114998325 740.14233767349 2701.93296526079 224 224 224
160.25914952666 739.264609794306 2702.83693303234 225 225 225
165.141977339347 739.363304648444 2708.04988905789 222 222 222
170.568965914952 739.265587540682 2712.40559530708 224 224 224
173.904576347638 739.946026528275 2720.22436615256 225 225 225
180.932641235705 739.261754745892 2721.99635837182 222 222 224
185.874462209746 739.355297473606 2727.2332393629 220 220 222
189.796331363458 739.835750052571 2734.21183269087 219 219 221
190.651139287393 741.478323708366 2746.41340659697 215 215 215
192.075367918259 742.922513992293 2757.76797324216 207 207 207
194.061444758765 744.168950747169 2768.2724618018 207 207 207
194.061912165917 746.185552285454 2782.28290053217 211 213 212
-169.150409866485 787.344524566006 2783.79515357713 214 215 217
-157.310757645832 785.233415803018 2779.97396705713 208 209 211
-144.293338043508 782.728906669949 2774.47475857473 203 204 206
-134.35644811405 781.218899636141 2773.11502530277 211 212 214
-121.425792094038 778.721264619076 2767.58063475558 216 217 219
-109.145947453389 776.425353046961 2762.86027164481 217 218 220
-98.7064058304852 774.725445232603 2760.6266897414 219 220 222
-85.315655149395 772.041167010663 2754.20093760325 214 215 217
-71.9795352551078 769.361151893491 2747.75329075926 221 222 224
-59.2890245874489 766.882304038174 2742.1215246557 213 214 216
-43.1162613845657 763.226457358104 2731.43525599308 216 217 219
-26.4370643274814 759.380141251513 2719.87667437934 216 217 219
-11.5933569327367 756.12944213558 2710.80708302466 191 192 194
-3.21115480876366 755.042578618358 2710.97253385622 197 198 200
8.04972696156248 752.97661285409 2706.9164078759 189 189 189
15.8145477107032 752.088704633012 2707.9094426981 185 185 185
24.7172883151652 750.810284094217 2707.20829968563 198 198 198
31.8876705870037 750.119703602766 2709.03770579883 187 187 187
40.759386147972 748.843591679759 2708.32398346699 184 184 184
51.875867280341 746.788552996538 2704.20956509186 180 180 180
60.6990086111874 745.515996052198 2703.47589122546 203 203 203
70.0638099237685 744.050233143409 2701.8844451866 154 154 154
76.6118974839578 743.558847782312 2704.53944409723 190 190 190
85.384741068645 742.28994165159 2703.7856345835 172 172 172
93.5848694428254 741.216606854759 2703.87726249742 144 144 144
101.77077671125 740.144279217277 2703.9631247522 164 164 164
110.490875876726 738.879193271413 2703.18793044019 214 214 214
118.645855670655 737.808987191202 2703.26125429845 155 155 155
130.047064198541 735.579316375626 2698.18437832611 194 194 194
139.781224866695 733.932455207325 2695.66479058362 221 221 221
147.870910914662 732.866824467198 2695.71164278607 220 220 220
153.267192701777 732.766214713617 2700.05519522579 223 223 223
159.741149553877 732.279387515317 2702.68014458735 223 223 223
166.215949763987 731.792344059086 2705.30543705778 223 223 223
171.106744927399 731.881889580317 2710.52168835673 227 227 227
175.487822197789 732.162075052156 2716.6089216302 226 226 226
180.41321915051 732.248580257962 2721.8392059937 217 217 219
185.875284858614 732.14210103049 2726.2094383668 217 217 219
189.793810289056 732.608950470544 2733.18678095295 220 220 222
191.675543346016 733.838961243409 2743.64940318359 217 217 217
191.550842253753 735.829703649799 2757.60935807893 207 207 207
193.535289507058 737.051522207275 2768.11337342947 206 206 206
193.025161091295 739.223320833899 2782.99496454052 209 211 210
-167.251715693036 779.039767826195 2780.31137941187 209 210 212
-157.255031871211 777.538377979361 2778.97604817466 194 195 197
-144.847127838979 775.256624901415 2774.3071708618 198 199 201
-135.515896153488 773.955463836664 2773.77969322465 207 208 210
-120.16523027056 770.703847775342 2764.91511550016 213 214 216
-107.289739651839 768.237691872222 2759.35815026903 214 215 217
-98.0571070615928 766.944462181187 2758.79069043787 213 214 216
-87.0547455345692 765.068865484345 2755.70751386368 207 208 210
-73.1175291555297 762.223613828091 2748.42543381324 215 216 218
-59.2400074559336 759.383086255431 2741.11940522856 211 212 214
-43.6554377771337 755.964804529104 2731.2719886337 217 218 220
-28.1455593177016 752.552255705812 2721.39454386505 211 212 214
-12.1263855917986 748.951616426111 2710.64566945238 187 188 190
-2.58102638715396 747.485660828178 2709.12707426106 191 192 194
6.93983936287101 746.021640386774 2707.59880440178 183 183 183
14.1314989332852 745.331914619204 2709.43681906411 166 166 166
23.6137395985299 743.870834818666 2707.89288789191 200 200 200
31.9292297929885 742.797087432041 2708.03122811831 179 179 179
40.2305030840184 741.724406647925 2708.1638039365 166 166 166
49.0837409510259 740.460398824268 2707.44250837129 169 169 169
57.3539362117363 739.390060742039 2707.56248315775 183 183 183
66.171182711608 738.128635454478 2706.8265953676 173 173 173
73.8517672883785 737.25230816185 2707.78517855251 170 170 170
82.0793564209745 736.185016914728 2707.88787932484 172 172 172
91.9537736451463 734.544318776074 2705.42503375587 125 125 125
101.247590733747 733.097061564448 2703.80470643861 185 185 185
110.517298962729 731.651510650193 2702.17434745477 200 200 200
119.762558319265 730.207741920049 2700.53433301346 177 177 177
131.701688706397 727.812215404931 2694.59770679521 211 211 211
140.344847342556 726.563267698256 2693.79123748357 217 217 217
147.891776538208 725.696184708649 2694.6956344806 221 221 221
152.749169845071 725.780276934446 2699.89840293856 220 220 220
159.223222165005 725.293232956049 2702.5233925975 225 225 225
165.698172930938 724.805968355202 2705.14874770314 228 228 228
170.060050041006 725.076676216849 2711.22827880517 219 219 219
174.443015344955 725.345563860164 2717.31636216453 214 214 214
178.846907241027 725.612788114837 2723.41318838762 223 223 225
185.355722640782 725.122242721498 2726.0522799115 219 219 221
190.310287955373 725.197715075632 2731.2942007379 218 218 220
193.217093749195 726.026273228327 2740.01729428476 218 218 218
193.079883296878 727.982290506473 2753.97244743569 209 209 209
194.030915295689 729.556603066898 2766.21324196314 206 206 206
192.496528984537 732.066546638617 2782.83517153643 208 210 209
-169.03611123447 771.91557809923 2781.80076320609 202 203 205
-159.033483279095 770.427262011081 2780.46748238445 191 192 194
-146.009877079615 767.976569314866 2774.97037089757 199 200 202
-135.462284654975 766.300559261802 2772.78035686111 206 207 209
-118.903487446837 762.702053064224 2762.25021323842 212 213 215
-107.838287502725 760.840342571765 2759.19211701471 212 213 215
-98.0059032132743 759.365688484514 2757.79005940904 210 211 213
-88.7944922106108 758.084929726634 2757.21391258089 203 204 206
-76.632167813073 755.846962336672 2752.44526992715 212 213 215
-61.5566424914222 752.654798677083 2743.46909632881 209 210 212
-44.7836110625486 748.893790872512 2731.94786097491 216 217 219
-27.5085851278201 744.947990849786 2719.55221495091 211 212 214
-14.4114145282119 742.345995914938 2713.00722785569 187 188 190
-5.43903164098958 741.083672223728 2712.33390327473 186 187 189
4.67185487262811 739.441628498419 2709.96706987442 182 182 182
12.4474882397767 738.563568950247 2710.96415077237 159 159 159
22.5098110290889 736.925228811506 2708.57736896482 203 203 203
30.8284492684465 735.859182232851 2708.71692544231 180 180 180
40.2706415888596 734.414605458525 2707.15665389007 159 159 159
47.9893501531399 733.540786963327 2708.1306541919 161 161 161
55.6987632442114 732.667609852923 2709.10114318739 161 161 161
63.9604257950384 731.60586813492 2709.21759798188 183 183 183
72.2079160246088 730.545040047006 2709.32830757864 152 152 152
79.8848426794427 729.674173197565 2710.28536830816 166 166 166
89.2140541949598 728.237830367416 2708.67928921599 128 128 128
97.9678168830396 726.991602134715 2707.91732486334 171 171 171
107.799802229658 725.370220599652 2705.4374097392 179 179 179
117.602712393015 723.75081928227 2702.94545004292 186 186 186
130.63911724549 721.005749316387 2695.29787842622 205 205 205
140.909530218994 719.203894534613 2691.9177821156 223 223 223
148.451924287215 718.342401263643 2692.82030050307 219 219 219
154.376208208052 718.043755211111 2696.30033019034 224 224 224
160.840355424696 717.557256891071 2698.92130520707 233 233 233
167.30534599935 717.0705423131 2701.54262333267 218 218 218
171.656493892386 717.330922099288 2707.6178885346 207 207 207
176.028732080468 717.589511388723 2713.70170661933 224 224 224
179.898299998687 718.03273721947 2720.65966294209 227 227 229
187.442048611576 717.170030772564 2721.56273897065 221 221 223
191.346199179763 717.610337356465 2728.5347196909 217 217 219
194.244344801404 718.420129930895 2737.25419180671 218 218 218
193.070040453254 720.712559425665 2752.9444993477 210 210 210
195.549643568536 721.700442808592 2762.57222205289 207 207 207
192.985162241275 724.538054762735 2780.93220608903 208 210 209
-167.13525641989 763.63668266862 2778.31766784747 193 194 196
-159.589025985097 762.923915996726 2780.29942038896 188 189 191
-147.782363236883 760.880576879808 2776.46436298944 201 202 204
-136.621985104191 759.03041864872 2773.44497340471 204 205 207
-120.057397004457 755.474946178379 2762.91659106261 211 212 214
-105.979573137101 752.683919622729 2755.69103097831 210 211 213
-95.5571014510717 751.034051863168 2753.4501582882 207 208 210
-86.9542100225209 749.954092195909 2753.70491232911 200 201 203
-76.5831677164568 748.308323563807 2751.44344240306 209 210 212
-61.5072574277173 745.154032867113 2742.46688038189 207 208 210
-44.7335053444402 741.439264558027 2730.94558633309 214 215 217
-28.0441753750804 737.730796310126 2719.39006261468 209 210 212
-16.6975393563578 735.723306487723 2715.36847191792 184 185 187
-5.39004911702401 733.718744197712 2711.33075195549 173 175 174
4.14025473439472 732.280875239464 2709.8061052956 186 186 186
12.4929663919835 731.220378189926 2709.95941579524 148 148 148
20.8314548426534 730.160858578157 2710.10696001028 202 202 202
29.1557242887308 729.102375847316 2710.24873919164 187 187 187
37.4656729588916 728.045057612761 2710.38471116555 153 153 153
45.1948324298501 727.175671408858 2711.36290937002 143 143 143
53.4789322262983 726.12022180381 2711.48840115408 122 122 122
61.1870624824402 725.252406627056 2712.45833009678 162 162 162
68.8861821902134 724.385161312874 2713.42434918623 127 127 127
77.1326888655246 723.332361371788 2713.53459969767 133 133 133
87.0270389109478 721.722566890942 2711.0798477723 131 131 131
96.8922141029489 720.114909964712 2708.61300972648 154 154 154
105.08101213657 719.066233850372 2708.69986315955 157 157 157
115.988359306856 717.091252094079 2704.49990388598 201 201 201
129.576206311624 714.192914080656 2695.99796088344 217 217 217
139.850705822072 712.409684554792 2692.61937800836 206 206 206
147.934993994088 711.368391919361 2692.66386017282 220 220 220
154.395774539927 710.882070670184 2695.28347070621 239 239 239
161.925344528322 710.02654942958 2696.18100867464 226 226 226
167.851522951217 709.724441119469 2699.66157444881 207 207 207
171.66799195762 710.158244926048 2706.59810281407 226 226 226
176.563478713391 710.22198942346 2711.81619204377 225 225 225
180.950976068039 710.468096548389 2717.90654029508 225 225 227
188.487786922497 709.611080511916 2718.80676414256 219 219 221
192.902432689914 709.854803028546 2724.90786544233 217 217 219
196.821789478905 710.279827579875 2731.88611888748 219 219 219
196.14332139426 712.349421650293 2746.70006791326 211 211 211
196.047572918461 714.230572090705 2760.67257619547 207 207 207
192.457180725881 717.384606372124 2780.77265129609 209 211 210
-164.134753593657 753.456612243261 2761.26843058301 204 205 207
-170.148862681381 756.881401507871 2781.46417297485 182 183 185
-160.144561929865 755.41988202151 2780.1313663456 190 191 193
-146.507891069957 752.835816236526 2773.80468319224 192 193 195
-132.925871697236 750.256020610335 2767.45583967159 202 204 203
-117.584758742569 747.119244101718 2758.58652358151 207 209 208
-105.323237419404 744.922249187244 2753.85799172777 207 209 208
-96.1035689627752 743.662211577469 2753.28477399713 204 206 205
-86.9032686766473 742.40373294562 2752.70395964114 196 198 197
-76.5335363143123 740.774213059619 2750.44157894052 208 210 209
-61.4575175786714 737.657985734363 2741.4650295453 204 206 205
-45.2722905455281 734.175309243755 2730.78249481658 203 205 204
-29.7535958752524 730.884333946785 2720.90769817517 195 197 196
-19.5690987474466 729.269071468507 2718.57020897086 192 194 193
-9.99572145804617 727.841334583746 2717.06266841647 159 161 160
0.711901079630595 726.045249153132 2713.85955143623 176 176 176
9.65462719732169 724.806639654949 2713.17429651846 161 161 159
19.152519233965 723.384674108921 2711.63614877391 187 187 185
26.3386226358029 722.703034473354 2713.47210971875 206 206 204
35.2285639544367 721.468457575608 2712.76545204313 143 143 141
42.9656995749055 720.603759509474 2713.74684419932 146 146 144
51.8221898773767 719.371653544732 2713.02662371483 140 140 138
59.5358983944754 718.508602347728 2713.99851791973 131 131 129
67.799580872359 717.462595624051 2714.11592852798 152 152 150
76.606109239173 716.234005143028 2713.37519493612 126 126 124
85.3932589296702 715.006825032031 2712.62686159161 121 121 119
93.60951351938 713.96413302424 2712.72478663216 145 145 145
101.262277600344 713.105366941786 2713.67222961243 143 143 143
112.733002481131 710.968071844123 2708.62280013698 209 209 209
127.968809684764 707.556222563542 2697.55531518287 215 215 215
138.791477919427 705.609075198956 2693.32111625658 212 212 212
146.879026413483 704.575504364038 2693.36685997324 218 218 218
153.879141613864 703.906782467909 2695.12716047117 229 229 229
161.409189481807 703.056453774795 2696.02485257156 211 211 211
167.86692991132 702.569835403412 2698.64323443544 215 215 215
173.26748455532 702.445729293543 2702.98843779412 225 225 225
179.205412947692 702.139486619905 2706.47404961174 229 229 229
184.101281409795 702.194617590724 2711.69261590636 222 222 224
189.013312433233 702.248294117765 2716.91748010551 218 218 220
192.384207145713 702.84249015856 2724.75119100436 219 219 221
196.819231060327 703.073265167339 2730.86089863694 220 220 220
196.649715921081 704.924459530656 2744.80350915117 209 209 209
196.034917822181 706.950537811347 2759.64382476826 204 204 204
193.965027499824 709.510478762213 2777.12736173152 207 209 208
-171.934398468101 749.73354653353 2782.9530172414 163 164 166
-160.699919545944 747.915236156618 2779.96338914422 192 193 195
-147.670918204517 745.54556095342 2774.46784802165 193 194 196
-134.691385877006 743.179805087475 2768.95224753769 204 206 205
-118.738141489649 739.896154838677 2759.25334148162 206 208 207
-106.472390169001 737.723248741376 2754.52608251074 200 202 201
-96.6498072601263 736.289695594416 2753.11948763492 195 197 196
-86.2547296386893 734.674391448967 2750.86751852558 187 189 188
-72.9154151534817 732.143299908738 2744.4197791222 198 200 199
-57.8544090837345 729.066249722162 2735.4368542527 202 204 203
-45.2213650396975 726.727377600511 2729.78075934175 200 202 201
-32.6377984142285 724.392305929792 2724.10460256756 194 196 195
-22.4420834551553 722.792324119563 2721.77153956049 197 199 198
-11.6936836788508 721.011986897387 2718.58481362866 167 169 168
-0.979610023039479 719.234279605245 2715.38416935925 167 167 165
9.12309750052098 717.641397607344 2713.01339448467 178 178 176
18.0472950385895 716.414956016189 2712.32054524662 143 143 141
24.6640840820085 715.917440140162 2715.00340736956 200 200 198
32.4208766067697 715.05653465554 2715.99272972055 154 154 152
40.1683164691704 714.196245198651 2716.97851780192 148 148 146
50.1647277449455 712.611336532459 2714.56464389268 132 132 130
57.3219917515517 711.934228805947 2716.38863639318 128 128 126
65.0344318306144 711.076443323828 2717.36023433035 152 152 150
73.2947370680124 710.038600032119 2717.47595841467 130 130 128
82.649899307665 708.640525570016 2715.87983929683 133 133 131
90.8769040847237 707.604932066696 2715.98206320748 136 136 136
99.0896045839225 706.570436562478 2716.07874432121 143 143 143
112.210522329223 703.916733495068 2708.46469884094 207 207 207
126.905255254567 700.728016076309 2698.25525360286 200 200 200
138.815958004548 698.442846911428 2692.30628075675 214 214 214
146.362236586791 697.596821354848 2693.21051194196 236 236 236
154.436313591315 696.572118622205 2693.25073392998 218 218 218
160.358944373177 696.264493103077 2696.72990510833 204 204 204
167.351080636522 695.598579776954 2698.48721092944 226 226 226
173.80986586553 695.111460195347 2701.10601962429 234 234 234
180.796498301319 694.445569908417 2702.86083958337 225 225 225
185.157467025774 694.671392696512 2708.94060032967 220 220 222
189.018036277952 695.073433840644 2715.89496809833 217 217 219
192.904517585235 695.473416607246 2722.86010030334 218 218 220
197.33402073904 695.693396522211 2728.96739721623 219 219 219
197.671024085747 697.331902517648 2742.0381546862 210 210 210
196.534621157881 699.497532845126 2757.74476934734 205 205 205
195.983883943214 701.479955641674 2772.61109643352 206 208 207
-180.484920424752 744.580489154857 2793.55556491293 160 161 163
-166.767030027701 742.049824377032 2787.26136221068 193 194 196
-151.883792575193 739.159291356242 2779.28385447941 194 195 197
-137.672592768972 736.455760371512 2772.11163417692 205 207 206
-124.125985637149 733.938456829393 2765.74797881741 205 207 206
-111.236112196551 731.606793379402 2760.19581767301 196 198 197
-98.3957670601832 729.27899418802 2754.62357357848 192 194 193
-86.2023415483864 727.136177090865 2749.86680233267 184 186 185
-71.0790512916364 724.092299510399 2740.90884445069 195 197 196
-58.3946240739561 721.776584411013 2735.27337869944 198 200 199
-45.1698850969537 719.284154230439 2728.77921266708 196 198 197
-31.4122389526712 716.615571146546 2721.42308679893 194 196 195
-21.8076575028234 715.212350925032 2719.92799475881 200 202 201
-13.9744934282895 714.350858765097 2720.94850108357 177 179 178
-4.99091534558094 713.13062170344 2720.27964757946 155 155 153
5.12807810421401 711.552618837923 2717.91535398146 178 178 176
14.6429637013654 710.156325722392 2716.38389221936 135 135 133
22.4166731278739 709.299334826423 2717.38029165926 184 184 182
30.7511642439804 708.263982580978 2717.52603419975 172 172 170
38.5041335828389 707.408550633098 2718.51376708189 139 139 137
46.8126677504188 706.375105467776 2718.64898538235 132 132 130
54.5447138481114 705.521176374848 2719.62849242744 131 131 129
63.9468940803107 704.133095380903 2718.0513348145 142 142 140
72.2103452614444 703.102923175584 2718.16827452444 142 142 140
81.0143710348641 701.895835737005 2717.42662188957 126 126 124
88.6949064297242 701.045455169561 2718.38498849197 132 132 132
96.9159655312086 700.018223176537 2718.48474166266 131 131 131
111.688201595536 696.864515762116 2708.3066687577 215 215 215
126.386014556029 693.716231955868 2698.09816412831 235 235 235
140.467165594679 690.750437904647 2688.7176595953 247 247 247
147.464353413872 690.087023494206 2690.47699181455 243 243 243
156.068582271002 688.894301076304 2689.65433393834 206 206 206
161.446616767211 688.760771176269 2693.99049047821 212 212 212
167.899528821926 688.274027251098 2696.60691831895 231 231 231
174.882875076666 687.611111720838 2698.36064240527 226 226 226
181.862102568101 686.948313296114 2700.11269794582 225 225 225
187.264032873328 686.812322302943 2704.45854838418 218 218 220
191.110973446394 687.201509975864 2711.40775264942 217 217 219
194.984219074219 687.588529298417 2718.36736685424 216 216 218
198.366591771357 688.148401118562 2726.20598527614 216 216 216
198.179475339895 689.929372814201 2740.14225864686 212 212 212
197.547033549893 691.879743212888 2754.97574707676 207 207 207
198.51408753328 693.301128994849 2767.22444516229 205 207 206
-184.734698601233 738.098482919449 2798.35735493833 164 165 167
-170.387040169371 735.41683268781 2791.2404771447 193 194 196
-157.319095577852 733.098384087222 2785.76005835844 195 196 198
-143.085753127339 730.425671344316 2778.5968270887 204 206 205
-128.911767444604 727.757577076685 2771.40927045013 204 206 205
-115.400025291151 725.27289398478 2765.03125125334 194 196 195
-100.742497623625 722.435302211467 2756.96195394618 190 192 191
-87.3447514294052 719.959381813285 2750.53771217286 183 185 184
-71.0260024186817 716.596827075326 2739.90832905843 193 195 194
-58.9347242281295 714.486192688386 2735.1099551485 197 199 198
-46.8878553611785 712.378957216713 2730.29357445466 194 196 195
-33.7103887669985 709.919951173444 2723.78001482296 192 194 193
-21.757406642217 707.819915067969 2718.92556548197 198 200 199
-12.1788032985182 706.432107588108 2717.42009549256 185 187 186
-4.36441405638988 705.577249081762 2718.43269251263 148 148 146
3.44082847843907 704.723085363841 2719.44158082929 171 171 169
10.6616815202605 704.046373808634 2721.2915743041 137 137 135
20.1683231413203 702.664028616768 2719.75692611947 157 157 155
29.0809359515805 701.459730792332 2719.0589612368 194 194 192
37.4067841818257 700.432983640149 2719.20113910967 144 144 142
44.5885058411513 699.75910339857 2721.03526710387 137 137 135
51.766144685818 699.08545696659 2722.86774022308 131 131 129
57.8200167138629 698.763039905962 2726.40016216969 130 130 128
66.6666274988381 697.563577339642 2725.67569411037 143 143 141
76.0490233614199 696.190274342928 2724.0904139329 118 118 116
85.4070805275327 694.818744801289 2722.49552297361 116 116 116
94.7411369088411 693.448883106406 2720.89064439791 122 122 122
111.713261878714 689.636846035084 2707.29279111186 204 204 204
126.956479945491 686.354900838017 2696.22732212628 208 208 208
139.950979447144 683.775592513768 2688.56152690134 221 221 221
147.48832603462 682.940651190192 2689.46180034304 219 219 219
157.165427063056 681.411013177968 2686.91847826294 207 207 207
163.604969774677 680.925179040535 2689.52948605527 215 215 215
170.577761415259 680.265675518961 2691.27865356432 228 228 228
175.957212181666 680.126020498195 2695.61568719527 222 222 222
182.929261924313 679.46630134937 2697.36481317603 224 224 224
187.798580245532 679.498101106366 2702.57280635062 219 219 221
193.206238932345 679.355768318137 2706.92102423925 219 219 221
197.065959753545 679.729836275702 2713.87551773989 215 215 217
199.400573329522 680.618656420001 2723.44502885181 215 215 215
197.659690567297 682.880899384586 2739.98522697553 212 212 212
197.536660421838 684.621017646405 2753.94775808811 207 207 207
199.008750693123 685.840692682852 2765.32340533738 205 207 206
-188.98655464062 731.583166691682 2803.15855613241 168 169 171
-174.008872436265 728.756015560037 2795.21880799578 184 185 187
-160.316478442136 726.287057253027 2788.91381426209 190 191 193
-144.247220508866 723.116732004996 2779.26076507112 200 202 201
-129.463195697832 720.304595217084 2771.2424926209 199 201 200
-116.55209453798 718.025586412086 2765.69852732205 189 191 190
-103.090160915996 715.574498503738 2759.30008636079 186 188 187
-88.4872313356806 712.776410671011 2751.20838324515 176 178 177
-73.3534662331568 709.807828055003 2742.25409583883 184 186 185
-62.4383461177505 708.071343596896 2739.13428417467 193 195 194
-50.3773451025613 705.98740158561 2734.32370615618 192 194 193
-36.0096874598839 703.207296370398 2726.13660679355 190 192 191
-21.1213346872581 700.257440000075 2717.08281173063 191 193 192
-12.129395278097 699.057826192747 2716.41693012327 199 201 200
-4.89740953228668 698.38265354643 2718.27141948668 148 148 146
0.597304404652332 698.230220098434 2722.65521921721 154 154 152
8.97887353155213 697.207277498176 2722.8199292496 155 155 153
17.919015523127 696.011558286799 2722.1330457142 128 128 126
27.4099068047293 694.643850811823 2720.59190937861 196 196 194
35.1738007274873 693.797984259567 2721.58399304442 185 185 183
41.7982474590892 693.299084589923 2724.26996619993 136 136 134
48.4235776996749 692.800144809569 2726.956297386 132 132 130
55.0498932205685 692.301037303149 2729.64302877643 123 123 121
63.9074432975857 691.111348183514 2728.92291587903 127 127 125
73.3008334991361 689.750648223131 2727.34224893063 123 123 121
83.2226550308521 688.219440156707 2724.89776712563 118 118 118
92.0151655613457 687.034395901565 2724.15128496901 118 118 118
107.358867902256 683.788424959321 2713.12622868034 191 191 191
125.348013514777 679.690055284877 2697.78419944307 183 183 183
138.89257416081 676.971247167236 2689.26336931233 214 214 214
148.052695189404 675.627474507534 2687.58812502121 209 209 209
157.726200122576 674.114266368912 2685.04296514706 214 214 214
165.765682845974 673.115826372755 2685.06898109093 223 223 223
172.193706093325 672.630426692064 2687.67532144059 229 229 229
177.032917331504 672.656362674639 2692.87116891599 228 228 228
182.943065671022 672.340251603735 2696.34535035988 215 215 215
188.859120721069 672.023547589051 2699.82218510999 215 215 217
193.736508164337 672.046070397783 2705.03351573178 218 218 220
198.630140800923 672.06713221596 2710.25117776481 211 211 213
200.435861541046 673.104260320306 2720.68448514398 210 210 210
199.7140362503 674.984481681466 2735.48231453715 212 212 212
200.088240099657 676.520752244131 2748.56890914427 207 207 207
201.543430405978 677.714119785603 2759.93791312089 204 206 205
202.03549080498 679.240993018636 2773.07229824064 202 204 203
-185.238985262977 722.769483768663 2797.19055432663 166 167 169
-173.341399592814 720.848929548465 2793.39112307258 181 182 184
-160.873024941504 718.75775827459 2788.74554255415 187 188 190
-146.624988566701 716.149012837524 2781.58751866914 199 201 200
-129.408929427673 712.677459127752 2770.24346811877 198 200 199
-115.292459979359 710.078898387263 2763.03209651848 187 189 188
-103.036931940681 708.004297085022 2758.29995308948 184 186 185
-89.6298707428065 705.587265339056 2751.87903653534 172 174 173
-75.6818283889558 703.001719993011 2744.59937134251 180 182 181
-63.5721185678013 700.938367300349 2739.80835911365 189 191 190
-53.8684534265215 699.567765285242 2738.35313812233 189 191 190
-38.8978048188269 696.649705252019 2729.33242305345 190 192 191
-22.8257927325675 693.392926046344 2718.60233615359 191 193 192
-12.0794142215426 691.688216294953 2715.41421859013 207 209 208
-5.43023718530966 691.187297513522 2718.1102201754 145 145 143
-0.513788696051565 691.200508874107 2723.33743691669 148 148 146
7.87086918543189 690.185212003176 2723.50333961143 164 164 162
17.9599340841727 688.657939187792 2721.12654363482 134 134 132
26.8790829335235 687.474488067992 2720.43132436237 184 184 182
33.5076507584668 686.97511245159 2723.11896972697 197 197 195
39.5718531163236 686.646018880224 2726.6556249572 137 137 135
45.0791559906136 686.486729976247 2731.04457382191 136 136 134
51.7180168648037 685.98641930864 2733.7363938568 128 128 126
61.1467723882349 684.636521897437 2732.16970697018 120 120 118
69.9961357193748 683.457972104366 2731.44619488422 129 129 127
79.9318193058192 681.941835209123 2729.00721149178 113 113 113
88.7377543913395 680.766457162093 2728.26609157533 120 120 120
104.097245553686 677.562812080027 2717.24710725031 204 204 204
124.28403444328 672.84457184546 2698.48435410994 189 189 189
137.833773773407 670.160621331008 2689.96535658064 214 214 214
147.537792042059 668.661374330162 2687.43244551862 205 205 205
157.212651955345 667.164198386749 2684.88771274667 221 221 221
165.787902801054 666.005483064889 2684.05306411406 236 236 236
172.213536253256 665.519973842674 2686.65843768286 228 228 228
177.049784078715 665.537686292345 2691.85314762555 223 223 223
182.957376860059 665.218729112285 2695.32631591474 214 214 214
187.820738710681 665.234054264152 2700.53202222953 212 212 214
192.700230836197 665.247952004315 2705.74427039794 216 216 218
197.075824966953 665.427460617222 2711.83004669009 209 209 211
200.954978681818 665.771983838906 2718.79263237298 209 209 209
200.740445146165 667.44762041952 2732.71860316357 212 212 212
202.129791910662 668.618588061927 2744.06111734089 207 207 207
202.040719168269 670.284254730993 2758.0379618886 203 205 204
202.525691109801 671.77854913422 2771.16946665415 201 203 202
-181.488389107198 713.993130320266 2791.22349509467 184 185 187
-173.286272439868 713.123483228129 2792.39319230055 182 183 185
-160.207964592848 710.885503652005 2786.91661681643 183 184 186
-145.962602172573 708.309458379192 2779.75726240782 203 205 204
-127.537049700331 704.542708030829 2766.74754837749 195 197 196
-113.428322301511 701.977248990258 2759.53279117425 189 191 190
-101.781898001395 700.098018133519 2755.63161046446 183 185 184
-90.7727798267601 698.391954546455 2752.5496273678 171 173 172
-78.6070323959702 696.348640413092 2747.78115248395 174 176 175
-65.299108382223 693.969057705244 2741.31955490503 188 190 189
-54.4083111140619 692.27218371955 2738.189852082 191 193 192
-39.4349410422039 689.39183600702 2729.16995306561 178 180 179
-26.2878868738929 687.024515092712 2722.64338470948 187 189 188
-16.1106845022561 685.506667850753 2720.30220352904 199 201 200
-9.4463750784175 685.004311054204 2723.0043430108 151 151 151
-1.04699437090416 683.995887607182 2723.17615477499 142 142 142
7.91379248837654 682.819986948549 2722.49773720785 179 179 179
16.8554897985065 681.645484580881 2721.81132259204 157 157 157
24.0662765291557 680.976833357125 2723.65717919354 151 151 151
31.8408402962524 680.14054696906 2724.65376761537 190 190 190
38.4753874980126 679.640338961223 2727.34384029666 153 153 151
44.5479183778028 679.307596731536 2730.88389534235 140 140 138
51.1868133283493 678.806984483609 2733.57573146041 136 136 134
60.0586419481639 677.637474282423 2732.86124689331 121 121 119
68.3558369954171 676.636399612451 2732.99162870462 121 121 119
76.6389698973913 675.636229843532 2733.11630999385 115 117 114
85.4583274367748 674.470488283033 2732.3805516921 111 113 110
101.381763349984 671.14262750158 2720.51178075955 180 182 179
123.765339881929 665.826408188702 2698.32753411762 177 179 178
139.489427758539 662.513384960903 2686.37793611027 203 205 204
149.184573240614 661.030945180028 2683.84156235211 200 202 201
156.699256902845 660.213161855949 2684.73252968269 207 209 208
163.669405734766 659.561423982179 2686.48082550225 180 182 181
170.102683810427 659.075129762467 2689.08930027509 181 182 184
176.006714512782 658.753585546317 2692.56104591272 210 211 213
182.444484589563 658.26657677716 2695.17134488113 194 195 197
187.832649557437 658.108746836489 2699.51204459156 187 187 189
192.186445987746 658.278864085235 2705.58906633293 196 196 198
196.041195869575 658.611517911105 2712.54160381666 210 210 212
200.439727637842 658.77784634449 2718.63702452473 210 210 210
202.79874628015 659.598142342659 2728.21693646975 211 211 211
204.173642394019 660.742578547456 2739.5538007819 214 214 214
205.089877758667 662.046441302352 2751.78255633406 203 205 204
203.016747421179 664.325954849094 2769.26716422793 200 202 201
-176.50297381045 704.91653054973 2783.60080767188 186 187 189
-168.323086020762 704.053725578639 2784.761452701 177 178 180
-157.709209442604 702.518103016716 2782.59746977715 182 183 185
-144.082506988702 700.143600462694 2776.264904828 202 204 203
-126.875104452118 696.765086678062 2764.91664406324 193 195 194
-112.769101893488 694.23239160942 2757.70053524951 188 190 189
-101.126122674815 692.374953097018 2753.79779447058 183 185 184
-91.9160968476354 691.19057349748 2753.22035626692 167 169 168
-80.3417333811804 689.338427256233 2749.28953611466 169 171 170
-65.8400181072545 686.653893152705 2741.15599133586 186 188 187
-53.1753369490313 684.474956041028 2735.51149380493 188 190 189
-39.3835288167257 681.966461168731 2728.16824368569 177 179 178
-27.4083887423349 679.962014913773 2723.32204139678 182 184 183
-18.39423223268 678.792705352371 2722.66518286491 195 197 196
-13.4648153887122 678.78797261744 2727.89778641266 169 169 169
-4.47139476438108 677.620281447285 2727.23226257396 145 145 145
4.50270227162242 676.453996282639 2726.55916132041 168 168 168
14.6042785902665 674.95795153029 2724.18719442904 178 178 178
20.6812007618349 674.621986719883 2727.72930913055 132 132 132
29.6054035571489 673.459391003918 2727.03572086025 175 175 175
36.8132162643358 672.793336562526 2728.88035361777 168 168 166
42.3272572452327 672.622006911212 2733.27212195978 139 139 137
48.4130724647824 672.285193494996 2736.81758659917 135 135 133
57.2957915921404 671.125550269753 2736.10743673257 118 118 116
65.0481356552419 670.295752033278 2737.09472214843 119 119 117
72.791188447461 669.466654624756 2738.07849750889 118 120 117
82.1773327852955 668.14637492703 2736.49433316039 113 115 112
101.953548006343 663.71767975151 2718.64195511608 185 187 184
124.883706750208 658.316877046424 2695.60059149531 179 181 180
141.146774470949 654.887050253387 2682.79129981084 194 196 195
148.670863929113 654.073896161002 2683.6862976199 194 196 195
155.64802911413 653.424148293065 2685.43716200096 174 176 175
162.620994464899 652.774638091999 2687.18658132394 161 163 162
170.65602444168 651.80019232725 2687.21061251246 212 213 215
176.554912551552 651.476036855874 2690.68029574336 213 214 216
181.931772977793 651.313453711138 2695.01645435283 191 192 194
186.26881435979 651.473809963897 2701.08676607933 186 186 188
192.195763185201 651.147037335985 2704.56808795938 198 198 200
195.006245898456 651.789169282196 2713.25333680542 208 208 210
199.924629708596 651.782740301437 2718.48148601288 206 206 206
202.282224906576 652.580942254259 2728.0609890822 212 212 212
205.193967976715 653.214782539726 2736.78730037913 213 213 213
204.569606453979 654.971495718192 2751.62552832104 203 205 204
201.985394365218 657.365154195795 2769.98114578425 199 201 200
-180.139514919633 698.213475911392 2787.57376039211 192 193 195
-168.265199665344 696.359472993859 2783.76440267052 168 169 171
-153.985958303794 693.845779955824 2776.61829299269 182 183 185
-138.549116907601 691.005733787356 2767.78574476302 197 199 198
-124.393927704519 688.501654538992 2760.5895916002 187 189 188
-112.71248600473 686.662783191419 2756.70202604726 183 185 184
-102.873858393272 685.321891584251 2755.30148243539 182 184 183
-94.8551124784334 684.47720354307 2756.39674493762 165 167 166
-82.0771759305259 682.316640986154 2750.79796443889 164 166 165
-66.9744343238232 679.502407380668 2741.8299459151 182 184 183
-51.3500373145013 676.529171428037 2731.99528179907 184 186 185
-39.3313116171004 674.545720391888 2727.16656788264 179 181 180
-27.3570868200583 672.565640224436 2722.32006754265 176 178 177
-18.3445166921949 671.407101909351 2721.66222782635 186 188 187
-13.9994550550246 671.557581910478 2727.73611898329 207 207 207
-5.58375644608389 670.56370629394 2727.91442748178 139 139 139
1.66581189460713 669.896979194461 2729.77571467202 146 146 146
11.7784635820992 668.416250871272 2727.40837325136 175 175 175
18.436283586823 667.913780570158 2730.10788607354 138 138 138
28.5057087814302 666.43624331054 2727.72276113768 137 137 137
36.2821823817312 665.610032737511 2728.71978923899 192 192 190
41.7958750272713 665.43299217829 2733.1114598296 163 163 161
47.8815819018197 665.093078988703 2736.65690409631 139 139 137
55.6484003959428 664.267424155281 2737.65001870106 120 120 118
62.8502475189674 663.603964407588 2739.49221636868 123 123 121
69.494757699786 663.102070410053 2742.18633576907 113 113 111
78.3435471812053 661.955366968685 2741.46234994875 115 115 113
98.6881679673062 657.429510014943 2722.76178638768 167 167 165
125.457624414262 650.98352203385 2693.73067801705 179 179 179
141.176027798538 647.76335761861 2681.77833178102 183 183 183
149.238997287455 646.795066913068 2681.81362882674 177 177 177
155.134840121871 646.468582340741 2685.2820967011 162 162 162
162.108170575988 645.821494033433 2687.03164549454 194 194 194
168.544186470653 645.334355252375 2689.64123519247 202 202 204
175.511953266776 644.687319198594 2691.38853090407 180 180 182
180.891141867564 644.518788617008 2695.72542002835 191 192 194
187.332713473314 644.0307015705 2698.337266382 197 197 199
192.728926052545 643.860547804576 2702.68131792459 208 208 210
196.57443973221 644.165988069396 2709.63032200675 208 208 210
199.409710336913 644.786633805907 2718.32602738089 206 206 206
202.797125984977 645.24574741995 2726.16719415114 213 213 213
205.70248344841 645.860660977702 2734.89132064705 210 210 210
206.091554907072 647.26314573756 2747.98469187739 203 205 204
201.461843332241 650.239897875431 2769.82317117411 198 200 199
-183.777714991238 691.482553019369 2791.54599541741 194 195 197
-168.820425883958 688.833177769395 2783.59664276729 166 167 169
-155.150290362132 686.514825455283 2777.2814951832 184 185 187
-137.272890088356 683.061018874474 2765.12601709278 195 197 196
-126.154492160099 681.402989476845 2762.088173736 185 187 186
-114.466717963868 679.585220064622 2758.20326944572 183 185 184
-104.020719247238 678.094973444111 2755.9707127992 182 184 183
-96.5980686892214 677.417307539771 2757.90241989486 166 168 167
-83.8132133792604 675.283305284904 2752.30623943411 166 168 167
-71.0775319638082 673.152995183143 2746.68986359917 180 182 181
-53.0703532236181 669.573255489894 2733.50933551379 182 184 183
-39.8673416081885 667.290961523675 2727.00452222461 181 183 182
-26.1326237145358 664.851757211315 2719.63763146794 176 178 177
-18.2943933795432 664.026183057453 2720.65965961049 183 185 184
-13.371297381588 664.00491492202 2725.88982922622 208 208 208
-6.69619445653313 663.500866111161 2728.59635174529 151 151 151
-0.0201571368321218 662.996713381915 2731.30325338182 144 144 144
10.6724514758254 661.371432168003 2728.09276272013 163 163 163
18.4751374510823 660.548494798833 2729.10037921669 157 157 157
27.4059271711495 659.406681979826 2728.40955764349 127 127 127
35.1853555093291 658.585437829393 2729.40774445314 183 183 181
40.7011724755175 658.402400794211 2733.80032061781 174 174 172
47.9113045364212 657.740944682991 2735.64585761117 142 142 140
54.0003694069344 657.397597312231 2739.19268753685 122 122 120
60.651422451437 656.895005607562 2741.8894613849 121 121 119
67.3035158642363 656.392241812307 2744.58665777512 110 110 108
75.609740013979 655.413884015748 2744.72052321846 114 114 112
94.3239032885332 651.429710906865 2728.59237478282 120 120 118
122.210433059154 644.766623456975 2697.85759076872 148 148 148
138.48848422624 641.433552697928 2685.05363239135 189 189 189
147.103195148122 640.314660158022 2684.23465901868 168 168 168
154.083289316937 639.669606346695 2685.98693097145 162 162 162
163.739226792007 638.238188903055 2683.43403820659 228 228 228
170.698718281894 637.594378858695 2685.17795885295 185 185 187
176.59244228859 637.264565255106 2688.6455940621 184 184 186
181.435352559762 637.247617697018 2693.84326429535 210 210 212
187.872027866873 636.75961969456 2696.45312749738 238 238 240
192.739621988212 636.740387712724 2701.66080936231 228 228 230
197.623352687933 636.719817483925 2706.87503495724 198 198 200
201.486629977554 637.009713322921 2713.83134922196 199 199 199
205.37603126958 637.297414439994 2720.79851477243 216 216 216
208.265149760049 637.894103097559 2729.51594713627 216 216 216
207.615381030872 639.575478964407 2744.34445891626 203 205 204
201.955000952866 642.803222293124 2767.92134166717 196 198 197
-189.267387282527 685.205797940741 2798.00182162353 197 198 200
-172.445693571545 682.108577315493 2787.57432332761 165 166 168
-155.703251796941 679.017431870233 2777.11443320837 187 188 190
-137.822409817748 675.61230923771 2764.95997962908 191 193 192
-126.096262615994 673.813108665328 2761.0904715506 182 184 183
-116.221294285161 672.496033294928 2759.70420429187 178 180 179
-104.566435143202 670.702420965805 2755.80578982479 175 177 176
-97.1435614041358 670.027128423358 2757.73756929545 161 163 162
-84.3568066425897 667.919994476947 2752.14195425475 163 165 164
-72.8072030688696 666.134487658773 2748.20060388838 176 178 177
-55.9740370715447 662.923198634195 2736.69954987748 179 181 180
-45.1146927628092 661.30407472089 2733.55652264927 177 179 178
-31.3574880097101 658.895672206775 2726.19824596717 178 180 179
-19.4113310678343 656.966299636185 2721.33973957482 177 179 178
-12.7421498727001 656.462331448221 2724.04386381623 206 206 206
-6.0720830674188 655.958352871129 2726.74834671367 212 212 212
-0.553906720484276 655.769509952973 2731.14192218193 143 143 143
10.1400786118515 654.162919248456 2727.93184727533 154 154 154
17.9431852775041 653.345149069715 2728.93959494056 180 180 180
25.7371024435986 652.527952103571 2729.94387472416 136 136 136
32.955651398985 651.868315259813 2731.79254864247 166 166 164
40.170083152107 651.208909536148 2733.63981100941 178 178 176
47.3804913808857 650.549792700724 2735.48544209011 148 148 146
52.3516779247317 650.516076794628 2740.73517757848 125 125 123
59.0078289382308 650.012722530814 2743.43402133811 118 118 116
65.6650754080155 649.509191811897 2746.13330997774 109 109 107
73.4257689823858 648.694064629649 2747.12386484907 113 113 111
87.7620498427718 646.013124461247 2737.84450146177 104 104 102
115.138160923149 639.609032096182 2707.97964033451 128 128 128
135.799615007484 635.081078110582 2688.3285680867 183 183 183
146.589931845903 633.352166065217 2684.07961614465 171 171 171
154.647722313649 632.399947022736 2684.1126944225 174 174 174
164.299940370376 630.984874145229 2681.55817180411 223 223 223
170.187396143024 630.652682495171 2685.02354430111 175 175 177
176.081016007045 630.319828561371 2688.49116038851 190 190 192
180.923516052322 630.294335633967 2693.68872929576 237 237 239
188.412487394155 629.498375338851 2694.56912047705 236 236 238
193.274609498123 629.471088688104 2699.77464781303 219 219 221
198.673824935413 629.288951007174 2704.12000602642 195 195 197
202.010250890035 629.71871948567 2711.94074985853 203 203 203
207.957676928564 629.380700534 2715.43044806143 217 217 217
209.290025610485 630.41774257368 2726.75089923778 215 215 215
208.630050211906 632.061311733436 2741.57556497405 202 204 203
200.923705378793 635.833923465081 2768.63566813789 194 196 195
-189.209519230313 677.463486819476 2797.00512845282 200 201 203
-173.61558749519 674.725107258048 2788.23541438525 166 167 169
-159.314453118158 672.307174501021 2781.09744319773 189 190 192
-142.026851742851 669.107104534376 2769.7803018201 192 194 193
-131.497441263608 667.642498563689 2767.58132365722 180 182 181
-119.789170095191 665.866263560965 2763.70440362652 182 184 183
-106.916826721303 663.779516827919 2758.14328828014 174 176 175
-97.6888799926869 662.63627797411 2757.57279428709 162 164 163
-86.0934093458086 660.868776142896 2753.64987870136 161 163 162
-75.1315257583813 659.26062669956 2750.54828571842 172 174 173
-59.4707176581684 656.406718206523 2740.72745972596 179 181 180
-48.008392890232 654.649490867306 2736.75081366419 177 179 178
-33.0655367742356 651.961260180394 2727.71710356819 177 179 178
-21.1126034916642 650.055649718801 2722.86116075796 179 181 180
-13.2752458070218 649.240456081116 2723.88275688907 201 201 201
-7.18436224108365 648.891190810639 2727.43062527428 214 214 214
0.0658268582569566 648.2316773261 2729.29210912807 139 139 139
9.03398539306921 647.108333578779 2728.61627793316 145 145 145
15.6968041543726 646.604480929855 2731.31782519435 187 187 187
23.4985809905102 645.791891665776 2732.32525237764 182 182 182
30.7250082562216 645.133991794316 2734.1771030023 135 135 133
37.9471614603555 644.476455022824 2736.02747756401 159 159 157
44.6039058347516 643.972874419829 2738.72656328687 164 164 162
50.7026294733948 643.622754304647 2742.27735531501 132 132 130
57.9203016399688 642.9653035649 2744.1259148842 115 115 113
65.133946079873 642.308082270233 2745.97284191622 106 106 104
71.7922077039956 641.80402280177 2748.67254559243 114 114 112
82.2940082882673 640.230143044683 2745.38440850045 113 113 111
105.329182185866 635.148329650396 2722.38288969417 109 109 109
130.933623207685 629.315694089597 2695.03329928636 177 177 177
144.99411838581 626.693216766828 2685.6418290943 172 172 172
154.674260642545 625.292310159447 2683.09850541054 204 204 204
164.325244543914 623.8934746095 2680.54336001685 199 199 199
171.811742126698 623.103269483233 2681.42270596798 212 212 214
178.226496845477 622.616679439337 2684.02368300688 221 221 223
183.584624049681 622.432417252854 2688.35242098845 230 230 232
188.427618618552 622.398247498425 2693.5502558928 224 224 226
