ply
format ascii 1.0
comment KinectMotionCapture
element vertex 786
property float x
property float y
property float z
property uchar red
property uchar green
property uchar blue
end_header
68.0428078873776 6.13450473043764 3404.74122918232 16 18 13
29.642641226292 8.90070494543721 3351.98784191587 16 17 11
52.2052245685876 6.72006491574154 3362.88337918038 18 19 13
40.6669007046276 7.31514213372228 3338.47321183386 13 14 8
54.2178987919222 5.86655821851981 3339.97101682603 12 13 7
68.5113504925345 4.35532629092905 3342.14897741713 16 17 11
39.9038036390098 6.35954210723333 3300.76340289542 20 21 15
46.3941649208324 5.49158373487715 3295.14359787103 22 23 17
69.8791824720808 3.22534498668919 3306.56344380405 22 23 17
79.2583136390847 2.11720715203084 3303.73475345469 22 23 17
75.1205351238387 2.12483909431471 3287.47089023657 22 23 17
74.4918564722718 1.84549127464201 3274.7840435428 23 24 18
76.6867032821415 1.33449604157865 3264.94480592342 20 21 15
92.5060740001458 -0.306230309594785 3268.44787403776 20 21 16
121.346416835643 -3.03231893536243 3284.49250402103 13 13 11
-100.6120277618 22.7959383790388 3663.29784842357 18 19 14
-147.380936605785 25.4130005245205 3562.21817445419 16 19 12
-124.934384710885 23.2455618545027 3575.86071654391 21 24 17
-115.061680991536 22.0853340744439 3573.92814305126 17 20 13
-126.789471055726 22.6675545195402 3545.71186254099 12 15 8
-123.325026934203 22.0277109293656 3536.09631510911 12 15 8
-116.040613714009 21.079563093074 3531.11237274254 12 15 8
-115.172987731012 20.6526933605177 3518.45284185573 12 15 8
-87.2879025758975 18.0288188298386 3537.97160291408 13 16 9
-104.501488910423 19.0766619919151 3503.92032396669 14 17 8
-106.308934897745 18.8735591949896 3488.28456509435 15 18 9
-88.6600703094094 17.0799279458974 3495.49629493966 16 19 10
-38.974303389629 12.6535359558294 3539.8020657619 16 19 12
-69.5133290608201 14.8106690495514 3490.82612531952 15 18 11
-95.0351026708485 16.5668959096289 3448.09086805756 13 16 9
-56.8783613103427 13.076258720471 3478.56260724878 15 17 12
-93.8345643514737 15.7894789437134 3423.23476724982 12 14 9
-70.758886650534 13.5410950047502 3436.33286342999 11 13 10
59.7800931068226 -2.07116118346998 3397.39917787035 7 9 4
35.9346282856103 -0.365329876997639 3359.82794996468 15 16 10
45.296687204587 -1.48346794924709 3357.01443706097 17 18 12
29.5588357704077 -0.457227138505684 3328.30084548788 17 18 12
-2.40462809084585 1.96455940290272 3283.20432360893 16 17 11
24.353891002924 -0.637350628648115 3298.40601863486 12 13 7
26.5970972407694 -1.13934798048487 3288.52480785449 14 15 9
45.7562633338489 -3.09499990755283 3295.75213138146 20 21 15
60.7409824497238 -4.6942651714374 3298.65477698674 21 22 16
77.9045353795271 -6.48362328049265 3303.64059445658 22 23 17
87.2963869857411 -7.60390936134175 3300.80095756626 25 26 20
80.2795930862752 -7.30426985800634 3281.7368737363 27 28 22
91.8042503017005 -8.60830038071111 3281.02026187221 27 26 21
97.6109553365374 -9.41689511780208 3274.66904522805 26 25 21
115.657465093616 -11.2895297752873 3280.21337278438 14 14 12
101.986836197945 -10.4023740233066 3255.00262092044 15 15 13
-121.196931165564 15.7339407735923 3653.3949146486 21 24 17
-156.951284310516 18.0475549702793 3579.82432421302 21 24 17
-164.718237617552 18.3642806412183 3556.11696078573 21 24 17
-136.695605985537 15.6610235062778 3576.84028064185 17 20 13
-103.479851749479 12.5111444999788 3603.6524621086 13 16 9
-105.575887165334 12.3490920131349 3586.94330718806 13 16 9
-105.822299881726 12.0329284394833 3572.60179904995 12 15 8
-109.940294052603 12.0490419491723 3553.67389581162 12 15 8
-109.009480605629 11.638051308782 3540.95949518162 11 14 7
-86.4121234872468 8.71811522541743 3526.68583377441 13 16 9
-116.024363552057 10.9378507849801 3478.22947014062 13 16 9
-72.89520248899 6.5815622610435 3501.75052214212 17 20 11
-91.0973145868814 7.83372105848429 3467.23144916348 16 19 10
-64.1712542693043 5.18673141584675 3484.93474404973 14 17 8
-66.7322534153048 4.77605806227593 3455.39664571695 16 18 13
-116.447840092855 8.78947419067011 3385.9755471976 12 14 11
50.5425978715528 -10.4264503927625 3376.34584173481 29 31 26
60.6443033074777 -11.6233570817947 3374.21502190327 8 10 5
72.8582101510966 -13.009661871359 3374.2244911102 21 23 18
50.8285503766204 -11.3319686852024 3339.05003567987 20 22 17
1.97002860508499 -7.24161906259033 3276.82578592695 18 20 15
28.0737162424129 -9.86603410408019 3291.2716163619 16 19 12
25.3591089392318 -9.90455373461313 3276.42106030652 12 15 8
93.5859004025512 -16.6139774397581 3320.55184532647 12 15 8
88.0753766188205 -16.4016164247725 3302.82962586877 19 22 15
72.4995332507103 -15.2760733932039 3275.29823347274 21 24 17
76.1264787643414 -15.8831176817674 3266.86520408792 27 29 24
52.4517577577099 -14.0143861813352 3231.79176804056 31 32 27
141.062799023785 -22.6115610721558 3293.99759137724 19 21 16
-121.859503763088 6.70696799573103 3654.02768514322 21 24 15
-141.828994954944 8.15287052700231 3614.42227230263 18 21 12
-169.75203784881 10.0040476728812 3551.27065377151 23 26 19
-110.283672511954 4.41358364158886 3610.92531139207 18 21 14
-102.244085723719 3.38575888897089 3606.61061013018 13 16 9
-103.298501898246 2.86023968350971 3577.0907072586 11 14 7
-104.215224011585 2.63593436321352 3562.00632425296 11 14 7
-107.479604718272 2.32334721998748 3530.43039914345 13 16 9
-100.179392407066 1.36798911792876 3525.43249434667 14 17 10
-85.1251957782502 -0.285465023792564 3529.59884882436 14 17 10
-72.2402989039805 -2.33825009278976 3503.88753152803 17 20 11
-85.1986008248016 -1.45732285026762 3475.41258337456 16 19 10
-87.7828046900082 -1.5121468088827 3459.12584675254 14 17 8
45.0405119736987 -18.7357306009466 3371.905084565 16 18 13
66.9449275963174 -21.0453458752952 3382.04865434042 15 17 12
70.1133358724015 -21.6101387449271 3372.68920548613 14 16 11
13.1201587312741 -16.553123337539 3301.62921291674 15 17 12
27.9926147395106 -18.2034441788028 3304.62949183408 20 22 17
3.52240500175549 -16.1705869641785 3267.59794918059 20 23 16
19.7882297940715 -17.9503975679666 3272.03822164263 17 20 13
47.4315259571414 -20.8004863117935 3287.79791765599 15 18 11
103.580973082547 -26.3349567768727 3331.80192388711 14 17 10
135.821643257982 -29.6301802177087 3351.51999133547 16 19 12
44.7105305729676 -21.5572950186922 3237.22698526178 25 27 22
41.7722934702938 -21.5285686597277 3222.56982143622 25 27 22
63.9751168266072 -23.8750772150744 3232.45498957208 26 28 23
150.517956105704 -32.316609306472 3304.39258560057 17 19 14
-159.303331999961 0.804652472359169 3593.88464180106 26 29 22
-145.74498212727 -0.738111838720579 3596.70026141282 26 29 22
-169.139233281921 1.15731448998022 3553.44336282196 21 24 17
-169.452283824211 0.909569383713588 3539.1594842423 16 19 12
-149.611973669586 -1.21753578062792 3549.76732936523 12 15 8
-115.119854483392 -4.71787750307001 3578.12234771546 9 12 5
-100.776745032431 -6.33886070681142 3581.58124021251 11 14 7
-98.4940384800925 -6.8307422745697 3570.34246666712 11 14 7
-135.88487388827 -3.59595772818774 3511.41786028442 12 15 8
-141.485011390182 -3.33849394763602 3491.12618273331 13 16 9
-98.8969427118747 -7.61492620287393 3528.3492567429 14 17 10
-67.6991232966455 -10.8264266875332 3551.61749516016 15 18 11
-84.2722026303848 -9.53356593120691 3518.33273892441 16 19 12
-94.4961821490549 -8.83473933316453 3492.78239427886 16 19 12
-96.3539784169774 -8.9233561019029 3477.18953393222 14 17 8
-69.4029054521015 -12.0043654968353 3481.6404066573 13 16 9
56.1715775034899 -28.6195841571759 3384.81844997596 13 15 10
53.0865337642386 -28.5633471485545 3368.96508959743 16 18 13
31.8199698883017 -26.7367942086288 3334.45152777986 8 10 5
54.4321542224324 -29.1752916545229 3345.30574500434 18 20 15
0.0101739216789021 -24.1099409784046 3277.31019318845 13 15 10
35.3782517450387 -28.0236855043339 3289.02827304582 24 27 20
53.1600197962518 -29.9932250372884 3294.80268970066 25 28 21
79.5193923269517 -32.8043041982256 3309.02811843618 24 27 20
140.14256391207 -38.9760132575116 3357.099227965 19 22 15
43.3944960363957 -29.7246896974509 3249.00728262235 21 23 18
33.3471313024898 -28.9638529842458 3227.27355589655 17 19 14
35.4039494601417 -29.3890002940525 3217.55371188759 23 25 20
74.8574695389981 -33.4918655087794 3244.25893186011 25 27 22
113.777364374688 -37.5485054219868 3270.10278808577 27 29 24
-101.411249401657 -13.7209023094353 3668.19729071291 26 29 20
-126.401459333225 -11.5492754294384 3622.35177904448 16 19 12
-117.749230025374 -12.648032363665 3618.82979900406 14 17 10
-137.386721094177 -10.9865080673869 3580.25880887374 11 14 7
-142.994541984278 -10.9366703109995 3545.41800456872 10 13 6
-120.485869420424 -13.3870906520216 3559.00885368288 11 14 7
-117.626603132053 -13.9141288422536 3548.59384377796 11 14 7
-163.284907398344 -9.91426252954791 3466.39278342825 14 17 10
-131.069820423053 -13.3208339695288 3491.42710529479 15 18 11
-81.2638361303137 -18.4663671350074 3536.9569158364 15 18 11
-92.0438501308207 -17.6448397345605 3510.56445028633 15 18 11
-102.285481059329 -16.8722217347232 3485.02892658204 14 17 10
-93.7381877817631 -17.9532086902438 3481.59778322105 14 17 10
-85.1785464419219 -19.0355741186556 3478.15594628318 14 17 10
-104.801786876118 -17.325177137712 3442.21849415074 14 17 10
53.1315079118326 -37.3815639124265 3370.30651202351 13 15 10
53.4773567681555 -37.6317252069235 3358.09839456521 12 14 9
33.5171706687345 -35.8241268894729 3325.09919274216 18 20 15
25.4652173877816 -35.4260831026516 3292.37486496269 13 16 9
76.3414669003186 -40.798663624859 3331.68483492652 19 22 15
87.1697916026983 -42.1088755512166 3330.24822315158 23 26 19
88.8027382176073 -42.4841333153115 3319.57186417416 25 28 21
59.8229521140108 -39.7411713597936 3278.50413569708 24 27 20
48.4692428830109 -38.7877966909278 3255.25457979513 29 31 26
24.8511717786073 -36.5799384127234 3220.12984569128 20 22 17
72.0825521828643 -41.5995032365859 3254.65647091576 20 23 16
90.0497590646223 -43.6358615595583 3260.27059405807 21 24 17
126.119731932852 -47.5253226678224 3283.29045328097 24 27 20
150.056547058837 -50.1778271351867 3294.32121302778 16 18 13
-195.609792828267 -12.8614754303435 3579.12402761881 25 28 21
-153.630819007414 -17.345938323699 3618.19963495082 5 8 0
-107.694973348859 -22.4701248306928 3647.23320478464 14 17 10
-132.820965142765 -20.1398388156294 3601.50435202178 12 15 8
-135.521559024144 -20.0882311712968 3583.99454425884 11 14 7
-161.358799372476 -17.8904414637762 3524.32619863141 12 15 8
-118.912068380333 -22.6645921638859 3548.44144506234 13 16 9
-149.30816269406 -19.7664155225351 3498.01324250926 13 16 9
-161.350999368062 -18.7427684301702 3470.06747927711 13 16 9
-113.70038213568 -23.8441526585307 3513.4947241955 14 17 10
-79.9806717483031 -27.521796056898 3539.87352867781 14 17 10
-95.2803297762213 -26.1615273424436 3508.13113736267 14 17 10
-89.9413295326257 -26.9219055657648 3500.86203946906 15 17 12
-40.3166635077588 -32.2467606171327 3545.22659069619 15 17 12
-49.2298736962593 -31.5398054221514 3521.18693974066 13 15 10
-118.547910207677 -24.59086168728 3427.71272463869 11 13 10
39.2841867238816 -44.7455469390292 3357.21235217978 19 21 16
63.2785219917769 -47.4550914867961 3369.51720315814 14 16 11
53.8372818990656 -46.6503760506287 3347.2578420837 14 16 11
19.0735427051671 -43.177147397329 3299.28824711796 15 17 12
32.5608593344122 -44.7799108774928 3300.84224620625 8 11 4
79.4509574755438 -50.0893735913761 3323.75657270642 17 20 13
77.5196043774931 -50.0682238496927 3309.55001629079 22 25 18
61.3174931333975 -48.537365777707 3281.23554545015 24 27 20
39.9917717563878 -46.4607635952542 3248.09521362477 28 30 25
79.2922526645659 -50.7956186658478 3274.9345814475 22 24 19
99.4164688116692 -53.1044529911525 3282.65069539431 21 24 17
106.671661059669 -54.0511358995437 3277.69207040191 24 27 20
146.388903414418 -58.4407394819957 3304.1705708703 20 23 16
141.445838203071 -58.0948377428494 3287.27891019572 16 18 13
-142.462084798014 -27.2908553653103 3648.28440064472 10 13 6
-146.218951763013 -27.0929783280712 3629.0423176443 26 29 20
-133.959764737006 -28.7882502106335 3615.78098774453 14 17 10
-124.70322127435 -29.9673205308748 3613.05932372201 12 15 8
-126.115265051376 -30.0125140995507 3597.0798322857 11 14 7
-148.390378612177 -27.8362561239971 3555.49795437629 12 15 8
-88.3582716301921 -34.8048398943851 3586.88255570871 13 16 9
-127.585797787618 -30.807782336 3525.57483754022 13 16 9
-87.7288407334409 -35.6261780957938 3532.08453019495 13 16 9
-78.455864303518 -36.804212643755 3529.34861641719 14 17 10
-63.3243698993025 -38.6104260238415 3533.44896401818 14 16 11
-55.9535677039769 -39.5851119044276 3528.390001676 13 15 10
-49.2318398310947 -40.4898880084624 3522.56990149058 11 13 8
71.9685718888101 -57.0745411621557 3392.48476747383 21 23 18
88.395355439892 -59.0296812702744 3396.78666733361 14 16 11
79.0346537076219 -58.1723626578937 3374.45715989737 18 20 15
71.6804456150584 -57.5314906113248 3354.36005300929 11 13 8
22.0866990868953 -52.273698279938 3291.44222305035 18 21 14
34.8789173248525 -53.8276469754034 3292.27511170627 13 16 9
55.4813730559509 -56.2364963139208 3300.90094270024 11 14 7
93.1760439482132 -60.5179178968604 3326.48494027655 11 14 7
52.859207760604 -56.2589838940784 3274.0598655584 17 20 13
58.6082661605691 -57.0419320242301 3267.75876264695 14 17 10
82.9407937152444 -59.8623944199931 3279.77089345175 25 28 21
96.6204832413986 -61.5160675255787 3281.15848593116 20 23 16
115.373996837315 -63.7274949269654 3287.41579961778 27 30 23
117.610937961344 -64.1256443311249 3277.53934609947 27 30 23
127.054049093396 -65.315190086068 3274.65572954002 23 25 20
-149.907626481979 -35.3449034491132 3654.78990968127 7 9 4
-112.744478630821 -39.9571605986121 3658.33972881554 14 17 8
-133.366007499702 -37.8483905138751 3617.97190419649 13 16 9
-102.812694995282 -41.3935850335198 3641.80092226553 14 17 10
-111.688514729564 -40.5791466857657 3616.4045907809 15 18 11
-110.378118284386 -41.2170721099247 3575.57229107437 16 19 12
-104.930611345504 -41.9831173364559 3568.20886773721 15 18 11
-116.095475050516 -40.9038283814139 3540.82503408591 15 18 11
-96.9920607113468 -43.3435495206029 3536.19320654227 15 18 11
-103.854858042537 -42.7370123417039 3514.34713790246 9 12 5
-77.167002198788 -45.8640319999626 3532.26031928765 21 24 17
-57.2595554305972 -48.3942845881437 3528.25577096816 10 12 9
79.381344127996 -66.9504534513554 3388.77068473982 20 22 17
56.0344421846475 -64.4484826895058 3352.08575184871 16 18 13
74.5313908364156 -66.6746516467168 3358.56521960734 16 18 13
29.8807586941385 -61.7568634083522 3300.62867509735 14 17 10
56.7847323547728 -64.9332445754125 3315.70770649629 15 18 11
30.111893839055 -62.0432894878818 3276.60960923252 16 19 12
42.9254509288062 -63.6239017004747 3277.42417551883 17 20 13
61.4603140081744 -65.8536345820244 3283.87080457456 18 21 14
69.3741617279864 -66.87964712264 3279.66507413973 21 24 17
70.8627666322625 -67.1762686897088 3269.1133117467 21 24 17
95.975917251899 -70.1546630955519 3281.77313275739 21 24 17
96.057612422114 -70.4171388991595 3257.88375220466 24 27 20
120.622335942994 -73.3356972189482 3269.69558159624 26 28 23
-150.573857098384 -44.4574800780597 3640.86958929584 11 14 7
-127.070856443278 -47.2943624240844 3656.24764454021 25 28 19
-112.785894501549 -49.0747996102902 3659.75828435222 7 10 1
-89.1053000914517 -52.2145610375655 3645.87042759358 16 19 12
-171.106289902953 -42.9150794824314 3530.29002206427 13 16 9
-133.232188546351 -47.5399271919344 3549.10410634412 17 20 13
-131.038366589323 -47.9240506052808 3537.94167399688 17 20 13
-128.234778836919 -48.3775959217158 3527.57444644477 16 19 12
-86.3857180440046 -53.3364538933851 3564.11920641551 15 18 11
-75.4933166115093 -54.8549354837523 3549.39485136848 9 12 5
-86.8726887396916 -53.6684793824955 3522.19592991933 21 24 17
-52.956576209704 -57.7180858218556 3548.40691593482 8 10 5
43.22631540813 -71.6315503512558 3352.6465286507 14 16 11
43.7728076142121 -71.911931018437 3328.35440782402 17 19 14
77.6956303460707 -75.9894429768743 3350.58966056567 18 21 14
39.2389160141873 -71.5936550459689 3299.19798630119 20 23 16
33.0093013546233 -70.9686136161288 3280.77309370153 20 23 16
40.8723718419455 -71.9936190655635 3276.61105168044 18 21 14
55.1370652084313 -73.7689914010496 3278.81596530271 17 20 13
68.0210447385865 -75.3828096593603 3279.56939359177 19 22 15
75.9397160531705 -76.4143225806814 3275.35951801657 19 22 15
77.4164954767973 -76.6895741841952 3264.81786671479 19 22 13
60.179020231351 -74.7666226287473 3236.07498142221 20 23 14
75.9573379426373 -76.7194565641893 3239.61565411802 20 23 14
97.5702103300007 -79.3584611068327 3248.69047296055 22 25 18
-150.606358653365 -53.362036761561 3656.83585382744 4 6 1
-150.611439657379 -53.4726533090859 3642.2838428698 21 24 17
-126.492225288751 -56.4572664753835 3658.45233722346 7 10 1
-71.5921542336706 -63.3366363052025 3683.69744693873 13 16 9
-160.403615193295 -52.9479755009216 3544.89923138118 14 17 10
-156.327317975411 -53.5384012733887 3536.07662503414 15 18 11
-125.000358215025 -57.3857596658398 3560.55999860669 13 16 9
-141.225555511426 -55.5484403960687 3526.97050791282 15 18 11
-132.707918640203 -56.6687833205559 3523.56500834001 15 18 11
-112.652304153573 -59.1699107976735 3533.98898064611 14 17 10
-86.0868069103216 -62.4514793983973 3552.00890059663 13 16 9
-85.8141989766001 -62.5850676040775 3538.5399318971 15 18 11
-72.6533955424951 -64.2621342479511 3540.37741319434 7 10 3
-86.0407023100618 -62.7568195704681 3510.94699204371 8 10 7
44.6671820284896 -80.5752699707155 3355.42573141454 16 18 13
8.67651720936946 -76.307271600138 3305.86788511775 17 19 14
25.6305106983539 -78.4378979557462 3311.03723120136 16 18 13
74.9380191355478 -84.4823557400975 3349.06471748013 21 24 17
29.4472755023745 -79.0597055319256 3290.52947989367 22 25 18
47.202283961759 -81.2874935959889 3296.32876350552 22 25 18
53.6916616530654 -82.1519059949368 3290.7097880164 19 22 15
58.0496510185169 -82.757899879836 3282.9663907136 17 20 13
63.8192822932258 -83.5344560058478 3276.64741513179 20 23 16
83.8707106371941 -86.0411209912994 3284.42821434436 20 23 16
76.0603233609327 -85.171507612497 3264.72501210244 20 23 14
58.8271095373951 -83.1582449373259 3235.97753255116 22 25 16
47.2218184375937 -81.8255886374453 3212.94388945633 24 27 18
87.5364406088601 -86.7894184101449 3240.23160123729 26 29 22
-159.278779069456 -61.2633234007205 3661.75691560576 17 19 18
-130.339784962895 -64.9197634055075 3684.3390050727 20 22 17
-111.749065408818 -67.298911002248 3693.38502678218 17 20 13
-158.129258973714 -61.6481158734949 3619.73883652115 16 19 10
-147.056165237512 -63.0963988835227 3619.41454571548 18 21 14
-143.437673824594 -63.6226785436306 3609.66474406189 16 19 12
-168.602208951286 -60.7388141330564 3536.1753395981 15 18 11
-177.187274682421 -59.7502249593288 3511.84944905115 16 19 12
-126.916543308171 -66.0503850098966 3559.63045034725 13 16 9
-113.248297084365 -67.8182766889335 3562.35196215942 13 16 9
-123.342559351859 -66.7858415667169 3508.89665372702 12 15 8
-125.762303162645 -66.5567803004343 3492.46553408107 8 11 4
-59.0894490284706 -74.8996417896575 3557.80393229016 16 19 12
-48.4376888634603 -76.2932717502998 3556.52089589723 11 13 10
25.9332247491884 -87.0168264148491 3337.29756024167 18 20 15
21.2972744381994 -86.4943884676898 3320.13856808481 16 18 13
48.0836353765199 -89.8936745214934 3335.3212985998 17 19 14
83.7119459901574 -94.4532739988476 3346.81801050004 16 19 12
60.8392417617307 -91.704873142461 3299.13344301612 22 25 18
61.6701897493681 -91.8617995492749 3287.82752941173 23 26 19
66.0279274001638 -92.4589263250548 3280.08429281998 23 26 17
76.7998267418282 -93.8574470668015 3278.69715917669 23 26 17
100.486897187943 -96.8705936236816 3289.94671858423 23 26 17
68.2492489067403 -92.8907958989987 3246.40132263115 24 27 18
61.7194739627105 -92.1243256551867 3228.23535776408 26 29 20
71.7291119162105 -93.4259708290853 3226.18501483688 27 30 23
-128.664498569571 -74.2310036934799 3702.79748633996 31 33 30
-132.849086254093 -73.7480325754541 3682.60101597255 3 5 0
-179.698457401395 -67.8027425640953 3608.03630958031 12 15 8
-164.353923899339 -69.8171175631384 3613.27693381502 13 16 7
-189.962308881618 -66.5873534353474 3566.63709905527 16 19 12
-160.922169603832 -70.3549693868978 3589.1322427896 15 18 11
-143.617924089055 -72.6199361620483 3596.6457206391 13 16 9
-165.778806512336 -69.8284754499 3554.96084796775 13 16 9
-139.019551792879 -73.3044252418908 3574.13766732901 13 16 9
-120.971720561875 -75.6643513656445 3582.33052892142 14 17 10
-128.831955362767 -74.7030995365071 3558.69983937227 17 20 13
-111.355618375691 -76.9894455451405 3566.06429789494 14 17 10
-93.8089918142531 -79.2849059862322 3573.36820849157 12 15 8
-128.663421795046 -74.8594020240453 3517.53085146469 10 13 6
-97.421462301146 -78.9543311049717 3527.53268595614 11 13 8
-62.9780572880811 -83.4171680384296 3554.61258723923 11 13 8
44.7632322796774 -98.1504011012411 3358.10320575389 16 18 13
32.0482760096623 -96.5737092350313 3320.1490599626 1 3 0
117.905059084422 -107.718212298888 3370.20178849277 15 18 11
33.3018689115812 -96.8493626763104 3272.747026524 18 21 14
48.2523834361777 -98.8026349239091 3275.68161245208 20 23 16
63.9635314055358 -100.853798914567 3279.28114075882 18 21 12
81.1552835113867 -103.095651790772 3284.24544916654 18 21 12
97.6918243542397 -105.252941938956 3288.45352837366 20 23 14
117.157425247326 -107.787669668611 3295.41900627042 25 28 19
74.7683352923878 -102.350479095828 3242.13555598973 28 31 22
76.1499722900329 -102.553570528899 3231.6759004487 31 34 27
91.9859868821398 -104.619454480328 3235.16729775093 23 25 20
-132.553503917623 -82.8857332073979 3714.16450618487 14 16 11
-145.810209030113 -81.2165073229881 3638.30222457201 16 19 12
-181.283605957821 -76.5375027154941 3579.02960762689 14 17 10
-149.727034350357 -80.7375369228029 3604.64014560413 14 17 10
-148.644932605971 -80.9001027051317 3591.7930081695 13 16 9
-177.712087625622 -77.0673952582905 3541.53048676412 13 16 7
-113.861861704541 -85.5460413827959 3606.66940093446 12 15 6
-133.621189830399 -82.9455698560703 3568.19761144659 11 14 5
-111.107275772614 -85.9465559340504 3581.78748524924 11 14 5
-98.6595008486151 -87.6132953723032 3582.91964619306 14 17 8
-124.827654592635 -84.1774246271872 3523.53009230425 9 12 5
-101.523192703508 -87.2820001303913 3537.75870201972 9 11 6
38.5533226062882 -106.114355351494 3352.95013078701 19 21 18
53.4886007287287 -108.100317415668 3355.89844999619 26 28 25
51.6882726221057 -107.8654427832 3341.57694456823 29 31 26
73.6857146757992 -110.787735337339 3351.64385515607 18 21 14
65.7422647555408 -109.739956616264 3318.82127331523 16 19 12
48.9409988926246 -107.51325904022 3289.69834138967 16 19 12
41.9380323229195 -106.586257678178 3270.61820759551 16 18 13
42.6848817322178 -106.687183318268 3259.38482236549 22 25 18
68.3784115748054 -110.097927498778 3272.8679858644 19 22 15
112.79238077437 -115.992346713629 3304.54887272766 17 20 11
125.838755403489 -117.7243696188 3305.16262882913 20 23 14
100.047334087328 -114.302677015811 3267.94365166818 21 24 15
87.7872328638314 -112.676149953667 3244.15207536963 24 27 20
107.275328144227 -115.26193574616 3251.09838742987 27 29 24
-125.281268483215 -93.0917256912277 3725.13118681057 15 18 11
-163.085049759904 -87.907841615989 3661.25850624055 17 20 13
-147.771512472325 -89.9683914732971 3622.85521580226 11 14 7
-149.293374299214 -89.7400975276701 3592.41231927964 13 16 9
-140.093558952161 -90.9888185166955 3589.7399593792 13 16 7
-130.481328655411 -92.2823402829615 3573.47687966844 13 16 7
-116.791202007524 -94.1201512824867 3548.38950861844 13 16 7
-120.355126407003 -93.6198570083959 3530.30149656211 10 13 6
-89.0636709903916 -97.8753071014296 3540.26178685124 12 14 13
1.95228940962755 -109.859780041781 3303.97323988351 25 27 22
1.40245994259036 -109.763106504221 3291.21561513955 23 25 20
51.2970513150734 -116.556603870963 3330.0623702031 23 26 19
59.2507162408875 -117.620429213656 3325.82205827967 20 23 16
60.1590953911284 -117.721609172415 3314.44867106505 18 21 14
53.9601901803208 -116.852018356153 3295.99526128335 17 20 13
42.7209775891004 -115.294084304965 3272.64286498115 17 19 14
23.5520752694756 -112.653427491337 3241.59926808101 20 23 16
79.154480496614 -120.221666603853 3284.76733318794 20 23 16
104.269812678234 -123.626377804198 3297.42834141673 20 23 14
133.079313350832 -127.534672902293 3313.50736413859 21 24 15
120.273753627613 -125.761717129122 3288.86434659423 21 24 15
106.634736255291 -123.875073650073 3263.61940366853 21 24 15
130.517172161559 -127.109437660804 3274.70138181688 21 24 17
-139.569411864149 -100.357841508792 3723.00550274002 20 22 17
-133.88689049285 -101.122688918904 3715.43837618491 16 19 12
-142.300636666327 -99.8941518524061 3689.63918107892 16 19 12
-177.437161150744 -94.8110212351977 3600.95801815583 15 18 11
-140.974541494893 -99.9249122103646 3632.90894776078 11 14 7
-136.701526845567 -100.489130385497 3623.91566951909 12 15 8
-135.569143172848 -100.609331107216 3611.02467640317 13 16 9
-110.141208356803 -104.120565172348 3614.15197383279 12 15 6
-122.543113241615 -102.287852652586 3570.63147713201 13 16 7
-126.647055930893 -101.667703191851 3551.68748080149 12 15 8
-129.546381680455 -101.217595840909 3534.34702329116 12 15 8
-102.460492431595 -104.999416227439 3553.24271881412 11 13 8
-105.386108010381 -104.544937725353 3535.92533483144 12 14 9
10.3773233238131 -119.645126268761 3313.93802283171 17 19 16
44.1039460904409 -124.337386978745 3336.34731272278 14 16 11
37.3326618821328 -123.337863781031 3317.06590155497 26 29 22
49.4649597487364 -124.994238941689 3317.1478542584 23 26 19
36.9509889311703 -123.18808961932 3292.25189103345 21 24 17
35.640013926947 -122.955764775641 3278.82983858969 19 22 15
19.38963070292 -120.625692588316 3250.5520278818 19 21 16
38.5703676016966 -123.270686985259 3257.76480665965 21 24 17
74.2308652742927 -128.228243458176 3281.14649403759 21 24 17
88.5976908959112 -130.19546382716 3283.26381363042 22 25 16
97.9870240255396 -131.463509243588 3280.42731707846 22 25 16
79.3324446494106 -128.796216810661 3250.26134178153 21 24 15
94.4452213337019 -130.866919478552 3253.05605021542 19 22 13
115.395386036267 -133.755699849763 3261.38393482345 24 27 20
-155.441963982331 -107.260742952306 3703.72349926119 11 13 8
-198.686572301793 -100.814640548096 3618.09128933218 15 18 11
-133.656016586234 -110.230957614423 3687.50691988832 12 15 8
-179.937503216954 -103.345377903352 3599.21035921302 14 17 10
-173.899295218069 -104.157385028613 3592.65882825384 13 16 9
-143.718166836454 -108.417505157434 3602.25793277144 13 16 9
-128.857174940312 -110.512696041483 3606.59460720071 12 15 6
-145.657625451357 -107.928022508836 3557.61847375444 10 13 4
-137.453175807065 -108.983950433594 3539.9271912662 11 14 7
-104.071715902633 -113.770556689478 3566.60635570729 11 14 7
-115.253746405051 -112.074126727792 3539.23308653441 12 14 9
-109.880832463025 -112.785489007997 3531.93427679483 12 14 11
-108.375448266222 -112.934332999428 3520.04343719853 1 3 2
51.5408976601952 -134.231080836887 3357.75592225291 15 17 14
21.7977380059637 -129.860200921435 3314.69245086534 18 20 15
54.9115054781528 -134.569308894366 3336.30977276752 15 18 11
41.7928814131514 -132.600786407716 3310.61325567903 19 22 15
34.9027522919019 -131.532348753281 3291.4344051017 21 24 17
32.8827286720865 -131.167316314965 3277.30278975892 22 25 18
41.4477904792245 -132.329835761123 3273.85677410723 21 24 17
62.8235727038722 -135.339915005756 3283.1394920892 20 23 16
69.3095293960346 -136.201141872767 3277.52346106068 20 23 16
82.9464538946234 -138.093121840247 3278.94966376105 20 23 14
70.0864910550569 -136.16459129913 3254.35279122476 23 26 17
77.9738057986798 -137.227206478671 3250.16997954728 26 29 20
75.0489045380687 -136.73142001418 3235.49854601977 30 33 24
-141.744558342328 -118.574579281654 3738.2423805514 21 23 20
-179.344777233948 -112.326629010227 3601.40165828618 14 17 10
-162.75614497068 -114.720245667197 3608.21295664552 12 15 8
-220.171176913815 -106.003639076823 3521.61449403788 12 15 8
-211.188903835621 -107.256599575912 3519.13071331346 12 15 8
-160.211133023525 -114.808858141755 3568.95353348829 12 15 6
-154.200502754027 -115.612809585077 3562.42585293743 11 14 5
-163.329742580936 -114.146696567869 3537.24494688806 10 13 4
-108.26185484656 -122.203568980913 3576.9093657458 11 14 7
-114.276140526 -121.203706647398 3555.64857367332 12 14 9
-89.7057233844367 -124.783987258638 3571.42985430526 12 14 11
-102.195004368554 -122.815031895754 3542.54133839786 9 11 10
13.2817848775195 -137.356626596711 3319.47558882502 18 20 17
64.4676366561492 -144.853083718321 3359.85423902167 19 21 16
54.9649409154842 -143.342612686873 3337.64357045247 13 16 9
68.5542602470055 -145.257615647958 3339.11118345186 16 19 12
55.4057079835797 -143.207727441132 3313.44039446966 18 21 14
69.7046240504102 -145.227125767576 3315.61691182907 20 23 16
58.5310419956402 -143.471415241239 3292.20603407254 21 24 17
57.917099934893 -143.281009313806 3279.50337062983 22 25 18
57.2613566884956 -143.084644583589 3266.83689916406 23 26 19
60.1387568479441 -143.411597293592 3257.72845180731 24 27 18
65.8627635335067 -144.159783571245 3251.4485213467 24 27 18
55.762426858164 -142.566611543633 3229.75531375302 23 26 17
103.978194557361 -149.599328235694 3264.76535678478 22 25 16
102.531945714238 -149.285426290045 3251.4600224179 20 23 16
110.46756191194 -150.358558672903 3247.23541428573 9 11 8
-139.383283804341 -128.19074845365 3742.8747119234 13 15 10
-139.136649428366 -128.097104333203 3728.10352209675 19 21 16
-92.6141733221719 -134.90468353269 3743.40599140249 16 19 12
-160.775874710853 -124.226014544446 3640.96548962771 14 17 10
-145.373988175694 -126.479565670477 3646.15763828151 14 17 10
-187.590892847702 -119.82449263773 3578.16024078672 10 13 6
-209.598512702915 -116.297938483402 3536.33776651486 11 14 7
-178.729996355814 -120.941853967761 3561.2239666949 12 15 8
-179.644704272623 -120.675034561025 3546.13465541225 12 15 6
-159.870919071603 -123.601696688265 3556.80565676556 12 15 6
-165.229135914589 -122.649046026794 3536.29979305532 11 14 5
-82.1123950908458 -135.341343824899 3624.46801209189 11 14 5
-79.7236997525719 -135.579500697959 3613.13541460082 11 13 8
-72.9070340827107 -136.500056527165 3607.23313066728 12 14 9
-90.9990241910803 -133.583579965673 3571.28456530937 11 13 10
-57.9916720629665 -138.537183928611 3596.9654881717 8 10 9
40.0726864170124 -149.970250891954 3336.03735385118 26 28 23
61.3213554455485 -153.079899815944 3345.43089062326 24 27 20
50.3435155249612 -151.282579373732 3321.85008648987 16 19 10
69.5557295318205 -154.080128690905 3329.03688699924 12 15 6
74.0036542325266 -154.630413213855 3321.21517851064 15 18 11
65.6838105501589 -153.239361593256 3300.62690064319 19 22 15
48.7831926654221 -150.421601665869 3259.67595619995 21 24 17
62.3601136848095 -152.359847574951 3261.154465877 16 19 10
80.2783444455142 -154.956088479388 3266.81466643693 17 20 11
99.6991328433179 -157.778724770106 3273.82053507592 19 22 13
122.797780983139 -161.157552228104 3284.25920999617 25 28 19
122.131903463391 -160.930388646587 3271.60132269206 18 21 14
123.599238409742 -161.027015450571 3261.06669976506 22 24 21
-134.912923450624 -138.33376402667 3765.53292743216 21 23 18
-174.570314666638 -131.841607191717 3697.96500058248 7 9 4
-157.280761735125 -134.277826156322 3690.93550660888 16 19 12
-96.3591955759133 -143.659592277032 3740.09173344363 14 17 10
-144.799432658052 -135.78533812064 3662.92360538812 13 16 9
-147.88288980584 -135.135236830357 3644.41818434136 13 15 10
-141.731978688899 -135.95469653869 3637.76901783162 15 18 11
-161.710420766186 -132.62084479551 3598.15912908725 14 17 10
-160.646215517496 -132.633530731896 3585.32653196358 12 15 6
-126.432715068023 -137.910190041868 3613.93423425713 12 15 6
-56.8582046468911 -148.794265636244 3686.03790243741 11 14 5
-66.3346846082882 -146.966929651298 3645.27522864364 5 8 1
-105.125728084451 -140.658561575476 3583.57453340923 9 11 6
-99.0261670447881 -141.467475031626 3576.96949000441 11 13 10
-52.7054711672932 -148.644127379847 3618.91635160946 8 10 9
28.0142675626744 -156.978304866876 3337.27077414098 16 18 15
44.3145524951105 -159.373924595141 3341.68516921939 28 30 25
28.4634518143592 -156.746481823513 3313.05935901041 23 26 19
15.2893091554529 -154.539539289034 3287.40973242785 20 23 14
26.6496094358861 -156.163392880619 3286.83733157568 19 22 13
48.6331911748095 -159.443188015332 3296.91825650931 20 23 14
55.8302996320457 -160.4151657448 3292.01013873723 20 23 14
34.6091870459415 -156.809685916962 3246.85862164719 23 26 19
47.4303251515869 -158.658366487595 3247.66835428416 24 27 18
72.4701166948112 -162.407580367934 3260.39706868548 23 26 17
91.8664747328806 -165.276033245986 3267.42440888801 22 25 16
95.4803196126219 -165.68803063321 3259.00147038471 24 27 18
130.156060163453 -170.928541337925 3280.5916784502 20 23 16
91.0591122309894 -164.70223509394 3231.06663224094 31 33 30
-137.746471880135 -147.386773802186 3778.63456295087 9 11 10
-133.774639930557 -147.842812323495 3768.57805318915 13 15 10
-182.491911311142 -139.652322567749 3689.00115424639 0 2 0
-147.151333245457 -145.258374129371 3720.60452596961 22 25 18
-137.045183165656 -146.529421968064 3703.91320259753 14 17 10
-143.055036933392 -145.353424957441 3681.32385148584 13 16 9
-128.217883626304 -147.590719258319 3685.68210851078 12 15 8
-146.68401931955 -144.379483294851 3647.40908127448 13 15 10
-146.10517932134 -144.285453267557 3633.67321526546 15 18 11
-132.508494516165 -146.318585190329 3636.4584706948 14 17 10
-125.729028028232 -147.237005885733 3630.58841479362 12 15 6
-77.0103917703526 -154.998309003437 3677.07761921576 12 15 6
-66.3246081295941 -156.548983403844 3675.76579559248 11 14 5
-39.2320304707208 -160.772706297092 3694.65855756931 11 14 5
-104.297220546961 -149.979729870002 3600.12049093749 12 15 8
-114.657838493375 -148.105718267565 3573.35738411564 12 14 9
-105.405823869408 -149.425734620623 3570.6405587342 11 13 10
10.6699037175364 -162.921901535132 3320.58148734281 22 24 21
45.0638259430813 -168.255400144903 3343.7398209167 21 23 18
29.9231320692188 -165.653479718009 3315.82201736329 19 22 15
14.6544269359663 -163.034050333593 3288.01505231121 15 18 9
23.1965437791666 -164.226109964072 3284.58879979281 13 16 7
26.8076158813111 -164.629200157678 3276.16820683668 13 16 7
50.9393040979598 -168.31121397833 3288.36031070237 12 15 6
80.1447625742711 -172.800437921585 3305.42348338154 12 15 8
49.6473585108834 -167.755381141005 3263.00937405151 13 16 9
51.7961708761647 -167.924529824988 3253.20782096578 14 17 8
68.2478120084613 -170.374877640887 3257.49138482471 15 18 9
84.7561560384027 -172.832322746153 3261.72584823471 17 20 11
91.2341194754465 -173.689898044035 3256.11672158545 21 24 15
91.9307690338336 -173.626442790415 3244.92578117833 19 22 15
95.4922656350132 -174.019562836946 3236.54809248406 17 19 16
-134.812651996138 -157.227914915738 3784.0956829003 9 11 8
-176.666493907053 -149.936631162354 3713.13264594198 21 23 18
-154.495049282968 -153.229406451912 3712.46410946966 19 22 13
-108.634850984801 -160.730555374438 3757.45904088203 18 21 12
-164.570743722308 -150.869183594623 3655.01400540646 13 16 9
-150.421833535244 -153.028852836292 3658.64502359772 13 16 9
-121.355366764615 -157.471101155112 3666.56458833778 13 16 9
-131.998183442415 -155.246857089915 3624.16404229401 12 15 6
-110.84494128769 -158.574014019086 3636.28853568203 11 14 5
-82.0632202396236 -163.175140507102 3657.68948456888 11 14 5
-99.7472317323589 -159.994974919458 3621.38528525588 11 14 7
-91.0506566950269 -161.231588281725 3617.82576249082 3 5 0
-122.916063218028 -155.687586004441 3564.68413801101 14 16 13
-116.234138508643 -156.590145780313 3558.89852229625 9 11 8
27.6715658475459 -174.169288521322 3327.09217052273 26 28 23
28.5824091828637 -174.116383841869 3315.71564903804 22 25 18
21.7395452703837 -172.792968211205 3296.4941797417 19 22 13
28.1918809486807 -173.64996671633 3290.90726185449 18 21 12
45.2326123044706 -176.240462300575 3296.00440907525 20 23 14
40.4446638073503 -175.056520240193 3267.06289377214 17 20 13
49.010208019677 -176.258090550366 3263.61671305311 17 20 13
64.014635032132 -178.510987564438 3266.50651266606 16 19 10
28.9334010417615 -172.582689046699 3220.1197693237 15 18 9
84.1137452255674 -181.393790708554 3262.33812730303 16 19 10
135.250780560633 -189.536313764444 3300.11675324515 19 22 13
99.2354319774047 -183.461039424525 3253.21511180486 21 24 17
96.3002991230004 -182.783520103458 3238.55105322118 27 29 26
-139.692461382585 -165.74538162071 3779.11692536428 17 19 14
-175.515627890551 -159.277476893863 3716.16577604023 11 14 7
-170.490092050001 -159.894290581605 3707.84386232538 9 12 3
-124.196766457262 -167.652950508876 3753.78831629278 22 25 16
-112.964009004715 -169.337988770766 3753.3268578722 17 20 11
-162.207113386268 -160.570586253079 3674.20197888315 15 18 11
-170.742349640443 -158.846351269208 3648.50455594931 13 16 9
-143.762650283991 -162.50693647444 3625.14400142646 12 15 6
-140.469618530286 -162.336048077498 3586.55813742846 11 14 7
14.4741130614232 -180.654998481692 3314.75263152949 22 24 19
24.4436009961357 -182.102561201496 3312.73771810324 26 28 23
22.5053910469399 -181.550375645377 3298.53366364166 22 25 16
30.3689885311225 -182.643730048308 3294.37192326922 21 24 15
46.7089225943278 -185.157395160079 3298.75271795785 21 24 13
52.4889211983783 -185.899415766977 3292.42453284802 20 23 12
29.8705202123912 -181.886149535489 3257.74522601626 22 25 18
56.2037462781353 -186.069966595967 3272.00221220857 24 27 20
41.2422657690579 -183.343243885067 3245.25153014033 22 25 16
87.733157522266 -190.891699970641 3279.11308990149 20 23 14
89.2157218025855 -190.913483887575 3268.56478217956 20 23 14
115.152462615527 -195.018424423475 3281.84164439803 22 25 16
111.590700966904 -194.19746860008 3266.39651717 19 22 15
105.073784344368 -192.88540033956 3248.21587204477 23 25 22
-179.675753048161 -168.260929944356 3742.32673143766 21 23 18
-167.996213465035 -170.053244941637 3742.80230242597 16 18 13
-161.105255938035 -170.991950286864 3736.83574467877 12 15 8
-163.890547664905 -170.210399559375 3718.07104114864 8 11 2
-143.073691149355 -173.622537292725 3730.4876427391 19 22 13
-124.579477632338 -175.47725568399 3680.0627549613 11 13 8
-90.2970961767093 -180.123160594443 3650.37908826749 11 14 5
62.6476423656999 -197.596022455737 3365.74356717804 20 22 17
21.7055536868855 -190.30080376544 3311.19390881101 25 27 22
38.7019426639528 -192.967978357775 3316.33030156 21 24 15
36.7652866095196 -192.382435867771 3302.12468412821 20 23 14
61.5890587588823 -196.388873876817 3315.04229712167 20 23 12
49.016925854271 -193.980132264008 3290.19284025512 20 23 12
39.8813716004551 -192.164069252822 3268.98523759098 18 21 14
46.3120959344474 -193.016061309541 3263.41701859078 20 23 16
74.1545086694191 -197.530986923015 3279.0149212985 22 25 16
77.7822962968116 -197.90063606333 3270.57962369695 21 24 15
94.3141380216383 -200.475358738859 3274.79448077175 20 23 14
102.983865738356 -201.705062792444 3271.25818277199 19 22 13
110.221330927374 -202.689541992227 3266.3151673797 20 23 16
99.3616763502878 -200.587177501938 3243.95321194005 15 17 14
169.721585938512 -212.330544418028 3299.501322144 13 15 12
-160.372097862461 -181.311023437937 3785.23128098151 20 22 17
-180.934855210199 -177.23023440993 3742.15290098365 19 22 15
-171.661394301414 -178.60550167744 3739.41752985074 15 18 11
-158.153115970169 -180.752129410321 3742.28014580445 15 18 11
-180.270415224177 -176.402401753039 3697.9008786809 15 18 11
-168.61182549891 -178.212548384252 3698.39440770063 16 19 12
-148.397782745007 -181.577489989443 3710.00992294201 15 18 11
-161.074283002963 -178.957923105896 3678.63262347287 12 15 8
-205.266692637863 -170.315890463716 3592.48441645753 12 15 8
-104.768156344536 -187.924795397742 3692.08617883499 9 14 7
-141.961332107955 -180.877440151752 3630.31871092325 9 14 7
-120.874651752237 -184.385562096426 3642.50206847281 10 15 8
-136.577275086166 -181.239252712716 3608.45084634058 10 15 8
-95.3513144887945 -188.380379406004 3645.54981080354 10 15 8
-90.396512184296 -188.965629190368 3637.28899985199 11 14 7
44.5668549423641 -203.26392966639 3348.36751781889 23 25 20
45.5371233039572 -203.152494308263 3336.93911124765 20 23 16
39.4615478929095 -201.804193976338 3318.37570504588 17 20 11
44.564052221582 -202.421050198724 3311.31065663634 17 20 11
56.7108871837876 -204.273713719196 3311.38128146995 19 22 11
85.1599138913342 -208.982447303141 3327.77824230857 20 23 12
71.8786553587885 -206.374835701389 3302.21854504555 20 23 16
44.2521375722365 -201.260446456796 3262.60936062457 22 25 18
51.3912772080212 -202.23592817764 3257.75119370681 24 27 18
71.4146555645332 -205.463228704918 3265.56097458801 22 25 16
88.662586073812 -207.926712076999 3258.56741742506 18 21 12
86.4777776195575 -207.271527140719 3244.57674682599 18 21 14
116.814042142647 -212.287566251342 3261.98648390557 22 24 21
-93.3201291701096 -205.072709247613 3958.85628067457 233 234 239
-64.2442830578833 -210.168917408415 3982.65234619472 205 206 210
-148.993120886967 -193.128216430551 3817.79279136478 10 12 9
-167.002922035339 -189.392232501454 3777.79726581086 17 20 13
-151.08486336992 -192.020716474351 3783.86771997206 17 20 13
-160.316920065614 -189.938242799797 3756.12541322197 15 18 11
-169.05696729688 -187.95280996595 3729.28055388315 15 18 11
-151.913944619539 -190.807921634254 3736.93759351456 16 19 12
-173.399840105491 -186.105557791229 3678.77522569893 14 17 10
-177.604656715487 -184.980659613261 3658.59181325217 12 15 8
-159.215816741895 -188.064638401655 3667.81737857421 12 15 8
-195.594067634555 -180.626451610778 3592.10749812721 11 14 7
-134.517799043849 -191.633968836418 3655.69730535595 8 13 7
-112.192601257822 -195.435580118306 3669.45593440593 9 14 8
-110.943017178235 -195.326001148853 3656.46187050653 10 15 9
-110.355017626262 -195.095226912898 3642.71717947714 10 15 8
-99.2364122544846 -196.475831700939 3627.79587190002 12 14 9
36.2530413069289 -210.54998887734 3341.06379664683 25 28 21
24.620550968498 -208.15217978477 3316.72324950822 18 21 12
21.2929640967827 -207.250533946685 3301.07463171043 18 21 10
22.8287583090605 -207.223971937826 3290.47987441033 18 21 10
22.924934157647 -206.940227537905 3278.48438228718 18 21 10
61.8784804127617 -213.620797982552 3305.63965113819 17 20 11
57.7569275428251 -212.579192883317 3289.35470888539 18 21 14
42.90395007401 -209.619992096362 3262.50847686834 17 19 14
57.8873759148188 -212.000500679175 3265.41762139062 20 23 16
78.6424929347711 -215.409527140904 3273.91761653087 20 23 16
67.9114729584889 -213.193373040037 3251.44374701231 17 20 13
95.9383975831187 -217.595478330693 3254.97070116716 18 20 15
69.8554988091704 -212.650672455493 3217.99448818396 17 19 18
70.4364718818749 -212.460130823025 3206.90298522204 21 23 22
-134.610288140175 -207.311322562957 3919.22721845351 229 230 234
-130.921949284411 -207.618483362153 3908.0921967428 235 236 240
-124.906365045605 -208.375425134675 3900.23634139988 236 237 239
-161.709712359277 -199.708024481365 3786.5098525709 17 20 13
-185.245388594807 -194.80402771442 3739.38593844059 17 20 13
-178.384876874317 -195.739650941794 3733.44574919605 16 19 12
-158.276414878741 -199.212541616988 3745.1534745884 16 19 12
-151.369560907713 -200.153477589612 3739.17315327629 16 19 12
-187.436202501889 -192.506542545649 3661.86857628365 14 17 10
-197.176291633783 -190.278577872204 3634.56565672174 12 15 8
-132.923508388927 -202.161655920898 3703.34781892261 12 15 8
-117.442187898276 -204.73462549918 3708.47350466434 12 15 8
-161.774111823403 -195.557128564033 3622.44243436432 9 14 8
-105.407188226726 -205.897143652521 3679.52264122904 9 14 8
-76.7325312842524 -210.964805246895 3701.01972509654 9 14 8
-92.9781357015198 -206.769509452866 3636.99511808028 7 9 4
29.7611410484708 -218.442600940804 3348.06496514432 24 26 21
25.8534895398919 -217.390764223484 3331.59487610475 23 26 19
16.9922051178166 -215.431769428292 3310.1486277174 17 20 11
1.03181924250073 -212.174069038496 3281.6134548297 17 20 11
15.1629966671947 -214.440732584513 3283.93727509716 17 20 11
39.9125348111902 -218.650218443714 3296.92054512651 16 19 10
50.628515895113 -220.284638130879 3295.58309096536 15 18 9
48.6062094267754 -219.587199492715 3281.45130024898 16 19 12
55.0668552926892 -220.44232283478 3275.85716747236 15 18 11
63.6662462681121 -221.687736668325 3272.38193465427 19 22 15
76.5682776983296 -223.717440132746 3273.12241165917 19 22 15
75.8790658262236 -223.266393649831 3260.48329831022 15 18 11
70.1130765264142 -221.892031980716 3242.97497020471 16 19 12
107.557212705702 -228.387945671486 3267.46720431405 19 21 16
109.730578651787 -228.458025612771 3257.64372778936 18 20 19
75.6062320081723 -221.930615637531 3213.07025527568 24 26 25
-143.664105648286 -215.609733419274 3924.48142417546 225 226 231
-147.552699671274 -214.400343268241 3902.70012186387 227 228 232
-142.150052953328 -215.03293958036 3894.05145486829 217 218 220
-139.696776491037 -215.083075672857 3881.3387188571 213 215 214
-139.634273900471 -214.66271067531 3865.40142912304 232 234 233
-149.678818948474 -212.2519945144 3835.71468646878 97 99 94
-161.029448799447 -209.590752896102 3804.51119827882 0 2 0
-162.9738927949 -208.787194921128 3786.34113557339 18 21 14
-181.121249770605 -204.802244152174 3746.46322128808 18 21 14
-175.44458949259 -205.504739255484 3738.90077070869 16 19 12
-165.561732527403 -207.032089182189 3736.96177599357 16 19 12
-148.409754718745 -209.981889165592 3744.61166747341 15 18 11
-213.005947722075 -196.926798754052 3644.35877115156 15 18 11
-226.396444606271 -193.911885861676 3612.27449549861 14 17 10
-142.904668594652 -209.827944879683 3706.75516798369 12 15 8
-107.872769684572 -216.257085206455 3737.30784027718 12 15 8
-110.736925406585 -215.287590791145 3718.6102731266 12 15 8
-119.829776685475 -213.108523044098 3692.06994697819 12 15 8
-119.134819591953 -212.839243509194 3678.2323024877 8 13 7
-96.0794381026422 -216.51253037449 3678.12366827099 9 14 8
-80.4188528440686 -218.743530063152 3668.53463117693 8 13 7
39.8371622377933 -228.731709857835 3347.33858534153 23 26 19
36.6117232900436 -227.766986476737 3331.60102352233 20 23 16
33.328187903078 -226.794109786432 3315.9137631416 20 23 14
38.4184903537705 -227.392277401332 3308.85885392281 20 23 14
48.4329919519615 -228.911836854266 3306.80539207705 19 22 13
48.5728067798474 -228.583762572948 3294.77210473607 18 21 12
58.5983906243732 -230.103916196168 3292.7090413593 18 21 14
50.1611084598297 -228.176458467075 3272.21907572068 16 19 12
77.2835409433759 -232.885021209907 3287.11900509302 19 22 15
90.224486023593 -234.944189190833 3287.82594516954 19 22 15
75.2373540633915 -231.8011866356 3261.09479863226 16 19 12
94.6427078082599 -235.062484345232 3268.11720308951 18 21 14
105.467457819781 -236.724525210709 3266.68596948791 23 25 20
127.886949344643 -240.538221747505 3276.39253543587 19 21 20
-150.164635176075 -223.93830264346 3916.93608085253 231 232 236
-156.40347700051 -222.201804838826 3891.89504811716 218 219 223
-154.541363621335 -222.111386489206 3878.37020721799 224 225 227
-149.778462740465 -222.609589261006 3868.95189918921 236 238 237
-150.336212137121 -222.033291919076 3852.22793282961 228 230 227
-163.959309678538 -218.823116568919 3817.69747347722 7 10 3
-186.628792792887 -213.798082813439 3771.14527518323 4 7 0
-185.679018944108 -213.541950074339 3757.08685704324 17 20 13
-188.355580757418 -212.558463828648 3738.2266048416 17 20 13
-189.298173101528 -211.927105252149 3721.83583889939 17 20 13
-171.639011363231 -215.031990961253 3730.37071718121 16 19 12
-210.012995186007 -206.46805848557 3649.76669546712 15 18 11
-199.068247655739 -208.230010099727 3649.555363999 14 17 10
-129.827627432587 -220.761245776001 3695.49167442194 12 15 8
-113.715607040729 -223.535421355804 3701.39527458105 12 15 8
