ply
format ascii 1.0
comment KinectMotionCapture
element vertex 762
property float x
property float y
property float z
property uchar red
property uchar green
property uchar blue
end_header
402.621732839728 656.629251321052 3637.73094183669 179 179 179
416.460333056678 653.947285477618 3626.0924625641 173 173 173
426.231132781347 652.771653070619 3625.74175421773 178 178 178
435.321758355738 651.846908351456 3627.27187724789 165 165 165
444.074699921342 651.047084201118 3629.74287846406 185 185 187
452.172755407185 650.496084436085 3634.10496565693 188 188 190
460.27540940792 649.944217656433 3638.46866410115 184 184 186
467.743440679212 649.639545360739 3644.73140813697 182 182 182
473.958102649448 649.828457929474 3654.79842036834 188 188 186
482.094363339984 649.272404264159 3659.17575765904 191 192 187
5.34370848364407 705.416405840739 3775.35780606385 199 201 198
15.7812517155449 704.312764406973 3776.3555771462 169 171 170
31.6128745305608 701.533842269376 3765.52453630419 162 163 165
53.5667711002314 696.829992870545 3741.00354294742 172 173 177
78.6518395249183 691.109729863423 3709.12732069469 185 185 187
95.3709584553666 687.970767434893 3695.42166810374 189 189 191
113.61791150177 684.326307977985 3678.02296647066 195 195 197
130.135304271304 681.202042748875 3664.23552498305 197 197 199
145.755057812059 678.340340794588 3652.24051907532 195 195 197
153.721192538408 677.907787116736 3657.62710284 193 193 195
165.655666235486 676.200580267068 3653.84099017227 197 197 199
175.190467134788 675.258881494748 3655.55082793072 166 166 168
188.231677740083 673.175006104372 3648.97925582467 185 185 187
201.217394894071 671.09504914731 3642.385185112 195 195 197
218.389580069347 667.627147918532 3625.62878744907 195 195 197
231.23629655978 665.557127753662 3618.97836103259 192 192 194
240.221901527121 664.752230077056 3621.54360447062 193 193 195
250.714569038039 663.443475650848 3620.40763339745 190 190 192
260.806524715166 662.262029695467 3620.18726011661 190 190 192
272.370156666482 660.579481630123 3616.25080934183 173 173 175
280.559381491191 660.027594956143 3620.64981707776 173 173 175
289.121629408209 659.349642534754 3624.12174939972 171 171 171
298.414589520299 658.421395736906 3625.73356557149 174 174 174
306.971686713052 657.742835203999 3629.20341701093 177 177 177
316.969785098376 656.565687140535 3628.94500899957 168 168 168
325.158818750236 656.011310430477 3633.34370097822 164 164 164
334.418397749086 655.083646080119 3634.94199695852 164 164 164
341.198866422225 655.023697559497 3643.08237033479 158 158 158
350.105313830862 654.2189986995 3645.6158191567 148 148 148
356.225658591467 654.402262989419 3655.64468582934 139 139 139
363.761464274428 654.089023032622 3661.93493618566 140 140 140
370.969654923041 653.897180672033 3669.17042551426 107 107 107
384.657721169123 651.368047764167 3658.54838858635 139 139 139
399.281683405524 648.476379482338 3645.07161281515 171 171 171
413.814064730751 645.59152407765 3631.55744771439 169 169 169
424.265936553397 644.181115922035 3629.32692111971 161 161 161
434.027366659085 643.016836110625 3628.9723330313 170 170 170
443.113240020272 642.097548869141 3630.50049055774 180 180 182
452.838094885221 640.935324566091 3630.13133505938 185 185 187
461.575415760485 640.13865084906 3632.59598768908 184 184 184
468.388668715075 640.069738736324 3640.74970313064 182 182 182
472.689153014929 640.966954705222 3656.50967292761 187 188 183
478.313519198256 641.374897588925 3668.4936346663 190 191 186
-12.1765872719404 698.525287091876 3787.7360277354 150 151 146
-1.68546223414867 697.425948454751 3788.75546109798 201 201 199
8.79111560115375 696.327314044443 3789.76899906331 195 195 195
25.9129633000141 693.210326913093 3776.22649916229 170 170 172
49.5586054589323 688.084532493024 3748.07819005828 169 168 173
75.0832513550455 682.343068229104 3715.30104494472 162 161 166
93.8675366359292 678.626384690349 3697.04138740215 189 189 191
111.312248823657 675.294913093878 3681.47336526972 180 180 182
127.440291289682 672.346754598314 3668.60600912672 194 194 196
143.477600404871 669.40525216512 3655.70160801395 194 194 196
151.852503093975 668.841469472764 3660.17562834606 194 194 196
162.608582663295 667.529210360736 3659.14633751699 203 203 205
173.73314622941 666.093994826056 3657.18810985843 167 167 169
186.391160097735 664.163865994047 3651.53902689004 184 184 186
201.328932297909 661.493181805629 3640.34525184145 191 191 193
217.343285578184 658.45701076732 3626.3534654923 196 196 198
230.961748264393 656.169520057038 3617.85928850662 193 193 195
240.326112252723 655.244039080426 3619.50025186526 192 192 194
250.058750974218 654.195678036829 3620.21219308631 192 192 194
260.903342808766 652.77905757152 3618.1404659081 192 192 194
271.717582175728 651.364244114301 3616.05643553381 172 172 174
279.907075916072 650.809586433912 3620.45557315526 176 176 178
288.469791764385 650.131656715306 3623.9276947672 172 172 172
297.398081946133 649.33094132512 3626.4697001533 167 167 167
305.958182193601 648.65220264192 3629.9407688587 182 182 182
315.23908252234 647.729389111838 3631.54791815333 164 164 164
322.362180780587 647.536398016283 3638.74896288196 167 167 167
331.993194073246 646.491605357228 3639.4197296382 166 164 165
339.844445369482 646.053448756939 3644.75984038314 156 154 155
349.107008626604 645.130090953201 3646.35931202606 153 151 152
355.576778398464 645.173313046242 3655.45191175282 141 139 140
362.767238412893 644.972504296739 3662.68029003581 137 135 136
370.320356911692 644.649195255041 3668.97762654974 114 112 113
383.331366114741 642.401433403233 3660.23719481087 131 129 132
397.96428913238 639.558549788582 3646.76367742213 169 167 170
411.835358988215 636.962007273741 3635.13744016461 164 162 165
420.968755578501 636.045565529214 3636.68456071578 161 159 162
431.741735455773 634.532602102664 3633.50576047252 164 162 165
442.151264480434 633.141215440462 3631.25768817411 172 172 174
453.829742449048 631.276020868044 3625.21150586344 190 190 192
462.232530129691 630.602004759353 3628.61884402725 188 188 188
469.035131568975 630.520337482834 3636.76834342626 182 182 182
473.006099740297 631.501382947231 3653.47306721188 191 192 187
478.936447107763 631.767435421958 3664.50318591528 188 189 184
-4.92694436778263 688.237524746803 3793.98601696686 207 207 205
5.14694392684589 687.269224750263 3795.91432902916 163 163 163
22.2906817740585 684.202508512883 3782.38031125472 150 150 152
46.3752341089128 679.047341076486 3753.33112827293 187 186 191
73.568899257124 672.921453991791 3716.91692404434 161 160 165
91.9544808423147 669.392557265117 3699.57347619221 187 187 189
109.817621461654 665.99489934846 3683.09656630339 179 179 181
124.743457805596 663.462684462989 3672.97571709486 193 193 195
139.994887903687 660.813685443206 3661.90877554321 194 194 196
151.577316830033 659.269109085559 3659.0579551127 195 195 197
163.520774859303 657.604941117335 3655.27541114109 203 203 205
174.636821920855 656.186778981503 3653.31360594995 161 161 163
186.89602597662 654.406014748916 3648.58072370939 185 185 187
202.606801160115 651.537002933279 3635.54381908444 192 192 194
218.226615754819 648.674665183649 3622.46977734623 198 198 200
229.153541174304 647.269364749397 3620.43130065154 190 190 192
237.383495778644 646.710724341255 3624.84685077866 189 189 191
247.510856678276 645.548775196754 3624.64040781495 188 188 190
258.369649719344 644.147462610756 3622.57457180183 189 189 191
267.704840362168 643.228303396484 3624.20341793542 171 171 173
277.029927575605 642.30940667306 3625.8281712723 174 174 176
285.976550332032 641.510491210971 3628.37784297181 165 165 165
296.015294250523 640.353166565708 3628.13574179327 172 172 172
305.670522030319 639.31616905492 3628.816253739 166 166 166
313.867816589909 638.756146544047 3633.2183332944 177 177 177
321.711876079885 638.314136305484 3638.55556133737 152 152 152
330.277140779617 637.633494049842 3642.02873552152 155 153 154
338.489190164592 637.070867915342 3646.43680893612 158 156 157
346.005013783491 636.743848641621 3652.71907313949 153 151 152
351.447886236625 637.123515270105 3664.63002090324 147 145 146
359.354315091413 636.674088329375 3669.99230085097 128 126 127
367.956354321225 635.988081676429 3673.48040544294 115 113 114
381.323325423784 633.657383885393 3663.80592064814 94 92 95
394.956757526874 631.214646713384 3653.16136511254 151 149 152
409.519737537993 628.426356258324 3639.6588572673 160 158 161
419.332134496408 627.280807719879 3639.32502054572 159 157 160
430.77502137308 625.553122203421 3634.26121493033 168 166 169
440.533211272144 624.410882082991 3633.90540507687 186 186 188
451.896496462788 622.688726169582 3628.80932738888 200 200 202
460.309871543092 622.014020681318 3632.22095754125 180 180 180
467.762320800138 621.686403485843 3638.47756644578 185 185 183
473.641478031046 621.935255840643 3649.48734622368 186 187 182
481.13574069433 621.603369429719 3655.76091744017 183 184 179
-18.6942113456088 680.100704788702 3798.1834677801 178 178 176
-8.17066590436299 679.014877315418 3799.21592552382 194 194 192
4.01504423365417 677.445996126492 3796.60955361337 172 172 172
21.165578660417 674.430662368066 3783.0776410342 173 173 175
43.1895862422815 669.97598865306 3758.58340367322 170 169 174
70.4074868501905 663.968809613674 3722.17811243625 166 165 170
88.8132073339991 660.501261556009 3704.84235367556 185 185 187
107.102821705695 657.042404271114 3687.45951849752 178 178 180
122.044619500512 654.549955670376 3677.34508777651 193 193 195
137.312291730928 651.943425924107 3666.28440064386 193 193 195
150.105872079675 650.058805726639 3660.68986264159 195 195 197
162.452813512324 648.296793950313 3655.99236250593 203 203 205
172.785315226965 647.132544189559 3655.86925427201 161 161 163
183.880454481532 645.731879207317 3653.89885103403 188 188 190
201.554166769508 642.317933243441 3636.26630104252 193 193 195
217.180372191707 639.50445880743 3623.19473376112 198 198 200
227.727780048221 638.233395420449 3622.08038375239 188 188 190
237.487687988476 637.199730748737 3622.80325469276 188 188 190
247.232528833347 636.166811493981 3623.52001942271 185 185 187
258.090486658897 634.781949146669 3621.45346332186 187 187 189
266.303268378831 634.220395322624 3625.86208235244 171 171 173
276.376294192756 633.072285333511 3625.63353459978 172 172 174
284.955121278044 632.392989487644 3629.1121898925 161 161 161
295.363519190303 631.129616610323 3627.94175467504 167 167 167
304.656404982738 630.217276144014 3629.55342018965 170 170 170
312.856404320933 629.654344000005 3633.95687417155 182 182 182
321.419739547167 628.974422485909 3637.4292616625 161 161 161
328.915555637697 628.641785350777 3643.70346754099 153 151 152
336.426485162976 628.307448123636 3649.983548402 159 157 158
342.549414466946 628.433625269288 3660.01415146951 152 150 151
349.055904858042 628.441096502001 3669.12163287053 149 147 148
356.629384486263 628.100393395056 3675.42734530404 125 123 124
365.247088780372 627.413235292581 3678.92180129743 118 116 117
377.951219931705 625.349033660432 3671.13479083925 101 99 102
391.608324554305 622.945641995892 3660.49926468462 173 171 174
406.53096187319 620.0907405779 3646.06407628926 173 171 174
417.028258834562 618.726472605147 3643.85133505543 156 154 157
428.485905775127 617.022538897368 3638.79358287984 164 162 165
439.241662934592 615.549226588283 3635.60750873528 190 190 192
450.612175446786 613.851335038428 3630.51417342141 201 201 203
459.676733519666 612.949761976794 3632.03330904316 178 178 178
467.129040293383 612.614056408083 3638.28992156486 184 184 184
474.595943511831 612.276775957696 3644.55245602099 182 183 178
482.077399757858 611.937894177439 3650.82089503269 184 185 180
496.765303581993 609.010213758168 3635.21240820699 124 125 119
-15.5898538878345 669.058259189638 3789.81405391704 197 197 195
-5.08808771660796 667.982107468763 3790.83762004879 207 207 205
6.23782160949404 666.670340867599 3790.03904552517 143 143 143
20.8737597301041 664.415961521207 3781.95658617195 149 149 151
41.2446557201418 660.517064617513 3761.10403555552 180 179 184
66.0085073544208 655.334780042686 3730.17248530961 168 167 172
86.8973340680126 651.223662142206 3707.37363347072 182 182 184
105.199471423879 647.826756920947 3689.99539918065 177 177 179
120.556446939 645.257505711057 3678.97058775526 191 191 193
137.439171211449 642.226917903472 3664.25154821675 191 191 193
150.230065290352 640.369828213087 3658.65571388909 197 197 199
160.987842327758 639.098231803974 3657.62680214064 184 184 186
172.114706042177 637.711910213216 3655.66913519309 166 166 168
182.428437813607 636.55954860176 3655.53833703298 183 183 185
199.723209200951 633.323699544751 3638.82981476816 190 190 192
213.428959129326 631.136651110421 3630.37021844445 186 186 188
225.149579957912 629.531383626839 3626.49700281662 184 184 186
234.923191773223 628.504822548869 3627.22536851578 185 185 187
243.545319291097 627.824008926174 3630.72156735177 180 180 182
255.553954013822 626.109453199883 3625.88672951792 184 184 186
264.900939507987 625.200268640399 3627.52027569823 172 172 174
274.980156734282 624.062571842069 3627.29441310205 170 170 172
282.827149696165 623.61130299851 3632.63289906475 167 167 167
292.88108715384 622.474687953246 3632.39653544309 164 164 164
302.91459444155 621.339237817312 3632.15214818696 178 178 178
310.761424358421 620.886547265038 3637.49057891005 155 155 155
318.618367614311 620.432552768967 3642.83285710958 182 182 182
325.773222962624 620.203744915484 3650.04728876719 147 145 146
332.948272270815 619.972864337559 3657.26965530048 148 146 147
339.090657871018 620.078257506213 3667.30803639507 159 157 158
345.964978143239 619.95522174764 3675.48688780414 159 157 158
353.210277400252 619.717340771475 3682.73775110599 150 148 149
360.818789619862 619.365194563077 3689.05773472359 117 115 116
371.849787630743 617.89153505811 3685.98310628484 93 91 94
386.227256852003 615.302390163315 3673.48278510712 134 132 135
402.532213564525 612.050298086012 3655.29480885492 148 146 149
414.72219394841 610.14361299526 3648.37723659816 158 156 159
427.186610274932 608.129761499245 3640.49252843588 160 158 161
437.621052651932 606.786248854558 3638.25443773218 206 206 208
449.001316963488 605.112481434715 3633.16486799858 194 194 196
458.397273707172 604.10532066614 3633.74017678105 186 186 188
465.854510294851 603.761184631689 3639.99884925019 182 182 182
472.690461501716 603.63575457087 3648.16192621766 179 179 177
479.235626243204 603.617859806991 3657.28551608353 185 186 181
-19.7006060721929 660.03316439299 3796.84928401479 201 201 199
-9.59963787171247 659.079037782317 3798.78845310905 205 205 203
3.00926015050318 657.432450361506 3795.27495060213 188 188 188
17.6632754091111 655.212110500366 3787.19980977077 164 164 166
38.0550718550117 651.385530619884 3766.35517345779 153 152 157
62.4300494596934 646.42047630503 3736.34333246475 174 173 178
84.570949768344 642.042944445833 3710.81677405797 181 181 183
102.888136687357 638.707880776246 3693.44416448749 176 176 178
120.280477591382 635.61000902884 3677.8531669695 190 190 192
135.155959113868 633.204354560188 3667.71097015642 191 191 193
146.761517730285 631.715241075037 3664.8690943804 197 197 199
157.538445706428 630.455756324371 3663.84784490853 171 171 173
169.867268429253 628.743837807105 3659.14262894215 170 170 172
182.934055513986 626.808512043038 3652.58028660607 180 180 182
196.334542628005 624.764014415826 3645.07481917486 190 190 192
209.674408322927 622.723871389255 3637.5447735531 181 181 183
223.337669775133 620.575277809571 3629.06768246857 184 184 186
234.64598751165 619.106336812407 3626.10530306046 185 185 187
244.023936658083 618.201119577864 3627.75161335991 179 179 181
254.521327083873 616.959961806765 3626.6167849708 183 183 185
263.497675380954 616.167836989527 3629.17844086027 172 172 174
273.211810683092 615.152324391109 3629.88264119541 170 170 172
281.435361877048 614.583437028646 3634.29541906953 167 167 167
292.228142302167 613.234762361936 3632.20219880744 164 164 164
301.171514012399 612.443456934782 3634.75049649935 167 167 167
309.387298841534 611.873810036484 3639.16013558436 151 151 151
317.249272502658 611.414001839564 3644.5047518522 161 161 161
325.121233014964 610.952894306269 3649.85342157408 161 159 160
331.942328002918 610.821348591293 3658.01052971857 149 147 148
338.437412801781 610.797409070192 3667.11388838745 156 154 155
346.008374069761 610.441064820979 3673.41869971031 154 152 153
352.210155840695 610.521637483776 3683.48131802703 150 148 149
358.447139065323 610.599032656707 3693.5582132479 119 117 118
367.446847546241 609.799049557561 3696.12938707423 120 118 121
382.194299369894 607.145165570717 3682.70055179688 132 130 133
399.201148478657 603.736245486377 3662.64033923871 163 161 164
413.747431095901 601.097492781315 3649.12993728141 158 156 159
425.555444404184 599.333248805897 3643.13543773567 169 167 170
436.655641335053 597.789151341514 3639.01055320737 210 210 212
448.040569275519 596.139821513736 3633.92268651385 181 181 183
457.763247411404 595.033002787795 3633.55222971411 189 189 191
465.220318174086 594.680840005527 3639.81089588245 181 181 181
470.783119692183 594.971652102574 3651.77107556956 181 181 179
477.653353437127 594.829458516372 3659.9481603572 185 186 181
-10.7362110339233 649.221933135831 3799.48178498317 213 213 211
1.45737805480106 647.709454114434 3796.87817569109 167 167 167
14.4506357934218 645.974154058526 3792.44216198926 176 176 178
32.7897546523512 642.781565919413 3776.1564179504 140 139 144
55.1395347102763 638.475833989056 3750.71388925297 161 160 165
79.3756735575399 633.622621894069 3720.64498569543 178 178 180
100.16815977031 629.677543543194 3697.80586773457 176 176 178
119.195924325777 626.189601813202 3678.56425128439 191 191 193
131.665107040274 624.492649691755 3673.91600987132 189 189 191
143.290274710739 623.021056608756 3671.08168363618 198 198 200
154.48324829525 621.662757244112 3669.15082893321 163 163 165
169.195887035982 619.309636059964 3658.94230004149 173 173 175
180.305920347776 617.956956893999 3656.97756358254 179 179 181
194.889744377918 615.613079626316 3646.71706568569 191 191 193
206.30341001712 614.155906770854 3643.79725169904 180 180 182
221.908704988987 611.491591978145 3630.7158301082 183 183 185
233.605563210599 609.93151494782 3626.83265063755 185 185 187
243.745353500497 608.812367041292 3626.63091582434 178 178 180
252.734913995063 608.022423355959 3629.19790470674 183 183 185
262.093659530912 607.123186321115 3630.83613704524 173 173 175
269.584378369412 606.769074978101 3637.10844185107 170 170 172
278.935491162185 605.869600391775 3638.743842773 171 171 171
288.643006759923 604.861904944666 3639.44530358477 162 162 162
297.971309705696 603.963316424143 3641.07120501829 157 157 157
306.204988965589 603.38955644504 3645.48837783433 157 157 157
314.084837638563 602.922838056953 3650.84002671887 137 137 137
324.112768377392 601.808482384036 3650.59322166726 184 182 183
331.289664102388 601.555577464361 3657.81650274016 159 157 158
337.432750808602 601.622598603834 3667.85545855713 154 152 153
343.262275370291 601.793519889268 3678.84573311454 148 146 147
350.517021844722 601.533042262218 3686.10059280437 151 149 150
357.791735842792 601.270564212976 3693.36355236596 125 123 124
365.768628666183 600.793013539376 3698.75483307301 113 111 114
379.850296535418 598.400419333923 3687.21231958913 124 122 125
397.211166748645 594.952717701507 3666.21667625606 173 171 174
413.439117182787 591.832884152167 3647.99651822277 157 155 158
424.584884048622 590.307681969936 3643.88994141776 186 184 187
435.689644979301 588.785345480393 3639.7664826519 203 203 205
445.449517679623 587.687086798606 3639.41102078546 163 163 165
454.541807851824 586.800292987903 3640.9412729154 183 183 185
461.056375046042 586.753141075886 3650.05269581198 176 176 176
467.282436101076 586.807879695409 3660.12534045413 180 180 178
475.438008816178 586.23241750589 3664.51090138486 181 181 179
483.911317048699 585.551947432562 3667.94684174068 189 190 185
-21.9807002221368 640.302170493412 3798.23326186036 143 143 141
-11.8731853718221 639.358070272108 3800.17526287609 220 220 218
0.324815954556357 637.864226003987 3797.57304159493 166 166 166
9.98338599555271 637.031469771746 3800.41123221873 176 176 178
27.5203194396394 634.116124404883 3785.95620384082 195 194 199
50.3169496454916 629.785979454706 3759.61597850869 185 184 189
77.044949607155 624.376404642905 3724.08686565756 178 178 180
96.2245330341152 620.945535763064 3704.9062869981 173 173 175
116.087293612062 617.306539351259 3683.84628319864 193 193 195
129.378289305227 615.415557330145 3677.37438522898 191 191 193
140.615625798299 614.07054567425 3675.46113481018 183 183 185
152.617235805438 612.510986787516 3671.70108602828 158 158 160
166.551472999148 610.414204395731 3663.33357561694 171 171 173
178.459932941202 608.861099084468 3659.53576211612 173 173 175
190.717598538214 607.203147191986 3654.80132608043 189 189 191
204.090746360849 605.226115583875 3647.28453501601 185 185 187
219.71008322159 602.610123115607 3634.20843261662 175 175 177
231.037150696968 601.177983205589 3631.25336590297 180 180 182
240.811358492416 600.175524454742 3631.9817902212 173 173 175
249.063013854488 599.600220710551 3636.40625313521 178 178 180
258.442850480656 598.704812069606 3638.05299608883 172 172 174
267.812587778341 597.809785146808 3639.69564700246 168 168 170
277.172109537994 596.915173623301 3641.33441579493 169 169 169
286.521551066117 596.020828166692 3642.96884392967 164 164 164
294.404080978552 595.549348951247 3648.32187174143 159 159 159
303.743235054987 594.654921908612 3649.95213517814 169 169 169
313.431197018538 593.655739575261 3650.64561433464 166 166 166
322.747172083417 592.762336570908 3652.26674221811 140 138 139
329.220798229831 592.707703944899 3661.3613878492 166 164 165
335.373013837811 592.754868051744 3671.40444763138 172 170 171
342.258488379794 592.589947568767 3679.58787557363 152 150 151
350.20817888785 592.110009099816 3684.96816035442 151 149 150
357.82386638243 591.732905757908 3691.29123835837 126 124 125
366.478404465539 591.042739719215 3694.80063089177 126 124 127
379.875868396653 588.901931175054 3685.13679589233 162 160 163
396.564477925138 585.732530667594 3666.02472302908 165 163 166
414.132167937706 582.262905077572 3644.0341776043 193 191 194
424.607361150168 580.966411048907 3641.81197301085 205 203 206
434.722990522363 579.774777283681 3640.52219689258 157 156 161
443.182094250219 579.097704098539 3643.95236019743 173 172 177
452.61131408966 578.113128058624 3644.54122301259 174 174 176
458.814267149592 578.151107113331 3654.60463842388 169 169 171
466.326113619261 577.778016685952 3660.88564151443 181 181 179
473.536551190481 577.50511923887 3668.12265498156 181 181 179
482.960743605392 576.519273195472 3668.70923462781 183 184 179
-28.2237485571792 631.718511201787 3809.79609230955 146 146 144
-14.7009943924845 629.917191532081 3804.49616023319 205 205 203
-2.06856610635131 628.333980054747 3800.9919618179 214 214 214
7.18315756183663 627.609979632633 3804.74340702667 195 195 197
23.9069590594028 624.961805284403 3792.11473847758 141 140 145
50.4410706331104 619.760109548134 3757.58435406607 165 164 169
76.7627002832492 614.574645181411 3722.96807142363 178 178 180
93.9076291551217 611.74346866936 3708.3536851898 170 170 172
114.191174337685 608.071130972941 3686.38524144875 193 193 195
127.492314976614 606.209442454525 3679.91722905912 191 191 193
139.538580245923 604.668671989446 3676.17511846595 164 164 166
150.35258536843 603.44713654025 3675.16859362307 160 160 162
162.720839351849 601.805977221117 3670.4788067598 168 168 170
173.47475883098 600.588251241154 3669.44766756357 172 172 174
186.931540765239 598.637948524472 3661.96453676175 189 189 191
199.940648345929 596.79659317504 3655.37787090574 183 183 185
215.201986482116 594.332375347923 3643.23473231418 171 171 173
226.556168969216 592.917305183384 3640.29051489299 176 176 178
236.736265525103 591.816836526584 3640.10521544476 170 170 172
246.519175329009 590.821399449173 3640.8371099223 176 176 178
257.035900232022 589.619382067635 3639.71007047935 172 172 174
267.155463302411 588.522399705143 3639.49997779923 169 169 171
276.146371188666 587.736473819582 3642.06748177717 170 170 170
284.031501439743 587.259707615446 3647.42160252159 166 166 166
291.926814218778 586.781691761906 3652.77959834503 158 158 158
301.279355615567 585.891757830556 3654.41550538306 167 167 167
310.621723135915 585.002246825671 3656.04703265825 171 171 171
318.170019859168 584.624445341885 3662.34282990722 138 136 137
324.670700243262 584.551195529053 3671.44882794756 140 138 139
332.608367235666 584.067701978926 3676.82401421189 186 184 185
340.904956568493 583.481336299556 3681.26675441932 163 161 162
349.899641139772 582.691201273561 3683.83556222791 152 150 151
356.824441725737 582.50866394294 3692.0353037647 143 141 142
364.798912258816 582.020461234183 3697.42542721651 118 116 119
377.867935938482 580.018260580181 3688.70688106854 152 150 153
394.571779661221 576.913711103578 3669.60022764312 189 187 190
411.821280090082 573.617608311861 3648.5583423941 216 214 217
422.973434412871 572.136134379425 3644.45402037704 191 189 192
433.755683727607 570.757620209095 3641.27795417473 156 155 160
441.238738006988 570.380026345324 3647.54733364588 200 199 204
450.679129909596 569.402939232141 3648.14040595983 166 166 168
457.855002452355 569.12282758637 3655.36347897305 161 161 163
465.6879222982 568.642277581167 3660.69648877382 181 181 179
471.949437158015 568.655681563965 3670.78380171606 178 178 176
481.068547357782 567.776446581393 3672.32485579164 184 185 180
-29.3667599983942 621.803246403226 3810.48725820814 211 211 209
-14.9934571463692 619.819333359125 3803.3754750012 205 205 203
-2.78195142214721 618.362431350255 3800.77869876951 178 178 178
6.47016649548715 617.638130700034 3804.53030588274 179 179 181
22.7826240609443 615.143033818701 3792.8127349426 146 145 150
49.7405512199847 609.951746456552 3757.37506342823 147 146 151
76.0707628743851 604.880820591774 3722.76138740799 177 177 179
94.442961370387 601.793414507259 3705.409174459 171 171 173
111.888837731496 598.921444655503 3689.83788356763 185 185 187
127.618219642968 596.469938090926 3677.88415624266 184 184 186
137.661021356184 595.466014925467 3678.72134343851 151 151 153
148.881585218293 594.154581341122 3676.80104738742 158 158 160
158.097106385684 593.357853570316 3679.45957756973 162 162 164
170.055005319175 591.844671657824 3675.68173618496 172 172 174
185.091990895638 589.516982814671 3664.52553211957 192 192 194
199.273363973121 587.399187788457 3655.17892195331 182 182 184
212.229324114737 585.591746520105 3648.57073724214 165 165 167
222.453553461157 584.499198540656 3648.4032468121 169 169 171
232.277898928756 583.50908635207 3649.15187793563 164 164 166
242.84164365422 582.317486140401 3648.0435403004 174 174 176
254.129445295401 580.92557814864 3645.0722701812 174 174 176
265.753916388801 579.435286308907 3641.15925272156 170 170 172
275.489757399253 578.45054231975 3641.87200832682 168 168 168
283.742040693097 577.867931443188 3646.29652364548 168 168 168
291.999258721757 577.284535638197 3650.72330017946 162 162 162
300.623537945427 576.600353518387 3654.22039575819 159 159 159
309.607232753791 575.815990831135 3656.78471013674 166 166 166
315.730141886933 575.827972744545 3666.81591337941 166 164 165
321.888286186823 575.836709306993 3676.86166491732 155 153 154
329.137419441237 575.544875518179 3684.11448952522 127 125 126
337.803878196773 574.855199653418 3687.6287049392 153 151 152
346.470053513403 574.165187588375 3691.14280813907 183 181 182
353.414668883136 573.967426944067 3699.35043070369 176 174 175
361.067652382957 573.570541736643 3705.68875953755 131 129 132
373.823227648388 571.700302512178 3697.92110825517 148 146 149
391.230687074877 568.463595576757 3676.94272928278 133 131 134
408.171736407599 565.334684843672 3656.85349523955 163 161 164
420.011825291492 563.678395706458 3650.87116459929 180 178 181
430.48452545768 562.415005941742 3648.64769966773 191 190 195
439.946716433968 561.444978815914 3649.24954475966 207 206 211
449.717109460346 560.378972701286 3648.89809803317 157 156 161
458.823773123462 559.507627974352 3650.43405278809 168 168 170
466.9628819158 558.926326946296 3654.81299184974 172 172 172
473.208214222809 558.922004241746 3664.89388695426 179 179 177
481.685202387016 558.241870263407 3668.33131474089 179 180 175
489.850192089979 557.657298743175 3672.7205003631 185 186 180
-18.6699521997684 610.541647099804 3809.50938194458 206 206 204
-8.54157602112271 609.611232058885 3811.45946860813 195 195 195
3.24934646954511 608.274664911905 3809.7702972376 178 178 180
20.4114848355927 605.621815197836 3796.24059270769 149 148 153
44.4978141295875 601.255402092385 3767.18615066128 153 152 157
71.6854021896716 596.094752894379 3730.76216962265 175 175 177
90.4931081182125 592.96745379997 3712.50778478781 176 176 178
108.774309926688 589.949872680086 3695.11819866939 182 182 184
122.911459348535 587.945094540537 3686.83189139048 182 182 184
134.18135096658 586.646549895419 3684.93147010427 154 154 156
145.421208771292 585.349936452268 3683.01887370147 156 156 158
155.050200183578 584.454598108704 3684.76675435963 162 162 164
167.810571820976 582.762667093897 3679.15730985352 174 174 176
184.421606308086 580.080131720063 3664.32562689982 192 192 194
198.993615260887 577.901281354842 3654.05883707624 181 181 183
209.639324536873 576.718125857181 3652.98387952576 163 163 165
220.642418045939 575.437730321035 3650.97529600678 167 167 169
231.615228503887 574.15931562155 3648.95443608038 163 163 165
243.690006320195 572.587614796499 3644.14529631613 173 173 175
254.594533572644 571.313803070015 3642.09675411345 175 175 177
264.723935225724 570.238003518847 3641.8907416725 171 171 173
274.463273504289 569.261201661821 3642.60485309769 169 169 169
282.718192172612 568.675626874781 3647.03071515302 170 170 170
291.707743791627 567.894446505666 3649.59737679167 166 166 166
298.518801137548 567.696502300788 3657.7511812749 158 158 158
307.153489637718 567.011106928844 3661.25250069219 161 161 161
314.002414467449 566.809331102732 3669.4214092679 174 172 173
320.87643004616 566.605143536916 3677.6007524173 176 174 175
327.77567400905 566.39854415476 3685.79007141539 125 123 124
335.748526906121 565.901019570066 3691.17986778164 126 124 125
344.078268826883 565.306204517245 3695.63583805487 140 138 139
351.03489722875 565.093827849467 3703.84869262326 173 171 172
358.358507603905 564.783480620289 3711.13181281746 139 137 140
370.453279449853 563.135676070618 3705.2525371965 168 166 169
387.886376753816 559.968460001162 3684.28401209755 173 171 174
404.852890732481 556.90639382228 3664.20458184588 174 172 175
418.042611774562 554.896749285054 3654.455896259 168 166 169
429.185404921878 553.459952456529 3650.34744532792 201 200 205
439.960408748264 552.120388590628 3647.16815024594 192 191 196
448.754439314562 551.348362721161 3649.65557740451 166 165 170
459.472486820631 550.012594084532 3646.45319234444 176 176 178
467.920760849094 549.335721379044 3649.87896926102 171 171 171
475.418709919373 548.939223814441 3656.15452281256 179 179 177
482.617153331965 548.63457911386 3663.38692056522 178 179 174
-23.9892631280292 600.162032528452 3795.56664396083 222 223 218
-17.2697655736131 600.033165061506 3804.76140386602 194 194 192
-8.83631685404795 599.505245495578 3810.33792260903 175 175 175
3.37175658162781 598.086184701077 3807.7394698419 188 188 190
18.454634624397 595.978703532713 3798.75805171075 194 193 198
42.9691405045387 591.611419674628 3768.79791656603 180 179 184
67.2965324799397 587.258357325507 3738.76216975598 172 172 174
86.540227297998 584.09651233949 3719.60551021759 182 182 184
102.413420536308 581.727310914101 3707.70938723127 184 184 186
116.991910124809 579.657400453475 3698.52346100642 184 184 186
129.497646746253 578.080038883008 3693.88885632144 155 155 157
143.5497669808 576.116757250348 3685.56780679374 155 155 157
153.977903163436 575.031934667501 3685.4828182432 165 165 167
165.564601540397 573.657650934593 3682.63243571138 179 179 181
179.84819844723 571.608952328714 3673.3269487452 191 191 193
195.612158653911 569.179509964188 3660.30798931684 177 177 179
207.047462734861 567.815965619435 3657.39622690363 163 163 165
219.595521246312 566.166559499839 3651.70049598725 166 166 168
230.572396678459 564.904261168325 3649.68115978247 162 162 164
243.029411657888 563.261231391688 3643.94851765291 174 174 176
252.810220990971 562.290199940309 3644.67937667668 177 177 179
262.575857356442 561.319922293945 3645.40408655953 172 172 174
271.956221419101 560.445537527444 3647.05114093978 170 170 170
280.958985113512 559.666502997886 3649.62339301599 166 166 166
290.321613727628 558.792691926264 3651.26300486355 167 167 167
297.137244180511 558.580702089134 3659.41851020096 157 157 157
305.41746267632 557.9891776214 3663.85466107447 153 153 153
313.345383464757 557.49094434608 3669.22601289284 180 178 179
321.283180388276 556.991504756399 3674.60162985854 169 167 168
327.469696606694 556.959234076255 3684.65892258279 174 172 173
334.390838681574 556.736846949612 3692.8574848649 163 161 162
342.031451829454 556.325519587475 3699.19091449834 169 167 168
349.687058083926 555.912651106961 3705.53016918931 139 137 138
358.0415821322 555.312430072748 3709.99647177311 137 135 138
369.457016239041 553.877499946317 3705.99813986272 150 148 151
386.898021492749 550.781299003975 3685.0322783614 171 169 172
401.865164110085 548.341029827442 3670.61222427382 155 153 156
415.739623297021 546.184230674619 3658.98402619769 167 165 168
427.226480709612 544.676534415158 3653.93635648273 182 182 184
439.647831440864 542.897249114885 3646.03243341768 174 174 176
448.439804571174 542.128339755329 3648.51926113922 196 196 198
458.513343782901 540.994551106367 3647.21226178898 181 181 183
466.964522537754 540.31762759316 3650.63921519384 177 177 177
474.781572258565 539.822111150291 3655.96565550819 173 173 173
482.293832202931 539.416081219521 3662.24707568418 184 185 180
489.508883812918 539.098942551375 3669.48629267937 189 190 185
-27.259421954458 590.759466855078 3800.78695475077 208 209 204
-18.4083757385896 590.130099125685 3805.45451657272 231 232 227
-9.97236261936219 589.596243295286 3811.03186139174 210 210 208
0.984779607125841 588.484243364438 3811.161269644 178 178 178
16.9126405125644 586.222112212772 3800.36527778939 128 128 130
40.1997183388889 582.242512715221 3773.14216604787 119 119 121
64.547361008368 577.989405540142 3743.11386096767 181 181 183
80.9511990519991 575.562108928762 3730.3539672859 174 174 176
95.6413545493635 573.522175966212 3721.21302657656 175 175 177
113.083293436437 570.822733025176 3705.63883372286 174 174 176
129.217128584296 568.415507748924 3692.76972286943 148 148 150
142.075269331056 566.771392558342 3687.19950195334 161 161 163
153.300786780965 565.508284034264 3685.28084528414 171 171 173
163.710097349892 564.43544367554 3685.18814355376 178 178 180
178.394947196445 562.330323487914 3674.96648335538 194 194 196
193.003846850905 560.230856621066 3664.71428583727 173 173 175
205.609821954778 558.604657766187 3659.04182903481 160 160 162
218.16525615899 556.982104515441 3653.34888094684 165 165 167
231.050514385019 555.269994171547 3646.71108972111 166 166 168
242.368772923206 553.933685844644 3643.75172995381 178 178 180
253.651601505988 552.599796022033 3640.77800651654 176 176 178
263.035233959414 551.731040253179 3642.42634157882 170 170 172
270.557862149511 551.324373608012 3648.71170738376 167 167 169
278.0956146939 550.916204394118 3655.00346554839 173 173 175
286.743925292002 550.230566634325 3658.51030229403 173 173 175
293.941721045639 549.911502015712 3665.74280433975 164 164 166
302.239951430493 549.315836101065 3670.18602226424 154 154 156
310.54311317854 548.71945071519 3674.63124231621 172 172 174
319.916014063423 547.848855263774 3676.27524618658 173 173 175
327.868871955402 547.342369777691 3681.65675741132 168 168 170
334.781813171149 547.106973550266 3689.85209782901 167 167 169
342.762035137457 546.59757285858 3695.24471067039 176 176 178
350.062300835723 546.267699813691 3702.51878399692 164 164 166
358.067211665906 545.755595868309 3707.9214136746 150 150 152
368.460104892738 544.612794387301 3706.74378682135 159 159 161
383.885627795554 542.125893913102 3691.43061575217 134 134 136
399.543998619449 539.557209244605 3675.13327769143 178 178 180
414.763186651892 537.08602864637 3659.73644394011 191 191 193
426.913844635145 535.424641876023 3652.80109102702 170 170 172
438.681128702018 533.856313069288 3646.78861551591 171 171 171
447.47624802534 533.090088885763 3649.27643952931 177 177 179
457.875629611817 531.881429340827 3647.02313080975 177 177 179
466.007691094136 531.293010842703 3651.39901318735 176 176 178
474.461092507881 530.615791680192 3654.82686877202 178 178 178
481.341818234163 530.377722830596 3663.00892839706 180 180 178
488.870826696119 529.961967403732 3669.29720364598 183 183 181
-29.6795613336356 581.134981760374 3804.19575543184 153 154 149
-19.5471488377497 580.220326701245 3806.14735691533 182 183 178
-9.42419117157312 579.30612185004 3808.09512679268 130 130 128
1.52649094715906 578.205393439917 3808.22183395794 118 118 118
14.1217157966211 576.732995498557 3804.70173219786 153 153 155
36.6014934298002 573.03116355976 3779.30726120198 161 161 163
59.7414528661997 569.15599248797 3752.02379072583 169 169 171
79.8505470040305 565.942189260327 3731.06004556767 174 174 176
97.3876729388015 563.293212121663 3715.52426798592 186 186 188
114.012028593771 560.836659697969 3701.77507393312 156 156 158
127.734534522137 559.031332292682 3694.39843402392 156 156 158
140.600032987333 557.41401161892 3688.83098910086 160 160 162
151.832132826436 556.166730348587 3686.91487762823 179 179 181
162.24764815768 555.104277648874 3686.8246094266 185 185 187
176.550158024616 553.130838534522 3677.52595251123 196 196 198
190.781808553585 551.162679290168 3668.19882235762 172 172 174
203.400221901022 549.562902319677 3662.53120144134 161 161 163
216.351136540833 547.87621997987 3655.92005852242 169 169 171
227.724251449051 546.555142159239 3652.98279426831 173 173 175
238.683992329619 545.326689677977 3650.95626386246 183 183 185
251.115233479866 543.740217719229 3645.2127573989 177 177 179
261.631180321019 542.606442041235 3644.08462844415 171 171 173
268.78820022508 542.280810149877 3651.30041318834 170 170 172
275.965413160909 541.953184443821 3658.5246462874 174 174 176
284.989611406827 541.177538077627 3661.10529415403 179 179 181
293.645801968069 540.490887458457 3664.61532911822 199 199 201
302.301879898534 539.803916994246 3668.12532090334 189 189 191
310.242351326054 539.293774802592 3673.5021018796 166 166 168
319.613546198342 538.428879106884 3675.14511456839 170 170 172
326.858528374638 538.09355831689 3682.39658805373 199 199 201
334.123481736777 537.756380840841 3689.6564190307 192 192 194
340.018277068441 537.768332347094 3700.6740689823 179 179 181
347.678432952164 537.33880900601 3707.01554925183 164 164 166
355.695907090383 536.820264653959 3712.42357176716 160 160 162
366.442827540891 535.603114358922 3710.3107862068 155 155 157
381.20789920827 533.344120058087 3696.8860919234 154 154 156
397.555588113288 530.658189096301 3678.71112628682 202 202 204
414.45078836497 527.808114663076 3658.60147199835 193 193 195
426.271587706143 526.263521157551 3652.61048453622 169 169 169
438.04110456097 524.722661898735 3646.59870485348 174 174 174
446.18724847227 524.131274616972 3650.98031160954 151 151 151
455.626656984239 523.196108687913 3651.57266800443 142 142 144
463.771552303865 522.604103016495 3655.95377390178 165 165 167
472.555093060411 521.84070360243 3658.43714565094 170 170 172
479.130672354507 521.673559154142 3667.57418142598 177 177 177
485.735900886268 521.503647219606 3676.72324294445 183 183 181
-32.9536940001594 571.669936130959 3809.41493082307 160 161 156
-21.9577427243092 570.577187806249 3809.55990666302 167 168 163
-10.560026257638 569.394706499944 3808.7894263955 164 164 162
-0.861990293336001 568.576492708905 3811.64322903824 153 153 153
10.9127475163999 567.30591006112 3809.94726168689 110 110 112
28.0360478546164 564.863685453932 3796.39997820674 131 131 133
54.1094745181621 560.446894449142 3762.75592451269 171 171 173
82.0186837168864 555.59664825866 3724.46415371265 177 177 179
100.354703129373 552.826919420272 3707.09488420168 175 175 177
114.942393525863 550.871289218572 3697.91181710571 156 156 158
125.850217605563 549.724363370274 3696.94271337465 157 157 159
137.928670497111 548.311743188884 3693.21266397787 164 164 166
149.966817226462 546.901982206643 3689.46653045567 179 179 181
162.751595059795 545.317657242972 3683.86615222116 186 186 188
178.613066715282 543.029062732518 3670.88560690046 196 196 198
190.499914970094 541.630123210829 3667.07813167222 169 169 171
202.346498876435 540.233960739254 3663.2540754182 159 159 161
213.002762573851 539.104305511967 3662.18298576085 169 169 171
224.39532971919 537.800874656033 3659.2534638208 177 177 179
235.752501718781 536.499889434538 3656.30959209931 186 186 188
250.079600511955 534.503123505869 3645.94225973377 178 178 180
261.345587613707 533.208645379687 3642.96141857002 172 172 174
269.240846554337 532.69844436033 3648.31963654944 176 176 178
276.041992585054 532.447128261284 3656.46983255564 174 174 176
285.061563930651 531.674622650537 3659.04884044353 178 178 180
294.076061393228 530.902106015284 3661.62553680908 201 201 203
302.003959861484 530.387878986892 3666.99725804501 190 190 192
309.226101586947 530.044235753591 3674.23954667519 165 165 167
317.179028434172 529.527308460412 3679.62142219202 174 174 176
324.789079608316 529.094671353379 3685.94263902049 188 188 190
332.414097729281 528.660459898535 3692.269927793 167 167 169
337.967593680015 528.735117083374 3704.22772089047 152 152 154
344.601993965664 528.551177809315 3713.38870016919 158 158 160
352.979919653566 527.941217675464 3717.86429450454 163 163 165
364.083662565031 526.654871540264 3714.8177001773 155 155 157
379.202731996531 524.359985853605 3700.4580582151 170 170 172
398.24595934304 521.063824449179 3674.74788558356 190 190 192
415.136169570036 518.283037324681 3654.63568569047 193 193 195
426.619080196649 516.850373890117 3649.58584922142 185 185 185
436.745962426712 515.754835308772 3648.29990093042 175 175 175
445.22224357965 515.077238053875 3651.73702322551 146 146 146
454.665081651079 514.150228837736 3652.33070639911 150 150 152
462.812561800816 513.555502364786 3656.71313672538 172 172 174
471.59922120638 512.794790309012 3659.19749359747 173 173 175
478.491291399928 512.528828334172 3667.38461516591 176 176 176
485.408048084928 512.260527364189 3675.58149262255 183 183 181
-32.817484553465 561.462728674402 3807.38983262778 144 145 140
-24.7938254993461 560.999384465816 3813.87874911318 199 200 195
-11.6960158732335 559.47670354755 3809.48345613607 205 205 203
-0.319045174698607 558.309022046147 3808.70420664872 197 197 197
10.2002550933409 557.318390171078 3809.73448122169 149 149 151
25.6719641194778 555.27801259993 3799.83092400889 146 146 148
52.1751922139224 550.884993889723 3765.28190554364 173 173 175
81.7365996139923 545.811134806964 3723.34530323521 172 172 174
99.668621373304 543.19124136699 3706.89013036356 156 156 158
112.644334630998 541.620690693201 3701.36695612668 146 146 148
123.162392319557 540.572978114019 3701.31809487423 172 172 174
135.255308324362 539.181084686911 3697.59400161312 177 177 179
148.100364647635 537.619779859244 3692.01785522653 182 182 184
163.25672945213 535.546364988956 3680.90805963889 195 195 197
177.550121522436 533.650430664528 3671.60512352697 189 189 191
189.829898191039 532.187504469579 3666.87841909272 159 159 161
198.976337978369 531.410541789564 3669.50857167225 156 156 158
210.802066357531 530.03760542144 3665.67615234178 170 170 172
221.825560712448 528.837397161133 3663.67522118333 181 181 183
235.089026746681 527.130755213393 3656.11197125856 187 187 189
248.667609224398 525.344060192703 3647.5978511637 179 179 181
259.567063608459 524.152603416948 3645.54663076441 173 173 175
267.099034662132 523.7204438337 3651.8362298848 167 167 169
274.646218735652 523.286750182839 3658.13200027715 176 176 178
284.76860433366 522.265310407014 3657.92247782629 179 179 181
295.233664707396 521.161593447234 3656.77377469042 178 178 180
303.509519440952 520.559600651577 3661.20798082798 152 152 154
309.283547675844 520.538793413832 3672.17723856509 146 146 148
316.520283267294 520.18266636441 3679.42553077232 160 160 162
324.483183089345 519.659156063133 3684.81123694699 189 189 191
332.455881958657 519.134475443068 3690.20117678384 186 186 188
338.350814847493 519.102630055658 3701.21921439988 191 191 193
344.631328688224 518.985137996426 3711.31546927799 199 199 201
353.690103223197 518.209053595614 3713.91012015971 158 158 160
364.445073444919 517.024471157371 3711.80034703932 159 159 161
377.871561315238 515.189892041297 3702.14619971856 171 171 173
395.585022397449 512.303489505044 3680.2102552972 149 149 151
413.493831167052 509.346612614057 3657.27487457938 186 186 188
425.316564137814 507.857188693782 3651.28425185978 187 187 187
435.449736758424 506.775104042605 3650.00100575285 169 169 169
443.606302743445 506.177750294639 3654.38687755705 153 153 153
452.089900093073 505.499423950934 3657.82696765473 162 162 164
460.252798388366 504.900940856814 3662.21541192671 169 169 171
469.690077025039 503.982167471709 3662.80703892568 170 170 172
478.481631356009 503.22369774869 3665.29336072219 175 175 175
486.329945281343 502.70388061002 3670.63290111104 182 182 180
-26.358874736842 551.136275574028 3815.47744770864 191 192 187
-14.0973935455673 549.808386043148 3812.89992831072 180 180 178
-2.28983263885518 548.568085153396 3811.21676404519 167 167 167
8.23805288691437 547.584788496189 3812.2502019028 145 145 147
22.8923729687074 545.754199976454 3804.17197305673 169 169 171
50.6513837677272 541.220984149239 3766.8960503531 174 174 176
79.0008172701557 536.53645969009 3727.70245899132 173 173 175
94.5111277244257 534.480820752137 3716.73583875736 155 155 157
108.728870107218 532.683177622383 3708.48059297147 148 148 150
121.275454046068 531.225599014985 3703.86161915422 181 181 183
134.175664157671 529.687600791619 3698.30762748875 175 175 177
144.647409656161 528.653689489869 3698.23991014816 186 186 188
161.006390541636 526.372892653742 3684.38193554855 202 202 204
177.269282330408 524.099290343927 3670.48500062069 179 179 181
188.771161839692 522.826680990152 3667.59950486513 150 150 152
198.306829265213 521.969526638031 3669.30905265027 159 159 161
208.216172207727 521.030423974079 3670.09171201197 173 173 175
221.540503039898 519.352255111712 3662.55288999522 182 182 184
234.804164385414 517.678599512516 3654.98921189653 187 187 189
248.383045246512 515.927567184814 3646.4749423015 178 178 180
258.160895973639 514.997477664215 3647.20429307797 174 174 176
266.43957758214 514.393910524271 3651.63991295685 179 179 181
274.723412205239 513.789581877994 3656.07736780036 178 178 180
284.475854942067 512.860459303046 3656.79642373206 178 178 180
294.576330116779 511.851449957413 3656.57819291304 181 181 183
301.769827790563 511.488526853596 3663.80902990544 190 190 192
307.550328272275 511.445214640024 3674.78082156455 205 205 207
315.149962668971 510.997412727257 3681.09793565859 202 202 204
324.17743442212 510.228076964553 3683.68011833904 188 188 190
331.446231203196 509.857753427133 3690.94149950071 167 167 169
337.690600874949 509.72433083232 3701.022983383 159 159 161
344.315748211919 509.508337459681 3710.18045916957 171 171 173
354.058604684583 508.576985581337 3710.89565058822 181 181 183
364.126352057857 507.567490728778 3710.66417219387 183 183 185
377.21532673933 505.850251556817 3701.95128690853 182 182 184
