ply
format ascii 1.0
comment KinectMotionCapture
element vertex 754
property float x
property float y
property float z
property uchar red
property uchar green
property uchar blue
end_header
-112.589789396788 547.095186529912 2725.40520381667 174 173 178
-111.1797696057 545.668302215542 2717.57539984089 174 173 178
-111.376332073883 543.972161176229 2708.49330150324 175 175 177
-111.602308765276 542.279891565547 2699.43667244318 177 177 177
-110.264035408629 540.862422160949 2691.66930818502 182 182 184
-106.550717590092 539.853109104798 2685.81054527476 183 183 185
-102.846372081076 538.844914533872 2679.95955173985 180 180 182
-100.75673869302 537.568647928019 2672.8633026096 186 186 188
-97.8793333921488 536.428830193247 2666.40663992639 190 190 192
-94.207894570626 535.424760038505 2660.58445658688 162 162 164
-88.9274363257191 534.689229132017 2656.01245988076 151 151 153
-86.081094613534 533.553325289903 2649.58269576432 170 170 172
-80.8083644027611 532.818595584763 2645.01739203136 185 185 187
-73.9062668843675 532.349604961387 2641.6846568343 176 176 178
-67.8137419188176 531.746943930348 2637.73152809684 171 171 173
-61.7181607373238 531.143639515693 2633.77543908348 166 166 168
-58.0831073396695 530.143728610111 2627.9844498338 172 172 174
-51.1635355425821 529.671987692811 2624.6369023861 179 179 181
-48.3634920842291 528.541839817131 2618.24722933162 186 186 188
-43.0941923500159 527.806943294652 2613.68489999699 187 187 189
-34.5080470073613 527.595601464881 2611.53770770468 180 180 182
-24.2433175004306 527.643332919037 2610.5807846369 178 178 180
-13.1215015221073 527.817998889409 2610.20343225002 168 168 170
-0.30071522441677 528.248842993965 2610.99869843491 172 172 174
20.0941557027639 529.84244429603 2617.13199291594 179 179 181
36.3632476132127 530.778488174256 2620.22825845964 159 159 161
47.6351664917036 530.932273066053 2619.72125731655 143 143 145
53.0289436807223 530.179834456396 2615.05115257071 147 147 149
60.9592476237499 529.813348238302 2612.15014606081 154 154 156
68.0531411992247 529.316941166532 2608.65135198631 150 150 152
78.5538110507131 529.331760340678 2607.49014421351 150 150 150
88.2263660408631 529.215571435875 2605.72396590796 153 153 153
100.480374751409 529.479127078461 2605.68830176152 147 147 147
119.613265049336 530.755843713085 2610.27061637879 145 145 145
151.679274955682 533.927399022002 2623.48122788691 152 152 152
206.229773677006 540.373981979345 2651.59012477297 145 145 145
236.875699558792 543.250663278049 2663.3866476834 115 115 113
253.814830377793 544.094128696931 2665.90308184435 112 111 109
259.547635457828 543.295254168629 2660.93943034506 113 113 111
260.93972139946 541.869250189199 2653.12548008949 113 113 113
262.310680073314 540.446189026395 2645.32950701394 115 115 115
265.40518178387 539.276086582055 2638.68487531469 123 123 125
271.984090063642 538.606576136218 2634.31061386183 137 137 139
280.318828132303 538.185474447827 2631.05942366764 159 158 163
286.030792178927 537.390694165681 2626.11380931031 164 165 169
294.382876984089 536.967503657047 2622.84728209883 161 162 164
298.335652347502 535.925425712718 2616.78150055736 154 155 157
-232.62584756129 554.345000688331 2817.48749670967 198 200 199
-236.234190226272 551.931901541971 2804.75053693666 188 190 189
-239.892533696475 549.525274338128 2792.0565572076 185 186 188
-240.594312028225 547.681041979312 2782.09004638201 177 176 181
-237.561408720679 546.534536001862 2775.49865132709 171 170 175
-233.030288323191 545.666161321071 2770.253417114 158 157 162
-227.746078297291 544.93638326151 2765.67813132585 148 147 152
-223.222347725373 544.068516944032 2760.43961435883 154 153 158
-217.941684619863 543.338527862626 2755.86740418151 158 157 162
-211.133949122501 542.882926059905 2752.61668469283 154 154 156
-207.382640825436 541.877988726816 2746.72496571448 150 150 152
-201.336300283139 541.284130273522 2742.81149412297 156 156 158
-193.746553824569 540.962369609239 2740.20537120334 154 154 156
-179.968666657507 541.727831335346 2742.81575258868 150 150 152
-164.598479953084 542.758574474228 2746.69083344448 133 133 133
-140.638173432122 545.272984389268 2757.66775062097 141 141 139
-108.020337758265 549.261803304756 2775.68813801395 158 158 156
-112.711842106077 546.750628548994 2762.56736806553 145 145 147
-117.457530004121 544.246608804682 2749.49319907021 132 132 134
-117.551260005467 542.556479173871 2740.32161767036 162 161 166
-116.101537823603 541.138493241115 2732.45766005652 168 167 172
-114.673184541052 539.723243121182 2724.61189039484 176 175 180
-110.104081686103 538.845044474677 2719.33411459298 176 175 180
-110.295015929847 537.16751865042 2710.24701744385 176 176 178
-109.720939719673 535.62690196884 2701.81923193377 177 177 177
-110.765189958165 533.824149640932 2692.14928502814 179 179 181
-107.849905141259 532.688123710991 2685.65976623583 181 181 183
-105.74833011133 531.421537449547 2678.55310412646 187 187 189
-102.058566673977 530.420965911474 2672.71469999977 190 190 192
-99.1825152095682 529.2898043932 2666.25915464278 165 165 167
-94.7058115048089 528.423031214964 2661.06139046833 146 146 148
-89.4252887574338 527.687761109604 2656.48933616561 144 144 146
-83.3347135841009 527.083184561052 2652.53759428291 182 182 184
-78.0537173940972 526.347581208685 2647.9651317899 184 184 186
-71.143548575026 525.872345653993 2644.62575688657 174 174 176
-66.6772498428556 525.006262841369 2639.43669108943 168 168 170
-59.7584935759423 524.529601314326 2636.08988237672 171 171 173
-56.1168362898186 523.534520182503 2630.29313800248 178 178 180
-50.8378251262767 522.798705067276 2625.72239737548 184 184 186
-48.8601327052218 521.547903971401 2618.72300648786 185 185 187
-42.7636745566051 520.941756633445 2614.76617579778 185 185 187
-32.5177344303542 520.975968987874 2613.82562576571 179 179 181
-21.4167830057179 521.13476033365 2613.46646030544 177 177 179
-11.1212797607636 521.162058403298 2612.4829969416 169 169 171
0.0331283266259419 521.313321285573 2612.07754745488 173 173 175
22.1012001564649 523.112292059752 2619.40580951597 180 180 182
40.0531063267122 524.266258920929 2623.68926007617 164 164 166
52.1750491906574 524.526378169072 2623.76776890111 148 148 150
55.0507773949342 523.393934942661 2617.31282754365 149 149 151
62.9863977859673 523.018775635933 2614.40695376615 156 156 158
72.6288586223349 522.893277193718 2612.66723498428 152 152 154
83.1405863021595 522.890437927051 2611.49655742133 149 149 149
92.8243040142656 522.759241389895 2609.72080123325 152 152 152
102.527998748214 522.625466543072 2607.92806246262 145 145 145
122.519544662418 523.982853908757 2613.088887517 144 144 144
163.164933641328 528.311825024853 2632.089497977 151 151 151
216.013231820744 534.352799722271 2659.02954435221 142 142 142
246.678117803655 537.148019857994 2670.81047724469 110 110 108
258.456062268773 537.213034479486 2669.86514525751 110 110 108
261.603443119716 536.043536037551 2663.17467739262 114 114 112
262.134376055001 534.507561745649 2654.78425562685 123 123 121
264.380389376327 533.220296094712 2647.55253766151 123 123 123
267.481514583392 532.057745604299 2640.90211620291 126 126 128
274.940076928362 531.506860479607 2637.08791913001 138 138 140
282.406114939182 530.95509611433 2633.26693281346 149 148 153
288.123870639471 530.159655633776 2628.31630289983 149 150 154
299.121885385262 530.091117751471 2626.72456858609 141 142 144
306.615419610043 529.536211601851 2622.88008618425 155 156 158
-225.120547665323 550.470902120591 2834.82807654501 110 111 106
-236.861952879841 546.574034563693 2814.59281763501 201 203 202
-238.983458602051 544.468626023966 2803.21169074137 191 193 192
-240.397287045597 542.505122951457 2792.53953583428 180 181 183
-239.594512035739 540.955266078734 2783.9135887307 180 179 184
-236.556693096427 539.816482169765 2777.31788308183 164 163 168
-233.53187394226 538.679149530647 2770.73343540977 167 166 171
-227.489744200942 538.085011999591 2766.8239307921 158 157 162
-222.203998512726 537.354877414637 2762.24731630052 136 135 140
-216.918991944319 536.624542937205 2757.67134372595 144 143 148
-210.107475726937 536.163079913127 2754.41706981934 153 153 155
-204.819908437981 535.431861604045 2749.83888350348 154 154 156
-197.229712940116 535.102375036982 2747.2324214494 141 141 143
-187.318509442526 535.172144977737 2746.58176927131 135 135 137
-175.067971727024 535.638583634467 2747.87105974615 139 139 141
-157.363980755578 537.031826578064 2753.69109767748 154 154 152
-106.228807809527 544.128765320907 2787.40248759792 165 165 163
-97.6437111110537 543.900437268526 2785.25631427436 165 165 163
-108.544625467887 540.362313133084 2766.93676880481 150 150 152
-116.403638477791 537.36410237401 2751.27087395995 141 141 143
-118.059980550815 535.429096889529 2740.80872966749 159 158 163
-118.967639263855 533.630646433551 2731.02036610079 168 167 172
-115.179576377465 532.623454182102 2725.09680521067 176 175 180
-110.610116067525 531.748261591351 2719.81870011041 175 174 179
-108.422518241715 530.481708427301 2712.63747873732 176 176 178
-109.429782412068 528.696080873354 2702.93504819518 177 177 177
-109.673930548299 527.045034734787 2693.89390185039 184 184 186
-107.552252856557 525.787059703951 2686.76976024046 184 184 186
-107.048747391749 524.272385645427 2678.40297282318 186 186 188
-104.965433818358 523.019397509868 2671.31205045839 187 187 189
-102.094764220737 521.897524498281 2664.86110956905 161 161 163
-95.2040449481317 521.42038683744 2661.53860461244 146 146 148
-90.7321580214817 520.557024852179 2656.34467769525 144 144 146
-83.0222313373237 520.206413409987 2653.63457720804 186 186 188
-77.7390839216325 519.470819779664 2649.06025010739 180 180 182
-70.0124847567007 519.117603712261 2646.33571585984 168 168 170
-64.7248719529436 518.381169176693 2641.75752389594 164 164 166
-58.6190928454315 517.771602922647 2637.79295206326 174 174 176
-56.6147339736496 516.528447019039 2630.77008335039 180 180 182
-51.3356156648488 515.792857019085 2626.19924839799 185 185 187
-48.5321809823547 514.679230171804 2619.80652899097 184 184 186
-44.9146102123978 513.693074247534 2614.03091894336 183 183 185
-37.1609869408087 513.335500168789 2611.28299017122 178 178 180
-26.0714904025972 513.477089789685 2610.93386454036 172 172 174
-15.7872901357212 513.489860554455 2609.9602920112 167 167 169
-2.13890012888651 513.99777199501 2611.36100578735 170 170 172
19.0841520368141 515.619166366265 2618.09956659265 178 178 180
42.9014437087121 517.602070313002 2626.55704679431 171 171 173
52.5063602666713 517.468423114635 2624.84992179219 157 157 159
57.9144323481833 516.714598365749 2620.16743613142 154 154 156
64.1670510194063 516.084037085527 2616.07541370622 157 157 159
73.8126589739028 515.944730256782 2614.33305668263 154 154 156
83.4777457715785 515.802777985993 2612.57351827519 146 146 146
96.5683544150928 516.147519298803 2613.13547768254 149 149 149
108.84141998553 516.365248512503 2613.0832777142 143 143 143
133.123557300969 518.283656833264 2621.13859293403 143 143 143
176.360078985545 522.862950295104 2641.86185157496 148 148 148
232.668559135204 529.235883844787 2671.09404176137 135 135 135
255.613920374266 530.858858686625 2677.66306601571 108 108 106
262.231257993737 530.178184286367 2673.25556881551 110 110 108
261.926398829171 528.534184102758 2664.26668173041 114 114 112
263.3283518237 527.134548666817 2656.4440084766 112 112 110
264.709181922387 525.737915344898 2648.63930822926 125 125 125
268.684670978258 524.703019048643 2642.55379337684 124 124 126
274.399102792545 523.907936371582 2637.60604207611 118 118 120
281.864576757997 523.350977984038 2633.78557829535 128 127 132
290.215917195788 522.911890366349 2630.52011478033 160 161 165
300.338853022537 522.708181299379 2628.36445786062 153 154 156
307.835746466071 522.147530578787 2624.51678561526 143 144 146
-238.116387036472 539.366649059593 2814.40320846132 184 186 185
-237.996344812739 537.691140128381 2805.04656376039 190 192 191
-238.654779844137 535.885506201212 2795.04223561964 177 178 180
-237.093291485125 534.484784884406 2787.0809788547 168 167 172
-236.306022397016 532.953387339269 2778.4686671868 160 159 164
-234.033715385234 531.691124184411 2771.21368200518 158 157 162
-229.506322689838 530.829022788173 2765.97195358728 164 163 168
-222.705535387295 530.364535377188 2762.72731392776 159 159 161
-215.13595928987 530.030789030768 2760.13875105267 144 144 146
-207.554997571368 529.69515779481 2757.54001655182 141 141 143
-203.02448924445 528.831409145247 2752.29559837834 146 146 148
-195.428507344408 528.493208396909 2749.68417750961 150 150 150
-184.742541470408 528.677104981646 2749.68453225998 141 141 141
-171.713666887241 529.249044380868 2751.62178741928 130 130 130
-144.717554140323 532.162976918548 2765.25854781649 85 85 83
-104.419732933201 537.273522387681 2789.84870213742 147 147 145
-98.1623910899621 536.644113869608 2785.75289401219 159 159 157
-108.279004375444 533.292723577281 2768.0759329577 144 144 146
-113.004961335224 530.857670499055 2754.98421554325 151 151 153
-117.000974173706 528.558889187144 2742.58220714899 170 169 174
-117.902785510824 526.781719310488 2732.78863755271 165 164 169
-115.686237708293 525.522773300582 2725.58195938681 174 173 178
-111.906414372086 524.52237212183 2719.66581151753 175 174 179
-108.927847664933 523.395101084636 2713.12138730438 176 176 178
-108.344995203307 521.886629146564 2704.68578680297 178 178 178
-107.787430533179 520.381502867416 2696.27208245945 185 185 187
-107.255247683999 518.879675024108 2687.88035607855 184 184 186
-107.548646739564 517.254514985478 2678.88172953328 187 187 189
-105.464401356345 516.012630018877 2671.78992758661 183 183 185
-101.788690398906 515.025329322133 2665.96361725399 156 156 158
-94.896244533071 514.542749041434 2662.63965106528 146 146 148
-90.4217304890316 513.682199479115 2657.44374441929 152 152 154
-83.5208823004998 513.198106131094 2654.11218992736 187 187 189
-78.2376233676145 512.462796913441 2649.53776432775 177 177 179
-68.8822561711713 512.351258759734 2648.04678946004 165 165 167
-62.7738876667694 511.739015973289 2644.07967513515 164 164 166
-57.4808374674762 511.002028833962 2639.49677396598 176 176 178
-54.6507834763981 509.893291017463 2633.08095096635 181 181 183
-51.8336849964074 508.786297939221 2626.67634566791 185 185 187
-47.3799878744621 507.927713416854 2621.49846906305 184 184 186
-44.5848576719023 506.823648896645 2615.11288548317 184 184 186
-36.8296553434933 506.458017075439 2612.3636403001 179 179 181
-29.8937588936945 505.968207856987 2609.00206077215 172 172 174
-18.7860132630373 506.088355928596 2608.63725693869 167 167 169
-5.14564469554912 506.570368908157 2610.04509100732 168 168 170
19.4157140941655 508.628137998048 2619.18075274974 177 177 179
39.8746964647416 510.066092509901 2625.25917262056 174 174 176
51.1545659621495 510.162192050777 2624.74533867994 160 160 162
58.2469027712706 509.650536252495 2621.24830823577 150 150 152
67.0368110077728 509.378815971451 2618.92489857306 152 152 154
77.5366850754775 509.34538423135 2617.7646932018 151 151 153
84.6634864556974 508.828967264853 2614.23782192753 144 144 144
100.310065924936 509.508033321455 2616.55204573056 147 147 147
115.151717314581 510.061157613116 2618.24180037949 145 145 145
141.156331672731 512.15632108873 2627.44955919908 143 143 143
189.5488445991 517.326932004004 2651.64029940725 146 146 146
241.581648798328 522.943575489931 2677.96665253239 135 135 135
256.792788891333 523.445510657718 2679.33617423496 114 114 112
260.823341949092 522.407967506058 2673.2026350717 114 114 112
262.248979468474 521.018856372684 2665.35936539113 110 110 108
264.521257479063 519.75009172754 2658.10476298855 117 117 115
268.515587790883 518.718025609531 2652.00258388989 116 116 116
270.758268967861 517.45372590407 2644.77360519393 112 112 114
276.478727509442 516.658101086309 2639.8206338251 121 121 123
281.322960958536 515.746421160428 2634.30429389453 164 163 168
290.551251613262 515.415415965675 2631.60162211304 173 174 178
298.03578230418 514.851040400207 2627.76468924683 139 140 142
307.291647210155 514.516658859603 2625.0378242366 157 158 160
-236.548279198383 534.351231055249 2826.31012832617 132 132 130
-239.370460146801 532.163578877086 2814.21357390528 185 187 186
-237.756944229208 530.770365580692 2806.20748984589 184 185 187
-236.164792284291 529.379647888956 2798.21959102512 172 173 177
-235.344821960332 527.860682179509 2789.57853994922 167 166 171
-233.796998737647 526.475447468121 2781.62934240837 168 167 172
-232.270508329387 525.092823937606 2773.69830235123 156 155 160
-227.736537911464 524.232741188864 2768.4508597039 155 155 157
-220.170581261891 523.891966564406 2765.86547947777 168 168 170
-211.831939467045 523.678593627047 2763.93282056839 161 161 163
-205.767544777465 523.075386941624 2760.00376137526 142 142 144
-200.465200409517 522.342567841099 2755.41277760705 142 142 142
-194.396096152758 521.738180189311 2751.4799596283 149 149 149
-182.937780856637 522.031108675693 2752.1334457154 142 142 142
-169.133038118692 522.703311868733 2754.72083921692 131 131 131
-128.210441750674 527.839661497401 2780.09288762197 82 82 80
-91.753727497724 532.185150501741 2801.40092063153 161 161 159
-92.4604734498766 530.403996277077 2791.43799116039 170 170 168
-104.89563542979 526.724163050559 2771.80262978789 142 142 144
-114.298952222229 523.563567113701 2754.82945354366 154 153 158
-117.510599841074 521.424143025489 2743.07015136603 165 164 169
-118.410679304143 519.668927741354 2733.27493842595 167 166 171
-115.40520245618 518.546805998986 2726.70715685893 176 175 180
-113.202816464789 517.300876066438 2719.51266889928 175 174 179
-111.017430064374 516.057137918949 2712.33321640619 177 177 179
-108.849268836904 514.815569796102 2705.16867952783 178 178 178
-107.494263269988 513.451571122232 2697.38646636994 179 179 181
-107.756904648447 511.841649823582 2688.36076678009 179 179 181
-107.248584467165 510.359766040523 2679.98990930603 185 185 187
-104.35929553816 509.252483037463 2673.52273582929 175 175 177
-99.0705489324792 508.517303136111 2668.94355302845 150 150 152
-93.7826650030411 507.782089697244 2664.36511815744 150 150 152
-90.1122024370107 506.800975394014 2658.54331670632 178 178 180
-84.8300784482858 506.066238224208 2653.96987109673 177 177 179
-79.5487455207313 505.331517758548 2649.39711102005 171 171 173
-71.8250893251957 504.962947962122 2646.67522704241 165 165 167
-64.0900597409124 504.592666835732 2643.94349642938 176 176 178
-58.7989601472971 503.856241818279 2639.3622822777 183 183 185
-55.1497633456419 502.877452432128 2633.55889756343 184 184 186
-52.3320932514841 501.778826323952 2627.15374260828 184 184 186
-47.0536036546987 501.043919855312 2622.58344815388 186 186 188
-44.2557456856485 499.94799181905 2616.19544759612 187 187 189
-38.9849731931573 499.214034795249 2611.63183568097 178 178 180
-32.0534851320842 498.719698993488 2608.27410639437 170 170 172
-21.7838282028135 498.70223951422 2607.3133349914 167 167 169
-6.48179101060009 499.396886418299 2609.92640051892 166 166 168
16.3994003901053 501.155072842771 2617.8734277764 175 175 177
38.5266592916289 502.782912929755 2625.15149920612 180 180 182
50.6439723085697 502.979008564035 2625.23443576049 167 167 169
62.7933978249882 503.170711927022 2625.28988323216 145 145 147
69.9047795462584 502.651139255562 2621.77608166676 142 142 144
78.7177801441095 502.365671549552 2619.43306162092 143 143 145
84.1501887599261 501.60910833836 2614.72950035641 141 141 141
101.49657425196 502.489983112138 2618.21597071219 145 145 145
118.899249362379 503.363067676344 2621.65370331316 148 148 148
147.474734116048 505.741375054911 2632.60145970169 146 146 146
201.873940354402 511.58758268676 2660.84537766795 148 148 148
251.349120926572 516.706799973403 2685.42132481556 135 135 135
260.554026792795 516.36715421392 2682.73866194904 121 121 119
257.689196598721 514.411945086741 2672.00082779771 124 124 122
260.840047171634 513.267401051994 2665.3071908949 116 116 114
264.845658671451 512.239467176286 2659.19552272091 126 126 124
269.711830612233 511.327250404241 2653.66048690265 141 141 141
272.830580498984 510.18759833604 2646.9946411183 156 156 158
279.430340088378 509.505196739184 2642.60207510804 167 167 169
284.28292562009 508.595378588011 2637.07879957575 141 140 145
293.518308451075 508.25276628689 2634.36974045166 154 155 159
296.612956844315 507.117198409645 2627.7247578324 158 159 161
304.10302327041 506.547188869071 2623.88337896668 227 228 230
-237.802588878761 527.122232076555 2826.12086683313 162 162 160
-237.645765155055 525.480755622938 2816.73212175278 180 181 183
-236.771711580129 523.971663828548 2808.04413079606 179 180 182
-233.676622405939 522.850978190507 2801.39866969883 164 165 169
-233.597790313333 521.219226467477 2792.07745975203 156 156 158
-232.795537628955 519.719085573459 2783.45164320593 165 165 167
-230.50871236502 518.477226962486 2776.18425782421 160 160 162
-223.697236958223 518.001119519159 2772.93042969866 145 145 147
-216.878526962407 517.523626325885 2769.6700245616 140 140 142
-210.052124655733 517.044879849592 2766.40327585638 151 151 153
-205.507668191323 516.185480945133 2761.14674014431 147 147 147
-198.672863007251 515.704921895958 2757.87240459589 145 145 145
-192.597552087794 515.0972131074 2753.93422860053 139 139 139
-181.134455934694 515.367789011304 2754.58371579233 134 134 134
-164.240177433765 516.510909532487 2759.78392055406 132 132 132
-117.125324430235 522.521009716227 2790.36997363216 88 88 86
-87.6241897931935 525.631503263181 2805.80405041129 169 169 167
-95.3135368095972 522.750606913243 2789.990339751 170 170 168
-105.411790192509 519.506695076342 2772.29676904595 142 142 144
-113.248083691958 516.645618174422 2756.61029375393 162 161 166
-116.4533478509 514.535666761987 2744.84526781847 164 163 168
-116.562058400516 512.92515931649 2735.68647015738 169 168 173
-115.12506231256 511.56449928275 2727.83285572047 177 176 181
-113.709297013496 510.20663854526 2719.99762463192 177 176 181
-113.106352527458 508.729079123021 2711.54472484972 177 177 179
-110.94153988877 507.499168420084 2704.38269926041 178 178 178
-108.79370224071 506.271476132325 2697.23568764309 183 183 185
-107.4608768951 504.924417980384 2689.47258910526 182 182 184
-106.149559307011 503.580054455339 2681.72779913986 181 181 183
-102.453408588596 502.60167116229 2675.88403065955 170 170 172
-98.7664579476379 501.624354945349 2670.04791378954 153 153 155
-95.894517423162 500.527702512925 2663.59570791222 159 159 161
-91.4194070989378 499.673091208908 2658.3992459687 183 183 185
-84.5191091539243 499.178771541481 2655.06823465941 170 170 172
-78.4232873150317 498.563719224272 2651.11232869917 168 168 170
-73.1386485439183 497.828703271093 2646.53670524381 164 164 166
-66.2224872217445 497.331857998575 2643.19196094131 180 180 182
-60.9353981707113 496.596302460896 2638.6142172368 186 186 188
-58.1100582168341 495.505296992932 2632.20236515659 185 185 187
-53.6529947302746 494.652457335927 2627.02153357565 184 184 186
-48.3765005679246 493.918119026316 2622.45296495431 186 186 188
-42.2743871752007 493.301478585189 2618.49130065646 187 187 189
-34.5120479035215 492.919045728631 2615.73597849925 176 176 178
-27.5687019498903 492.417902909621 2612.36801566058 167 167 169
-16.4554107605346 492.499665693544 2611.99865402967 165 165 167
-3.64514285446216 492.810566998835 2612.80381411499 164 164 166
16.7303491028883 494.162480204872 2618.95515567778 173 173 175
36.3398692331698 495.388393248713 2624.44794816772 180 180 182
48.451823947369 495.563733554875 2624.53597896356 168 168 170
60.5954421830757 495.734667717607 2624.59627888626 145 145 147
71.0814989171764 495.671027733755 2623.44824524487 141 141 143
82.4380375386578 495.718894181142 2622.86827197022 141 141 143
89.5783381190842 495.190298949248 2619.32977936937 141 141 141
103.532859356987 495.574639748205 2620.46595894464 144 144 144
120.938904200069 496.40930267256 2623.90101985037 148 148 148
149.515217515231 498.714107964075 2634.84853439022 148 148 148
224.476447902723 507.127187495609 2677.0144430595 150 150 150
260.253044793796 510.291402297673 2692.30267753321 135 135 135
265.174182400749 509.373976807859 2686.71971923613 120 120 118
261.460424562245 507.331876202869 2675.39498337542 127 127 125
261.161721579516 505.745308455728 2666.40070385547 133 133 131
263.435233421177 504.498805019993 2659.14488779395 138 138 136
268.299363040215 503.589865345379 2653.61128538083 164 164 164
272.28784541833 502.570316720804 2647.5144092957 158 158 160
279.760467256891 501.996705541399 2643.68785810689 142 142 144
283.739920457485 500.978732206836 2637.59879772654 144 143 148
291.219783771744 500.404475180901 2633.76597427556 144 145 149
291.67297416724 498.947001285371 2625.44242607892 217 218 220
296.508123399517 498.043244249638 2619.93422393791 245 246 248
-230.358064573133 523.045249437235 2843.51543775101 116 117 112
-237.572050223207 520.150617641176 2827.28948780104 172 172 170
-237.411548326038 518.528019018928 2817.89743238672 178 179 181
-236.533807961196 517.035191100755 2809.20645607918 176 177 179
-232.68729787335 516.048244233978 2803.2321057081 161 162 166
-230.350846393165 514.811380188951 2795.92167513605 159 159 161
-228.784339960926 513.451394368374 2787.95580505964 155 155 157
-227.238851851415 512.094051712276 2780.0084507041 165 165 167
-221.174196279951 511.486707690734 2776.07919220531 164 164 166
-215.10617581096 510.878641025584 2772.14702191163 138 138 140
-207.512991267188 510.517850654593 2769.53817199344 138 138 140
-202.959910813855 509.660284653098 2764.27414968293 150 150 150
-195.351956270859 509.296876379188 2761.65251503959 144 144 144
-186.198603278917 509.177907379638 2760.33636578347 139 139 139
-173.949210474669 509.547454682049 2761.62727645243 135 135 135
-147.012875141173 512.241031675447 2775.31727599194 121 121 121
-82.078948512466 520.911774636097 2820.87886507665 99 99 97
-80.3963065259881 519.532555494628 2812.81246077334 166 166 164
-88.0617364617371 516.695119466139 2796.97773869559 162 162 160
-102.031767145779 512.895549186225 2776.02695735406 145 145 147
-112.979775914143 509.594628518274 2757.74669321939 165 164 169
-116.964013126561 507.393574834489 2745.33416070213 163 162 167
-117.071192911168 505.802294301273 2736.17391168111 168 167 172
-114.845593881434 504.575845263591 2728.95917791006 175 174 179
-114.216096257309 503.111455821401 2720.482862714 175 174 179
-113.61179314302 501.650481558719 2712.02867788761 175 175 177
-110.652352593942 500.551178006939 2705.50064977315 176 176 176
-109.29729727906 499.215147221912 2697.71789675145 179 179 181
-108.761163732825 497.762912057978 2689.3224247976 183 183 185
-106.650913107975 496.5513606132 2682.20788661128 176 176 178
-102.152534016141 495.697029180874 2676.99125497691 164 164 166
-98.4630299314171 494.725178046458 2671.15288953154 157 157 159
-96.3941108668238 493.518893354501 2664.07414076545 183 183 185
-90.3030876322548 492.902279230524 2660.12208853576 192 192 194
-83.3987261884772 492.402314254693 2656.78790734061 165 165 167
-77.2991603348232 491.784280195522 2652.82846011712 162 162 164
-74.4523410777678 490.699065572238 2646.39795362796 176 176 178
-67.5382331963412 490.19742871189 2643.05533567882 179 179 181
-63.0710734844451 489.346433291148 2637.86574138577 181 181 183
-58.6091016761583 488.495964620999 2632.68032470906 182 182 184
-55.7961412472663 487.415130158755 2626.27913649977 183 183 185
-48.8751603406432 486.912148494515 2622.930570167 185 185 187
-41.9468789043553 486.408093827656 2619.57568315585 186 186 188
-34.1830097765499 486.017549968397 2616.81908757684 177 177 179
-25.5774026734974 485.739808421078 2614.65545734907 172 172 174
-16.1240658433894 485.573852665827 2613.07960579296 158 158 160
-3.31350644837825 485.860460816322 2613.88467065459 161 161 163
16.2242582803303 487.050194404088 2619.43989057406 173 173 175
37.50749693888 488.456906020103 2626.12767673223 182 182 184
49.6218053923077 488.610408012207 2626.21349345765 178 178 180
61.7681793304863 488.759494121477 2626.27186200274 145 145 147
72.2572312743703 488.679371331095 2625.12133911436 138 138 140
81.9231679678465 488.483856195308 2623.36141116038 139 139 141
90.760185524922 488.173782472096 2620.99741868746 140 140 140
104.716861451564 488.530854375512 2622.13190741967 143 143 143
122.124468458689 489.327481057153 2625.56617633032 151 151 151
142.152331840039 490.449176188907 2630.69705102205 149 149 149
271.728507637421 504.146999168789 2700.92321155201 137 137 137
271.51357051388 502.567924861637 2691.85628059329 117 117 115
268.680919332607 500.663537302316 2681.09022640988 126 126 124
264.941934314739 498.655353830466 2669.78682055559 105 105 103
267.226442022419 497.418598222032 2662.5214108156 109 109 107
271.231848949725 496.402287616928 2656.40952912004 162 162 162
275.228824582052 495.387404151629 2650.30526139583 165 165 167
277.471055475485 494.156910944288 2643.07645390986 176 176 178
280.571574899771 493.037110932897 2636.4262804808 197 196 201
287.167823752168 492.35069066942 2632.03678339354 232 233 237
291.130228937792 491.341249124941 2625.96212834149 225 226 228
294.203340277219 490.225851089527 2619.33599747268 204 205 207
-235.857604401864 513.420277599099 2829.8172268829 184 184 182
-237.922155601977 511.445356305936 2818.38588989714 176 177 179
-237.043002481552 509.968926599397 2809.69358284273 174 175 177
-233.195848544094 508.987642096903 2803.71863773179 160 161 165
-228.607102018408 508.129944012939 2798.42370321027 159 159 161
-227.03318664117 506.782943839636 2790.4513273876 151 151 153
-224.725862110022 505.560602217243 2783.16604808358 164 164 166
-220.165974896571 504.706012140238 2777.89610682534 151 151 153
-212.576668726837 504.338026505879 2775.29034954598 143 143 143
-204.214856916027 504.089546265477 2773.33815135997 146 146 146
-199.651342719182 503.233457418507 2768.06476066408 144 144 144
-192.033477528265 502.860779544915 2765.43459617319 142 142 142
-182.103673410256 502.847557497237 2764.76835995895 135 135 133
-165.999347893077 503.79206934466 2769.33095597044 133 133 131
-129.023993434227 507.965427017079 2791.51384115866 118 118 116
-78.5975967897588 512.54320824071 2815.26884366452 167 167 165
-94.0237643438682 508.560935261464 2792.93449514951 156 156 154
-101.770427977694 505.781359913384 2777.16980629914 142 142 144
-111.149838833855 502.774296582398 2760.17491502555 164 163 168
-115.908680974758 500.487009753184 2747.11074285064 163 162 167
-118.365910659405 498.560659260575 2736.01943968209 172 171 176
-116.928433887958 497.228043303788 2728.16554240605 175 174 179
-113.933763091508 496.132828451682 2721.60695247498 174 173 178
-112.534996836148 494.805074127853 2713.78625997831 175 175 177
-109.57069915457 493.713620295082 2707.25397114615 176 176 176
-109.005627111809 492.274427980392 2698.83364815204 179 179 181
-109.263759294852 490.722288438994 2689.80366585322 180 180 182
-106.353121082006 489.637761577106 2683.31784072443 173 173 175
-103.455376256834 488.554933397846 2676.84349526352 153 153 155
-98.9638449077317 487.704406443912 2671.63245864795 168 168 170
-96.0884415440413 486.624325281548 2665.17714402118 190 190 192
-89.9952180105084 486.005041589913 2661.223517525 193 193 195
-83.0893063547764 485.499665494046 2657.88771225678 160 160 162
-76.9875604305703 484.878994534493 2653.9267080878 165 165 167
-73.3242998978145 483.915947641989 2648.11103182052 179 179 181
-68.8539541472322 483.067637233531 2642.91865867427 183 183 185
-64.3887941142904 482.219883224365 2637.73046105758 180 180 182
-59.9283172483904 481.372812044263 2632.54663359819 182 182 184
-56.2948426847161 480.413506985454 2626.75674965378 185 185 187
-48.550269399585 480.017926239595 2624.01691111435 186 186 188
-41.6202143553415 479.50845256442 2620.66052196874 186 186 188
-33.0268506890645 479.221849836099 2618.50756098839 176 176 178
-25.2479604349158 478.821348141305 2615.73801058627 170 170 172
-14.1290744861684 478.864778897781 2615.3640481688 158 158 160
-2.98249748072932 478.904300799291 2614.96611024662 157 157 159
13.2092154374539 479.604805169858 2618.13128475899 168 168 170
31.9679128674033 480.629699357974 2623.03955760086 183 183 185
48.2700466840633 481.314824146819 2626.10912601156 177 177 179
61.2551305723614 481.552836514122 2626.76323912353 146 146 148
71.7429681947044 481.456857707325 2625.61387147866 136 136 138
81.4079747752916 481.248113214957 2623.85483541351 138 138 140
91.9412108137712 481.145840876339 2622.66616011179 136 136 136
105.899949585668 481.475626309828 2623.79903771888 137 137 137
120.751182405912 481.908444235777 2625.48095187291 154 154 154
136.501166510402 482.443534065741 2627.70679964411 151 151 151
273.753783483539 496.741532854866 2703.1859179138 139 139 139
274.406764979672 495.288323542268 2694.68917595424 117 117 115
273.309440729185 493.624446152713 2685.06401477662 119 119 117
271.314412248051 491.858439789133 2674.89464256235 107 107 105
272.74880757849 490.523911000256 2667.04311296434 100 100 98
273.293821718601 489.086199993397 2658.63984976368 108 108 108
274.684706696156 487.758121924922 2650.82630586449 113 113 115
277.800445808663 486.644566489899 2644.16290051958 108 108 110
281.778300373309 485.638344280397 2638.07483407403 141 140 145
289.255189757356 485.054179590315 2634.24496795002 169 170 174
291.466329947433 483.839820706234 2627.04300334337 152 153 155
293.660858341968 482.627968445535 2619.85542053403 171 172 174
-234.886577462353 506.551438140479 2831.6669504391 193 193 193
-237.6888505803 504.482434328575 2819.5523723416 171 172 174
-236.060316127294 503.142750633867 2811.53260879173 169 170 174
-232.208240127585 502.166544596006 2805.55368015678 162 163 167
-227.615107368793 501.311197980105 2800.25461317895 164 164 166
-223.778828024972 500.336580326218 2794.2893657807 145 145 147
-222.214703720632 499.004462949389 2786.32537979195 148 148 150
-217.646196890193 498.151646477952 2781.04795610884 162 162 162
-210.048859256232 497.774726399386 2778.43561107901 145 145 145
-200.919159302537 497.633071964064 2777.14010976352 124 124 124
-194.05719150736 497.133486335672 2773.84267020925 130 130 130
-186.423347929705 496.750631881583 2771.19872262073 133 133 131
-174.944991325526 496.954625287467 2771.8354144873 134 134 132
-151.136071345022 499.033179857549 2782.94636817343 124 124 122
-64.5881060124252 508.993855242116 2837.55662111565 115 115 113
-84.5483601840011 504.370527319402 2811.21608624157 171 171 169
-93.7687435093406 501.394208366077 2794.0831608665 157 157 155
-103.06749755018 498.428645570751 2777.01840802023 140 140 142
-111.664205150047 495.589375434392 2760.66729326848 166 165 170
-117.20325780273 493.222142096716 2746.95661477174 168 167 172
-117.305287148131 491.669093957677 2737.79165393307 173 172 177
-118.224024103543 490.004970700471 2728.01170632079 177 176 181
-114.441396462641 489.033086939616 2722.09294306625 176 175 180
-111.45906910629 487.947918461279 2715.54498653764 174 174 176
-106.903478308175 487.092469720899 2710.27877470117 177 177 177
-107.919654386528 485.441109420596 2700.58319837487 181 181 183
-108.172015862776 483.907707875079 2691.54840848721 176 176 178
-105.256587760567 482.831039787935 2685.05838086408 163 163 165
-101.552892406894 481.868985240453 2679.20765185368 143 143 145
-97.8580804530167 480.908059401384 2673.36493060398 190 190 192
-94.1724439762495 479.948227268543 2667.52983947 193 193 195
-88.8808502225649 479.213592173129 2662.94818541329 175 175 177
-82.7803687364859 478.590815822845 2658.98829082127 160 160 162
-79.1116589331322 477.632903913662 2653.16785820047 178 178 180
-76.2654699243561 476.564931555059 2646.73778623985 185 185 187
-70.169810599217 475.942423098649 2642.78175393925 185 185 187
-62.4354711897239 475.540674906653 2640.05082543289 179 179 181
-55.5093992157043 475.026916800741 2636.69791632063 182 182 184
-53.5066857052438 473.851436506565 2629.67635067478 187 187 189
-48.2258584879696 473.117532722819 2625.10402362325 188 188 190
-42.945844746245 472.383648661797 2620.53240151243 188 188 190
-36.8388338920367 471.759132388439 2616.56654344425 175 175 177
-28.2387663996375 471.460907220989 2614.40784733053 169 169 171
-16.2952206922853 471.59523847899 2614.64211000565 159 159 161
-3.4861642948254 471.833489101473 2615.44847541442 153 153 155
11.0311593422594 472.283031005464 2617.42000780077 161 161 163
27.268524190184 472.941994634188 2620.54588332973 184 184 186
50.2787148184454 474.454133191091 2628.38269671618 177 177 179
64.9523226619899 474.881827347797 2630.21859802433 150 150 152
72.0726289337703 474.340563976622 2626.69751729933 136 136 138
80.8925498044766 474.011682814474 2624.3484650117 138 138 140
93.1211146026221 474.106372511199 2624.33594827424 133 133 133
108.78247222262 474.6211269035 2626.63842806649 133 133 133
124.492170352524 475.12930357382 2628.89936753786 150 150 150
137.686933224322 475.314105621954 2629.37208914221 155 155 155
271.485481396839 488.794102329075 2702.55659915624 139 139 139
273.856441328152 487.567502635541 2695.21619235595 118 118 116
274.485605178234 486.134508554093 2686.73996301113 118 118 116
273.360707162024 484.496734247165 2677.13884737161 97 97 95
274.802226608437 483.175319293174 2669.28105806824 101 101 99
275.35437572869 481.753325706577 2660.87150887455 111 111 111
276.752286420833 480.438254952509 2653.05179124828 121 121 123
279.874512357608 479.332239934184 2646.38271467751 131 131 133
283.858661381352 478.330949055933 2640.28916064287 172 171 176
289.587856016588 477.535914377303 2635.32861356354 153 154 158
293.559144442174 476.536766912153 2629.24650789507 142 143 145
295.760112773668 475.335164006552 2622.05296143197 170 171 173
-236.884058525094 499.19708911818 2830.7990581826 191 191 191
-238.200174985026 497.394957526321 2820.04148260873 169 170 174
-234.332600767213 496.422600797296 2814.04878065461 166 167 171
-229.725802086703 495.568729707305 2808.73817488261 160 161 165
-227.373967039886 494.363360133353 2801.41420673545 161 160 165
-224.28720815739 493.277063116665 2794.77574296234 151 151 153
-220.459455514432 492.308961325126 2788.81752822641 146 146 148
-214.372100537885 491.691104512021 2784.86866346047 155 155 155
-208.281242553392 491.072588538738 2780.91708229583 162 162 162
-199.906360744203 490.800856752551 2778.95339103018 148 148 148
-191.515943029668 490.52676323474 2776.97624954101 119 119 119
-181.58108115214 490.480820949083 2776.30584161276 123 123 121
-170.089758070694 490.661419288808 2776.93144656802 135 135 133
-140.123108367683 493.591267966528 2793.28679167492 126 126 124
-99.7920940004695 494.867978606345 2799.34610537536 170 170 168
-99.7275292763451 493.312287371959 2790.0367685958 156 156 154
-105.92199479097 490.853750479351 2775.57149076226 138 138 140
-110.617272766771 488.62970688784 2762.45181542292 166 165 170
-116.149336446465 486.300158915359 2748.73483512998 168 167 172
-117.815547694894 484.54078123039 2738.28010673408 173 172 177
-117.945500955317 483.010896766817 2729.13919845507 178 177 182
-114.160457981069 482.044414605058 2723.21799122896 177 176 181
-111.966277355935 480.855785127438 2716.03055935965 174 174 176
-108.203468890998 479.891997889789 2710.12860611879 176 176 176
-109.219816879342 478.262900707364 2700.43335004036 183 183 185
-107.878579236934 476.970651089363 2692.662289589 177 177 179
-105.759452327978 475.791680062832 2685.53984688627 158 158 160
-102.055265653412 474.835368307078 2679.68865481696 150 150 152
-99.1630527129264 473.77023290168 2673.21898938973 196 196 198
-95.4790116384849 472.816394639651 2667.38524220787 186 186 188
-90.1892925034691 472.082431205168 2662.80520859816 159 159 161
-84.0911123270676 471.457577075157 2658.84700658518 168 168 170
-80.4237477437231 470.505707427323 2653.02801627376 184 184 186
-75.9522047035683 469.663471686216 2647.83425051676 185 185 187
-71.4853940311495 468.821865513933 2642.64489790621 181 181 183
-63.7535527958546 468.412638609424 2639.91618311947 180 180 182
-56.01038300057 468.001706412106 2637.17766051293 182 182 184
-51.5420251812961 467.15959245236 2631.98697022506 187 187 189
-46.2549853637921 466.425211325383 2627.40926158281 188 188 190
-42.6201804581039 465.477195309286 2621.61815142988 188 188 190
-35.6834358129472 464.956520313913 2618.25603675153 176 176 178
-24.5908644366954 464.966036093232 2617.9051018898 176 176 178
-10.9751725069027 465.289589820022 2619.33535090722 161 161 163
2.68040390178115 465.607592585252 2620.73106658353 151 151 153
13.8684233713082 465.603745193151 2620.2974900222 155 155 157
31.7870219249499 466.437023475323 2624.61157204807 186 186 188
53.1257408636217 467.681278065802 2631.25232417882 193 193 195
65.2797297636578 467.764781363553 2631.304517541 167 167 169
74.9334303663174 467.531029890252 2629.55544281916 148 148 150
85.4528490711921 467.398549307884 2628.37893924731 140 140 142
99.3881121344247 467.677658582172 2629.53249247769 133 133 133
111.663126867983 467.744361861862 2629.47958175142 131 131 131
125.674468512538 468.013008170744 2630.56757825388 133 133 133
142.287988275802 468.584701800877 2633.3676767959 162 162 162
229.1609817562 477.56068044117 2683.73249888973 172 172 172
271.792228790603 481.163777280539 2703.66343573263 151 151 151
274.165983111172 479.948059862662 2696.32053641731 122 122 120
274.798251725105 478.531385842965 2687.84151030766 125 125 123
272.812686247005 476.813900434239 2677.66362175152 117 117 115
273.388812844635 475.405176404834 2669.23320442926 110 110 108
275.676823943354 474.201814619534 2661.96454178152 109 109 109
276.207033853461 472.799723406113 2653.57387912198 121 121 123
281.074542788741 471.90284484376 2648.0372695777 127 127 129
285.063349274125 470.906727950477 2641.93996073893 151 150 155
292.549280330706 470.310993043276 2638.10201733478 143 144 148
295.650542364099 469.216956103481 2631.45134882722 169 170 172
298.73893655104 468.124899386989 2624.81150499996 181 182 184
-234.431007158459 492.546751371101 2834.00967925757 180 180 180
-234.249800622544 490.998924762511 2824.59887835127 170 171 175
-231.860640481637 489.800266251388 2817.24251571557 165 166 170
-227.992940323986 488.83333445719 2811.249984964 162 163 167
-226.383880871519 487.523641470703 2803.24690675659 162 161 166
-221.788381289686 486.673717437361 2797.94606874253 150 150 152
-215.689954098921 486.052213610254 2793.98763092327 147 147 147
-210.344155428281 485.316207387759 2789.3590044016 148 148 148
-203.482969687718 484.80693569077 2786.06230544814 151 151 151
-196.614592000927 484.296313929688 2782.75906621198 152 152 152
-187.452178009073 484.123117663338 2781.43573036842 155 155 155
-179.034436870963 483.834295460105 2779.43500212816 134 134 134
-169.068588041459 483.767741360666 2778.73787025988 134 134 132
-96.4427086153616 488.136036182241 2803.1036312106 168 168 166
-105.68390950069 485.267291618576 2785.98805207833 157 157 157
-106.440082376104 483.626032778115 2776.06737168548 138 138 138
-110.3521661289 481.547887752416 2763.59118920723 166 166 168
-114.314218090489 479.476382191648 2751.15827294773 169 169 171
-116.756911265128 477.631136165423 2740.05384490448 170 170 172
-117.667897515931 476.010456788402 2730.26721347334 177 176 181
-114.668914549681 474.940262548277 2723.70472389552 176 176 178
-113.264475503388 473.653866436625 2715.87916209765 172 172 174
-110.295955309526 472.587445290147 2709.34305124988 172 172 172
-111.314822850146 470.980942878712 2699.64951703044 179 179 181
-108.382739138038 469.919249029778 2693.14495635809 174 174 176
-106.262678233287 468.751410820904 2686.0216319867 147 147 149
-101.756828923684 467.908439857518 2680.79845202996 161 161 163
-98.8620443695725 466.851439768613 2674.32618946287 195 193 196
-93.5652543300196 466.116973231018 2669.74003050616 166 164 167
-88.269302366363 465.382499786027 2665.15459798471 174 174 176
-83.7832843008766 464.54166055071 2659.94859266642 178 178 180
-79.3024093102415 463.70134202883 2654.74672614888 187 187 189
-75.6394643409814 462.755846592673 2648.9315251708 183 183 185
-71.1705269158043 461.916956062258 2643.73999611691 176 176 178
-64.2543366795896 461.394437924977 2640.39570862722 180 180 182
-57.3309399431619 460.870799561993 2637.04518226385 183 183 185
-51.2217104887864 460.241373271177 2633.0774330722 186 186 188
-48.4028532569343 459.193849852353 2626.67091803544 188 188 190
-43.9461116330135 458.356294571775 2621.49026638127 188 188 190
-37.011914235332 457.830820153592 2618.1300750814 176 176 178
-23.4339947384816 458.132691632255 2619.59320332568 176 176 178
-8.15288846483542 458.635557219813 2622.22565318038 162 162 164
7.17620754904535 459.131660525676 2624.816552422 153 153 155
16.7037680221056 458.902110836588 2623.17678065687 152 152 154
32.9524501858423 459.489214036621 2626.29331271879 178 178 180
50.0929334132918 460.171178762708 2629.95953491042 190 190 192
64.764559244662 460.539784897541 2631.79785250446 173 173 175
76.1049248472854 460.496017701842 2631.23249075488 154 154 156
89.1647883367455 460.650958143944 2631.82232800675 139 139 141
103.956097324862 461.002975024112 2633.55670389281 132 132 132
117.941603218456 461.248159641641 2634.66692968878 130 130 130
134.52290824214 461.789150522698 2637.49546437097 127 127 127
149.448446571214 462.122641388387 2639.11361891145 156 156 156
206.361600068996 467.343887256528 2669.15244080927 170 170 170
272.098547541587 473.527363879085 2704.77099879465 160 160 160
276.195067773965 472.521180335717 2698.58008029894 120 120 118
277.696722419779 471.219296605501 2690.67035860674 121 121 119
273.992425052042 469.327890851606 2679.33613099673 120 120 118
274.573671521669 467.935185563208 2670.90117229554 122 122 120
275.998311437654 466.644302327843 2663.05813075447 112 112 112
277.401824085861 465.356361909104 2655.23306639342 122 122 124
280.529200498181 464.266780713562 2648.55941922879 144 143 148
285.392486494735 463.373756853902 2643.02676039157 152 151 156
290.251166059045 462.481503064864 2637.49808912467 133 134 138
295.983739229478 461.686851800197 2632.53461126292 174 175 177
296.433441678861 460.313478670427 2624.2135412195 174 175 177
-230.721716576155 487.633727503886 2848.03019368666 185 185 185
-233.462904004083 485.647741518678 2835.86181695549 179 179 179
-231.788758708623 484.343977632224 2827.80260360061 171 170 175
-230.135988870378 483.042860612498 2819.76158445821 162 161 166
-227.756769524747 481.856440126546 2812.41375856439 159 158 163
-226.894033498987 480.448373357892 2803.73492228965 155 153 158
-221.546465756505 479.713027184394 2799.10475817269 155 153 158
-214.692069810183 479.200088587121 2795.81396793956 149 147 150
-207.074537828093 478.796793867352 2793.18429065066 142 142 144
-199.445526943264 478.391683778632 2790.5446759478 129 129 131
-191.045127159245 478.095166028 2788.55902794979 109 109 111
-182.629151013056 477.796221211191 2786.55989508626 140 140 140
-174.961565503758 477.384987983839 2783.88688604791 151 151 151
-166.516496570136 477.08149639258 2781.86256688299 134 136 135
-92.3213890728429 481.484466164776 2807.51483402167 166 166 166
-100.770240099868 478.77404121083 2791.0347317436 155 155 155
-109.293433812069 476.073740124695 2774.61931485292 148 148 148
-112.428663932207 474.136890173776 2762.79246619691 169 169 169
-114.827598765044 472.313426303152 2751.64965456419 169 169 169
-117.268175889999 470.495652545904 2740.54321444364 169 169 169
-116.604334228619 469.110560663672 2732.03693369869 174 174 176
-115.966122384537 467.72874847544 2723.5525304723 178 178 178
-113.772133704717 466.562691991033 2716.36511869534 173 173 173
-112.38813236828 465.292889708607 2708.55684795395 173 173 173
-112.614677873213 463.814580163147 2699.49932543848 180 182 181
-108.887186576 462.867017343727 2693.62787772171 166 168 167
-106.76618511755 461.710400898603 2686.50366542131 158 158 158
-101.459285116483 460.975201642016 2681.9087485456 176 174 177
