ply
format ascii 1.0
comment KinectMotionCapture
element vertex 802
property float x
property float y
property float z
property uchar red
property uchar green
property uchar blue
end_header
1.66707842666924 213.703561299128 3610.36886199259 26 23 16
24.4925581288691 213.224090275581 3585.08993870231 15 16 8
51.5158010611734 212.828128578086 3550.72117396477 20 21 13
66.6254413699703 212.253023224269 3540.66016855154 23 26 17
64.4259523889055 211.385402936741 3566.74819151453 25 28 21
167.78823791285 210.804018989337 3411.16696172406 22 25 18
173.858282991568 210.113599562029 3419.02446840882 23 26 19
169.082080057165 209.200940013355 3450.54290281404 28 31 24
174.438682803675 208.483983478128 3460.26961640152 27 30 23
180.65763980902 207.781999348345 3468.18724690299 29 32 25
207.840636669078 207.540914792413 3429.56650167431 25 28 21
221.734104512407 207.021525476716 3420.09146246189 19 22 15
225.825509634439 206.280343141033 3432.54251453416 19 22 15
223.924004316373 205.389980919891 3458.75136135254 20 23 16
239.366932608335 204.914509357387 3445.58786503288 22 25 18
243.578679953853 204.164024165295 3458.08771333347 25 28 21
251.794731813305 203.512424238816 3461.41927357536 28 31 24
256.868784150256 202.776992133702 3472.11027545691 29 32 25
269.788558105824 202.252144481828 3464.39890936158 26 29 22
267.526949662737 201.30756457419 3492.62023744001 24 27 20
275.031830141855 200.629423208834 3497.8219241098 21 24 17
292.878175432337 200.255390256673 3478.07835677486 21 24 17
322.380602439291 200.247726486266 3429.60611002953 19 22 15
313.404382634984 198.171257376959 3498.2727313213 22 25 18
325.001700853527 197.626969012032 3493.26274126281 22 25 18
332.114037537128 196.938829600226 3499.38437365182 19 22 15
305.073068027818 195.08737727174 3592.0227511778 15 18 11
335.889225993205 193.271294086808 3588.33035273074 19 22 15
-95.2791420658341 210.219950472012 3611.0611585593 144 127 117
-82.7080274862799 209.575349735785 3607.52476301775 139 116 108
-76.601288823466 208.822184780753 3616.47641041261 81 51 43
-75.4833059176454 207.976546418901 3635.27650806337 84 54 46
-73.3704145609282 207.140833391757 3652.32174559153 72 45 38
-64.8619380025917 206.419336487187 3656.85104446936 67 42 37
-48.7179569012814 205.84690695946 3646.12975067595 124 114 105
-54.0742363366466 204.849277012716 3678.49302563076 121 117 108
-21.9949408941906 204.61111353091 3635.3813716159 114 111 104
7.17451749517406 204.337566198003 3597.56517667073 12 12 4
35.160610188391 203.179812351027 3583.01212710922 22 23 15
78.113293713856 203.278302561021 3515.17060160264 17 20 11
80.5793198789295 202.459836109569 3531.27962482297 24 27 20
157.289148720192 202.587834002398 3411.29397823093 24 27 20
173.94083861173 202.153858311816 3396.46171289356 23 26 19
163.014038039776 200.133138018807 3462.18026175327 27 30 23
171.313004723287 199.474094680724 3465.54545004007 28 31 24
176.719448363049 198.733795735605 3475.29252078185 24 27 20
197.35966766817 198.427887204247 3451.28510174187 21 24 17
214.174103182791 198.025967861223 3435.43967983453 18 21 14
217.089590799881 197.217185512191 3450.65180527183 19 22 15
244.351207806519 196.252979722876 3432.56727193022 23 26 19
247.331229780216 195.439360902203 3447.80556353124 23 26 19
253.937211204391 194.737780931496 3454.80108627595 23 26 19
259.384812482922 193.99501111912 3464.56458295653 22 25 18
271.163006817133 192.528480465741 3482.29133307394 22 25 18
275.556599732852 191.736408543238 3494.86512457592 22 25 18
287.274826964153 191.206953527779 3489.90372006231 23 26 19
298.186840211215 190.652752350951 3486.77394629071 22 25 18
304.530417748704 189.928282012303 3494.74220520363 20 23 16
308.648021682382 189.114091749016 3508.28348373959 20 23 16
310.958137185562 188.221419098385 3526.48781581166 23 26 19
335.148432443694 185.19731414749 3563.27722134436 22 25 18
-79.6884255242549 200.085753778618 3600.18832744687 142 117 110
-74.0623160214435 199.306641744052 3610.02437630916 116 87 81
-71.5956757769798 198.448278395744 3626.13395057349 82 53 47
-69.5111651432374 197.573135032442 3643.16799581884 74 49 42
-65.5434743716643 196.737270712291 3656.64848263257 80 57 49
-64.2128480026363 195.827823406685 3675.53516177211 106 97 88
7.83246634412382 194.915020129308 3594.66631418019 12 12 4
45.4065208359666 194.09941112491 3560.25718943738 16 19 10
83.5393904074246 194.278837892815 3502.33146035422 16 19 10
79.0673346833046 193.217544041634 3532.89536027797 22 25 18
191.26241249215 192.138197669593 3399.23526460612 25 28 21
191.065944046599 191.209861482568 3420.74045868453 26 29 22
183.942288235601 190.029551589945 3457.78407527844 23 26 19
196.321108556183 189.51839818058 3452.01119337022 21 24 17
211.100072389373 189.099875019191 3440.73604717036 18 21 14
210.375372730474 188.119530735884 3464.1856318868 18 21 14
222.669299037358 187.615452446667 3458.3780661388 19 22 15
233.309495651967 187.054037795808 3456.2173557812 20 23 16
239.937164514047 186.339524078766 3463.2217576504 19 22 15
252.521058082343 185.859905371463 3456.45286128202 18 21 14
263.476794562862 185.320962890946 3453.34041785512 17 20 13
265.803092771008 184.429300771844 3470.47248638704 20 23 16
267.429597866504 183.498974449715 3489.47912298765 21 24 17
283.408238662946 183.174871370636 3474.37351202719 22 25 18
283.964639509824 182.188194362934 3496.18397976515 22 25 18
288.427487131278 181.363265536852 3508.78606105407 22 25 18
298.232354729405 180.774799164092 3508.44495321681 22 25 18
306.139953619168 180.101192607456 3512.73059798039 24 27 20
302.866519483222 178.900120390472 3544.85993616013 25 28 21
302.342799070318 177.811120248858 3570.54933582049 20 23 16
330.150200086911 177.022216107949 3549.44777616914 13 16 9
320.363088892081 175.442523141462 3599.44128327338 14 17 10
334.241046237237 175.050397297046 3588.87993397758 23 26 19
-78.9744922826787 190.573964825646 3597.31280907771 112 93 86
-71.9795276296995 189.816296095359 3604.46625351829 81 58 50
-66.3335298998662 189.016039152205 3614.31051525569 90 65 58
-63.8307358911776 188.115951528159 3630.43530140865 95 72 64
-62.1593147050159 187.182110169399 3648.38134271634 85 65 56
-59.5073780601376 186.270390996109 3664.56634660535 134 127 117
-13.5866700502671 184.765634952983 3636.77862804597 91 91 83
44.8948503359277 185.762971603001 3538.53549938215 10 13 4
85.7806247117836 186.210206672089 3475.2490087577 13 16 7
54.254148395789 184.118187722073 3561.75756992944 15 21 11
96.1063022337263 184.63879884226 3495.62486446096 21 24 17
119.98403299591 184.539441834038 3466.45361922233 22 25 18
137.710811916818 184.229517656314 3449.89809326622 18 21 14
156.598196365358 183.97737961821 3430.5751113937 21 22 16
135.337621662067 182.169280514218 3497.5025317499 26 29 22
188.131783908741 183.269946608099 3404.50827747213 19 22 15
198.767960934008 182.724554534726 3402.34556093791 16 19 12
172.971202780403 180.677722415607 3480.3848488542 18 21 14
191.993415853455 180.465419186101 3460.03734805781 21 24 17
205.980960158453 180.053764918681 3450.59958313709 20 23 16
210.558560251944 179.240851654575 3462.1692276723 19 22 15
209.532974359451 178.173858620704 3486.576450598 16 19 12
223.059854577218 177.749208543437 3478.03107269438 13 16 9
239.227165492487 176.416403452084 3485.6660129877 15 18 11
265.60662822502 176.619467501043 3446.71655594822 19 22 15
280.02792121091 176.274069175486 3435.2960370855 21 24 17
269.517485017847 174.712542987528 3482.83892102745 22 25 18
275.838257294783 173.961943668947 3490.79840152875 22 25 18
283.334277650074 173.267962916123 3495.99636362876 20 23 16
295.408601245311 172.8097985972 3490.09979150706 23 26 19
301.003881965339 172.017310818121 3499.92345939772 26 29 22
301.751926335712 170.960695343132 3521.81205235752 29 32 25
309.316549069065 170.26175961934 3527.0380858591 26 29 22
295.771523585067 168.392942287055 3585.22227649863 23 26 19
300.925135994325 167.536208345921 3597.02547649558 20 23 16
310.144277612948 166.906047943299 3598.60514466779 12 15 8
320.804726004344 166.361303267498 3596.45225053097 13 16 9
324.947829966267 165.435404787247 3611.08350870925 20 23 16
-65.6356056624861 179.491329210239 3611.42861289152 94 71 63
-62.6887397836693 178.569751494724 3626.65429812321 109 86 78
-61.4826461289515 177.575748914388 3645.49145297992 110 90 81
15.7791576673785 176.384335167098 3575.36781646565 131 132 124
21.8418547095056 175.584918357622 3584.30198229621 14 17 8
56.7574255652183 175.971991843626 3533.70299741132 27 30 21
51.4273167839419 174.707590331964 3566.07863350807 15 21 11
72.1573604123336 174.535329583937 3544.26470142747 20 23 16
109.480508895992 175.100570909875 3487.08674855008 20 23 16
142.625445269438 175.523534043826 3437.92844776525 18 21 14
169.680522576783 174.690546819257 3421.91690964594 23 26 19
151.065060238497 172.795703275276 3483.44286870415 14 17 10
184.825025099376 173.328502042327 3431.2958171968 10 13 6
190.133298124539 172.537652380697 3441.00326528511 12 15 8
198.768096802824 171.904297069988 3443.42542671986 17 20 13
201.266521699663 170.967978041572 3459.54846124796 18 21 14
209.523913407323 170.312168834798 3462.89679160723 17 20 13
200.018269827072 168.748542410504 3506.53103509104 15 18 11
194.347012806963 167.354815904745 3542.00620458353 12 15 8
225.926903642448 167.903597834414 3492.21327425657 13 16 9
231.466283512244 167.09530476414 3502.01442808811 16 19 12
248.454756387201 166.906085111518 3485.15879510152 18 21 14
261.42155600908 166.509424296959 3477.46524051807 20 23 16
273.55062765187 166.074030855443 3471.5906628966 21 24 17
280.611776417355 165.356203356443 3477.69179468718 23 26 19
286.538051737289 164.570561373418 3486.57061991781 24 27 20
296.303569188007 164.00709069269 3486.21339002362 24 27 20
292.05059836685 162.607387518529 3520.10524258234 26 29 22
306.379048789992 162.314139652202 3508.6467371363 27 30 23
316.147172552138 161.750865966999 3508.29056102601 24 27 20
309.212772159049 160.143051841365 3549.72927873931 24 27 20
292.311644509754 156.641869418537 3642.17022122735 13 16 9
310.597481856774 155.352563741926 3646.34711837632 17 20 13
327.068117548162 155.206278780084 3629.28174856966 18 21 14
-69.5078234973472 169.792061422742 3617.48672576449 123 109 100
-69.273567608424 168.717097819555 3638.08836310563 88 71 63
-78.888165422111 167.204650936972 3678.44142220716 127 113 104
39.5054001486028 165.938521422373 3567.79136424218 16 19 10
59.8469047398966 164.70773028936 3568.48465319577 17 20 13
90.8120812610567 165.130371873649 3524.91689158672 18 21 14
102.737574971074 164.625512711139 3521.1182867446 16 19 12
152.801585237823 166.082366361989 3435.64689303415 22 25 18
161.467279664941 165.448595626502 3438.08156708791 20 23 16
179.34937664919 165.302903828131 3420.50861811059 12 15 8
173.786111805079 163.914150617876 3453.86985888836 8 11 4
187.023395747997 163.527681395891 3446.28574424408 9 12 5
192.792860415332 162.736328651786 3455.10112123648 13 16 9
205.136960218748 162.31018547332 3449.31353688204 12 15 8
201.579410716496 160.984479747255 3479.17090993396 13 16 9
199.785146117627 159.740712932048 3505.42585647159 13 16 9
206.948168193428 159.00560868179 3511.56836699812 14 17 10
213.727956776659 158.245657850973 3518.63470546753 14 17 10
239.946589677456 158.659102194857 3480.69760031128 14 17 10
236.799289830752 157.301565638676 3510.72132181636 16 19 12
288.86007398313 158.214481375364 3433.61470208857 15 18 11
287.707540476353 156.976216606363 3459.05063115951 20 23 16
290.896557954223 156.003256770178 3474.37475132357 24 27 20
289.197835726541 154.697796360008 3501.74791528218 26 29 22
288.009657528884 153.407387363635 3528.24887267885 25 28 21
304.995817007375 153.335286747058 3510.31260714063 23 26 19
325.973190319318 153.556245561102 3482.12221606259 21 24 17
315.621344432017 151.607900941234 3531.89011758936 23 26 19
318.726536955743 149.314059364052 3573.0835055733 17 20 13
286.088426219696 145.643235344117 3681.81045511283 15 18 11
315.71320347164 146.508841190814 3631.22325445743 15 18 11
16.9940584402692 155.415561772111 3612.70070792355 19 22 15
65.6856383980178 154.569198455828 3576.32011763854 13 18 12
107.642492347722 155.77523721986 3509.14580100677 9 14 8
113.554980517981 154.955038593583 3518.01930584793 21 23 18
138.904092140777 155.268701101807 3485.12519193834 17 20 13
159.857753736033 155.349622200928 3461.24175140176 9 12 5
171.490301690027 154.890478284281 3457.3241883857 9 12 5
168.169960710869 153.523709064186 3486.19885137117 9 12 5
185.16595910816 153.395570481623 3470.42486780744 10 13 6
197.145828027027 152.967523607608 3465.56863151667 9 12 5
180.209199519335 150.703638704068 3525.61926223933 9 12 5
216.928727180866 151.861574143894 3464.95599066999 9 12 5
220.365291834984 150.890205930337 3479.30152072753 10 13 6
222.267107689881 149.80808080825 3497.34171393114 11 14 7
240.902664352178 149.841689861547 3476.83605196704 13 16 9
232.618216061558 148.055549829047 3518.80830463965 8 11 4
238.637867433973 147.228915666653 3527.72524788309 8 11 4
299.907906983265 150.279411573129 3405.7814778624 8 11 4
301.378767758795 149.174085824728 3424.72642162656 14 17 10
288.735653569653 147.036316080306 3477.8832731867 19 22 15
278.273002862665 145.016602199779 3526.52778621521 23 26 19
275.633523912586 143.539807937935 3556.75802475081 20 23 16
311.135520954202 144.912423673856 3493.44228291266 17 20 13
310.402383889859 143.575573214454 3519.04876988973 18 21 14
327.60396004489 143.608183152656 3500.1201232195 18 21 14
330.30956421049 142.522368987401 3517.40724167063 20 23 16
292.693743507809 136.842816086937 3662.97389991996 15 21 11
336.515896343589 137.674580711249 3600.873413538 12 18 8
26.8216723411876 146.56002162784 3590.85376584153 0 2 0
32.9378570732903 145.706177578666 3599.81000100313 12 17 10
89.060698925679 145.509732205503 3547.01325996233 13 18 12
104.419400397539 145.263587316881 3535.97153885201 21 26 20
124.407218035439 144.100076093747 3536.52111249615 11 14 7
129.580151655696 143.200457941127 3547.25339519548 8 11 4
134.37971741306 142.26969181315 3558.91380535077 8 11 4
173.413636165347 143.679714701091 3494.86995658534 9 12 5
174.820028254884 142.531130346707 3513.78912532292 11 14 7
189.617317732194 141.050416709389 3525.18622175827 10 13 6
224.154068039963 142.269725725151 3469.03299182408 10 13 6
232.736863033311 140.369225979509 3494.10021631468 11 14 7
235.528181056271 139.29451508572 3510.3431473973 9 12 5
279.453224533711 140.07439171828 3452.59994657891 13 16 9
301.922497131691 140.546226469525 3421.77528896931 16 19 12
281.197353745789 137.621487646497 3494.322520674 19 22 15
275.729613935307 135.862570138707 3530.96192626353 21 24 17
280.296408480609 134.89174890005 3543.60720075149 18 21 14
312.389268213804 136.184791427419 3488.62177144084 16 19 12
334.068754841951 136.659170540587 3458.55612393545 18 21 14
318.807017916749 134.033025716662 3520.36646038948 16 19 12
-35.9597189078555 133.028547483716 3718.73840651886 16 19 10
23.1412184521791 135.658255852178 3618.57608618768 14 19 12
95.2475019774963 136.741476859284 3532.32249732149 8 13 7
104.621612394476 136.122538049624 3533.96482620757 11 16 10
116.519582195759 135.685575907778 3530.15456248854 13 16 9
117.884908315589 134.492573691257 3549.0574405807 10 13 6
141.447167756114 134.913500727946 3519.7545196238 8 11 4
152.802892960359 134.456459487852 3516.80366523981 9 12 5
160.414778617952 133.723567805187 3522.04883531553 8 11 4
175.40922930755 133.551302758751 3510.85932887703 10 13 6
167.936836165522 131.659431828596 3549.92449669089 10 13 6
188.976622223252 131.963100377613 3524.99568805828 10 13 6
250.555867453546 134.207943985725 3429.07641588332 10 13 6
200.7514296482 128.861650338745 3566.46878159743 11 14 7
213.598762113586 128.542483197083 3559.80533359625 14 17 10
252.640905137924 130.411772235794 3491.44584386804 18 21 14
283.112832056768 131.62392888636 3442.27808673086 18 21 14
267.889472717697 127.610604160711 3524.61337452752 15 18 11
268.604674242448 126.280851072834 3546.49073996004 15 18 11
292.167781395204 126.959301527506 3512.87072047837 13 16 9
299.411883274083 124.794678837038 3542.79221751794 17 20 13
293.284515210664 122.798689497148 3582.40302288951 14 17 10
305.802677824467 122.507484813095 3575.60608439558 12 15 8
333.582168032481 122.217396910885 3554.48944296413 23 26 17
302.571910345824 116.213230340527 3685.47089101855 18 21 12
10.2908780243993 125.272609371125 3643.66073765221 4 7 0
62.4244240254417 126.443639447961 3578.44928350309 7 12 6
83.4852520953948 126.696023800596 3555.687256866 7 12 6
112.049385684132 127.549069266145 3516.53836555381 12 17 11
112.07230761997 126.216091708722 3538.13545631734 12 15 8
128.993321528829 126.199773679667 3523.40907263864 8 11 4
135.796643859391 125.392074741324 3530.4855589001 9 12 5
142.620892582864 124.5829175304 3537.57027193681 11 14 7
169.668192764512 125.4245687497 3499.96518538411 9 12 5
191.723432685364 124.535346968896 3494.87640133663 9 12 5
191.168816940953 123.116616301426 3518.39817467645 10 13 6
212.844006141571 123.588173569413 3491.56749021861 11 14 7
231.15525758931 123.795391876263 3472.00775437274 12 15 8
202.089050175789 119.856168792298 3561.6843358406 14 17 10
240.56994696355 121.851590506859 3495.25451894252 16 19 12
240.250400331067 120.41519758586 3518.87134675181 17 20 13
256.789044537125 120.498087115106 3502.91058417501 17 20 13
274.172083485195 119.25234197047 3507.80042260349 14 17 10
269.109950619172 117.329376818923 3543.5264908693 14 17 10
287.742113120454 117.645544121415 3521.93824754896 13 16 9
282.231700402725 112.638789447225 3608.2137686686 15 18 11
322.508899990159 115.157862750179 3531.71843982029 11 14 7
339.619779033353 115.396382046119 3512.75125256756 14 15 9
340.95357021535 114.030312957921 3533.80054769947 19 20 14
306.953424015635 108.957749156035 3646.3023905445 21 22 16
55.8882545184478 115.204721943043 3612.57032899344 5 10 4
112.682030307902 118.513007896692 3513.6263281128 3 8 2
118.187383073024 117.589130824863 3523.41483793208 7 10 3
125.374896258133 113.967658868339 3573.82336321395 12 15 8
154.182075141854 115.070109502472 3532.61337251284 11 14 7
175.362006100316 115.532633037833 3507.74010348191 12 15 8
196.792531986752 116.044714096994 3481.88885756259 13 16 9
204.700321539815 115.346800920706 3486.17476376194 13 16 9
212.211146567363 114.61140501831 3491.37929131113 15 18 11
240.122113565826 115.786146026537 3449.80588281457 16 19 12
239.182057258008 114.268740825386 3474.25115006566 18 21 14
234.806492189349 112.401437132157 3507.01810122163 15 18 11
241.966903757359 111.625488468972 3513.15986436153 16 19 12
236.284548083752 109.585543811416 3549.71424638853 15 18 11
235.817394157782 108.031448530255 3574.35126657035 13 16 9
250.849864242831 108.015262066782 3562.09690551313 12 15 8
282.605461557395 109.71667782359 3509.12969918998 13 16 9
296.594897368147 109.645302763834 3498.61105553299 14 17 10
309.377254591104 109.462303983036 3490.84145925321 15 18 11
287.652459434456 105.652301535441 3568.38494702618 18 21 14
281.208837249024 103.397545260024 3608.9484728666 16 19 12
319.288988588504 105.912625189872 3538.03696830291 12 15 8
337.52243171143 106.335745002932 3516.28647565523 14 15 9
318.957082298422 101.102186747796 3613.46101540098 18 19 13
322.435380372829 99.8601435400321 3629.98311095472 27 27 19
65.8452345255014 108.159873520915 3568.10527018599 14 19 13
83.0379269808665 108.230928025022 3553.48822496942 10 15 9
120.722662802407 105.80474218044 3560.13391821546 9 12 5
152.541452323062 107.306274611399 3512.58811097431 11 14 7
160.291835989402 103.592303156268 3562.14643151087 15 18 11
207.308682128133 106.69460482224 3478.6654722046 15 18 11
219.628968345625 106.435270617049 3472.86698153109 16 19 12
225.899058760801 105.577090157512 3480.80649951417 17 20 13
248.490291092074 106.373725757641 3451.10756877957 18 21 14
244.863048120386 102.991659283132 3504.68788983315 16 19 12
241.48964845252 101.100983967786 3535.70291430953 16 19 12
246.401956327365 100.063865389693 3547.40977907344 14 17 10
250.975348103413 98.9819207306899 3560.05856701871 12 15 8
272.417520135734 99.7271652178313 3532.05239571291 12 15 8
294.446485854976 100.569917270464 3502.12545765345 14 17 10
297.435261728475 99.3266025863425 3518.44961599404 15 18 11
327.467127004369 101.117464169842 3468.02022921428 18 21 14
309.414801584775 95.8625381882607 3561.08716090812 12 15 8
295.054073787673 92.543679092816 3622.18875202792 17 18 12
328.023001688916 94.7497629279067 3563.2356261184 21 22 16
327.532557514252 91.3406288835712 3614.84928110223 27 27 19
58.7314218572257 98.2334830687163 3581.4835853644 14 17 10
50.1187521632227 94.3537677491096 3643.83771032588 10 12 7
144.542898377404 94.38917470668 3573.10177168374 10 13 6
180.848642225129 96.5857559176193 3514.42070560957 11 14 7
205.307826187144 96.0613526404392 3503.8291329648 11 14 7
225.269175952421 96.642526795787 3480.61918597429 11 14 7
229.575478209697 95.5530356653982 3493.15988846252 11 14 7
265.936435191049 97.9706319575965 3431.26307813142 14 17 10
255.281361087733 93.6616302854914 3501.4247386923 15 18 11
263.972836488243 93.0467813818038 3503.86945063098 17 20 13
263.805297682064 91.4170986081177 3527.54954764506 16 19 12
266.80892005704 90.1336091704358 3543.87976451623 15 18 11
293.056281145653 91.5623788309739 3503.78872179759 14 17 10
293.783238068599 90.0118229349789 3525.67252053279 14 17 10
291.988094095186 88.1388000692729 3554.08975412056 13 16 9
286.960120283108 84.1341227771312 3615.73862798373 12 15 8
309.455871100295 85.189440104263 3583.84146043558 14 15 9
373.268022785963 88.125302156214 3494.21533650491 22 22 14
-17.318350415072 81.3051133660861 3739.62494094246 13 16 7
59.2416279688162 85.8315296592165 3622.78170657783 6 9 2
77.3222194853338 86.0970880501227 3606.36507483846 11 14 7
124.31826983459 89.412061504417 3527.18957327008 6 9 2
165.39289978526 90.6390704910403 3481.23559765915 12 15 8
191.63402035951 88.7828453039676 3488.63782982058 12 15 8
183.748311038968 86.3090462844115 3528.61912506304 12 15 8
212.628181406954 86.338284711361 3507.9455993697 9 12 5
246.846214507755 88.656291461314 3451.65525248969 8 11 4
257.412022183826 88.2819423440176 3449.46274744467 13 16 9
272.660784660626 88.4656183276941 3436.21538137439 13 16 9
260.112391150746 85.3563858853457 3488.33913994669 15 18 11
262.565218284137 84.0000943831999 3505.52596090965 17 20 13
266.634978440785 82.825536616677 3519.05034209953 16 19 12
277.26495389096 82.4472937149927 3516.88410487281 15 18 11
289.765036710584 82.3081477080295 3510.07843620822 11 14 7
285.220108271748 80.0365888713078 3544.93775099051 11 14 7
274.472902377905 76.9408794665893 3595.63282167585 12 15 8
277.765502188215 75.5969256077603 3612.0805017707 13 16 9
318.121218973701 79.056900600354 3535.60983220229 13 16 9
305.137029097881 75.5973897250127 3592.95435009321 15 16 10
309.59491024379 74.3940694153886 3606.636096739 18 19 13
305.775346103786 72.0666158615009 3641.78927283612 17 18 12
337.745331270759 74.5664522980957 3584.58732902696 19 20 12
147.29705896973 79.6610813319413 3519.30521582389 10 13 6
137.145504884803 76.855180181921 3563.76615895955 12 15 8
151.467454395814 73.4669564414121 3599.79938266835 13 16 9
194.766320263565 76.9267883851929 3524.520374433 14 17 10
211.191618339835 77.2261646355822 3509.59088604292 14 17 10
243.03893888448 79.4299220548499 3458.81462648089 14 17 10
256.78986581008 79.4608345794377 3449.27770232104 14 17 10
248.160882132312 75.0119891927741 3514.86621737338 11 14 7
239.435634573512 72.1755368607415 3558.82608536053 11 14 7
239.79680429329 70.4629408419232 3581.64181580746 9 12 5
288.880780319807 75.0699183259188 3487.11875648398 12 15 8
277.782178818402 70.0978263761729 3561.42135178179 11 14 7
279.451847153773 68.5230650525936 3581.529157658 12 15 8
293.882932263236 68.6627083045824 3570.10918430049 12 15 8
299.350080634617 67.589159233769 3580.96191082073 13 16 9
331.690873211416 70.2378899907009 3523.90871850447 16 17 11
317.341519410084 66.4066106996038 3585.0187988801 19 20 14
306.931680341042 63.0650364700677 3636.93139596516 17 18 12
305.78470309502 60.9937010208005 3665.61257083218 17 18 10
36.4948209161564 67.8686012210305 3623.41788434364 8 9 1
121.697604555129 67.5550318538501 3573.76505701331 10 13 6
146.005353556215 68.7755165878237 3542.60030279103 12 15 8
179.626154418716 67.7601370481068 3534.64311735904 15 18 11
165.896230557474 64.2856462902129 3588.44886749339 15 18 11
234.051781910312 69.4928760995346 3477.90762465133 12 15 8
218.181988055703 65.6912049688699 3537.3230570371 10 13 6
212.843872782201 63.2108749505095 3572.94160665168 9 12 5
241.666792137288 65.2370032673903 3528.49430627433 9 12 5
238.015915493984 62.9551631775682 3560.47875535149 11 14 7
237.606752119835 61.0799738936259 3585.14168930263 12 15 8
242.676366703708 59.9316271340448 3596.91308951981 12 15 8
261.868824263125 60.7321943491597 3574.46896871674 13 16 9
268.825568593413 59.8494257251925 3581.6081434686 12 15 8
273.925826940274 58.6995232851674 3593.39170569377 12 15 8
297.713961909663 60.2145312653352 3558.77764936223 12 15 8
323.335015296284 60.1762961241129 3543.25852646499 17 20 11
326.22481528323 56.8000142549195 3585.4517162798 17 20 11
14.1715940217311 54.0128533771898 3691.08542760597 10 11 3
45.7381932581493 56.0454184432566 3646.66990964988 8 11 2
72.7986691356675 57.578932504051 3611.2227872249 9 12 5
68.4849509022833 53.4575558085399 3665.60957121325 9 12 5
98.5722404662492 55.4374766294341 3622.75362100174 9 12 5
139.156057318875 58.8131556627442 3556.08573422144 14 17 10
143.583765773723 57.6021747705726 3568.67651407973 13 16 9
157.051007839373 57.5596046140462 3561.18315841841 13 16 9
183.400690322248 57.436093494884 3547.03850680128 14 17 10
226.359572441848 61.3963332796774 3471.61804859572 12 15 8
240.594820297929 61.5511627746158 3461.19721792859 10 13 6
240.502565951111 59.7578077421594 3483.82997230898 9 12 5
253.890698625979 59.8089992357208 3475.22480975711 9 12 5
225.787751247999 54.0680577676515 3564.22625679175 10 13 6
235.430620708633 53.5599520347936 3564.89775608596 13 16 9
236.572334058307 51.8411790007896 3585.87195366174 17 20 13
245.85765405728 51.2763186823936 3587.47792203528 17 20 13
261.223357356366 51.6005136333786 3574.27683938145 13 16 9
271.582136180952 51.2081094097838 3573.07971204135 12 15 8
275.906364956759 49.923606865184 3586.70795912691 11 14 7
275.436765902161 47.9056517863544 3612.42657059421 12 15 8
322.330415214382 51.1306270226397 3543.99914284577 15 21 11
325.552931912327 49.6775751523646 3560.41927371725 13 19 9
336.82984418598 49.4710892659752 3556.35580125037 15 21 11
339.057198116983 47.8404784948516 3575.61102526036 14 20 10
2.33759342101414 42.9194618762697 3714.4288216531 6 11 14
45.0692436708329 46.5112278251415 3646.47132325864 1 9 11
35.2517146684845 43.3941700814898 3689.99106112668 9 16 9
36.6155477067569 41.6897459387292 3709.97601926286 7 12 5
61.1109415054754 43.0148202474634 3679.96525647501 8 13 6
149.514814149884 49.2582987306047 3553.87898150003 19 20 12
149.045791980373 47.3470609776765 3577.43914414243 18 19 11
164.125242425318 47.5635755577794 3566.2808494336 18 19 11
204.152172836569 51.284991737536 3498.30631176145 11 14 7
232.551707939959 53.4526968588874 3455.84412926808 9 11 6
216.053480854421 49.2763389885941 3516.08676164981 13 18 12
226.803075026645 48.953092860556 3513.96828311058 10 13 6
259.560291546525 51.8373607237465 3460.31885148007 14 17 10
239.609617354225 47.0512239787332 3529.95683028952 15 18 11
275.185666455402 50.4200806944332 3468.8138141575 17 20 13
270.270758095922 47.8027599865848 3503.52569024068 17 20 13
260.161044136968 44.3595046110369 3551.24508677547 16 19 12
273.145897457998 44.3914128308893 3543.55559357068 13 16 9
273.004619439736 40.4245840222337 3592.07842620593 12 15 8
302.234325734461 41.0277910995638 3568.30551442256 15 18 9
320.220949671495 41.9025961039529 3547.53047092487 19 19 7
23.4920428539802 34.1683611147482 3690.69388023648 0 2 9
37.9677137040162 34.2006520567044 3682.52919746145 9 15 11
43.9453353728902 33.0836113690882 3692.51038974741 6 13 5
46.1873686470655 31.4424793119647 3710.69257169817 8 13 6
94.7492167673796 36.249594331696 3627.82425074718 10 13 4
168.024451359589 40.9146842247703 3533.3858327109 20 21 13
186.236270539403 41.6562222798076 3514.86059558833 18 19 11
195.845229253828 41.1653886008842 3515.51823374377 10 12 7
184.569655637886 37.5893043566916 3563.84539689868 9 11 6
191.489135400107 36.6740313756199 3570.96947263809 11 16 10
236.866846803372 41.5544918478905 3488.96923482413 11 14 7
264.842572065743 43.8942106685976 3446.33440813301 15 18 11
272.222859117484 43.1257147626797 3451.486332668 17 20 13
296.714240261492 45.0128799009733 3416.07512951928 16 19 12
297.825712532899 43.2831096548292 3435.95810068226 14 17 10
268.72589028962 36.7455031188264 3528.87744843825 13 16 9
264.12402660868 34.0103688519577 3563.7169670925 13 16 9
246.825592028924 29.1819763140334 3630.11390667761 14 17 10
291.906614179831 34.4532579508887 3543.67483213903 13 16 9
312.595895301581 35.823025109786 3516.43815228652 13 16 9
317.741529540915 32.5915450618112 3551.99170164766 22 22 12
18.1183505579316 23.8411794088776 3700.46430593536 194 202 215
33.897172845643 24.087435127094 3689.58895650983 9 15 15
58.453761155244 25.6104963700967 3659.60147025968 8 15 8
70.2447439883191 25.3284014738485 3656.82526533922 8 13 6
193.731230471417 33.8352332441953 3496.37682659615 12 13 5
183.894387751697 30.3856556629784 3540.97007302974 12 15 8
184.324559527337 28.4705918709376 3562.73646842821 15 17 12
158.52285324665 22.4360990134639 3645.11946806428 14 19 13
206.898901607179 27.9920664926809 3556.77594406352 20 23 16
252.423838925627 31.2372966995578 3496.4251605818 19 22 15
237.773911538928 26.8559898367167 3554.18102824073 17 20 13
266.303710956464 29.4780957554359 3509.61078555248 12 15 8
280.370305034005 29.771697636714 3499.12061630632 12 15 8
278.349011710586 27.3959871372292 3527.45009385687 13 16 9
274.571244156139 24.6901245713673 3560.46544504623 13 16 9
305.562493621164 27.8698167277099 3508.25636289574 14 17 10
299.63438779978 24.7715165730945 3546.8771379854 16 19 12
309.484523619821 24.3677434636064 3546.55295900646 19 21 16
308.261054603268 19.8659989346449 3598.95716447549 23 22 27
35.7676113422296 14.8135433297409 3683.94321408702 7 13 13
65.8003239306206 15.2256866625964 3664.81237188416 8 13 6
58.8176039598314 12.1010079434235 3703.00659833207 8 11 4
105.901234421989 17.2579685007447 3622.77378742854 12 13 5
182.928108985608 23.2253509817368 3519.05540052123 17 18 12
211.146345720705 25.7226974520176 3477.59637837911 20 23 16
216.619726372582 24.6095672590823 3487.37312017637 22 25 18
185.628999029755 15.4608984940071 3604.36077562786 22 25 18
207.637285284252 17.0017075150918 3576.57804703121 20 23 16
216.551241171756 16.3904918340014 3579.11306943335 15 18 11
217.6795226184 14.4632079682457 3600.08340898185 13 16 9
247.505536823423 17.415649854074 3552.79855175405 11 14 7
272.444944377812 19.5956003328929 3516.48772395389 11 14 7
278.476275886357 18.5374843468861 3525.41115097096 12 15 8
286.811444481896 17.8771195058259 3528.79100717254 13 16 9
312.082503515187 20.2251438255758 3490.45531524343 16 19 12
307.967569898517 17.3619972296123 3524.41415059218 18 21 14
308.104061534314 15.2256243282785 3548.22118795507 19 21 16
312.408296180828 13.8227202988156 3561.84223701006 9 9 9
35.7527284131087 1.03952260982526 3728.27581201434 13 18 12
86.9218128894915 7.01974637125544 3639.98114469354 10 13 6
107.784422407483 6.15266380272123 3639.80360316485 11 12 4
133.338424892062 8.19951430817042 3605.90050288023 23 24 16
193.279069838942 15.9721018617828 3494.17153133311 28 29 23
218.202348667534 18.0699001959617 3460.01241210361 27 30 23
222.018225612803 16.6711223004147 3473.43569730417 22 25 18
238.945601648305 15.4244953197799 3479.22011309593 14 17 10
195.554572743357 5.83741576444394 3603.05821566057 13 16 9
228.315354143728 7.21529248675543 3573.15696797327 8 11 4
254.984486067086 9.77378438598878 3533.22813429618 11 14 7
272.498538557889 8.58405559005612 3538.1705945929 14 17 10
277.457151273379 7.29649767003723 3549.89810612124 16 19 12
307.690071327087 10.6675566120251 3499.53814753392 22 25 18
333.514483393405 13.2946179250857 3459.2667730233 22 25 18
56.4820060211764 -5.19327024577101 3681.69311907461 12 17 11
83.7531219136804 -2.86470899023775 3645.2464489176 10 12 7
100.431853693915 -2.2502683740675 3631.49599408333 11 12 6
112.067582260543 -2.46172670346478 3628.656649629 10 11 3
149.070886918768 1.65102510572024 3569.16468879955 17 18 10
179.20964673038 4.673655114664 3524.16380156256 24 25 19
207.056707743693 7.36755184802393 3483.63181134172 22 25 18
225.814138569871 8.53447437043991 3463.16664793097 16 19 12
237.24761146913 8.44322140253198 3459.16569232006 6 11 5
236.718182105115 4.0878634806526 3505.37643665191 10 13 6
227.014337436086 0.155496336401439 3551.10600061231 10 13 6
242.077849109072 0.697460685770507 3538.85997744351 11 14 7
252.412632224016 0.388452783325055 3537.65224506235 13 16 9
266.565656851849 0.798943466801094 3527.19618494949 14 17 10
276.824412203107 0.496671000833976 3525.95787563828 16 19 12
299.953294779436 2.6486127636019 3493.22968117754 18 21 14
86.0102105730727 -11.847283574929 3638.67598493623 7 9 4
86.9050586101361 -13.9165120089616 3659.55288484921 7 8 2
102.744882309398 -13.3929548362951 3647.62132445098 13 14 8
124.647658695218 -11.7757737031031 3621.95291306169 9 10 2
235.024794561468 -0.706787501299766 3462.6505338476 22 27 21
247.621006499387 -0.553165191739369 3455.88182530568 25 28 21
231.349228214148 -5.77055664874732 3516.22377872939 23 26 19
238.137071539847 -6.72977210110717 3523.29514610512 23 26 19
255.64510993378 -7.90949012302788 3528.23509545761 24 27 20
240.165392308909 -13.1883254012958 3588.89847159504 23 26 19
247.538751246952 -14.0875618924041 3595.12739010718 25 28 21
324.786472440076 -5.72856731827906 3477.45475990019 14 17 10
308.420636344343 -11.3550324590571 3542.07747767534 9 12 1
308.683895790846 -18.5043085523091 3615.60261463599 11 19 6
321.90235530684 -18.1851325828417 3606.9267213728 10 20 12
-6.1977917266034 -32.8859618061794 3790.30639969555 1 7 5
85.8217499777594 -23.5084611112258 3660.26603057457 4 5 0
57.1019904166157 -31.0345458768713 3746.87313487811 10 11 5
125.601420952277 -25.4936137591383 3664.51966645349 11 12 6
192.364799383147 -15.2837772355114 3536.11460781883 20 23 16
243.199509451774 -7.90236359263644 3442.27937885769 23 28 21
257.5619885628 -14.1081781294362 3498.84926736893 27 30 23
234.899990246037 -23.296026770351 3599.78963055921 24 27 20
299.065159964537 -19.765797201558 3539.43207090045 11 14 7
298.760321154185 -24.6913789985347 3588.9747541574 18 21 10
320.059409443226 -25.0826741868472 3584.65484365745 10 16 12
-17.4687193602481 -44.7501333421962 3812.80481216401 3 9 9
48.1859933563413 -39.9240831383668 3741.17287470657 14 16 11
90.6811442709501 -34.3535633013276 3670.94674747548 13 14 8
50.7067580060385 -44.3293433765213 3783.22444409876 12 13 7
183.670995490126 -25.9494018530923 3554.2530968614 14 17 10
236.936565620109 -29.5195448328923 3569.37390412428 26 29 22
260.424348101772 -27.0751300293009 3536.78880883107 24 27 20
271.859671652038 -29.5271675998093 3556.54181915348 14 17 10
280.438765614386 -32.6347048669702 3583.77456765151 11 14 7
270.666608769216 -37.2693880669819 3632.71847751589 13 16 9
300.332217931448 -33.3246687385099 3583.20327871483 19 22 15
301.068932083139 -35.6996941242927 3606.17634270686 15 18 11
332.322828708962 -36.4010624540826 3601.57392416952 0 2 20
-8.04419214243501 -55.3421717550474 3814.54340505887 13 17 18
18.795814331795 -52.7228182531304 3780.07759390816 4 6 3
77.0058561171254 -43.9889859457545 3676.27160700728 15 16 11
98.6848649600516 -42.204184242823 3651.59038857414 7 8 3
138.050896829501 -41.715549367545 3633.00127989902 11 12 6
196.720812828814 -34.7155102462694 3545.5780427785 14 19 12
230.7311718419 -34.9275304901941 3535.61462392883 19 22 15
234.059926421132 -36.6638735762103 3551.0011088939 21 24 17
244.044975907621 -37.0034810179475 3550.73106914609 20 23 16
221.659526427467 -44.2834927485832 3628.03336438015 18 21 14
239.468983120969 -42.9790158409948 3609.34120383598 12 15 8
247.275502657019 -43.8237468547851 3614.66602750424 13 16 9
290.439428509009 -44.5235140325305 3606.25490383351 14 16 11
298.582542105722 -45.2797628239538 3610.63653324193 21 23 20
312.202961594599 -44.7722269502392 3601.04315486888 18 22 25
-10.8491757862523 -65.757625315056 3818.88093126108 0 1 2
91.7175890494635 -50.4851569171807 3642.35879203394 16 17 12
101.738352796276 -50.9367961495092 3643.18287005139 14 15 10
104.352152666034 -52.8873825655339 3660.43911510375 10 11 5
113.572681104667 -53.5066133712619 3663.09832731616 10 11 5
216.077471170332 -42.0538945946393 3522.18328860146 13 16 9
215.554589340521 -47.1167046215495 3569.48085442111 11 14 7
233.707889319144 -48.2099795319589 3573.60260226718 13 16 9
221.773559555386 -53.4084249696283 3625.99082657244 13 16 9
254.227218402046 -51.3435974040102 3595.96002023507 17 20 13
309.326319866805 -51.7617441101171 3581.59037704159 26 29 22
82.7350151285986 -61.6623011853166 3660.38423731399 16 18 13
89.0859712193115 -62.8829564717616 3669.43831006751 15 18 11
88.8939429746285 -65.4832059388842 3693.11559088552 12 13 7
77.7887731482341 -70.4220123152037 3741.52207839194 10 11 3
94.5269446966948 -69.4981575804923 3727.79334502478 11 12 4
239.918853986895 -43.2927795069109 3443.37718787942 24 27 20
269.552732807552 -44.1052391748903 3441.35635928871 21 24 17
244.10451287234 -52.2950350937312 3523.89881965576 16 19 12
244.703716128549 -54.7168529972339 3545.7374957633 13 16 9
248.103049468774 -56.5294731477026 3561.1531357289 11 14 7
261.525707150764 -56.0507635621518 3552.55871163766 12 15 8
264.991103987167 -57.8677809341602 3568.00113357538 12 15 8
329.532722067865 -58.4632924805841 3553.1402959305 28 34 34
41.2864721610122 -79.8446618354749 3749.47074758669 15 20 16
47.0572115429841 -81.2788780316617 3760.44912971855 9 12 5
62.3234355999249 -80.6729165568504 3750.44231456643 11 12 4
79.965115247242 -79.5262353273293 3734.92009998779 10 11 3
108.462441877559 -75.9613686282317 3694.6450532281 12 13 5
253.84705220041 -51.3126116851477 3431.81518854706 25 28 21
263.168098287592 -51.6893265892981 3432.35538792671 19 22 15
253.988509752615 -56.3058347011446 3476.1445315768 15 18 11
246.204532343957 -60.6683064090516 3517.26039834496 13 16 9
269.29963198887 -57.8858808457359 3485.59255466228 13 16 9
270.216964893927 -60.2660527171562 3506.48091540578 14 17 10
269.6981103055 -63.0176411812304 3531.10607902689 15 18 11
318.66287971796 -70.0442357372216 3579.03589708393 13 21 23
33.9394543212712 -91.0863758108092 3763.84316035103 14 19 15
37.3739721307094 -95.839317398416 3804.10972097837 14 15 7
202.654493644963 -66.6139239777867 3502.90904348861 19 22 15
238.278321349596 -60.9975924753778 3443.92595361586 16 19 12
245.258573166709 -61.9259979137799 3449.99592692754 23 26 19
243.145347325304 -64.9889869771366 3477.21458289248 23 26 19
257.690664856283 -66.7658578548611 3488.51164523336 17 20 13
259.738698774999 -68.9158316537346 3506.61939232533 14 17 10
273.444860953203 -68.2643934575453 3497.05963982042 10 13 6
274.812557412207 -70.6078965398828 3517.05126349901 11 14 7
301.723492131216 -74.8477330595183 3546.32047202199 10 15 8
299.007688264561 -84.0612285799153 3627.28603313659 10 20 22
4.05260947868991 -101.8838508151 3779.87509969865 0 5 8
53.8847244192131 -93.5312610491474 3695.33661078073 6 10 11
61.1573687544271 -94.6215040340659 3702.60500658301 26 31 27
40.2999488693558 -102.11113616205 3771.8965994587 12 15 8
196.925748490389 -74.1839058277938 3492.01565666238 22 25 18
200.406804799414 -75.9863618143335 3506.38550049508 21 24 17
252.50686613916 -66.2860216816327 3409.8083448274 18 20 15
244.239174365811 -70.8366558464197 3450.72952806381 23 26 19
240.532722889843 -77.0195325648939 3504.29900753228 27 30 23
233.458164538621 -84.2028271285606 3567.30094312864 17 20 13
257.758370829655 -80.9260952693329 3532.88086746701 14 17 10
264.97442592437 -81.8788915772625 3539.04650073429 10 13 6
230.674992559926 -93.3740909023487 3646.08129097919 9 12 5
306.846071386305 -85.1915214783021 3556.02514268754 0 6 4
326.638623118512 -82.8235782748578 3530.57543383158 0 4 6
335.299729919529 -83.3801657772764 3533.00766536012 0 3 5
59.0796590544078 -101.811663400174 3682.39842335337 27 31 32
60.8983740296321 -104.166215612836 3701.49367961892 15 20 16
206.378660206357 -78.1143589850612 3447.32315512823 31 32 24
196.702053585237 -83.0562131764612 3490.91352570485 27 30 23
247.478015222075 -76.0670570678814 3419.71399749506 30 32 27
245.214284690476 -79.2614351330785 3446.87271106815 29 31 26
232.775571248256 -85.0200799919659 3497.98215200461 25 28 21
239.215504517238 -88.9050492204148 3528.67015198901 23 26 19
245.256311065167 -90.162850765996 3537.59892894462 24 27 18
264.720700336374 -90.7986729209114 3537.93257040561 21 24 17
274.617028093367 -91.0640872408983 3537.62578826681 20 23 16
316.596429831633 -91.4033966519614 3529.81113513145 9 17 19
325.636116848098 -91.8580014434361 3531.31706996727 0 3 5
334.29963286346 -92.4119948206422 3533.75000008034 165 176 180
47.0833785370777 -114.07928808297 3706.7640771473 26 30 31
204.529763875165 -87.2596901553856 3449.88055085339 32 33 25
222.762328295623 -90.8345244501365 3474.55184271238 29 31 26
249.783483770553 -86.7561998646013 3434.7540209643 26 28 23
199.622718395727 -102.246119338174 3573.15806345394 25 27 22
243.605119713676 -93.817839433439 3493.80240738049 23 26 19
259.190886430124 -98.2340875454831 3526.03990130864 23 26 17
310.621831236798 -104.817355354913 3567.41272458866 15 26 30
7.04153080179215 -130.344720224141 3768.35454903475 241 248 254
244.239958567731 -94.0496026975308 3423.9337892196 26 28 23
242.77679242458 -97.1800670239157 3449.25828768974 22 24 19
242.22912577671 -100.112415912198 3472.79434748308 23 26 19
257.922201543262 -101.63010375695 3481.31748282285 23 26 17
254.489670438828 -105.41362680521 3512.32291266855 23 26 17
257.395988073849 -107.5367236972 3528.62035276084 23 26 17
246.544741209918 -113.434303332394 3578.21572726229 29 32 25
307.007868286706 -105.65526567204 3502.30149714214 17 19 16
303.66052307448 -109.577843519274 3534.42128029401 21 25 26
243.624920708281 -102.794357548438 3423.75104759779 26 28 25
248.549324647845 -104.290785996027 3434.3872260464 26 28 23
241.604375018682 -108.982857573731 3472.60862584909 24 27 20
264.831878613612 -105.58590319682 3440.9897336285 22 25 18
289.434558375234 -101.745808955206 3405.60879183273 19 22 13
240.899411187902 -120.929278461743 3566.2767379594 17 20 9
235.522550446063 -125.467520385005 3602.97400636248 20 23 14
244.07269731017 -126.144902607321 3606.44103473174 20 22 17
315.420338934602 -111.940770101752 3479.86183616857 14 16 15
305.644543632248 -117.783159129156 3527.7346187849 19 23 26
210.477015505073 -114.577185531968 3453.57441828914 22 24 19
260.39244849275 -104.051951142921 3362.57983289181 22 24 21
240.596428913743 -112.190371737576 3429.06941522791 22 24 21
238.338985176141 -115.671061915022 3456.23258722064 25 27 22
238.596597629019 -118.506849719512 3477.93635063326 23 25 20
268.555360793671 -113.148267114777 3430.68700462969 21 24 17
270.786778487385 -115.436300691838 3447.79098360075 17 20 11
233.333940620456 -135.112973866829 3606.47645343046 12 15 6
239.601863281247 -136.453297699267 3615.4978135904 9 11 6
270.184838415748 -130.719272567673 3565.26167919009 22 24 23
292.181525050271 -127.398356166127 3535.30314497388 13 14 16
321.483196385754 -121.843183513952 3486.70744889342 0 0 5
241.970662031229 -117.518475947464 3402.69395667823 28 30 27
264.128035499429 -114.259830714738 3373.8795063399 27 29 26
229.719146542154 -126.734264876756 3474.40429503551 24 26 23
232.010239322578 -129.06922832763 3491.53279174279 23 25 20
232.008459036394 -132.082339582737 3514.21142385012 22 25 18
247.301647059863 -140.037332352221 3571.17166533852 7 10 1
262.643860029154 -138.672038872016 3557.95318037325 9 11 6
298.395303989094 -131.181107124716 3494.69206266077 15 17 16
210.049666402935 -132.050654134265 3451.37595827506 30 32 27
213.595373180888 -137.015583578858 3487.37365553941 27 29 26
235.095883612175 -133.90074068744 3460.45220949881 23 25 22
247.285014597391 -133.408265762928 3454.59491649107 23 25 20
240.461609702557 -138.422471153343 3492.86771335703 22 25 18
272.240036308787 -135.24508968136 3463.63414277554 20 23 12
261.829134440172 -141.434815515505 3511.25215072657 20 23 12
291.063009661928 -138.92947460017 3487.46650925633 13 15 10
274.977924105873 -147.006036827459 3550.06385572063 14 15 17
286.760109651349 -146.623399451702 3545.12143406443 0 1 5
169.46715416713 -140.234858207945 3453.34744468588 33 32 28
193.928300546099 -136.374299792636 3421.14598079488 29 30 24
196.304442285968 -138.652468238976 3437.2296745903 30 31 25
168.379010801609 -149.544560408299 3520.94748570274 28 31 24
170.677479013624 -151.964631610087 3538.07961376367 21 24 17
211.15752846606 -143.416810761586 3469.17289258515 16 21 14
229.483939155418 -141.151452391053 3449.60395169495 18 21 14
244.481586117834 -139.812559697228 3437.32496264451 16 19 12
250.244451793083 -141.165262565401 3446.14192263259 18 19 13
281.332988012446 -134.997004017655 3396.10745219574 19 20 12
278.748140108249 -138.813366801174 3424.21967023369 17 18 10
239.234540786122 -153.845271859632 3539.95894193705 16 17 9
260.809980958289 -150.494370682189 3511.98723701776 16 17 11
275.281438543466 -149.259549707742 3500.57505181502 20 21 15
302.296324168839 -144.105577533723 3458.60866482036 10 11 6
278.899402820315 -154.606805867848 3538.76251984872 29 29 27
143.758947407054 -153.191346709011 3486.19224991491 32 29 24
168.008699877141 -149.359455651597 3454.98396233284 22 21 16
157.14714147402 -155.47888389578 3500.26135351682 41 40 35
171.30931598483 -154.484863202998 3490.88364049843 29 30 24
197.720067550095 -149.912759549041 3454.07135224371 27 30 23
185.138420317102 -156.65261116475 3504.05154943546 23 28 21
206.477727920985 -153.496773431918 3478.1433309238 20 25 18
226.446015363527 -150.686560079139 3454.9192974403 17 22 15
231.048617746221 -152.419159373265 3466.50603619497 17 18 10
245.248150852589 -151.273197484746 3456.06348959147 17 18 10
265.303401054675 -148.31652174587 3431.79449119938 16 17 9
262.408857080493 -155.519317184672 3483.54256346584 14 15 9
244.665519194138 -164.272113357059 3548.71030261484 14 15 9
296.999284224985 -151.135890826984 3446.80717369688 5 6 0
298.997105105057 -153.719746293589 3464.89787858938 19 20 14
297.654153419525 -157.402911708807 3491.3540485102 7 8 3
134.350884001084 -161.637546748068 3483.52581961492 30 27 22
147.301981254789 -164.067925513581 3498.49809387856 20 19 14
178.558186092887 -158.062783556703 3451.76917208914 24 25 19
193.001668063362 -156.898305592436 3441.4250010821 23 24 18
200.385361978935 -157.797712090357 3446.57929729875 23 26 19
253.100060211587 -145.156247155244 3350.22871083795 23 28 21
256.977362274146 -147.011449050947 3362.60151806018 20 25 18
224.212243304851 -160.008190385356 3458.40126137467 18 23 16
230.826255093502 -161.153220483972 3465.40339678824 24 25 17
249.803540299795 -158.492555569405 3443.93712055763 20 21 13
289.706697500339 -152.397770160577 3395.3140539835 16 17 9
255.5342973779 -166.361325907213 3498.10349875828 17 18 12
266.143381384469 -166.276810292393 3495.92503792384 16 17 11
249.35291312984 -174.979582756058 3559.32033456839 22 23 17
262.378961782807 -174.159323436379 3551.64154557574 23 24 18
126.519862110085 -172.733642464133 3498.78022418514 32 31 26
114.705311181325 -179.345188736348 3545.83335906912 19 18 13
171.369457429322 -165.778590035074 3444.60150060308 18 19 13
190.419683710304 -163.210729387703 3424.2442692722 25 26 20
206.857235949227 -161.37778178982 3409.30811845319 23 24 18
224.724012796335 -162.175989506432 3412.23255321083 21 26 19
240.225652908566 -166.872539638689 3442.28023597144 22 23 15
