ply
format ascii 1.0
comment KinectMotionCapture
element vertex 754
property float x
property float y
property float z
property uchar red
property uchar green
property uchar blue
end_header
131.917575405573 808.042336453239 3217.14009590485 218 219 223
154.557858063676 811.46030581538 3226.60874837907 219 220 222
175.813543636239 814.474300376492 3234.63326142582 216 218 217
188.281388058177 815.132760851783 3234.40938367608 207 207 205
-220.070599356752 797.452835190616 3297.31876434577 183 184 176
-217.890897792158 795.409513267543 3287.50289868282 198 198 196
-218.379833715738 792.555876139282 3274.71129788971 197 197 197
-214.268495917646 791.127946858545 3267.18732404082 196 196 198
-212.164789538722 789.092860881505 3257.43695725493 196 195 200
-208.084390230678 787.667698555231 3249.93946546465 204 204 206
-202.00884517498 786.849914924594 3244.67887144027 205 205 207
-195.262184358812 786.233307256901 3240.15855451015 210 210 212
-188.511479089397 785.61555605486 3235.63473951716 208 208 210
-181.756588623757 784.996664561199 3231.10761996614 212 212 214
-174.320530382739 784.57763299982 3227.31175808181 199 199 201
-162.799685582903 785.361254095226 3227.90818341296 181 181 183
-152.609143585632 785.73891836575 3227.01342335357 224 224 226
-140.343714357585 786.713140342908 3228.28620085781 182 182 184
-134.897107472466 785.682811443245 3222.24884657933 179 179 181
-126.704324352699 785.450933713067 3219.11946766589 180 180 182
-119.87888116431 784.818027117942 3214.53097283943 185 185 185
-110.282491459943 784.980377810222 3212.8293202941 193 193 195
-103.441109429251 784.344126983683 3208.22703237081 193 193 195
-95.8999330303958 783.905391783964 3204.34050399357 193 193 195
-86.2573594709075 784.059404613877 3202.59856075766 198 198 200
-78.6942222739979 783.616334538349 3198.69302625748 199 199 201
-69.0173761418076 783.764593991842 3196.92141503293 201 201 203
-60.0241989721506 783.712132628272 3194.42071958904 205 204 209
-48.1907916222704 784.445314078065 3194.74624706045 210 209 214
-32.7841665627884 786.157565308686 3198.58532929475 210 209 214
-12.3532537691746 789.237778523706 3207.3242734566 209 208 213
8.87146183246212 792.50246559306 3216.69726566876 211 212 216
24.4675619842281 794.18698413832 3220.37230273846 215 216 220
38.6839226102382 795.472345546057 3222.5992744533 218 219 223
50.7895447802969 796.164615496463 3222.68912866295 216 217 221
57.1639603328991 795.290832461204 3217.16985571366 215 216 220
70.0403904283111 796.170276015137 3217.91398648338 219 220 224
80.779529024686 796.460346019316 3216.5443056455 221 222 226
94.4490837708973 797.523815780496 3217.92307514952 223 224 228
103.787130630732 797.416923236961 3215.12350595151 222 223 227
118.255857538149 798.663544891851 3217.13167826077 217 218 222
134.234616410486 800.29024216092 3220.47542594617 215 216 220
153.940118373069 802.875154057287 3227.19979757055 215 216 218
180.350202314329 807.185331535458 3240.01186611124 218 220 219
194.309092094372 808.205524306034 3241.14013897739 193 193 191
-221.324915740118 789.184183230744 3297.13624563967 189 190 182
-217.169662037797 787.75965977481 3289.57387071537 199 199 197
-219.634124617128 784.330937653058 3274.52847383308 194 194 194
-216.849439395899 782.510752988721 3265.51006202614 195 195 197
-214.085430089866 780.692552064101 3256.50924241056 197 196 201
-210.008075733372 779.275944325405 3249.0143343553 202 202 204
-202.598191993282 778.857525498003 3245.24147039408 208 208 210
-196.522223282115 778.039085951326 3239.98051342262 209 209 211
-189.773307040405 777.418820916452 3235.45826533395 207 207 209
-183.020362455783 776.797414516833 3230.93253313175 210 210 212
-173.554618777429 776.968077150251 3229.34406233161 213 213 215
-161.351609624347 777.927611467749 3230.67135224772 186 186 188
-149.111965790283 778.881351534199 3231.96661160306 177 177 179
-138.201935281914 779.434655730435 3231.77068322324 188 188 190
-130.69045835349 778.997502559616 3227.90957068013 176 176 178
-123.858372254063 778.361665223785 3223.31533719517 175 175 177
-115.64335793502 778.117990317164 3220.16676614822 177 177 177
-107.416261156271 777.87208938572 3217.00773722384 184 184 186
-99.1771143077247 777.623906905277 3213.83827885533 179 179 181
-91.6215242224001 777.177721064823 3209.93930589828 187 187 189
-81.2672789876623 777.511959809675 3208.90293975722 186 186 188
-72.9879765911297 777.256453163409 3205.69872459267 197 197 199
-63.9949510619742 777.193689603165 3203.1979118267 187 187 189
-55.6896401633522 776.933482629185 3199.97118461676 197 196 201
-43.8430238726206 777.64302675828 3200.28541659478 208 207 212
-29.1320161784645 779.12410498264 3203.40565253802 197 196 201
-10.8222706178336 781.567139905791 3210.01711938723 202 201 206
7.55677940358623 784.000062972245 3216.56858309424 209 210 214
23.8627893457006 785.843104172506 3220.95054947259 212 213 217
38.0774415411058 787.09869268515 3223.17919487474 216 217 221
47.3091640823409 786.99857334064 3220.47173689495 216 217 221
52.9556375968356 785.933542897645 3214.26137589153 216 217 221
65.82032396213 786.789992470265 3215.01551886298 218 219 223
79.4458589441986 787.832860865538 3216.43257537622 220 221 225
94.5646967065912 789.252727950278 3219.19972698975 223 224 228
104.633042201949 789.32624767852 3217.08958902299 221 222 226
122.756546174824 791.497695379768 3222.5406616577 217 218 222
136.549925019483 792.515265110699 3223.81240579813 215 216 220
154.791256573455 794.669429722218 3229.16178054075 212 213 215
182.673973171658 799.286567981814 3243.34231356803 214 216 215
201.07180469362 801.418159351853 3248.55619043823 190 190 188
-225.436753311982 782.733966833849 3306.03527962563 137 139 128
-214.701739451304 783.29979953412 3305.99064776739 194 195 187
-216.449168285994 780.097472081764 3291.64588130698 199 199 197
-219.567126337999 776.5053624707 3275.84437481053 195 195 195
-218.766742583522 774.105682919166 3264.57948542188 198 197 202
-215.340612214865 772.498874409594 3256.32698823849 197 196 201
-208.597461289496 771.878547392179 3251.80973755837 201 201 203
-201.181364105103 771.453722376875 3248.03152969389 204 204 206
-195.769699613578 770.437898357525 3242.02405173909 206 206 208
-191.034856419191 769.225940863462 3235.28152472113 211 211 213
-184.958568880244 768.406200770161 3230.02029983775 213 213 215
-173.466693553356 769.150702760187 3230.64177203233 216 216 218
-161.262962449976 770.085526634977 3231.96859633246 210 210 212
-149.703612358246 770.819624200678 3232.53165314393 197 197 199
-138.794495819855 771.354007680031 3232.33663954146 177 177 179
-129.227402673752 771.494889850485 3230.66020297995 166 166 168
-120.327174140928 771.438155695426 3228.23978163555 166 166 168
-113.478441242799 770.796864853582 3223.63147062349 171 171 171
-105.934731008637 770.347944889477 3219.7424965648 165 165 167
-97.6895509223947 770.090865270616 3216.56786662599 174 174 176
-88.041407292863 770.217680479682 3214.82158736427 161 161 163
-78.3731785225168 770.341169733969 3213.05760562848 193 193 195
-70.7832461489488 769.883651714429 3209.12894040859 169 169 171
-61.0807871713397 770.00127352537 3207.33532814295 174 174 176
-52.7653723619066 769.731501436929 3204.09990549252 184 183 188
-38.7923027308572 770.993214436866 3206.53789949995 180 179 184
-25.4823733765792 772.056787352468 3208.2283685893 180 179 184
-10.712321833001 773.496475371793 3211.29738180266 183 182 187
4.81851853984017 775.119775615377 3215.02937856462 207 208 212
21.8301127901022 777.116434658863 3220.12237059865 211 212 216
39.6186642199616 779.294446427468 3225.86403161965 215 216 220
50.2921256051305 779.562737250392 3224.55110119826 212 213 217
55.2294552242381 778.309197808484 3217.63334136976 211 212 216
68.10122635085 779.140341790503 3218.38182321762 218 219 223
80.2850488550253 779.776746551758 3218.40426039464 219 220 224
95.4060764458209 781.163680765419 3221.16972741101 221 222 226
107.662609042483 781.789035939036 3221.12921573893 220 221 225
122.872682436153 783.162660724083 3223.81758980266 216 217 221
134.469466524145 783.588782487737 3223.0269360428 214 215 219
149.766407153987 784.949331348868 3225.64010388285 211 212 214
185.73258991495 791.552213568732 3247.35835469135 210 212 209
212.261475114819 795.698473057766 3260.0685161036 185 185 183
-223.419001275613 775.439225538951 3309.62705051498 141 143 132
-216.614036128337 774.810955420688 3305.05659021119 194 195 189
-219.679362428718 771.250706020501 3289.20957494166 198 198 196
-222.14181903923 767.892559093023 3274.16198208507 196 196 196
-222.670404203864 765.125489433599 3261.40450126785 201 200 206
-217.260064276473 764.114455030524 3255.39814032357 201 200 205
-209.854146165036 763.686209952621 3251.62877718958 203 202 207
-203.108707068118 763.062221158071 3247.10956699735 204 204 206
-197.700327044264 762.049676309812 3241.10523007247 205 205 207
-192.968899541108 760.843486484535 3234.36531066939 211 211 213
-185.546757387028 760.410661043423 3230.58191525535 212 212 214
-174.056011148144 761.133516522936 3231.20450634102 215 215 217
-160.495895087153 762.429223696211 3234.00020176798 217 217 219
-146.210096003024 763.910471688215 3237.48866468453 202 202 204
-135.972621138325 764.232229688388 3236.55358849599 164 164 166
-125.71070699429 764.549917893648 3235.59735627795 158 158 160
-117.485479635804 764.289177404585 3232.44004380801 166 166 168
-109.937346125416 763.834930743623 3228.54727045395 167 167 167
-101.689987952415 763.570012140892 3225.37080348587 161 161 163
-94.1237309455563 763.112149234634 3221.46266079218 161 161 163
-85.854345963023 762.842946752399 3218.26713015618 159 159 161
-76.8756827210852 762.761696198528 3215.77888549697 183 183 185
-69.2795259763122 762.297950178059 3211.84486574842 154 154 156
-57.4672307093387 762.969836734065 3212.18908901339 179 179 181
-47.0292631544962 763.258246146477 3211.08045470335 189 188 193
-30.9230847299955 765.054718626513 3215.63592400734 168 167 172
-19.7127351710429 765.521683398052 3215.17994228031 174 173 178
-7.76433364137796 766.172747295567 3215.40664779932 186 185 190
3.50467219440187 766.63055512806 3214.89988590598 205 206 210
17.6567438587969 767.835441607117 3217.18278514139 210 211 215
35.4323554293741 769.971658759296 3222.9359324337 213 214 218
48.9662006019076 770.974474759537 3224.43271934113 209 210 214
57.5015429190446 770.661849857338 3221.00695530187 209 210 214
66.7705471997087 770.533773320877 3218.26736506174 218 219 223
79.6752623943764 771.335388369522 3218.98748444988 220 221 225
94.0682758935467 772.503814474081 3221.06178700067 221 222 226
107.049783061005 773.293710449756 3221.71542396563 218 219 223
120.067598259982 774.078058020069 3222.3376274084 215 216 220
133.853806502814 775.042276669048 3223.61593228352 211 212 216
157.959272604328 778.591224175274 3234.46033060448 207 208 210
193.206502897456 784.898045271339 3255.48038097066 200 202 199
-251.681678872179 761.785686868189 3290.54104044103 140 142 128
-227.288721832674 766.382118663683 3306.42314682209 157 159 148
-219.837770897478 765.945413500483 3302.61480694263 201 202 196
-223.566256699156 762.231282485847 3286.01999662163 197 197 195
-224.055469360028 759.486757541686 3273.22824414985 196 196 198
-221.936939551107 757.515789604489 3263.46461387786 198 197 203
-215.193276465924 756.890482947659 3258.94695155861 198 197 202
-207.779085869396 756.455734046234 3255.17046050939 199 198 203
-203.030268711303 755.25396946725 3248.41544019161 201 201 203
-196.948817145331 754.434791536231 3243.14973581756 203 203 205
-192.212269594872 753.233443911039 3236.40566282072 208 208 210
-185.460596928014 752.604064283156 3231.88108470208 211 211 213
-175.321984152278 752.924523964351 3231.03170425273 208 208 210
-162.44437730756 754.000864801304 3233.09680006432 215 215 217
-146.122391575556 756.019249694076 3238.78735980477 213 213 215
-133.152711585894 757.081873405685 3240.77274139942 160 160 162
-123.566153076303 757.192826051925 3239.07962745176 160 160 162
-115.332841564438 756.92291222453 3235.91536759897 159 159 161
-107.776271010704 756.462161775533 3232.01563921373 147 147 147
-97.4481802513658 756.75265039684 3231.00191008566 150 150 152
-91.9464756347779 755.723465124972 3224.91679321211 147 147 149
-83.6690177060548 755.445090813695 3221.71432489715 175 175 177
-75.3795389571677 755.164498778683 3218.50145207617 146 146 148
-68.4764368190613 754.50730002978 3213.84580486033 148 148 150
-58.7646061930993 754.596553507689 3212.04456919056 190 190 192
-46.923014186973 755.242097199344 3212.36357062107 195 194 199
-31.5223322744469 756.814176754354 3216.20871231041 162 161 166
-18.8981199470413 757.634403973075 3217.17183300884 172 171 176
-6.94692020780119 758.263210382009 3217.39594193526 196 195 200
5.74824514665506 759.072504867407 3218.29763593916 204 205 209
17.7664317286816 759.691114530356 3218.46406654914 208 209 213
33.3945124574924 761.229074348383 3222.11201909455 211 212 216
47.6405081104887 762.390133443298 3224.31411054836 208 209 213
57.6128816497583 762.438408171724 3222.28700300099 208 209 213
66.1619016172477 762.115257784785 3218.84945225594 218 219 223
79.7890356687163 763.076345865105 3220.26565273673 220 221 225
94.1825297633847 764.214786358085 3222.34004855848 220 221 225
109.348239921698 765.529806117185 3225.0669380821 217 218 222
117.993368440264 765.191197427225 3221.54618677143 215 216 220
136.165783076484 767.224869850119 3226.95607507623 210 211 215
164.679348879713 771.802175233967 3241.91334741204 205 206 208
148.999853311324 762.906250084537 3203.9500154647 157 158 153
-225.272550989124 759.065432426882 3310.01643039187 162 164 153
-225.683474951542 756.338929929295 3297.15670550519 203 204 198
-226.793236698264 753.427381273149 3283.58062667721 196 196 194
-225.308353297358 751.280134404542 3273.04408194297 196 196 198
-221.20421673167 749.893815438447 3265.52576451233 197 196 202
-214.456188888216 749.265285981469 3261.00433998402 196 195 200
-209.036179074328 748.257762410699 3254.98989056409 198 197 202
-204.956676091124 746.873024187403 3247.49291370158 202 202 204
-200.21936927992 745.677660504137 3240.74782833722 202 202 204
-192.801145299049 745.235002421627 3236.9678926605 205 205 207
-184.700514387916 744.978465428359 3233.91854517129 209 209 211
-174.558532423575 745.282122450957 3233.06635340672 213 213 215
-162.356898549406 746.143546574782 3234.39515557016 211 211 213
-143.993920650453 748.68193030779 3242.28344256061 212 212 214
-128.287457362569 750.463004614823 3247.18545912164 152 152 154
-118.000308606677 750.744656473191 3246.20758867489 154 154 156
-111.122000899214 750.09181489265 3241.57340344876 151 151 153
-105.617089493663 749.066210131171 3235.48548393415 141 141 141
-96.6628960699762 748.968312869524 3233.01855601705 144 144 146
-90.4636880672665 748.126569249988 3227.6509341328 168 168 170
-81.4854181500237 748.024171960965 3225.16316741361 185 185 187
-75.2785814360406 747.18020324792 3219.78894786975 149 149 151
-67.674110170131 746.704498101246 3215.8477991223 165 165 167
-58.6598282247488 746.595454432821 3213.32886255259 187 187 189
-43.3019382596553 748.138562864468 3217.21128129451 173 172 177
-30.7114780678441 748.939440951786 3218.20378156492 165 164 169
-18.7917516531622 749.55140598846 3218.45527868555 188 187 192
-6.83945678411702 750.158408317247 3218.67889522743 201 200 205
7.27888774256247 751.308669343263 3220.9913809597 204 205 209
20.7286271103326 752.2697528512 3222.56133581886 205 206 210
32.7881053354084 752.860262308824 3222.69184405478 207 208 212
45.5974715640761 753.627767388192 3223.49482685249 207 208 212
55.5653596549717 753.66313410072 3221.47200616156 215 216 220
64.8316288630322 753.513926764978 3218.73492343527 219 220 224
77.7316514673316 754.267246769576 3219.45942301325 219 220 224
89.9422691167575 754.834168199254 3219.45908612845 216 217 221
105.823576595769 756.29876245632 3222.88834887085 214 215 219
121.757595059823 757.755539411314 3226.27197576414 211 212 216
142.134975766441 760.284193638661 3233.73763135386 206 207 211
166.258584062514 763.700026281471 3244.56716777032 200 201 203
-227.833159287269 750.410706121863 3308.32178635676 171 174 165
-225.625263760778 748.462257489508 3298.48055367948 195 198 191
-226.730326327431 745.580019073533 3284.90021197214 196 198 195
-226.561102376482 743.077303624033 3272.85946276223 194 195 197
-221.134295970737 742.072877119471 3266.83910242277 201 202 204
-215.711586422739 741.068283710872 3260.82229405872 202 203 205
-209.62711910201 740.249897367037 3255.55397069213 203 203 205
-205.546571234187 738.873162946902 3248.05603632571 203 203 205
-200.808416800804 737.683134754702 3241.31018172262 200 200 202
-192.718126572089 737.420324926782 3238.26983752268 208 208 210
-183.941508739724 737.340473193539 3235.95670381799 211 211 213
-172.443747608208 737.996950577983 3236.57396048862 203 203 205
-160.913423869722 738.648301876083 3237.16271168167 221 221 223
-141.867167557577 741.32142677143 3245.78116445726 206 206 208
-126.154814828004 743.063560447074 3250.67832876374 139 139 141
-115.175843463079 743.511560543938 3250.42301372583 144 144 146
-108.286851059483 742.854607358292 3245.77990984566 145 145 147
-105.525134880026 741.09773926146 3236.78068032705 141 141 141
-98.6408745474101 740.440203430733 3232.1413661656 142 142 144
-89.6747967511122 740.329289620668 3229.66453749598 191 191 193
-77.9141835175277 740.944656932204 3230.05392168309 193 193 195
-70.3011030901055 740.463061369175 3226.10534923596 159 159 161
-62.6803090274417 739.979746054545 3222.14978673508 181 181 183
-52.2482835423417 740.220567667731 3221.0466110006 183 183 185
-41.0891796881012 740.638619863736 3220.63536272256 158 157 162
-29.1966866561917 741.23325461175 3220.91089180847 170 169 174
-18.6857860149656 741.461597517143 3219.73943300337 197 196 201
-3.18771805300688 742.948317025837 3223.50040432555 198 197 202
9.51917324373142 743.707105358584 3224.39226231491 204 205 209
21.5494836141832 744.280604931968 3224.54847711618 204 205 209
32.8967858059897 744.669419572292 3223.97430003435 206 207 211
42.1206871737052 744.516336190161 3221.27396415506 208 209 213
52.079831831997 744.539346119165 3219.25880178372 216 217 221
62.0587814513662 744.559067825619 3217.22617953564 219 220 224
76.3979839633353 745.645630113645 3219.34765248282 218 219 223
88.6055924478835 746.191419967087 3219.35037619538 214 215 219
106.665208465356 748.154645924888 3224.85848761239 212 213 217
123.330657625501 749.753273462494 3228.9304989072 210 211 213
145.173975450198 752.584318331182 3237.7701363495 204 205 207
165.635547607704 755.049174082197 3245.16323359822 197 198 200
-213.731873392928 749.081773327204 3338.45580956048 149 151 138
-227.125641677687 742.696368390964 3310.4053817708 172 175 166
-229.500061988965 739.469493432405 3295.2806340436 194 197 190
-228.640402260023 737.171999454954 3283.96339035932 194 196 193
-228.472878834447 734.694148431143 3271.92426944662 191 195 196
-225.034363089062 733.140707355967 3263.66069158973 196 200 201
-220.285036586337 731.956420831082 3256.90511654641 196 200 201
-214.878105402467 730.956168106977 3250.90195572996 212 212 214
-208.807590180088 730.139001965422 3245.64571724156 201 201 203
-203.40704000664 729.138328775231 3239.64777428799 210 210 212
-195.323052854094 728.868283158925 3236.61294007882 203 203 205
-185.878924783998 728.960651150139 3235.04371165455 200 200 202
-172.358623995664 730.142344969347 3237.87433970599 196 196 198
-156.759171846746 731.862733368858 3242.86949991382 203 203 205
-137.701873287466 734.482449877229 3251.47872806459 211 211 213
-121.977461558372 736.184812057808 3256.36569812301 130 130 132
-110.984897542857 736.611840233728 3256.09905325767 151 151 153
-104.767633714096 735.769521480135 3250.71578546686 137 137 139
-104.74530993568 733.302758565222 3238.80212694342 134 134 134
-99.2374504228377 732.281645246962 3232.71130758075 187 187 189
-89.579360115656 732.339808864922 3230.95685204 183 183 185
-77.1232508965252 733.112967279403 3232.06597875179 148 148 150
-68.8095651932175 732.804621813032 3228.83230473624 183 183 185
-59.7853783970184 732.673104424768 3226.30492890656 197 197 199
-47.2419494044574 733.432646882084 3227.33846066379 159 159 161
-36.7701464876382 733.651081738869 3226.20063795335 160 159 164
-26.2739295784913 733.865711947665 3225.04199492526 187 186 191
-14.3398947212177 734.432294880891 3225.28169999438 197 196 201
1.17059947769604 735.882030284966 3229.0324562211 192 191 196
13.1795374124573 736.437186214981 3229.20699863503 202 202 204
23.7950910046241 736.633170066953 3227.94504304312 201 201 203
33.7196581874504 736.648477848663 3225.95958460989 205 204 209
42.9474745066254 736.484050033821 3223.2562445265 211 210 215
50.7527200853333 735.964276437477 3219.14104751721 218 217 223
59.2869442013471 735.618984503019 3215.71646434624 218 217 223
74.3415740832254 736.852509184987 3218.54047474115 215 214 219
87.994302906262 737.727986551163 3219.93504607299 212 212 214
105.323800343797 739.472868042139 3224.75381599969 210 210 212
125.631655758729 741.90824044728 3232.2803361273 209 209 209
148.942324541083 745.0304886946 3242.49311800317 203 203 201
183.348205585645 750.753270729344 3262.9229197206 196 197 192
-227.072307806952 734.787355506627 3311.73366686056 182 185 176
-230.752008933765 731.230944551887 3295.09586659123 197 200 193
-231.206852560314 728.591622316842 3282.27364352585 194 196 193
-229.06535500413 726.68349595346 3272.48969906678 192 196 197
-225.625592138601 725.140905982324 3264.22496997061 194 198 201
-221.538834669375 723.780881954093 3256.7215452357 192 196 199
-216.133477606245 722.783454013966 3250.71941494876 213 213 215
-210.064571234328 721.966564424906 3245.46456911682 211 211 213
-203.995709451457 721.14902209283 3240.2097661616 205 205 207
-195.911879620781 720.870793257774 3237.17512133641 208 208 210
-187.14213489953 720.769948797947 3234.86808083756 208 208 210
-173.625472327087 721.922151805959 3237.70236887552 200 200 202
-155.996903731558 724.142220028067 3244.90568111478 186 186 188
-135.579145731875 727.067692618948 3254.98029060457 210 210 212
-119.848699953896 728.730997118123 3259.86259934353 127 127 129
-108.849013605683 729.138000119336 3259.58959554721 154 154 156
-103.309244459851 728.116541969913 3253.47112119316 135 135 137
-100.526002525855 726.384165144454 3244.45339133816 151 151 151
-94.3128675592892 725.54126459371 3239.07370595068 184 184 186
-85.3312053818316 725.406431248186 3236.58320922408 161 161 163
-75.6390658849382 725.445756501448 3234.7993640998 146 146 148
-65.9268344119761 725.481694993244 3232.99781097112 194 194 196
-54.7976259823768 725.867003141836 3232.61268631443 192 192 194
-42.2391326387261 726.599903643655 3233.63333389763 151 151 153
-35.9662915488248 725.745429094925 3228.20197406674 163 162 167
-26.8758164838223 725.592288696927 3225.61728392943 191 190 195
-13.5298694131878 726.487641575828 3227.2776252394 195 194 199
2.6913426252162 728.076649435556 3231.73505066413 190 189 194
15.4159365073592 728.783984762953 3232.61158309033 201 201 203
24.6134023044644 728.61392054217 3229.93426990656 200 200 202
35.9713401118911 728.963417118173 3229.35144484926 205 204 209
41.6225689596965 727.918025482667 3223.13651945472 210 209 214
50.8638437777407 727.74040681882 3220.42159988363 217 216 222
60.1208129816251 727.559933737458 3217.69278040805 217 216 222
75.1774609599174 728.760466592785 3220.51493992127 215 214 219
86.6578204455024 729.090482147805 3219.82613383262 207 207 209
103.982760381146 730.795194921518 3224.64911420431 209 209 211
125.014338445435 733.351537624728 3232.87083487937 207 207 207
151.245651696288 737.09914548391 3245.84149586842 201 201 199
-225.060478878484 727.410589310154 3315.33110304384 186 189 180
-230.038668534363 723.534604718203 3297.17398304437 198 201 194
-233.772358639605 720.02570804816 3280.58266906951 194 196 193
-230.317179263773 718.492517860455 3272.30420150604 196 197 199
-226.21693099425 717.139442583627 3264.78935429435 195 196 200
-220.802720580273 716.144175974978 3258.77953648452 192 193 197
-215.39246033899 715.148864677135 3252.77345823378 199 199 201
-209.98631948088 714.153629053474 3246.77094991014 207 207 209
-203.914965586795 713.335751105016 3241.51398912735 217 217 219
-196.50082566139 712.871762378959 3237.73741595856 209 209 211
-186.384320040112 713.114053501393 3236.90770310882 200 200 202
-172.189775672881 714.412503953405 3240.47675981408 212 212 214
-152.52506772911 717.115017174631 3249.88224876557 200 200 202
-132.09871344232 719.981961138044 3259.94978681129 173 173 175
-116.358436916087 721.605712141152 3264.82351568217 139 139 141
-106.714855906127 721.640976986836 3263.08178425547 136 136 138
-101.166061968956 720.621140301992 3256.95579279609 158 158 160
-96.9974607826929 719.251232093971 3249.38149521952 182 182 182
-90.081669624559 718.581305439972 3244.71493245107 164 164 166
-82.4698982579233 718.084794854867 3240.76759126368 148 148 150
-76.2384049277758 717.238284118295 3235.3720174167 168 168 170
-66.526734407407 717.260703993448 3233.57103808676 188 188 190
-54.7001733503638 717.800738558144 3233.90406659574 169 169 171
-42.8412876698889 718.33573897227 3234.20879530027 154 154 156
-36.5680362859107 717.481149282446 3228.77708059887 179 178 183
-26.7734693300836 717.490092005465 3226.90465479377 194 193 198
-13.426985500586 718.358184276284 3228.56470752496 190 189 194
0.668481779430241 719.392352733987 3230.89777407196 186 185 190
13.3877945209124 720.075987919319 3231.77935294295 195 195 197
24.7184730344592 720.410808180285 3231.21993408552 197 197 199
34.6480866382719 720.398307917072 3229.23028193466 206 206 208
42.4480064082351 719.869272761563 3225.12007652322 213 212 217
52.411456736019 719.851017932166 3223.10113415718 216 215 220
65.2780443300838 720.511765195786 3223.855212934 214 213 218
81.0720608445501 721.84798141717 3227.36096578587 209 208 213
93.2947113950751 722.326529491869 3227.35108772756 207 207 209
109.910797015653 723.818260710392 3231.46657686728 209 209 211
134.60200132494 727.16517036455 3243.12786491186 199 199 199
155.009258280738 729.482834502861 3250.56899290356 197 197 195
-222.397454828785 720.187579290295 3319.6867050497 187 190 183
-229.326057360193 715.825988849638 3299.25312660508 198 200 195
-233.709206486689 712.180588961911 3281.90203026778 192 194 193
-230.909640869768 710.4815639906 3272.86962045636 194 195 197
-226.808360767367 709.136554160803 3265.35382665373 194 195 199
-221.393516366655 708.1439569361 3259.34344204713 193 194 198
-215.317561075609 707.326657033994 3254.08248932245 197 197 199
-209.241624462855 706.508760785604 3248.82155665126 197 197 199
-203.165724395723 705.690330483323 3243.56065911615 204 204 206
-195.747279377659 705.220394425275 3239.78070862051 223 223 225
-184.280873884598 705.794297261338 3240.42536192234 219 219 221
-168.729239383902 707.407124261666 3245.46297991807 204 204 206
-146.346048452943 710.748628325966 3257.80148027448 208 208 210
-127.941365997282 713.035660484 3265.6549336782 167 167 169
-113.55202765639 714.273323416139 3269.05554934934 141 141 143
-104.582435651379 714.120772345519 3266.57562908636 131 131 133
-99.7103756854965 712.929920420978 3259.71403459573 179 179 181
-93.4714665240905 712.084207568354 3254.31202801093 186 186 186
-87.2327972078573 711.237928154326 3248.91023297989 151 151 153
-80.302651605149 710.562894398483 3244.2312617925 159 159 161
-72.6748745055996 710.058157597001 3240.26978565433 186 186 188
-62.9512652973605 710.065457593008 3238.45887212452 175 175 177
-51.8116216790618 710.411153041421 3238.06495960599 154 154 156
-42.7436721071857 710.240565114899 3235.49990618366 164 164 166
-35.0637075031277 709.726546665592 3231.49357291762 189 188 193
-23.8553785272964 710.061255454131 3231.04019952467 190 189 194
-11.2063052679585 710.731114062045 3231.98274675213 189 188 193
2.18747965974408 711.564989152647 3233.60202364947 187 186 191
15.6218537653614 712.392739289432 3235.1861601372 195 195 197
29.0967990064503 713.214426788377 3236.73517144955 197 197 199
37.6115666785779 712.849177995887 3233.32758119878 209 209 211
43.2724224222665 711.808201274872 3227.10459873164 215 214 219
52.5210026486906 711.607897789685 3224.38317878588 214 213 218
68.9908991014914 713.083205162813 3228.62548175894 211 210 215
82.627309960416 713.879973875901 3230.03470649085 205 204 209
98.4780995093493 715.172433025402 3233.49153565998 207 207 209
115.108293813472 716.624176600988 3237.59505541746 207 207 209
136.89664080656 719.234540243413 3246.4840835881 198 198 198
150.731558398608 720.001880877047 3247.72144609386 195 195 193
-475.134719937719 653.444735405981 3072.03082482075 160 163 144
-224.957274420449 711.541669808566 3317.9913202811 191 194 187
-229.269085025645 707.930978421433 3300.57816737121 200 202 197
-232.989740628791 704.502310544358 3283.97503604028 193 195 194
-234.137153496166 701.775289081331 3270.43007953828 194 195 197
-230.703968858808 700.266193030616 3262.17083498748 198 199 203
-223.31003146113 699.796353540654 3258.41212550158 201 202 206
-216.572893490536 699.152193137289 3253.90024090643 194 194 196
-209.164586969283 698.679340584651 3250.12909670936 206 206 208
-204.424300072104 697.516363247712 3243.38121853303 210 210 212
-194.323618294454 697.728566630702 3242.56541574665 195 195 197
-181.505898666933 698.623043576134 3244.68359644455 208 208 210
-163.245815077663 700.881640144654 3252.66256314665 218 218 220
-139.493941851461 704.497692359606 3266.45983553925 198 198 200
-123.107511900551 706.220903006596 3272.09645189522 159 159 161
-111.429186757009 706.742012403541 3272.55776892142 119 119 121
-104.501936426432 706.067009241341 3267.88130697221 155 155 157
-96.8852272309113 705.560790859431 3263.92974889781 179 179 181
-91.3230576443889 704.544063521756 3257.7921441337 157 157 157
-83.6967185064759 704.035328340721 3253.83194023816 161 161 163
-77.4455813141568 703.186830883434 3248.41935322374 190 190 192
-69.1137011165934 702.844175693679 3245.17013171389 194 194 196
-60.0740078179252 702.667713719151 3242.62992259603 160 160 162
-51.7162516250975 702.320293963609 3239.35798879263 155 155 157
-43.3463701232539 701.970724495629 3236.07587499111 178 178 180
-33.5607263859221 701.95427946173 3234.21134777352 199 198 203
-20.2353759624789 702.771380131917 3235.89004801421 179 178 183
-8.98735496792691 703.081040985822 3235.40243443317 187 186 191
4.41308147218233 703.886772099071 3237.0161285993 192 191 196
17.1440977415678 704.519904150331 3237.88789086354 197 197 199
28.487226274609 704.814960143153 3237.31793880015 201 201 203
35.5733639015581 704.109696235232 3232.50395961043 212 212 214
44.8118721453059 703.900508623812 3229.79132698344 217 216 221
56.2213274063548 704.184857907587 3229.16427205339 211 210 215
71.2604707173599 705.29043311389 3232.00221881888 206 205 210
83.4588473672757 705.729431578697 3232.01363610521 204 203 208
101.484981837009 707.480019288528 3237.55214508427 204 204 206
122.482143694042 709.878286145856 3245.80471985865 203 203 205
145.01768257768 712.592783204228 3255.36840053238 199 199 199
128.190406425039 706.453464489708 3227.64580103874 193 193 191
-234.69215199838 701.022762831708 3307.97013711247 186 189 182
-236.411366963204 698.144430481977 3293.59850166773 194 196 191
-233.584211764125 696.469589189669 3284.54233777576 193 193 193
-234.070342411672 693.943024111237 3271.74650162689 194 194 196
-231.955146790435 692.103356479309 3261.98491038597 198 197 203
-225.888609449786 691.287923768532 3256.73210843797 206 205 210
-218.49274823745 690.811724552318 3252.9714572111 197 197 199
-209.754931017882 690.673341580165 3250.69264818892 203 203 205
-203.676124080096 689.854459919049 3245.42923408935 197 197 199
-193.572258419972 690.049833459018 3244.61046526254 201 201 203
-180.078954255911 691.085529608119 3247.46575384 187 187 189
-157.765936693736 694.306022000978 3259.86586013614 204 204 206
-130.61520847626 698.690658160966 3277.3288621676 197 197 199
-115.560823179443 700.033238866796 3281.47563873952 156 156 158
-107.264628666814 699.690718400766 3278.2573464225 128 128 130
-102.372210398598 698.508682824024 3271.37804952931 169 169 171
-96.1178052668035 697.661601739712 3265.96262089615 170 170 172
-90.5510630195385 696.646991162006 3259.82072361311 147 147 147
-83.6097301178578 695.965682098765 3255.13241216858 182 182 184
-73.2075797618874 696.115008596868 3254.05572317298 199 199 201
-63.4746720428083 696.09426503282 3252.23661649973 185 185 187
-55.1124758903883 695.738783766543 3248.9612021754 151 151 153
-50.2262463458978 694.553487178105 3242.0869748901 154 154 156
-41.850369599862 694.194965802179 3238.79972280353 196 196 198
-29.9540538990688 694.659072866827 3239.07278446756 194 193 198
-18.0254571719427 695.118091766019 3239.31758446433 184 183 188
-6.77018133786644 695.407791683292 3238.82381220047 189 188 193
7.34488487124851 696.349513662836 3241.14080621947 187 186 191
21.5045127230944 697.284613400099 3243.41890446041 198 198 200
32.8610400988372 697.558761261753 3242.83747462365 202 202 202
39.9617720155332 696.848956813395 3238.01087546124 218 218 220
50.6464633285804 696.953046753236 3236.68959119635 215 215 217
60.637140904785 696.89054456153 3234.64765223228 200 199 204
74.9685941895204 697.79939022716 3236.77699332139 202 201 206
86.4558029420985 698.052944721729 3236.08243068357 205 205 207
102.316697799109 699.273377291508 3239.53096795299 205 205 207
121.135525692293 701.132293275418 3245.7049799511 195 195 195
140.751896438203 703.142623555579 3252.51032810794 201 201 199
-239.856223236784 691.760386746354 3303.24258657255 193 194 188
-237.661533387962 689.92818895978 3293.4120464224 196 197 192
-238.11655621819 687.425251671337 3280.58909490144 189 189 189
-237.295991817407 685.263484745867 3269.30485702867 192 191 196
-233.206173161183 683.944519636864 3261.79851299013 197 196 202
-225.153892147138 683.631793175526 3258.7914362038 206 205 210
-218.418203444494 682.982400502437 3254.28115715937 201 201 203
-210.345385675277 682.665830374155 3251.2563053362 193 193 195
-204.266154705905 681.84692155115 3245.99252388922 192 192 194
-195.504320115241 681.693125033685 3243.69268251553 224 224 226
-182.017040418689 682.699637281196 3246.55306631509 206 206 208
-154.988865827799 687.016719934998 3264.12304324111 197 197 199
-125.126287665845 691.978359739654 3284.52520745263 196 196 198
-111.41324224417 692.952663444351 3287.19043620819 114 114 116
-103.103000328197 692.599994647879 3283.95971875034 164 164 166
-97.5124161862206 691.586177873398 3277.79746720915 173 173 175
-91.2411576273522 690.736797169508 3272.36744600655 140 140 142
-87.7185204601818 689.230116921892 3264.03065407836 152 152 152
-82.1450778040016 688.216841975141 3257.883256168 195 195 197
-71.737676104696 688.34909014523 3256.80181079952 193 193 195
-63.385606127953 687.987367042528 3253.53521364289 174 174 176
-52.9355194220296 688.112781060891 3252.4171314432 150 150 152
-48.0400997846968 686.931808496441 3245.53522626717 163 163 165
-38.2574050860556 686.889148957006 3243.67310944522 196 196 198
-27.7529679723076 687.005416995577 3242.50797905965 190 189 194
-15.8173063075071 687.441745768608 3242.74680265357 183 182 187
-3.84907618834296 687.873111833753 3242.95774566876 188 187 192
8.15140570752071 688.299453558706 3243.1404519548 187 186 191
18.0553445816312 688.237493771151 3241.17368902683 199 199 201
27.2674639921444 688.011498685401 3238.484037463 202 202 202
36.4954787701195 687.782644312433 3235.78062734109 217 217 219
53.6138898645464 689.314214841848 3240.78405116196 214 214 216
66.4856973475287 689.876862023151 3241.53392585156 200 199 204
80.8340541323478 690.753570265996 3243.6491398337 200 199 204
90.8946613410513 690.666836463799 3241.54643185215 202 202 204
107.491968389733 692.009367258674 3245.67947939043 199 199 199
121.967596186142 692.866937281598 3247.68419151541 195 195 195
132.11864190724 692.766287289288 3245.50318740166 195 195 193
-406.061635051875 648.074902804818 3145.85630946329 160 164 149
-245.017717674706 682.534501381272 3298.51225065341 193 194 189
-238.911545003453 681.715856879722 3293.22511615219 197 198 193
-239.366199273512 679.240178051021 3280.40166855138 190 190 190
-234.596608383793 678.092499959037 3273.62860792476 191 190 195
-231.81596413352 676.450010540558 3264.61223159014 196 195 201
-226.406695628965 675.468995881006 3258.60692027069 208 207 212
-221.001526892065 674.4880243109 3252.60516208802 206 206 208
-213.601529980657 673.999829875048 3248.84100403143 207 207 209
-205.524829627112 673.673873719854 3245.81284785456 202 202 204
-197.43585053055 673.345844764582 3242.77406268155 208 208 210
-181.936858276015 674.813298728882 3247.85793411228 215 215 217
-150.864837120351 680.025170900094 3269.85736186615 195 195 197
-120.994416013841 684.890086324257 3290.25335509211 197 197 199
-108.626190185865 685.507488676317 3291.43966280111 130 130 132
-100.305678846516 685.14534450161 3288.20042137843 156 156 158
-94.7041957172718 684.132784764856 3282.02871514758 164 164 166
-90.4768139383765 682.796701147275 3274.40325113434 140 140 142
-86.9488446304816 681.300321867804 3266.06177089759 159 159 159
-79.3039229907775 680.772825057554 3262.08558245563 195 195 197
-67.5047654269609 681.209293958571 3262.44303366528 175 175 177
-59.8316645080272 680.676834421855 3258.44245338771 154 154 156
-49.3700153728889 680.784372328614 3257.31446545266 154 154 156
-43.0671788277683 679.92738534398 3251.85712376321 180 180 182
-31.8700974039268 680.188601427282 3251.41397526242 190 190 192
-24.1510043703221 679.647724528338 3247.37390202346 176 175 180
-13.6107625670214 679.742252851754 3246.17787930037 184 183 188
-3.75182822656805 679.673935258417 3244.24984910528 188 187 192
8.24955465273369 680.078416966241 3244.43191613006 189 188 193
16.7359069171105 679.685913996538 3241.04913114231 202 202 204
25.9457751388781 679.449374938409 3238.36181460274 209 209 209
35.8849325162192 679.367977912939 3236.36433697305 213 213 213
53.7164182073839 681.016562974307 3242.07221602477 205 205 207
69.4598996418838 682.183938689667 3245.62286353759 197 197 199
83.8165791785102 683.029500926129 3247.73075020563 197 197 199
93.1653010042428 682.771297877824 3244.92322463966 195 195 197
106.148892980436 683.292540956951 3245.57647999056 195 195 195
120.620881498534 684.1207400841 3247.58485224586 196 196 196
111.842127899996 679.953883190124 3227.43002797085 200 200 198
-236.488788594451 676.77837088126 3309.68445089337 191 192 187
-236.238012450968 674.486850371777 3297.57164891835 196 196 194
-238.647673964769 671.547953048295 3282.47557990587 193 193 195
-235.847018971541 669.917043858484 3273.44210001372 190 189 194
-231.087004347301 668.775424113583 3266.67698470952 191 188 195
-226.335175912195 667.634397782684 3259.91896082435 206 204 209
-220.927341970079 666.655792106177 3253.91487728147 194 194 196
-212.859003625917 666.323386474703 3250.89401055146 202 202 204
-204.110198635373 666.150085082221 3248.60558879261 207 207 209
-193.334171472945 666.457046009771 3248.52708672708 188 188 190
-176.478445897631 668.206106952795 3255.08004105828 214 214 216
-146.743721015218 672.994309577905 3275.59445969291 197 197 199
-121.600516031263 676.641304700716 3290.83213607361 180 180 182
-107.87660547789 677.554079351489 3293.48834633878 143 143 145
-98.8716474030955 677.342867924272 3290.97815315246 147 147 149
-91.8982722957327 676.650813671601 3286.26182369277 151 151 153
-87.6595955309147 675.321473232894 3278.62652621327 150 150 152
-82.0599932726007 674.310843608678 3272.45643769369 175 175 175
-74.3984399480406 673.775769368723 3268.46619858743 183 183 185
-63.2749284921701 674.030155045798 3268.08686008353 159 159 161
-56.9730747949362 673.174498146208 3262.63036164468 147 147 149
-47.8918483404387 672.949033110624 3260.05415627598 167 167 169
-39.4914678045533 672.563407019036 3256.7458415132 189 189 191
-29.6811697526937 672.489781886184 3254.86000053064 182 182 184
-23.3560793913243 671.628749938481 3249.3833968702 172 171 176
-12.8124968639818 671.706569265924 3248.1845868962 187 186 191
-1.53956025131441 671.93675937165 3247.67589302579 190 189 194
7.63991261962538 671.694589944738 3245.01464220141 198 198 200
13.2889241230938 670.671197913297 3238.80181161377 204 204 206
22.490011046171 670.424979852059 3236.12185334874 214 214 214
34.5608045755563 670.796720626404 3236.24428734306 210 210 210
53.8183338916958 672.712136647755 3243.3609557994 199 199 201
68.1267886547228 673.5349013031 3245.51110385388 195 195 197
82.4796727601744 674.351091476334 3247.62247049025 197 197 199
91.1042266554056 673.928388709932 3244.12009687688 196 196 198
104.806136529351 674.579766157115 3245.47349339717 199 199 199
118.548474031272 675.225130235914 3246.7918888059 194 194 194
-219.840462920962 675.314222898593 3342.90509836725 159 162 153
-226.662480054356 671.266484605344 3322.37710475727 194 195 190
-232.259396470793 667.550277016076 3303.43164573715 195 195 193
-236.618748675822 664.163854020697 3286.05824557593 192 192 194
-234.466322080798 662.385346657001 3276.2639885917 192 190 195
-229.69917685403 661.248268404589 3269.49297902184 185 182 189
-224.940378957025 660.111753127349 3262.72888522179 196 194 199
-221.517520340799 658.657585935008 3254.4782346643 208 208 210
-214.115294094599 658.158124355559 3250.71253288732 196 196 198
-204.700961137303 658.132764058854 3249.16957632768 203 203 205
-191.915678765096 658.895607882536 3251.31672454661 196 196 198
-171.69583093551 661.390614440189 3261.56597483808 197 197 199
-144.64809539442 665.450793852499 3279.12034681201 192 192 194
-121.530392757891 668.548508029428 3292.14737562098 170 170 172
-107.806350060763 669.431149886123 3294.80335110081 126 126 128
-98.7997164929646 669.208813534481 3292.29177779428 146 146 148
-92.5064207211324 668.357093850622 3286.84267130373 143 143 145
-88.2667237772163 667.035910257634 3279.20643674178 183 183 185
-80.6069401029505 666.496253502337 3275.21776114985 193 193 193
-71.5621636931227 666.266504721994 3272.67317610382 153 153 155
-61.81050278607 666.189509995474 3270.83849539024 146 146 148
-56.8874884518182 665.022555264604 3263.93226654976 152 152 154
-49.1939411448281 664.47607583534 3259.91437101482 197 197 199
-40.0990610199536 664.237303837452 3257.32641774868 197 197 199
-28.1927879475217 664.613452326733 3257.59110346171 170 170 172
-20.4592737061504 664.05985379104 3253.53861328014 176 175 180
-8.50039747089326 664.427720409456 3253.75775960788 187 186 191
-0.0340176554849414 664.022845787454 3250.39236562817 190 189 194
8.44423605496525 663.615833114517 3247.01669397146 200 200 202
11.9706191186797 662.135627121706 3238.67648378626 214 214 214
24.7251718610051 662.642643170078 3239.52866337823 216 216 214
38.2293151213693 663.296490075688 3241.05345532899 195 195 195
56.0656020069459 664.857294173119 3246.75774183577 189 189 191
69.6630653813277 665.497315908346 3248.20173947681 192 192 194
84.0203511604321 666.282940272598 3250.30948909161 186 186 188
96.9794228934506 666.759329301587 3250.98460318685 192 192 194
108.527805540267 666.928110887936 3250.23756826658 187 187 187
115.751136005006 666.188022088353 3245.30490477917 193 193 193
-225.310636701294 663.611586950736 3325.22511558834 197 198 193
-232.857696166336 659.469773061896 3304.0025754558 194 194 192
-236.55783791146 656.284145344324 3287.38008912048 191 191 193
-235.716907668228 654.206979701506 3276.07765122159 193 191 196
-230.291461476968 653.232499806422 3270.05827577414 180 177 184
-224.870097626749 652.258030710829 3264.04243856844 187 185 190
-219.452991967636 651.28354395684 3258.0299766916 230 230 232
-214.039851202399 650.309134268523 3252.02126634426 199 199 201
-204.62406258935 650.269834060052 3250.47713844643 209 209 211
-192.508140974849 650.849740455886 3251.88237026095 207 207 209
-170.276421089662 653.753753685965 3264.3549909688 194 194 196
-144.576164008239 657.41902497987 3280.43330822852 210 210 212
-121.460967357793 660.448746519816 3293.46294965968 217 217 219
-107.058433401326 661.455807316381 3296.85362252408 145 145 147
-98.0480622176532 661.222068331111 3294.33888358086 143 143 145
-91.068076706875 660.523764033056 3289.61686514737 143 143 145
-84.7684116175458 659.670737437296 3284.16224660923 188 188 190
-75.723758346375 659.430644932518 3281.6178353195 189 189 189
-66.6629154578891 659.187923001222 3279.05940894525 148 148 150
-61.0379696257293 658.178311896324 3272.86734763922 153 153 155
-54.7250020914669 657.321337938022 3267.40122497291 163 163 165
-49.106848060672 656.311563544187 3261.21505142337 203 203 205
-38.6170352987572 656.365722862596 3260.06299895525 191 191 193
-28.8017322370422 656.264265318635 3258.17300030546 169 169 171
-18.9660768348934 656.159639944741 3256.26569759113 179 178 183
-6.29951886519597 656.65611670019 3257.19389819751 185 184 189
1.47013026004128 656.091244004708 3253.11016167008 189 188 193
9.24757167736612 655.524752990844 3249.01968176974 201 201 203
14.9058149487278 654.505724806615 3242.79850588636 218 218 218
29.8021620449966 655.437060570964 3245.76166385268 215 215 215
42.608193360878 655.912021673013 3246.56943283143 188 188 190
56.8807073597397 656.680346961683 3248.75076929369 187 187 189
67.6122709706211 656.69620025545 3247.38943089913 191 191 193
86.2787544697015 658.346059049903 3253.69683995536 180 180 182
105.735736787126 660.134536894956 3260.64177340163 187 187 189
116.586436898622 660.132527114203 3259.17697536 178 178 178
113.680002026424 657.313829702422 3244.51069877512 196 196 196
-238.286085653905 652.520952804811 3311.39942153124 192 193 188
-238.028695821114 650.302171667905 3299.28041588103 193 194 189
-238.463447474812 647.93313473023 3286.43902692513 188 188 188
-238.281928989462 645.72355323742 3274.38572208498 190 190 192
-234.180915034873 644.443982695941 3266.86941940117 190 189 194
-228.769229998247 643.473541881614 3260.86194506774 183 182 187
-222.034714031613 642.81057101254 3256.35245494996 201 199 202
-217.292663925807 641.686154714605 3249.60311417369 228 226 229
-209.22083645629 641.328156948317 3246.57938913099 211 209 212
-198.458058005102 641.579501204252 3246.51273059713 211 209 212
-174.903641022162 644.725838501871 3260.48418917761 231 229 232
-141.809463190248 649.989877927951 3284.70038562578 237 235 238
-118.688730342263 652.950351865668 3297.72536184889 163 161 164
-106.989450649913 653.316460773268 3298.16983673431 127 125 128
-99.3373819929011 652.768538457593 3294.18758607333 150 148 151
-92.3590695599277 652.06787662378 3289.46734854625 159 157 160
-82.6408229601068 651.969788260396 3287.66145038827 193 191 194
-73.5883258697605 651.717800019557 3285.11031766317 167 167 169
-65.8958957565035 651.162308460191 3281.09344883903 147 147 149
-63.0270924838769 649.554500285159 3272.00075268842 166 166 168
-56.025599413013 648.847939719117 3267.26014638034 199 199 201
-49.0203137850616 648.140239598879 3262.51626031106 182 182 184
-38.5292380011029 648.177909842411 3261.36321998595 161 161 163
-29.4108331170295 647.913722016863 3258.75504166062 178 178 180
-18.1748842006844 648.092959627175 3258.27873652955 184 184 186
-6.91057779947846 648.267809373516 3257.77788138053 187 187 189
0.154534819000851 647.549439467296 3252.98252576142 188 188 190
9.34313667727471 647.2735823208 3250.31358081284 219 219 221
18.5476806403861 646.995039251408 3247.63083567381 213 214 216
32.0327884251044 647.597641968013 3249.17245841916 198 199 201
43.4199511215416 647.753071935177 3248.56524514369 182 183 187
55.5503251974652 648.05097400458 3248.63651701337 186 187 191
70.5804790599425 648.929773177821 3251.48372477137 181 182 186
89.2544510928541 650.532323723089 3257.78526531763 189 190 194
107.27644267376 651.9789481789 3263.32933477681 181 182 186
115.96324079548 651.523107702745 3259.77291107535 187 188 190
89.8556044340646 644.088902930511 3222.89867085858 191 193 192
-249.951963854218 641.83703137047 3299.0828771797 193 194 189
