ply
format ascii 1.0
comment KinectMotionCapture
element vertex 788
property float x
property float y
property float z
property uchar red
property uchar green
property uchar blue
end_header
-90.8187085576673 -23.0308812531059 2771.10427391769 17 20 11
-112.057386781066 -21.0504020892818 2744.50574141523 14 17 10
-106.668616683783 -21.7635996917508 2739.83972221308 13 16 9
-96.5450873733507 -22.9567900139598 2739.01290812216 12 15 8
-68.1965394508808 -26.0002194246401 2752.83932906591 12 14 9
-82.5741627402681 -24.7076032025969 2732.20882539081 11 13 8
-73.1917017581769 -25.8268788405003 2730.70058201636 9 11 6
-36.6751621194785 -29.7068250258679 2750.68648685367 8 10 7
-36.7785764023791 -29.8635603323296 2741.51367824817 8 10 7
-52.942992362492 -28.3830366883343 2719.78379710448 8 10 5
-61.9861446691816 -27.6251414535208 2703.79632230619 9 12 5
-53.6417232052497 -28.8012908847716 2692.60143563517 10 13 6
-48.2654674604954 -29.5119797256133 2687.94624681533 13 16 9
-19.3488533984367 -32.6298154457476 2701.28078657174 14 17 10
7.24362286270308 -35.5132797421224 2712.65812323857 16 19 12
-6.85103006464249 -34.2330950605996 2693.10570040822 15 18 11
-21.8624803808121 -32.8559809982386 2673.02369433892 14 17 10
-23.857948537382 -32.810678112109 2662.84265036526 13 16 9
-55.4813384770334 -29.7235095532869 2630.68093327492 11 14 7
35.4862659130957 -39.2214050946567 2689.52649895363 10 13 6
11.2320852854677 -36.8896722713744 2662.89249738638 11 14 7
16.6409577689661 -37.604394340682 2658.2090646021 13 16 9
31.1803146255007 -39.2588212171082 2660.17513377529 10 13 6
63.2382653652788 -42.7187534332249 2674.7589635292 8 11 4
99.5968507251677 -46.6257115223739 2692.23542631117 10 13 6
130.251540469837 -49.9487510768197 2705.38810399712 9 12 5
144.262565155611 -51.5576205631574 2706.48822605542 11 13 8
177.639994683509 -55.1676938077572 2721.25296541811 9 11 6
143.765546906478 -51.8315767181555 2688.39387061904 12 14 9
148.539009913287 -52.4866804518031 2682.93720735449 14 16 11
-77.4487552023269 -31.2746671692164 2811.18043487124 27 29 24
-78.9171203818206 -31.2753924754945 2800.54283006468 17 20 13
-102.289428394158 -28.9841518531898 2771.82147932159 17 20 11
-80.4010430999185 -31.4254464560952 2780.6562200592 17 20 11
-105.529395774629 -28.9449746794208 2750.80883286565 14 17 10
-99.3350505576354 -29.7426084677964 2746.76871628471 13 16 9
-74.1991895130001 -32.526616922417 2758.08433285583 12 15 8
-66.3674070358748 -33.4974112515192 2755.27263437335 13 15 10
-71.2155715462193 -33.1368389408495 2742.26872291351 12 14 9
-76.117803910754 -32.7690451167219 2729.31162721076 10 12 7
-29.250595743012 -37.8433428526105 2757.53762839995 9 11 8
-26.1350059724919 -38.3196893085842 2750.87022336505 8 10 7
-4.60119798365977 -40.7348217244768 2758.68885859467 8 10 5
-7.08884977611834 -40.6212448187531 2747.61070458012 8 11 4
-45.0579248383645 -36.7658436340324 2709.03374832457 8 11 4
0.397256020308934 -41.9969431914884 2717.3108688992 13 16 9
18.0856702888028 -44.0112142591163 2721.84291210961 14 17 10
12.1808631559159 -43.5318030071001 2708.43079983991 15 18 11
-8.50027661836839 -41.4872023633589 2683.99513495852 16 19 12
-47.3464787630036 -37.515623449544 2646.17766343866 15 18 11
37.6713850721146 -46.6620950644548 2700.91434875116 14 17 10
56.3564499290656 -48.7863251385121 2705.9068479944 11 14 7
18.1235077578661 -44.8742334716917 2668.88148836314 11 14 7
18.5835383195219 -45.0636255927696 2660.54379434714 13 16 9
44.7453472895014 -47.982124751609 2670.97137199006 10 13 6
91.8063834019014 -53.1242441528255 2696.38297776159 8 11 4
96.5376513259146 -53.7704093608408 2690.96314408296 10 13 6
122.164065882379 -56.6396602543321 2700.53087179367 9 12 5
148.725510082073 -59.6109308854696 2710.61241317873 9 11 6
140.94461781891 -58.9265865657 2696.17820609811 10 12 7
156.677012290358 -60.7467267209431 2698.43456138549 9 11 6
150.509439970176 -60.2325944572128 2685.24965664274 13 15 10
129.053174739823 -58.0856054584543 2661.48547288944 8 10 5
-105.997015525636 -36.0011690122392 2760.52363267049 15 18 11
-96.6507071215754 -37.1425696197223 2759.04686740526 14 17 10
-87.2847087106647 -38.2864499979575 2757.55336768517 13 16 9
-77.110600777544 -39.5182214338063 2756.68296529051 13 16 9
-57.421216765603 -41.7819188167483 2763.45272603097 14 16 11
-39.2453660217789 -43.8830707756339 2768.88642990279 13 15 10
-55.1916481415771 -42.282747091835 2746.96670801173 12 14 9
-40.1632969308729 -44.0429037113234 2749.83257869208 11 13 8
-36.2744187310815 -44.5939485003581 2743.818997212 10 12 7
-33.9971971834525 -44.9694802108658 2736.55400638367 10 12 7
-26.917858005429 -45.8668191863698 2733.07074069016 8 11 4
-32.7151569738868 -45.3630799820559 2719.56528958427 7 10 3
15.405776015057 -50.8564544394439 2738.76716177565 8 11 4
6.33955828391342 -49.9956825870034 2722.79901196676 10 13 6
28.9218229282486 -52.5844630152668 2731.03361375511 10 13 6
7.55509994107406 -50.3799526090772 2705.867871396 13 16 9
8.12468715586334 -50.566971445084 2697.43520531182 14 17 10
-17.5556279873827 -47.8863598638195 2669.38818779098 16 19 12
30.5481097175044 -53.2651007545194 2696.54441718302 16 19 12
44.2721115352147 -54.8897529675538 2697.89341455045 16 19 12
30.7902832243254 -53.5392535118449 2679.1326398279 14 17 10
52.8033382806661 -56.0713571978708 2686.53665237452 15 18 11
90.6613676760339 -60.3402778842644 2705.3623603849 11 14 7
99.5664682105759 -61.4407654979096 2702.9444798499 9 12 5
105.985732093928 -62.2691607660584 2698.70930199853 9 12 5
113.244187282727 -63.1896633866612 2695.07094012123 8 11 4
128.888318078594 -65.030405187482 2697.40393020801 9 11 6
165.577291482385 -69.1823782334397 2714.59530598685 11 13 8
156.952972945216 -68.3610931254576 2699.56797852269 9 11 6
162.605695242735 -69.1070678341679 2694.67339485741 13 15 10
152.183964804991 -68.0859351733683 2678.55581662054 6 8 3
-17.739177813513 -52.8793513887969 2853.52614449319 18 20 15
-15.9558433578191 -53.1952505724124 2845.36589158048 16 19 12
-107.392823083632 -43.2135764626219 2751.19313231734 15 18 11
-101.201227952927 -44.0153834954812 2747.15511086492 14 17 10
-76.8661165795761 -46.8456339859769 2757.84212024905 14 17 10
-56.3879324695096 -49.2463486780211 2765.2520328262 14 16 11
-90.5354921421426 -45.5354617977737 2728.65712727724 14 16 11
-74.0187262612286 -47.4927117463015 2732.88136540204 13 15 10
-61.4304474573153 -49.0109684866408 2733.89046889836 13 15 10
-59.1921476135884 -49.3700076984757 2726.65942155086 12 14 9
-54.5681922333112 -49.9960916639181 2721.33246938424 11 13 8
-46.7372764103371 -50.9817108792365 2718.5216181277 10 13 6
-56.606067421507 -49.9813255105806 2701.92492185761 9 12 5
-5.21534666737233 -55.8564834129416 2732.85204155957 8 11 4
-4.56737299511145 -56.0371258565819 2724.35139379595 8 11 4
14.7119467114276 -58.3106359519433 2730.15337472402 9 12 5
9.66361439399854 -57.8507492732435 2717.32231233795 11 14 7
11.0831352368952 -58.1171513206327 2709.47675350507 11 14 7
-29.199404388117 -53.6912973199022 2670.25442633708 13 16 9
10.5812756086228 -58.2725545792422 2691.38582604029 14 17 10
-27.4957249485004 -54.0900277506431 2654.22355378026 17 20 13
18.195643072529 -59.3399217362015 2679.49973762862 18 21 14
38.4975446137661 -61.7321974148128 2685.73912508747 17 20 13
47.2876334313002 -62.827990709176 2683.42089892234 18 21 14
70.194640186231 -65.5163485033289 2691.37468031453 13 16 9
101.501448910854 -69.1541332727665 2705.28744346934 10 13 6
102.925441490214 -69.4209506518944 2697.43832702594 10 13 6
111.012713467238 -70.4398583250671 2694.40518287325 9 12 5
160.155889459487 -76.0974430013353 2720.66230065414 10 12 7
171.724497714848 -77.5121705596565 2719.90799665065 12 14 9
177.428957847702 -78.2644241898616 2714.96861063135 10 12 7
173.851490712321 -77.9667414865849 2703.51058486521 13 15 10
180.377700759951 -78.8115904576718 2699.18281954953 10 12 7
-61.000783557402 -55.606622321616 2808.99235269403 14 16 11
-102.441591544611 -51.0205030728303 2756.2157681818 14 16 11
-115.897349379924 -49.5608390450359 2736.10842897974 16 18 13
-89.2385833894514 -52.7235415773332 2748.75338029822 12 14 9
-105.159817319191 -50.9778339206271 2726.81100614872 15 18 11
-88.6962871017656 -52.9660393154482 2731.08127061582 16 19 12
-102.372327434704 -51.4769340839578 2711.16466739268 14 17 10
-80.5012871335182 -54.1780761165617 2710.75266834669 14 17 10
-28.6857513682288 -60.2519779303798 2742.63644985912 16 19 12
-61.7307447514279 -56.5224323940013 2707.73231131146 13 16 9
-53.1211591710985 -57.6052804457198 2705.57044990463 13 16 9
-39.6548884452761 -59.2500194702437 2707.14296223647 12 15 8
-22.9129806263355 -61.2742699039626 2711.17249591577 11 14 7
-16.6574049881474 -62.0857862110837 2707.0790831741 11 14 7
-15.2767127852682 -62.3329308111233 2699.26705373046 9 12 5
-34.2929634179896 -60.2174613199559 2676.03474761148 9 12 5
2.12837393909782 -64.522564296588 2694.78266184277 10 13 6
-23.5486075984257 -61.6333989177945 2666.73140353223 11 14 7
5.63539873783547 -65.10179687645 2679.83645644532 15 18 11
6.12531997458676 -65.2443860316786 2671.47255182243 18 21 14
45.3752988134259 -69.883108201418 2691.74104079697 20 23 16
21.0927364573634 -67.1515558574806 2665.12904785347 20 23 16
58.8595286158236 -71.6208003683992 2684.03513255993 15 18 11
85.9770632058066 -74.8558861232962 2694.95966081596 12 15 8
103.199146221675 -76.943102945772 2698.57310190331 11 14 7
121.312819144139 -79.1348208140371 2702.73770801226 9 12 5
152.885839468782 -82.8919906862153 2716.42082513576 14 16 11
156.881615524202 -83.4445183547166 2710.31428553805 12 14 9
162.551499552345 -84.191681393905 2705.40483488437 11 13 8
169.06425427081 -85.0369268785796 2701.08904986839 13 15 10
152.749862397003 -83.2254710685814 2680.81027466334 14 16 11
-67.1147126042646 -62.2484059061569 2814.33455368462 13 15 12
-86.5197489361389 -60.0212387057246 2788.79166104486 12 14 9
-99.0170220259983 -58.6116950400084 2769.17715431487 10 12 7
-107.688272322644 -57.6548477658612 2752.86604946245 11 13 8
-84.9837281048091 -60.4214288060116 2762.31908017365 15 17 12
-136.290305337774 -54.4008464405116 2711.46759725758 19 21 16
-90.6799585199947 -59.887705169899 2739.46237788955 16 19 12
-104.291197722482 -58.3410250662054 2719.48892059795 16 19 12
-110.056930511355 -57.7253876969768 2705.95538484669 15 18 11
-104.730252143348 -58.4275134631633 2701.34311103238 14 17 10
-56.2850280610747 -64.256751114151 2730.85311839382 14 17 10
-81.2709027772058 -61.3546745830008 2702.20276929504 15 18 11
-47.0211704371488 -65.498063587675 2720.18500648442 14 17 10
-48.0290902038814 -65.4473059432339 2710.47155986224 14 17 10
-41.8106786334613 -66.2562876137703 2706.41034212944 13 16 9
-33.9715959151823 -67.2582477079197 2703.59251822048 12 15 8
-22.8782304987845 -68.6478397203807 2703.24996138896 12 15 8
-36.9536530872199 -67.0392838897335 2683.67874307942 11 14 7
-28.3127067872542 -68.136446156889 2681.48979296612 10 13 6
-27.0081855798803 -68.3593043581346 2673.74362628575 9 12 5
-19.9924995653631 -69.262758149529 2670.31557070119 9 12 5
-8.04404790158841 -70.7545701963838 2670.55580314382 11 14 7
12.9890214082211 -73.3304489730423 2677.48622735371 13 16 9
2.74805488443919 -72.1756503976584 2661.21110837668 12 15 8
18.0675198439362 -74.0705229642349 2663.82584878253 19 22 15
67.4274292956487 -80.0297772346328 2691.22033158228 15 18 11
85.4197932102609 -82.245993379341 2695.49055483103 10 13 6
94.3075425737789 -83.3754946954513 2693.08790118915 10 13 6
119.91453356543 -86.502664578118 2702.67413532313 11 14 7
121.339070985556 -86.7412142010159 2694.82436347089 9 11 6
128.617043682414 -87.6791892982167 2691.16888277704 10 12 7
123.282987351224 -87.1093945035049 2678.5847554566 12 14 9
135.605274546643 -88.6504813415347 2678.50160602131 11 13 8
95.9428217931846 -84.0398011304875 2633.44695508047 22 24 23
-80.7940511608001 -68.1288918342877 2785.2047916415 13 15 10
-77.6524941110694 -68.5659017586819 2778.51462493062 12 14 9
-72.9519064010749 -69.1931283599581 2773.12126017362 14 16 11
-82.4421845477832 -68.0858878852293 2756.19580077468 17 19 14
-125.196625110794 -62.911627820763 2712.49448943783 16 19 12
-110.372387777915 -64.7745934539602 2715.53793915785 18 21 14
-107.413213251514 -65.1869967336975 2709.00569048393 18 21 14
-92.5231664182835 -67.0584734610157 2711.99247140945 16 19 12
-79.1818604140682 -68.7407898846314 2713.67353865979 14 17 10
-67.4013191828911 -70.2324614657192 2714.0593041996 14 17 10
-60.4032485365744 -71.139037525112 2710.64653672022 15 18 11
-23.6342348877852 -75.6897843737716 2730.41796006291 15 18 11
-41.5467308518447 -73.5472528543796 2707.55207560809 15 18 11
-41.7912659384747 -73.5670823084018 2698.50069432237 14 17 10
-38.8231661336969 -73.9800138494341 2691.96071321201 14 17 10
-13.1158023112063 -77.1783339982891 2702.78398804608 13 16 9
-18.2630352234314 -76.5971684309917 2690.03786047025 12 15 8
-16.9310234351197 -76.8094609499067 2682.26779824936 8 11 4
-20.5322806925397 -76.4168886660642 2670.82977735027 8 11 4
-18.4341503649135 -76.722526659358 2663.71987391949 11 14 7
1.74775179372855 -79.2453030742803 2670.06411480458 12 15 8
3.03163479050772 -79.4511517054841 2662.33604129357 12 15 8
7.60148288315987 -80.059835422972 2657.05555759111 17 20 13
75.1616209052557 -88.3959904239432 2697.80459824133 13 16 9
87.3549243154557 -89.9413556717722 2697.83327141316 10 13 6
101.245776162549 -91.6953596753525 2699.03849206559 11 14 7
89.2917907989572 -90.2774307751468 2681.59956574266 11 14 7
97.340179169346 -91.3143305436223 2678.60055551157 10 12 7
101.204553079 -91.837619026986 2672.60771740616 11 13 8
118.517804296928 -94.012488102384 2676.1430232374 13 15 10
120.710851314218 -94.3307140396522 2668.95093367014 12 14 9
122.041560882578 -94.5428611297241 2661.1819991877 14 16 11
-76.7015175514612 -75.967599743093 2798.91209406902 14 16 13
-81.343356385585 -75.4183400838638 2785.72813003059 15 17 14
-57.038600010193 -78.505898014114 2796.44280102832 8 10 7
-49.1393593959475 -79.5322636732687 2793.57299425725 12 14 9
-77.4717475214555 -76.0047530769689 2761.20251591774 20 22 17
-103.610967891461 -72.7517361831031 2730.90301710722 15 18 11
-114.075017427576 -71.468277437711 2713.4971576024 18 21 14
-110.32949670978 -71.9708138030121 2707.60719935624 18 21 14
-90.6717683989875 -74.4741195275676 2714.40594989876 16 19 10
-104.461671429533 -72.7713072907526 2694.58665074166 14 17 8
-68.7418758802307 -77.295054645992 2713.94371778256 14 17 8
-50.5158089623121 -79.6190086573526 2719.33534125414 15 18 11
-52.3309444808744 -79.4219410668281 2708.99701306207 14 17 10
-46.1209159663807 -80.2343678454368 2704.9433990624 14 17 10
-49.6076101266558 -79.8265095661801 2693.40566764262 14 17 10
-35.3123435712277 -81.6561988226538 2695.58443435808 14 17 10
-18.5361844437089 -83.7983588224343 2699.58472974117 15 18 11
-0.889428170754325 -86.0503522320295 2704.15441988038 14 17 10
-7.6758906079788 -85.2266910863831 2690.1809783337 12 15 8
-26.8018394561818 -82.8490136808231 2667.04205248732 12 15 8
-22.2557047656631 -83.4514197407678 2661.78208136348 15 18 11
-16.8917770278898 -84.1567653507198 2657.13754304615 16 19 12
-8.23008887302112 -85.277449316519 2654.93108315568 16 19 12
7.05988179001382 -87.233123961572 2657.57146581457 17 20 13
81.8120875644706 -96.710444669074 2694.74111486721 9 12 5
85.6956414605041 -97.2302676468455 2688.73163032162 9 12 5
97.9182317401661 -98.8008815072263 2688.73508312262 8 11 4
85.0680187540451 -97.2117875171711 2670.74857946852 10 12 7
100.648319018768 -99.2056929389315 2673.13757076224 10 12 7
123.00412210007 -102.053974542393 2680.24687562932 12 14 9
122.681203059358 -102.043642414887 2671.26292157344 11 13 8
155.282743690125 -106.184408519029 2685.38032976312 13 15 10
164.297819307643 -107.351762698044 2682.86756316771 12 14 13
-99.8595566666718 -80.3727597800098 2780.63513961651 6 8 5
-81.1114195986726 -82.8078937699737 2786.89824744455 8 10 7
-37.2195085301321 -88.4904142381935 2813.73688874475 15 17 14
-30.8390574064741 -89.3284719932998 2809.53572943331 10 12 7
-70.141379637604 -84.2660088428803 2768.13611098846 12 14 9
-102.569819185197 -80.0907383364844 2732.69501027364 15 18 11
-96.3986487232003 -80.9009186047378 2728.67474587452 17 20 13
-96.5747586715664 -80.8910519354669 2719.56386563035 16 19 12
-101.555533396054 -80.2603353370129 2706.67314166801 15 18 9
-68.2913105556011 -84.5703156839158 2724.18737400837 15 18 9
-75.681894780387 -83.628039908751 2709.41320151917 15 18 9
-39.832042780759 -88.2723512926539 2728.65832521766 14 17 10
-52.0688766675019 -86.703677949807 2710.14063168962 14 17 10
-51.4995687850863 -86.7894814806058 2701.70755183515 14 17 10
-40.450431447725 -88.2293653176005 2701.40365496176 14 17 10
-38.285008296747 -88.5212790487723 2694.23533748861 14 17 10
-7.71090116256667 -92.4843689119137 2708.78526743361 15 18 11
-5.5086080057456 -92.7809635231737 2701.58502373334 14 17 10
-24.5459850952572 -90.332451520908 2678.36887055007 14 17 10
-24.8859649375484 -90.3001868714424 2669.39987709372 15 18 11
-38.3805041748064 -88.5675936249459 2650.64764341067 18 21 14
-15.7857207831915 -91.4996579204803 2658.87330372594 18 21 14
-2.17459455344837 -93.2705621264246 2660.32108213928 18 21 14
-1.74650163094681 -93.3374079113436 2652.01027551981 17 20 13
22.6820430033099 -96.5068529441007 2661.29492454243 12 15 8
51.3561395897342 -100.225384930888 2673.52029456684 9 12 5
81.8082853188575 -104.17399667752 2686.85257815481 8 11 4
89.0134729177845 -105.117290953947 2683.26021738999 7 10 3
106.265743742329 -107.359658800194 2686.84881451381 10 12 7
113.510074497954 -108.308119743885 2683.22256044823 11 13 8
114.877220138043 -108.496720577985 2675.42220844527 12 14 9
129.706546845675 -110.426096988051 2677.13841649264 11 13 8
150.493442787405 -113.126009764036 2682.95975088056 12 14 9
245.023050622909 -125.362654269434 2740.0593236849 15 17 12
-4.69464717470602 -100.295812525337 2831.94052275517 0 2 0
-89.6869806594474 -89.0106414445762 2744.08380463935 13 16 9
-84.272860569091 -89.7226567052423 2739.3958060254 14 17 10
-66.9556470243111 -92.0132573600785 2744.25137286831 14 17 8
-75.0387830294725 -90.934971144666 2728.75331767751 13 16 7
-73.6199337977412 -91.116806074722 2720.90810846998 16 19 10
-82.0712089790403 -89.9832467139374 2696.46500192118 14 17 10
-48.5924233371797 -94.4165181356964 2713.79406389843 14 17 10
-61.7111779350603 -92.6702595406777 2694.7160356092 15 18 11
-45.8406056512866 -94.7681953522209 2698.17768821476 15 18 11
-4.00005925609381 -100.309746765588 2721.50004852857 15 18 11
-38.3021133031933 -95.754454036918 2686.35683790835 15 18 11
-45.1285890615929 -94.8425888866276 2672.4171902684 16 19 12
-41.4082670156408 -95.3291783304865 2666.54928479329 18 21 14
-44.2418201698018 -94.9467658109271 2655.76919386073 18 21 14
-27.4340460045699 -97.1685651742454 2659.7426034193 17 20 13
-4.8150371619724 -100.160753867906 2667.94765627302 17 20 13
3.87758558015072 -101.306444229071 2665.71454630591 18 21 14
24.1527048430865 -103.987672018112 2671.97901934492 16 19 12
35.3894564740829 -105.470548462372 2671.51278901268 12 15 8
47.4843143764385 -107.067153311818 2671.62712047863 11 14 7
57.9459574410079 -108.447209289467 2670.50846193775 11 14 7
79.2783582240553 -111.268359910627 2677.18103416811 10 13 6
93.9959877727783 -113.212562123646 2678.99415022959 12 14 9
107.080712603475 -114.94024277866 2679.57463869498 12 14 9
121.041857000999 -116.78414031483 2680.71951677965 13 15 10
123.247716472818 -117.069821862954 2673.51611130905 12 14 9
139.79389743915 -119.256362441412 2676.39276374607 13 15 10
171.630626183362 -123.469664077183 2689.84995553578 11 13 12
-83.1258978272271 -97.1625177241275 2750.36019706205 16 19 12
-77.6934537210692 -97.8765365898615 2745.65632934836 16 19 10
-79.4025515560142 -97.6185921089415 2735.22570000065 16 19 8
-79.5584393203028 -97.5720886054067 2726.09705505506 15 18 7
-77.3513402405523 -97.8470976963249 2718.89250601392 14 17 8
-87.1544472652603 -96.4882163121491 2702.23655600868 14 17 8
-83.4094387370636 -96.9725232185334 2696.34692356832 13 16 9
-74.0480997095494 -98.2207415980208 2694.85813841614 13 16 9
-70.3068502391289 -98.7044524371563 2688.97176022374 14 17 10
-53.6516688531559 -100.944328481048 2693.07754456632 15 18 11
-15.0775759892112 -106.164459944154 2713.93561575644 15 18 11
-42.9020310387851 -102.35555771457 2683.76959188198 16 19 12
-43.2251191409034 -102.286387373441 2674.78571859746 16 19 12
-44.3934020142458 -102.102420534583 2665.21040124507 16 19 12
-49.6846221813136 -101.358137173995 2652.5880155912 16 19 12
-39.4511539662696 -102.7242703173 2651.66734968658 15 18 11
-16.0430317879294 -105.88081937329 2660.51277557921 15 18 11
17.3420096224537 -110.392792839216 2676.60033817058 21 23 18
23.6056722860316 -111.2186630253 2672.50000912681 14 16 11
56.3706392881258 -115.645400969531 2687.80088378292 10 12 7
60.215634511168 -116.142304885717 2681.82467090909 8 10 5
64.8840069159466 -116.751149695893 2676.45910920062 9 11 6
65.3764883338588 -116.792696345891 2668.09233081874 10 12 7
84.2404981258906 -119.329881089194 2672.9324080112 13 15 10
112.389318601854 -123.127815515754 2684.28999186622 14 16 11
123.001636804634 -124.54371134981 2683.0412855231 14 16 11
122.687515547117 -124.475733615652 2674.04964808017 14 16 11
109.679010651886 -122.684196488669 2656.19902987687 14 16 11
144.824008180161 -127.431284209002 2672.0859596583 3 4 6
-75.7797041440171 -105.472556102112 2757.28039145615 15 18 9
-75.864943403912 -105.41593924665 2748.0904473776 15 18 9
-79.9457990112837 -104.801929407914 2735.74310030156 15 18 9
-79.3050747985742 -104.846941498803 2727.24785701705 15 18 9
-85.0679764822293 -103.998862934748 2713.7103612204 15 18 9
-73.3039162451061 -105.595556157441 2714.11109197301 15 18 9
-79.1380059966054 -104.737890588711 2700.63523530956 16 19 12
-68.9620537278923 -106.11286644217 2699.76447784399 16 19 12
-62.7898361838053 -106.929415884408 2695.74334717359 16 19 12
-53.3843853135587 -108.196465370876 2694.21645072778 16 19 12
-53.6736785223679 -108.112278432496 2685.20318888656 16 19 12
-36.1382769057221 -110.512001242314 2689.87035139919 15 18 11
-41.3232014051257 -109.745711916783 2677.1556928702 15 18 11
-37.5898651224751 -110.222196545567 2671.2764420089 16 19 12
-51.8546504095356 -108.19187938122 2651.86630262004 17 20 13
-44.9052784395656 -109.116660048278 2648.49586200021 17 20 13
-22.3355267904917 -112.216298358348 2656.74430411028 16 19 12
11.0283196543071 -116.818016459227 2672.85081868764 19 21 16
46.1811059874386 -121.66762217171 2690.05460731033 12 14 9
80.4094475472796 -126.34284105933 2697.47211292623 7 9 4
92.6161272023851 -127.99695666265 2697.48958161796 8 10 5
85.6736409524315 -126.986758175772 2683.65016275136 9 11 6
84.5210543043717 -126.782440110613 2674.06079352702 11 13 8
122.722961105738 -132.051972404587 2692.59493461723 12 14 9
155.202382206593 -136.524545547098 2706.8203383109 13 15 10
138.127052496863 -134.105787942535 2685.87389907698 13 15 10
168.212971271797 -138.244579433638 2698.20157622741 12 14 9
-58.9710538878059 -115.190184061479 2771.88833283365 14 17 10
-60.5917761061971 -114.893814677363 2761.38117168096 14 17 8
-72.5593113543215 -113.118412301154 2742.62841222088 14 17 8
-80.6422925872399 -111.899249738675 2727.12931000118 14 17 8
-80.0278625321145 -111.923862798293 2718.65672462194 14 17 8
-79.4388033680993 -111.945029178579 2710.20610677141 14 17 8
-61.2496750162799 -114.480766615907 2715.63111858785 16 19 12
-53.4377002126369 -115.533542519394 2712.8371193706 16 19 12
-48.0300918259964 -116.242689623871 2708.15474609859 16 19 12
-38.5870695302555 -117.527966122473 2706.59508774646 15 18 11
-42.8827193944228 -116.851800537577 2694.43382331554 15 18 11
-42.3602178203617 -116.863823848129 2686.04083407329 14 17 10
-45.929845092286 -116.292169707557 2674.57423787396 15 18 11
-28.3442166952637 -118.738930084262 2679.19817183526 16 19 12
-48.3016134384178 -115.830346929703 2655.4531906109 17 20 13
-41.3426718354319 -116.761379159662 2652.0741806436 17 20 13
-22.0530501226421 -119.450269746767 2657.86992412848 17 20 13
-5.16585277196002 -121.795935043471 2661.77529741172 19 21 16
20.8592136839227 -125.443255813994 2672.32580197611 13 15 10
80.0916597315062 -133.82095212188 2707.05946652523 9 11 6
97.2736870474282 -136.205214721364 2710.70955019154 7 9 4
117.838977799111 -139.070781999052 2716.72403120847 7 9 4
103.458819919664 -136.959269992356 2697.41367876069 8 10 5
103.188486757277 -136.857746476783 2688.38355571143 10 12 7
122.15917380431 -139.495473808307 2693.13182341098 13 15 10
151.272717312508 -143.576046117983 2704.97865502286 17 19 14
159.451780558092 -144.676611506957 2701.8667967352 22 24 19
154.13944084613 -143.857710368556 2689.26223262497 23 25 20
-80.8180200415092 -119.363910914576 2755.12036188368 19 22 15
-61.9329162334199 -122.046944289294 2761.26636210906 18 21 12
-58.042059657673 -122.533084382851 2755.25064531539 16 19 10
-58.929493051028 -122.319769880017 2745.43139993723 15 18 9
-93.3189668317906 -117.203518375725 2709.03706324351 16 19 10
-87.1690312350997 -118.022007683601 2705.03525770821 16 19 10
-73.8073034319773 -119.895251664775 2706.69986186672 14 17 10
-57.9966863907519 -122.125995432137 2710.21434043492 14 17 10
-43.7437859014413 -124.128095632657 2712.43094456994 14 17 10
-27.8328924097098 -126.371804805598 2715.85859395024 14 17 10
-25.6249423098645 -126.612276608058 2708.65276798407 14 17 10
-31.5454978745207 -125.66547385142 2695.25127673766 15 18 11
-36.7107750899738 -124.829817333834 2682.51913970033 15 18 11
-48.4516763659837 -123.034788864985 2664.89339763773 17 20 13
-40.6647201842758 -124.091621358139 2662.12110924619 17 20 13
-27.1313048284147 -125.986848924228 2663.63704808568 18 21 14
-22.5926299179395 -126.569124478751 2658.38372768802 17 20 13
-11.4719587053558 -128.111540314679 2658.01849424362 18 20 15
4.62903821481797 -130.379832938688 2661.28153345069 13 15 10
62.1544415136439 -138.686599935732 2694.84745642835 10 12 7
115.78813532252 -146.422419604044 2725.16582876773 8 10 5
116.440192431236 -146.434351452208 2716.66086400694 8 10 5
104.563454762804 -144.621441148033 2699.15242484065 9 11 6
100.121014984385 -143.892629635294 2687.11804735779 10 12 7
124.945753560196 -147.426180049852 2696.06166026218 13 15 10
119.635554823116 -146.571485821321 2683.45500855195 20 22 17
120.163548015046 -146.56736079593 2675.05715488548 22 24 19
129.103729584638 -147.787674047595 2672.60964482955 23 25 20
143.134140565476 -149.748275725081 2673.69524332244 10 11 13
-70.3885908825468 -128.127044459592 2755.40104320418 18 21 14
-45.1181200988593 -131.812315160064 2766.60614439062 15 18 9
-76.1648552392615 -127.056801830233 2732.61023255756 14 17 8
-87.4836636210286 -125.259868914864 2714.6186350707 15 18 9
-94.0969721611142 -124.169070987153 2700.49306825157 15 18 9
-74.347746684563 -127.025817632573 2707.21448970483 13 16 9
-71.3841831905562 -127.369142166721 2700.67830483578 13 16 9
-45.8989464104857 -131.081950600236 2711.69712354583 14 17 10
-38.8702982050444 -132.032498832994 2708.25813833763 14 17 10
-24.5543718726537 -134.072333467632 2710.42004471624 14 17 10
-22.3585293214708 -134.299834044969 2703.22494425667 16 19 12
-33.1875406422641 -132.581438626392 2686.13259184855 17 20 13
-41.6539042817958 -131.217402606514 2670.96484215757 17 20 13
-41.2028300311396 -131.186240492244 2662.63348170131 17 20 13
-24.3950606460785 -133.597234599768 2666.60812138968 17 20 13
-19.0269573579887 -134.299983541833 2661.95994714633 17 20 13
-10.3670153614601 -135.493815106985 2659.75515919948 13 15 10
18.113574265465 -139.643503168537 2672.15104256332 11 13 8
78.1424336763239 -148.494896842598 2707.52075746657 9 11 6
105.268224708432 -152.437152469431 2718.44271204582 8 10 5
125.848483417949 -155.402162559694 2724.44454867474 9 11 6
88.1666626990598 -149.68681454449 2688.25308799697 10 12 7
87.8649481621832 -149.542056757217 2679.25019966665 10 12 7
102.607566394539 -151.637625682138 2681.04295351073 9 11 6
103.962808481487 -151.739936653668 2673.25204407184 9 11 6
124.651408252942 -154.719335343152 2679.16038635943 10 12 7
128.541876700552 -155.198797998643 2673.14464718755 11 13 8
118.894591295359 -153.665327772562 2657.67577051579 74 75 77
-63.0337213101906 -136.577007492518 2762.31462460856 16 19 12
-47.2566550586619 -138.874108208543 2765.85861284684 11 14 5
-54.4655598968591 -137.646358589261 2750.92512242528 11 14 5
-88.0236937913676 -132.382375936806 2715.1328526534 11 14 7
-95.4323522802367 -131.128294110158 2700.37232526758 12 15 6
-77.2898915569482 -133.787939284715 2705.83858852034 13 16 9
-71.1218483060163 -134.6132089252 2701.82113236696 13 16 9
-72.996728423572 -134.207746251807 2691.533236561 14 17 10
-45.0626397130867 -138.362346980191 2704.40282374706 15 18 11
-40.4676685974135 -138.945908235422 2699.10040222334 15 18 11
-28.5808137614141 -140.644034786991 2699.39567528664 17 20 13
-29.6668091316326 -140.359364444751 2689.74806832344 17 20 13
-40.5639430451785 -138.576909177297 2672.71434510568 18 21 14
-27.037914245764 -140.525039539201 2674.23702895059 17 20 13
-29.0306340596471 -140.103774848289 2664.05148216051 17 20 13
-10.5379873290969 -142.808685940937 2669.21420442491 16 19 12
11.311003499844 -146.024124009125 2676.76484535846 12 14 9
62.1158429967612 -153.652388838181 2705.56460783767 10 12 7
74.2731518834394 -155.385680235851 2705.62569652297 8 10 5
99.727296431686 -159.144127036012 2715.3484988536 8 10 5
89.540564149305 -157.472343806144 2699.02302303667 9 11 6
134.263330074582 -164.162182637334 2722.50122275885 10 12 7
109.856838513134 -160.326752027359 2695.98949055358 10 12 7
117.117278837414 -161.312438599285 2692.34983048163 9 11 6
140.330664867792 -164.724347332938 2700.04243505838 8 10 5
142.596799692702 -164.949636473519 2692.78639542838 10 12 7
189.541890404992 -171.966194135751 2716.98738078033 11 13 8
-32.0929008292139 -149.070423051734 2807.0395117985 12 14 11
-61.1807269672289 -144.36028352694 2773.99255888848 21 24 17
-65.1646849460881 -143.592877170302 2761.56054865446 16 19 12
-62.1636508833707 -143.78082174022 2745.7271071874 11 14 5
-134.746771184758 -132.26841341491 2678.87387497884 11 14 7
-95.9694129282189 -138.206226527212 2700.88368021397 13 16 9
-98.6389450469471 -137.651347768033 2689.96030876881 16 17 11
-80.4886772960791 -140.355274396474 2695.41977682222 17 18 12
-73.5354767043814 -141.306112122037 2692.04618664871 18 19 13
-71.4137213795842 -141.501327661677 2684.91509104344 19 20 14
-32.1184609184586 -147.506491999642 2706.47644825969 20 21 15
-23.4531203156099 -148.722280251134 2704.26712342657 18 19 13
-35.899147785007 -146.640977560089 2685.9271081322 18 19 13
-41.9187495740041 -145.565046185752 2672.61062705195 17 18 12
-43.0965121890385 -145.245949355705 2663.04233497387 17 18 12
-28.7524210837087 -147.348632494467 2665.18055270412 16 17 11
-16.8267339386383 -149.073060837931 2665.44202333276 16 17 11
10.7632499440098 -153.237875501668 2677.28634834343 14 16 11
38.4625807949837 -157.416944743787 2689.03630628909 14 16 11
97.6904636280405 -166.502861441769 2723.77819971318 11 13 8
87.8806317024354 -164.559718964367 2689.92095451905 9 11 6
118.477906650183 -169.179751432734 2703.13180021964 10 12 7
122.412163722218 -169.652954275593 2697.07806730926 13 15 10
137.245422907602 -171.819717833762 2698.7927207243 16 18 13
168.943988802138 -176.604531205757 2712.37336663232 13 15 10
-38.0973162467364 -155.442476261605 2793.757815757 20 23 16
-43.5975495064387 -154.396814443209 2779.9913754514 15 18 11
3.90577867760289 -161.84748506722 2809.004688385 12 15 8
-74.6225320361673 -149.102516879032 2736.70966138315 12 15 8
-62.0389043840053 -150.958616658958 2737.72530094403 12 15 8
-110.074362764253 -143.112025127101 2690.64340902777 14 17 10
-81.5715062792552 -147.516922202579 2704.3449075382 15 16 10
-82.631469555436 -147.19138973484 2694.67478834865 16 17 11
-78.8997620595939 -147.63258391262 2688.79640501957 18 19 13
-65.5020306116589 -149.618052464916 2690.430530743 18 19 13
-34.2819511281567 -154.448056422824 2705.74976724352 19 20 14
-28.0525251696546 -155.285724711144 2701.67918883466 17 18 12
-44.5660269298602 -152.495129907499 2680.24338360791 16 17 11
-57.118436837114 -150.339374816394 2661.9950913429 16 17 11
-42.8186127876411 -152.465859871187 2664.17183115863 15 16 10
-11.2867318367278 -157.336387392689 2679.22108071346 15 16 10
-0.958938547569677 -158.826633912434 2678.21914862156 14 15 9
15.9732039419906 -161.367390486186 2682.08714604658 13 15 10
49.453223291684 -166.539291971421 2698.09634868117 15 17 12
76.4579911013858 -170.677515753613 2709.12446831593 11 13 8
101.910509993142 -174.566085876873 2718.84952286385 9 11 6
80.1101384747174 -170.943923956939 2694.05045285696 11 13 8
109.804257834634 -175.503950277789 2706.72044625564 10 12 7
102.885725561473 -174.248412407215 2692.85836029818 12 14 9
117.6625242688 -176.43733577482 2694.62209363511 13 15 10
134.999645547247 -179.031186439653 2698.1391099252 19 21 16
150.711399824249 -181.365843699904 2700.41668889466 16 18 13
169.842790825377 -184.241185007741 2705.0268929324 13 15 10
-23.6908535006202 -165.26616243741 2806.47872403871 18 20 15
0.0700612120194677 -168.973812851644 2816.34551949636 14 16 11
-36.2497947008613 -162.841374417893 2777.64763133757 12 15 8
-47.3852640399133 -160.837162962366 2759.49578414224 12 15 8
-67.3617368894783 -157.389722695458 2734.44026867254 12 15 8
-61.1395567129382 -158.229259776528 2730.37598255318 13 16 9
-54.9139883410166 -159.069171068023 2726.30907770083 12 13 7
-42.2697972962784 -160.957104246168 2727.27211556081 13 14 8
-72.2017172742731 -155.894261420304 2694.95479910917 13 14 8
-44.2788383897574 -160.275818249538 2707.83557293552 13 14 8
-49.3740902446063 -159.269634207112 2695.04163737852 11 12 6
-48.8523359642103 -159.180648679175 2686.64864130276 13 14 8
-52.4168749448726 -158.426719785629 2675.1761382407 13 14 8
-47.0706776505487 -159.12508134629 2670.54692227921 12 13 7
-23.76809383443 -162.745586275819 2679.48714402237 12 13 7
-10.195990943791 -164.780498349242 2680.97045614395 11 12 6
5.87703096892422 -167.220669678332 2684.25885607382 11 12 6
19.5351438351579 -169.266775585028 2685.66769279427 10 12 7
10.1504958344405 -167.568962498752 2669.97042941067 13 15 10
46.1448098640003 -173.240418751899 2687.77373772743 9 11 6
69.0337233824168 -176.780593424083 2695.7484054598 6 8 3
83.7026255384172 -178.984989172094 2697.60575687748 8 10 5
95.085288329213 -180.655241888144 2697.01427430124 8 10 5
110.668528380297 -183.005341933016 2699.40302572648 12 14 9
115.424123742961 -183.600331852335 2693.96177496518 13 15 10
140.302212509207 -187.452954199899 2702.86121493595 15 17 12
156.025861486037 -189.821551870071 2705.12870427623 19 21 16
-26.5522260902791 -172.098607711999 2795.76949766908 15 17 12
-67.6779768034432 -165.019357954236 2753.29071966033 13 16 9
-48.9237096856896 -167.556857784192 2741.02226342638 13 16 9
-37.0677253403118 -169.337182819736 2741.34482570175 13 14 8
-45.2242080789005 -167.779698186497 2725.9069220307 13 14 8
-47.0202416685233 -167.284522359769 2715.55042127426 14 15 9
-56.1065685531412 -165.576452726148 2699.59421028078 13 14 8
-56.3804437627247 -165.337799700186 2690.56658416134 13 14 8
-43.7250199426287 -167.251117998878 2691.52036618022 14 15 9
-37.529430821269 -168.089020322944 2687.47911689092 13 14 8
-24.8185746105296 -170.009474411506 2688.38489990443 13 14 8
-5.54368398642557 -173.018860428977 2694.1951726589 12 13 7
10.5274866742322 -175.493965573031 2697.48540350746 12 13 7
6.14805677819552 -174.574061282876 2685.39485929587 12 13 7
0.896927821337545 -173.511372535745 2672.73566187422 10 12 7
17.8450193453443 -176.129943168016 2676.59033993484 15 17 12
39.8065077185721 -179.576990018123 2684.04497603375 11 13 8
70.1311768116364 -184.405963320419 2697.4934529691 7 9 4
78.9897367406391 -185.678374544293 2695.11702491908 9 11 6
137.803394460483 -195.21275654199 2728.89790284501 10 12 7
103.428561195588 -189.33292120284 2695.13245039186 9 11 6
125.732453776226 -192.824822535384 2702.2906031148 12 14 9
136.379119021404 -194.388921034205 2701.0130873124 10 12 7
152.092156475534 -196.788458110386 2703.28997452895 11 13 8
164.483372274256 -198.63846038142 2703.14876846241 11 13 8
-81.5762314585457 -170.191630029081 2752.1367977292 13 16 9
-84.8459718029852 -169.416206192175 2740.4089583178 13 16 9
-76.2607565293365 -170.664411717385 2738.26929105231 13 16 9
-67.6601048611305 -171.914486483577 2736.11625662152 10 13 6
-71.0059174220778 -171.128787943229 2724.45428515421 11 14 7
-49.612686696376 -174.556527914273 2732.40132547296 12 13 7
-57.7961293705944 -172.94864919195 2716.98677790508 12 13 7
-45.1563884012134 -174.884318958577 2717.95429765245 14 15 9
-70.3455246730007 -170.389743789062 2689.46980321927 16 17 11
-59.345292780749 -172.047749343638 2689.2097078872 19 20 14
-32.9328241176929 -176.32080940099 2700.75206822473 17 18 12
-25.0853717134452 -177.440135712675 2697.92775054411 17 18 12
-38.3849054115681 -174.973594121659 2679.00174254734 16 17 11
-11.8036805527915 -179.268482538332 2690.39797727248 16 17 11
5.88632641244402 -182.053561157536 2694.93395040035 15 16 10
14.6176604355452 -183.319917618168 2692.66775438104 15 16 10
8.56956220935023 -182.085544687025 2679.37462996912 11 13 8
32.1268355775954 -185.858624232535 2688.09509181006 17 19 14
59.0769802994906 -190.201638604211 2699.17188228655 12 14 9
77.023849457833 -193.020171405862 2703.48544050279 8 10 5
80.0894004530175 -193.324732775126 2696.86029270145 10 12 7
93.1273904162344 -195.312051345619 2697.48265490366 11 13 8
134.562722729973 -202.085657041546 2718.51769082536 10 12 7
135.198949065419 -201.977982463463 2710.02535659933 13 15 10
146.707021846735 -203.702253758908 2709.32552671823 11 13 8
159.92339943767 -205.713064831545 2709.79374169628 10 12 7
-65.5221798037644 -180.529075202972 2775.34330504039 22 23 18
-127.102821510414 -169.560087775206 2716.1610039239 20 21 15
-82.2270989117211 -177.142325274727 2743.48251149399 18 19 13
-55.3913172546032 -181.576505332562 2755.98227617747 16 17 11
-74.5692389914034 -178.004196355028 2731.55739498734 13 14 8
-72.3483108483465 -178.156115329537 2724.34006217294 12 13 7
-69.3453552216754 -178.44446168361 2717.76906295375 10 13 6
-39.9110518589736 -183.320850051246 2731.98955912223 8 11 4
-77.0362362889299 -176.646770186085 2693.98616828642 12 15 8
-61.2203514618788 -179.159149405591 2697.49790608004 15 18 11
-71.9985799241716 -177.062075760962 2680.35908449875 20 23 16
-51.2887681876109 -180.420018940108 2687.5744399507 17 20 13
-29.6903484593929 -183.928369089358 2695.34447345435 17 20 13
-22.6560397552715 -184.914855009614 2691.90049945275 15 18 11
-24.5860862203005 -184.351888254549 2681.6593976727 15 18 11
10.2409708721423 -190.138600699853 2699.15189552431 16 19 12
14.8854191024799 -190.709639341143 2693.80682477287 17 20 13
9.66406217099713 -189.579036745442 2681.12138278325 18 19 13
44.7536276940976 -195.399993703622 2698.38657704756 16 19 12
60.1698524186784 -197.825283634426 2700.92088940475 11 14 7
95.5022870044591 -203.677900128288 2717.97578547718 6 9 2
90.3165754935595 -202.552008125986 2705.25947884505 9 12 5
100.88349690625 -204.137548473381 2704.0509033195 13 16 9
128.987194016758 -208.736290148879 2715.45310198106 13 15 10
131.888970137603 -208.769116933346 2699.70468577289 13 18 12
150.109109014609 -211.664178109603 2703.78157169433 15 20 14
175.126513064264 -215.722407112631 2712.56159443758 13 18 12
-69.3278433085251 -186.71520735182 2754.86130790856 17 18 12
-74.1821203847697 -185.597509390205 2741.85778823622 16 17 11
-71.1402153550731 -185.88259728286 2735.2530090545 18 19 13
-73.6907064316723 -185.177056801775 2724.22548416753 18 19 13
-65.0953310759972 -186.447388905371 2722.07746968737 14 17 10
-63.6949997277894 -186.443515486992 2714.24679168754 12 15 8
-44.6459176681895 -189.561966417746 2720.25348758481 11 14 7
-49.6848126860483 -188.41958533746 2707.40982297127 13 16 9
-60.4283539110551 -186.27205785444 2690.24060977248 14 17 10
-61.5427324343227 -185.827958639203 2680.61688591803 16 19 12
-37.5390568059379 -189.816200840586 2690.27509000582 16 19 12
-40.2838553938021 -189.0847621611 2679.4158106022 17 20 13
-26.7619512647848 -191.220858715935 2680.94328747281 17 20 13
-9.93029426647585 -193.937884231657 2684.89920599929 16 19 12
2.04064603098741 -195.797072325446 2685.12232734069 15 18 11
-12.2452294807105 -193.038042367734 2665.72606104339 17 18 12
3.01858053889958 -195.475923432847 2668.39255829472 16 19 12
87.6806365691372 -210.098303802947 2722.14985817411 13 16 9
89.9696527094704 -210.247205455 2714.87349149274 8 11 4
90.58210469136 -210.102762949557 2706.40152509641 9 12 5
97.8232357029762 -211.121301720815 2702.77881398289 12 15 8
113.408990721654 -213.601244306486 2705.16622697821 12 14 9
131.550453832735 -216.526530270759 2709.31181538416 11 16 10
109.537291085241 -212.424229585961 2684.69406787304 13 18 12
136.940009908943 -216.967817405173 2695.37989582885 15 20 14
190.546060754659 -226.085351302798 2724.40791998854 14 19 13
-0.551550194171302 -207.070428644715 2830.36471472444 20 21 16
-37.4763205451103 -200.092917203689 2790.86239068627 19 20 15
-50.900559638162 -197.381385401039 2770.719620923 16 17 11
-62.045535825273 -195.087054891496 2752.57381816307 15 16 10
-66.9184877721629 -193.930970139979 2739.58623592503 17 18 12
-61.4862313343858 -194.639244602731 2734.8824936464 18 19 13
-85.6138390647381 -190.010840637079 2706.80064344116 15 18 11
-71.4485476891036 -192.298259880491 2709.09471490573 14 17 10
-66.0718789113561 -192.999048269064 2704.43910394018 14 17 10
-38.1554561188051 -197.760461983249 2717.32793497557 12 15 8
-58.5490493156144 -193.818869972075 2692.63075058843 9 12 5
-56.4193493957097 -193.935806244835 2685.49226186542 12 15 8
-38.0840698476757 -196.966991775726 2690.79380970274 12 15 8
-40.8267545718233 -196.208110475962 2679.93252030858 13 16 9
-50.1328056021721 -194.272975608398 2664.16528074173 13 16 9
-22.7369208558619 -198.926102806156 2676.18100272806 13 16 9
-18.1715277498902 -199.480656072641 2670.90434506887 13 16 9
5.27929633710311 -203.419058447696 2679.71814162419 14 15 9
18.1154208843273 -205.452559804192 2680.51608261686 17 20 13
64.0028551087926 -213.398097020588 2705.63948116162 15 18 11
91.8861134823437 -218.114741348426 2717.23350601221 11 14 7
85.8701871786676 -216.768851259544 2703.91177440468 10 13 6
94.7638402047048 -218.088126191911 2701.5055490969 11 14 7
117.009519156297 -221.789305122576 2708.71551378864 14 16 11
125.131255276682 -222.967997008107 2705.65384924263 13 18 12
130.75165797932 -223.700381746149 2700.78719006859 15 20 14
153.164087871759 -227.42356813172 2707.85276833497 17 22 16
110.006765934983 -219.472580214601 2668.4524381168 13 18 14
-5.84170706890186 -213.704338044643 2827.05267548011 18 19 14
-28.5748658085176 -209.199715750928 2799.08658470498 18 19 14
-41.179234745532 -206.571887558942 2779.55700728117 15 16 10
-49.9157213722885 -204.662284056597 2763.29627121685 15 16 10
-69.0562605686824 -200.839624863036 2738.83736695961 15 16 10
-76.3744914940805 -199.200316417579 2723.99596647607 16 17 11
-55.006087902489 -202.841979911899 2731.96591159411 15 18 11
-82.401452527614 -197.514719785108 2701.41814062831 15 18 11
-69.8263268783355 -199.538942851781 2702.44223862378 17 20 13
-66.8730892199001 -199.794842558106 2695.91412149967 16 19 12
-67.1602144762127 -199.457120042394 2686.89733769923 12 15 8
-50.4901937185531 -202.228912288766 2690.99370705522 13 16 9
-48.3603869489104 -202.334574407776 2683.85505266489 13 16 9
-31.614489700952 -205.11622573873 2687.8857210265 11 14 7
-66.9721441621558 -198.365337075152 2652.31994883985 11 14 7
-71.4869024795486 -197.26216935906 2640.34582659666 14 17 10
-23.6307677020298 -205.726279550021 2667.7363401029 15 18 11
18.6889619536186 -213.168892524869 2690.6556939871 17 18 12
66.9531912543992 -221.686142640031 2717.69315716213 19 22 15
78.295178785341 -223.463503560174 2717.13762335949 16 19 12
83.0472966860505 -224.039340678864 2711.69926252885 9 12 5
90.2820548353218 -225.067283939278 2708.08182043266 10 13 6
97.5244599119938 -226.096174939993 2704.45807212386 12 15 8
97.2744298982984 -225.763148665803 2695.40916697504 15 17 12
111.196240750911 -228.005441777502 2696.59071847017 13 18 12
129.345070177799 -231.012917677199 2700.73013930541 13 18 12
-4.05338654633747 -221.637170184613 2829.52417688178 17 18 13
-32.2912001879301 -215.99733527404 2797.05803952345 17 18 13
-51.2215614958187 -212.1173438288 2772.41659502107 17 18 12
-53.6398635415085 -211.346243893256 2761.27407232264 16 17 11
-50.5390924840858 -211.613388536645 2754.61815556607 14 15 9
-63.3801720542291 -208.891250831983 2735.29313262846 13 14 8
-56.3538720309142 -209.897596174392 2731.85654424078 13 16 9
-48.5200025731052 -211.054730149534 2729.04392886983 13 16 9
-66.3562417961137 -207.407819960688 2706.10251705811 16 19 12
-68.2198732984842 -206.753997103863 2695.80326229287 15 18 11
-58.8280594118031 -208.205118950914 2694.28906279152 12 15 8
-40.5210874478743 -211.319357148733 2699.61568401284 12 15 8
-40.796147735727 -210.963526946979 2690.58832573232 11 14 7
-51.6662919595148 -208.634472276207 2673.52766760256 10 13 6
-60.1744552410426 -206.749875787973 2658.39277391897 10 13 6
-55.6832331107731 -207.288631378419 2653.18030054112 13 16 9
-18.4423864097187 -213.918456917394 2672.55592618644 15 18 11
34.5540581525667 -223.467515403891 2703.43869069905 15 16 10
58.9830718099025 -227.698446107988 2712.7298116561 18 21 14
69.4804052026279 -229.338940426276 2711.5822221847 17 20 13
83.3094081325747 -231.595923276734 2712.84430883222 9 12 5
93.8622548295887 -233.243684053999 2711.64865107143 9 12 5
99.4523160974703 -233.971264031111 2706.80825877453 10 13 6
97.5434906490435 -233.311444666532 2696.5481363693 13 15 10
98.1029099732562 -233.110124707337 2688.12176671629 11 16 10
112.032254965579 -235.380411173368 2689.29696949935 11 16 10
168.802407881952 -245.558178461487 2720.88309751494 12 17 11
-3.83841836002397 -229.283858354209 2830.71098334251 16 17 12
-39.9353548683523 -221.341703222198 2773.2809261402 18 19 13
-31.2377032159552 -222.667879064853 2771.04462698621 15 16 10
-44.8194679910689 -219.737710529238 2751.03665810945 14 15 9
-48.9204586772654 -218.622743866715 2738.70383213013 13 16 9
-47.4692613148724 -218.569427649932 2730.82874633688 12 15 8
-46.8415452827102 -218.360417411183 2722.343131639 13 16 9
-50.2609595177037 -217.382333656983 2710.7437067272 13 16 9
-42.4361006363454 -218.545897397359 2707.93925832462 9 12 5
-35.4083766981796 -219.55721764798 2704.50115250344 8 11 4
-38.0992700283809 -218.722219110265 2693.59448040493 8 11 4
-35.1438766773198 -218.961161909522 2687.06438498336 9 12 5
-48.493264619303 -216.109096393028 2668.17908924709 10 13 6
-38.2549535170806 -217.731925062392 2667.25588923148 11 14 7
-21.4435323026558 -220.597805041393 2671.2306269327 11 14 7
7.73441407545539 -225.799937198834 2684.3518513573 14 15 9
45.257310618565 -232.572585306123 2703.48425527299 17 20 13
51.5970933053569 -233.445813920424 2699.31857266564 17 20 13
90.1855376956666 -240.405647619145 2718.85190180088 13 16 9
90.8093306567954 -240.195809623633 2710.36968200579 8 11 4
98.0549540393856 -241.235426713713 2706.74289826805 9 12 5
99.4778948658856 -241.178163177401 2698.89259336425 13 15 10
102.549508403557 -241.432428150873 2692.26186501752 12 17 11
86.3577325237843 -238.065368414037 2671.86673377087 13 18 12
180.810041545537 -255.493749710754 2730.39020769137 15 20 14
-30.3421503245227 -231.717453382488 2810.02772635041 14 15 10
-46.8099257525578 -228.141553531192 2787.22362328674 17 18 13
-38.1157341697951 -229.478154938001 2784.99007514454 18 19 13
-15.9428075729258 -233.438971522269 2793.58835576058 15 16 10
-17.5048937770725 -232.775034639008 2783.02767530731 14 15 9
-50.149699868475 -226.069606759542 2747.75739625757 15 16 10
-54.2604750403353 -224.92032512494 2735.4328284818 12 15 8
-48.8198947115981 -225.628073708944 2730.72186817997 12 15 8
-44.9844298906012 -226.024582537314 2724.75326508549 12 15 8
-50.8081894920012 -224.5496839918 2711.26445522457 13 16 9
