ply
format ascii 1.0
comment KinectMotionCapture
element vertex 762
property float x
property float y
property float z
property uchar red
property uchar green
property uchar blue
end_header
-11.0527547076344 542.456090450287 1756.00004196167 206 205 203
-6.29242789000273 542.765617370605 1756.99996948242 205 204 202
-1.52666331268847 543.074786663055 1758.00001621246 204 203 201
3.24637442827225 543.692588806152 1759.99999046326 202 201 199
8.02114326506853 543.692231178284 1759.99999046326 202 201 199
12.7958953380585 543.691456317902 1759.99999046326 201 201 201
17.5706222653389 543.690264225006 1759.99999046326 201 201 201
22.3453193902969 543.688833713531 1759.99999046326 201 201 201
27.0891524851322 543.069243431091 1758.00001621246 201 201 201
31.8583250045776 543.067038059235 1758.00001621246 201 201 201
36.627434194088 543.064534664154 1758.00001621246 203 203 203
41.4200238883495 543.370604515076 1758.99994373322 202 202 202
46.1916998028755 543.367326259613 1758.99994373322 201 201 201
50.9343110024929 543.054938316345 1758.00001621246 200 200 200
55.703092366457 543.051064014435 1758.00001621246 200 200 200
60.402974486351 542.429149150848 1756.00004196167 200 200 200
65.0918707251549 541.806697845459 1753.99994850159 200 200 198
69.7299987077713 540.875196456909 1751.00004673004 201 201 199
74.4367763400078 540.561139583588 1750 202 202 200
79.137995839119 540.246665477753 1748.99995326996 202 202 200
83.8815942406654 540.240824222565 1748.99995326996 202 202 200
88.5743796825409 539.925813674927 1748.00002574921 202 202 200
93.2615697383881 539.61044549942 1746.99997901917 203 203 201
97.9992598295212 539.603650569916 1746.99997901917 204 204 202
102.736778557301 539.596617221832 1746.99997901917 204 204 202
107.412591576576 539.280354976654 1746.00005149841 203 203 201
112.211234867573 539.581418037415 1746.99997901917 203 203 201
117.148995399475 540.500044822693 1750 202 202 202
121.893867850304 540.491700172424 1750 202 202 202
126.638501882553 540.483117103577 1750 201 201 201
131.533071398735 541.091859340668 1751.99997425079 201 201 201
136.51604950428 542.009115219116 1754.99999523163 201 201 201
141.273587942123 541.999697685242 1754.99999523163 196 196 196
146.030843257904 541.989862918854 1754.99999523163 195 195 195
150.701954960823 541.67103767395 1753.99994850159 197 197 197
155.810549855232 542.896091938019 1758.00001621246 199 199 199
160.84922850132 543.811917304993 1761.0000371933 196 196 196
165.809825062752 544.418632984161 1763.00001144409 173 173 173
170.684278011322 544.716358184814 1764.00005817413 167 165 166
175.663322210312 545.322597026825 1766.00003242493 176 176 176
180.857270956039 546.546041965485 1769.99998092651 146 146 146
186.177521944046 548.078119754791 1774.99997615814 167 169 168
191.30939245224 548.992276191711 1777.99999713898 155 159 158
196.677833795547 550.52375793457 1782.99999237061 170 174 173
201.960012316704 551.746129989624 1786.99994087219 176 180 179
206.91642165184 552.042007446289 1787.99998760223 182 184 183
211.641073226929 551.720201969147 1786.99994087219 183 185 184
216.238901019096 551.089525222778 1784.9999666214 193 193 193
221.073240041733 551.076054573059 1784.9999666214 192 190 191
225.907310843468 551.062524318695 1784.9999666214 190 190 190
230.870291590691 551.357507705688 1786.00001335144 191 191 191
235.970363020897 551.960945129395 1787.99998760223 191 191 191
241.080954670906 552.564203739166 1789.99996185303 191 191 191
246.20209634304 553.167343139648 1792.00005531311 192 192 192
251.053541898727 553.152978420258 1792.00005531311 197 197 197
256.333082914352 554.064452648163 1794.99995708466 198 200 197
262.06511259079 555.901706218719 1800.99999904633 195 197 194
268.125683069229 558.356106281281 1809.00001525879 193 195 192
273.323744535446 558.958351612091 1810.99998950958 194 196 193
279.914975166321 562.33823299408 1822.00002670288 200 202 199
287.503480911255 567.569613456726 1838.99998664856 199 201 198
-197.15915620327 565.942168235779 1848.99997711182 204 206 203
-192.149266600609 565.954864025116 1848.99997711182 202 204 201
-186.936661601067 565.355181694031 1847.00000286102 196 198 195
-181.833058595657 565.061211585999 1845.99995613098 193 193 191
-176.064059138298 562.624335289001 1838.00005912781 187 187 185
-170.524314045906 560.799241065979 1832.00001716614 192 192 190
-165.107145905495 559.279978275299 1827.00002193451 197 197 195
-160.067439079285 558.984816074371 1825.99997520447 187 187 185
-154.947966337204 558.383345603943 1824.00000095367 182 182 180
-149.921283125877 558.087587356567 1822.99995422363 191 193 190
-144.820243120193 557.485520839691 1820.99997997284 181 183 180
-139.72981274128 556.883037090302 1819.00000572205 187 189 186
-134.724080562592 556.586384773254 1817.999958992 179 181 178
-129.794910550117 556.595683097839 1817.999958992 178 180 177
-124.934196472168 556.910812854767 1819.00000572205 170 172 169
-119.737967848778 555.694699287415 1815.00005722046 149 151 148
-114.436715841293 553.865909576416 1809.00001525879 176 178 175
-108.925603330135 550.812184810638 1799.00002479553 182 184 181
-103.69985550642 548.982679843903 1792.99998283386 184 186 183
-98.5064655542374 547.152757644653 1786.99994087219 187 187 185
-93.3454483747482 545.32253742218 1781.00001811981 189 189 187
-88.3658826351166 544.410526752472 1777.99999713898 192 192 190
-83.4024474024773 543.498158454895 1774.99997615814 194 194 192
-78.4993842244148 542.891621589661 1773.00000190735 195 195 193
-73.6070349812508 542.284786701202 1771.00002765656 198 198 196
-68.6865299940109 541.371285915375 1768.00000667572 199 199 197
-63.8183206319809 540.763735771179 1766.00003242493 200 200 198
-58.8939748704433 539.543390274048 1761.99996471405 200 200 198
-54.0526509284973 538.935124874115 1759.99999046326 202 202 200
-49.2500700056553 538.63263130188 1758.99994373322 203 203 201
-44.4528199732304 538.329899311066 1758.00001621246 204 203 201
-39.6609120070934 538.026809692383 1756.99996948242 204 203 201
-34.8942093551159 538.029491901398 1756.99996948242 204 203 201
-30.1445852965117 538.338124752045 1758.00001621246 204 203 201
-25.3606121987104 538.033962249756 1756.99996948242 204 203 201
-20.5820109695196 537.729442119598 1756.00004196167 204 203 201
-15.8268120139837 538.036942481995 1756.99996948242 206 205 203
-11.0535696148872 537.731766700745 1756.00004196167 206 205 203
-6.29289168864489 538.038611412048 1756.99996948242 205 204 202
-1.52590742800385 538.038969039917 1756.99996948242 203 202 200
3.24292457662523 538.345158100128 1758.00001621246 202 201 199
8.00806004554033 538.038432598114 1756.99996948242 201 200 198
12.7750262618065 538.037657737732 1756.99996948242 202 202 202
17.5519492477179 538.342773914337 1758.00001621246 202 202 202
22.3342645913363 538.647532463074 1758.99994373322 202 202 202
27.1065533161163 538.64574432373 1758.99994373322 202 202 202
31.8606644868851 538.337349891663 1758.00001621246 202 202 202
36.6301238536835 538.334786891937 1758.00001621246 202 202 202
41.3995124399662 538.331925868988 1758.00001621246 202 202 202
46.1950786411762 538.634896278381 1758.99994373322 200 200 200
50.9380362927914 538.325130939484 1758.00001621246 200 200 200
55.6754618883133 538.015007972717 1756.99996948242 200 200 200
60.3729635477066 537.398278713226 1754.99999523163 200 200 200
65.0594905018806 536.781311035156 1753.00002098083 200 200 198
69.6952193975449 535.857796669006 1750 201 201 199
74.4421556591988 535.852551460266 1750 201 201 199
79.2341977357864 536.153197288513 1751.00004673004 201 201 199
83.9355811476707 535.841107368469 1750 200 200 198
88.5300487279892 534.91622209549 1746.99997901917 202 202 200
93.2148471474648 534.603536128998 1746.00005149841 202 202 200
98.0062335729599 534.902930259705 1746.99997901917 203 203 201
102.744065225124 534.895718097687 1746.99997901917 204 204 202
107.543222606182 535.194456577301 1748.00002574921 204 204 202
112.219132483006 534.880459308624 1746.99997901917 203 203 201
117.157205939293 535.790860652924 1750 202 202 202
121.972031891346 536.088585853577 1751.00004673004 201 201 201
126.792043447495 536.386072635651 1751.99997425079 200 200 200
131.542161107063 536.377012729645 1751.99997425079 198 198 198
136.447668075562 536.980032920837 1753.99994850159 198 198 198
141.202747821808 536.970436573029 1753.99994850159 202 202 202
146.040797233582 537.266731262207 1754.99999523163 204 204 204
150.884032249451 537.562787532806 1756.00004196167 189 189 189
155.909687280655 538.47062587738 1758.99994373322 188 188 188
160.951346158981 539.37828540802 1761.99996471405 195 195 195
165.914937853813 539.979577064514 1764.00005817413 186 186 186
170.889094471931 540.58051109314 1766.00003242493 185 183 184
175.873816013336 541.181266307831 1768.00000667572 175 175 175
181.175649166107 542.699873447418 1773.00000190735 161 161 161
186.399385333061 543.91223192215 1776.99995040894 140 142 141
191.75212085247 545.430302619934 1781.99994564056 167 171 170
196.91102206707 546.335995197296 1784.9999666214 165 169 168
202.085867524147 547.241389751434 1787.99998760223 171 175 174
206.813737750053 546.922385692596 1786.99994087219 173 175 174
211.65432035923 546.909093856812 1786.99994087219 191 193 192
216.373443603516 546.58967256546 1786.00001335144 185 185 185
221.334531903267 546.882092952728 1786.99994087219 191 189 190
226.17419064045 546.868324279785 1786.99994087219 189 189 189
230.884239077568 546.548426151276 1786.00001335144 190 190 190
236.116498708725 547.452330589294 1789.00003433228 191 191 191
241.095259785652 547.74397611618 1789.99996185303 191 191 191
246.353924274445 548.647522926331 1792.99998283386 192 192 192
251.068145036697 548.326969146729 1792.00005531311 196 196 196
256.490647792816 549.536108970642 1796.0000038147 197 199 196
262.080013751984 551.051080226898 1800.99999904633 196 198 195
267.992526292801 553.177714347839 1807.99996852875 193 195 192
273.338913917542 554.080307483673 1810.99998950958 193 195 192
279.623091220856 556.818544864655 1820.00005245209 199 201 198
286.581009626389 560.780107975006 1832.99994468689 199 201 198
-202.619254589081 562.165081501007 1853.00004482269 205 207 204
-197.278678417206 561.268031597137 1850.00002384186 204 206 203
-192.265868186951 561.280906200409 1850.00002384186 202 204 201
-187.050253152847 560.686707496643 1848.00004959106 198 200 197
-181.94368481636 560.39559841156 1847.00000286102 194 194 192
-176.17167532444 557.980418205261 1838.99998664856 187 187 185
-170.535817742348 555.868208408356 1832.00001716614 192 192 190
-165.208727121353 554.665863513947 1827.99994945526 196 196 194
-160.166054964066 554.373621940613 1827.00002193451 187 187 185
-155.213460326195 554.384469985962 1827.00002193451 185 185 183
-150.178372859955 554.091572761536 1825.99997520447 193 195 194
-144.989371299744 553.191483020782 1822.99995422363 189 191 190
-139.893189072609 552.594542503357 1820.99997997284 179 181 180
-134.955838322639 552.604198455811 1820.99997997284 186 188 187
-130.01823425293 552.613496780396 1820.99997997284 172 174 173
-125.080391764641 552.622556686401 1820.99997997284 161 163 162
-119.812428951263 551.113903522491 1815.99998474121 154 156 155
-114.381618797779 548.694431781769 1807.99996852875 168 170 169
-108.933389186859 545.971095561981 1799.00002479553 177 179 178
-103.76513749361 544.461309909821 1794.0000295639 178 180 179
-98.6238121986389 542.951107025146 1789.00003433228 180 182 181
-93.5094431042671 541.440665721893 1784.00003910065 187 187 187
-88.4716957807541 540.233194828033 1779.99997138977 191 191 191
-83.4554880857468 539.025485515594 1776.00002288818 192 192 192
-78.5051062703133 538.120925426483 1773.00000190735 195 195 195
-73.6123993992805 537.51939535141 1771.00002765656 197 197 197
-68.6527043581009 536.31067276001 1766.99995994568 197 197 197
-63.7507140636444 535.404920578003 1764.00005817413 199 199 199
-58.8648840785027 534.498929977417 1761.0000371933 200 200 200
-54.0873520076275 534.503102302551 1761.0000371933 200 200 200
-49.2537021636963 533.89984369278 1758.99994373322 201 201 201
-44.4561056792736 533.59979391098 1758.00001621246 201 201 201
-39.6864265203476 533.602952957153 1758.00001621246 201 201 201
-34.9166579544544 533.605754375458 1758.00001621246 200 200 200
-30.146824195981 533.608138561249 1758.00001621246 200 200 200
-25.3480616956949 533.003211021423 1756.00004196167 201 201 201
-20.5952636897564 533.308386802673 1756.99996948242 202 202 202
-15.8369988203049 533.613264560699 1758.00001621246 203 203 203
-11.0669815912843 533.614277839661 1758.00001621246 204 204 204
-6.29335967823863 533.311367034912 1756.99996948242 203 203 203
-1.52602093294263 533.311665058136 1756.99996948242 199 199 199
3.24132107198238 533.311665058136 1756.99996948242 201 201 201
8.00865609198809 533.311188220978 1756.99996948242 202 202 202
12.7687053754926 533.006906509399 1756.00004196167 202 202 202
17.5432693213224 533.309280872345 1756.99996948242 203 203 203
22.3232284188271 533.611357212067 1758.00001621246 203 203 203
27.0931534469128 533.609449863434 1758.00001621246 203 203 203
31.8449027836323 533.303797245026 1756.99996948242 202 202 202
36.6120003163815 533.3012342453 1756.99996948242 201 201 201
41.4025746285915 533.601820468903 1758.00001621246 201 201 201
46.1722314357758 533.598661422729 1758.00001621246 200 200 200
50.8838407695293 532.987952232361 1756.00004196167 199 199 199
55.6161887943745 532.680511474609 1754.99999523163 199 199 199
60.3085979819298 532.069206237793 1753.00002098083 200 200 200
65.0642588734627 532.0645570755 1753.00002098083 201 201 201
69.7003304958344 531.149089336395 1750 200 200 200
74.4475871324539 531.143724918365 1750 201 201 199
79.1947171092033 531.138122081757 1750 200 200 198
83.9416831731796 531.132161617279 1750 200 200 198
88.5364562273026 530.215382575989 1746.99997901917 201 201 199
93.1681767106056 529.601752758026 1745.00000476837 202 202 200
97.9010686278343 529.594838619232 1745.00000476837 203 203 201
102.751426398754 530.194640159607 1746.99997901917 204 204 202
107.550911605358 530.490577220917 1748.00002574921 204 204 202
112.355589866638 530.786156654358 1748.99995326996 203 203 201
117.031611502171 530.474483966827 1748.00002574921 202 202 202
121.841304004192 530.769467353821 1748.99995326996 201 201 201
126.656204462051 531.06415271759 1750 199 199 199
131.551370024681 531.662046909332 1751.99997425079 196 196 196
136.457175016403 532.259523868561 1753.99994850159 195 195 195
141.212537884712 532.249808311462 1753.99994850159 190 190 190
146.134078502655 532.846808433533 1756.00004196167 192 192 192
151.066213846207 533.443331718445 1758.00001621246 191 191 191
156.008943915367 534.039676189423 1759.99999046326 192 192 192
160.870909690857 534.332275390625 1761.0000371933 193 193 193
165.832042694092 534.9280834198 1763.00001144409 187 187 187
170.997306704521 536.130368709564 1766.99995994568 187 187 187
176.283463835716 537.635803222656 1771.99995517731 165 165 165
181.596383452415 539.140820503235 1776.99995040894 171 171 171
186.936154961586 540.645658969879 1781.99994564056 153 155 154
192.087471485138 541.543304920197 1784.9999666214 172 176 175
197.365075349808 542.744159698486 1789.00003433228 152 156 155
202.324911952019 543.034553527832 1789.99996185303 169 173 172
207.058414816856 542.71799325943 1789.00003433228 172 174 173
211.786165833473 542.401254177094 1787.99998760223 195 197 196
216.508165001869 542.084276676178 1786.99994087219 183 183 183
221.472173929214 542.373895645142 1787.99998760223 191 191 191
226.314723491669 542.359948158264 1787.99998760223 189 189 189
231.156900525093 542.345762252808 1787.99998760223 190 190 190
236.262768507004 542.93817281723 1789.99996185303 191 191 191
241.244420409203 543.227016925812 1791.00000858307 191 191 191
246.23116850853 543.515622615814 1792.00005531311 192 192 192
250.942766666412 543.197512626648 1791.00000858307 196 196 196
256.219953298569 544.09247636795 1794.0000295639 197 199 196
262.095093727112 546.200335025787 1800.99999904633 196 198 195
268.15602183342 548.611164093018 1809.00001525879 193 195 192
273.50527048111 549.505531787872 1812.00003623962 193 195 192
279.177755117416 551.006197929382 1817.00003147125 199 201 198
285.81503033638 554.326117038727 1827.99994945526 199 201 198
-202.960625290871 558.078467845917 1855.99994659424 205 207 204
-197.29171693325 556.287527084351 1850.00002384186 204 206 203
-192.278623580933 556.300520896912 1850.00002384186 202 204 201
-187.062785029411 555.71186542511 1848.00004959106 198 200 197
-181.955948472023 555.423557758331 1847.00000286102 195 195 193
-176.183611154556 553.029954433441 1838.99998664856 187 187 185
-170.640543103218 551.237523555756 1832.99994468689 192 192 190
-165.220066905022 549.745380878448 1827.99994945526 196 196 194
-160.264760255814 549.756586551666 1827.99994945526 188 188 186
-155.309185385704 549.76761341095 1827.99994945526 184 184 182
-150.271102786064 549.477517604828 1827.00002193451 190 192 191
-145.158603787422 548.886358737946 1825.00004768372 189 191 190
-140.056684613228 548.294842243195 1822.99995422363 173 175 174
-135.11361181736 548.304617404938 1822.99995422363 184 186 185
-130.098879337311 548.01332950592 1822.00002670288 165 167 166
-125.1580119133 548.022389411926 1822.00002670288 158 160 159
-119.887009263039 546.527326107025 1817.00003147125 155 157 156
-114.516369998455 544.430255889893 1809.99994277954 170 172 171
-109.122924506664 542.032063007355 1802.00004577637 178 180 179
-103.830486536026 539.934098720551 1794.99995708466 178 180 179
-98.6861139535904 538.43754529953 1789.99996185303 179 181 180
-93.5686677694321 536.940515041351 1784.9999666214 188 188 188
-88.5278657078743 535.743951797485 1781.00001811981 191 191 191
-83.5556015372276 534.847855567932 1777.99999713898 191 191 191
-78.5551592707634 533.650636672974 1774.00004863739 194 194 194
-73.6178308725357 532.753825187683 1771.00002765656 196 196 196
-68.6577707529068 531.555712223053 1766.99995994568 196 196 196
-63.7915730476379 530.958950519562 1764.99998569489 199 199 199
-58.9361041784287 530.361890792847 1763.00001144409 200 200 200
-54.12208288908 530.065298080444 1761.99996471405 199 199 199
-49.2853783071041 529.467523097992 1759.99999046326 200 200 200
-44.4847121834755 529.170215129852 1758.99994373322 200 200 200
-39.7119596600533 529.173254966736 1758.99994373322 200 200 200
-34.939132630825 529.176115989685 1758.99994373322 200 200 200
-30.1490817219019 528.877735137939 1758.00001621246 201 201 201
-25.3355223685503 527.977287769318 1754.99999523163 201 201 201
-20.5733627080917 527.979016304016 1754.99999523163 201 201 201
-15.8201698213816 528.281271457672 1756.00004196167 203 203 203
-11.0615165904164 528.583109378815 1756.99996948242 203 203 203
-6.29024999216199 528.282880783081 1756.00004196167 202 202 202
-1.52439833618701 527.982354164124 1754.99999523163 200 200 200
3.23602952994406 527.681410312653 1753.99994850159 201 201 201
8.0001400783658 527.981877326965 1754.99999523163 202 202 202
12.7696637064219 528.281927108765 1756.00004196167 203 203 203
17.554571852088 528.882443904877 1758.00001621246 203 203 203
22.3121996968985 528.580069541931 1756.99996948242 204 204 204
27.0951855927706 528.879106044769 1758.00001621246 203 203 203
31.847283244133 528.576016426086 1756.99996948242 203 203 203
36.6147346794605 528.573453426361 1756.99996948242 201 201 201
41.3821153342724 528.570592403412 1756.99996948242 201 201 201
46.0968725383282 527.965605258942 1754.99999523163 200 200 200
50.8296638727188 527.661085128784 1753.99994850159 199 199 199
55.5569343268871 527.356386184692 1753.00002098083 199 199 199
60.3130720555782 527.352094650269 1753.00002098083 200 200 200
65.0690719485283 527.347385883331 1753.00002098083 201 201 201
69.7054713964462 526.439905166626 1750 200 200 200
74.4530707597733 526.434540748596 1750 198 198 198
79.1552662849426 526.128053665161 1748.99995326996 199 199 199
83.9478373527527 526.42285823822 1750 200 200 200
88.5936096310616 525.814890861511 1748.00002574921 200 200 200
93.3351516723633 525.808274745941 1748.00002574921 199 199 199
97.9642942547798 525.19965171814 1746.00005149841 199 199 199
102.700047194958 525.192379951477 1746.00005149841 199 199 199
107.435584068298 525.184750556946 1746.00005149841 201 201 201
112.299412488937 525.778353214264 1748.00002574921 202 202 202
116.906076669693 525.168538093567 1746.00005149841 199 201 200
121.780306100845 525.761544704437 1748.00002574921 198 200 199
126.592814922333 526.053488254547 1748.99995326996 198 200 199
131.48558139801 526.645839214325 1751.00004673004 199 201 200
136.311143636703 526.937127113342 1751.99997425079 196 198 197
141.061380505562 526.927411556244 1751.99997425079 194 196 195
146.14425599575 528.120279312134 1756.00004196167 193 195 194
151.076689362526 528.711438179016 1758.00001621246 189 191 190
156.019702553749 529.302299022675 1759.99999046326 186 188 187
160.973265767097 529.892802238464 1761.99996471405 184 186 185
166.03147983551 530.783772468567 1764.99998569489 182 184 183
171.202450990677 531.975209712982 1769.00005340576 182 184 183
176.394775509834 533.166289329529 1773.00000190735 178 180 179
181.812942028046 534.95854139328 1779.00004386902 172 174 173
187.263265252113 536.750376224518 1784.9999666214 163 165 164
192.745849490166 538.541972637177 1791.00000858307 156 158 157
197.819277644157 539.130389690399 1792.99998283386 158 160 159
202.564150094986 538.816630840302 1792.00005531311 172 174 173
207.187503576279 538.201928138733 1789.99996185303 180 182 181
211.91817522049 537.887692451477 1789.00003433228 182 184 183
216.643095016479 537.573337554932 1787.99998760223 180 182 181
221.610009670258 537.860095500946 1789.00003433228 182 184 183
226.455435156822 537.845969200134 1789.00003433228 185 187 186
231.429785490036 538.13225030899 1789.99996185303 188 190 189
236.409246921539 538.418412208557 1791.00000858307 190 192 191
241.528511047363 539.004981517792 1792.99998283386 190 192 191
246.246010065079 538.689494132996 1792.00005531311 196 198 197
250.957757234573 538.373947143555 1791.00000858307 196 198 197
256.092250347137 538.960039615631 1792.99998283386 198 200 199
261.964857578278 541.048765182495 1799.99995231628 198 200 199
268.31978559494 544.039011001587 1809.99994277954 195 197 196
273.822814226151 545.225620269775 1814.00001049042 193 195 194
279.65447306633 547.013163566589 1820.00005245209 196 198 197
285.83100438118 549.401581287384 1827.99994945526 199 201 200
-197.304889559746 551.306784152985 1850.00002384186 203 205 202
-192.187607288361 551.021873950958 1848.99997711182 201 203 200
-187.075436115265 550.736725330353 1848.00004959106 197 199 196
-182.06687271595 550.7493019104 1848.00004959106 196 196 194
-176.2914955616 548.377394676209 1840.0000333786 188 188 186
-170.745372772217 546.601116657257 1833.99999141693 191 191 189
-165.32190144062 545.122563838959 1828.9999961853 195 195 193
-160.363614559174 545.133948326111 1828.9999961853 189 189 187
-155.405029654503 545.144975185394 1828.9999961853 183 183 181
-150.281667709351 544.5596575737 1827.00002193451 184 186 185
-145.32795548439 544.570088386536 1827.00002193451 191 193 192
-140.143483877182 543.686091899872 1824.00000095367 159 161 160
-135.345622897148 544.292032718658 1825.99997520447 178 180 179
-130.2510201931 543.705463409424 1824.00000095367 159 161 160
-125.304415822029 543.714642524719 1824.00000095367 155 157 156
-120.093628764153 542.531192302704 1820.00005245209 141 143 142
-114.777773618698 540.751099586487 1814.00001049042 172 174 173
-109.251983463764 537.778317928314 1804.00002002716 175 177 176
-103.953778743744 535.699427127838 1797.00005054474 175 177 176
-98.6933559179306 533.620059490204 1789.99996185303 177 179 178
-93.6803966760635 532.732784748077 1786.99994087219 186 186 186
-88.5841101408005 531.248986721039 1781.99994564056 187 187 187
-83.6087763309479 530.360996723175 1779.00004386902 189 189 189
-78.5609856247902 528.876483440399 1774.00004863739 193 193 193
-73.6232995986938 527.987658977509 1771.00002765656 195 195 195
-68.7017515301704 527.098596096039 1768.00000667572 193 193 193
-63.8324916362762 526.507318019867 1766.00003242493 198 198 198
-59.0073801577091 526.213765144348 1764.99998569489 199 199 199
-54.1875809431076 525.919914245605 1764.00005817413 197 197 197
-49.3170842528343 525.029420852661 1761.0000371933 196 196 196
-44.5133522152901 524.734795093536 1759.99999046326 197 197 197
-39.7149510681629 524.439811706543 1758.99994373322 198 198 198
-34.9417626857758 524.442613124847 1758.99994373322 199 199 199
-30.134204775095 523.84877204895 1756.99996948242 200 200 200
-25.322999805212 522.956430912018 1753.99994850159 201 201 201
-20.5631926655769 522.958159446716 1753.99994850159 200 200 200
-15.8123560249805 523.257672786713 1754.99999523163 202 202 202
-11.0560581088066 523.556888103485 1756.00004196167 200 200 200
-6.29072636365891 523.557543754578 1756.00004196167 200 200 200
-1.52451382018626 523.259699344635 1754.99999523163 201 201 201
3.23811988346279 523.25963973999 1754.99999523163 201 201 201
8.00074636936188 523.259162902832 1754.99999523163 200 200 200
12.763355858624 523.25838804245 1754.99999523163 203 203 203
17.5459124147892 523.853600025177 1756.99996948242 203 203 203
22.3138853907585 523.851990699768 1756.99996948242 204 204 204
27.0664039999247 523.552000522614 1756.00004196167 204 204 204
31.8315625190735 523.549795150757 1756.00004196167 203 203 203
36.5966558456421 523.547232151031 1756.00004196167 201 201 201
41.3852259516716 523.842394351959 1756.99996948242 202 202 202
46.1266078054905 523.54097366333 1756.00004196167 201 201 201
50.8624650537968 523.239195346832 1754.99999523163 199 199 199
55.5610880255699 522.638857364655 1753.00002098083 199 199 199
60.2831654250622 522.336423397064 1751.99997425079 201 201 201
64.9996921420097 522.03357219696 1751.00004673004 200 200 200
69.7106570005417 521.730303764343 1750 199 199 199
74.4585990905762 521.724939346313 1750 198 198 198
79.2516693472862 522.017419338226 1751.00004673004 199 199 199
84.0020179748535 522.011339664459 1751.00004673004 199 199 199
88.7015089392662 521.706819534302 1750 199 199 199
93.39539706707 521.401941776276 1748.99995326996 198 198 198
98.0275720357895 520.798683166504 1746.99997901917 198 198 198
102.766364812851 520.791351795197 1746.99997901917 198 198 198
107.443399727345 520.485579967499 1746.00005149841 199 199 199
112.243302166462 520.775616168976 1746.99997901917 199 199 199
116.914503276348 520.46924829483 1746.00005149841 199 201 200
121.719397604465 520.75868844986 1746.99997901917 196 198 197
126.529484987259 521.047830581665 1748.00002574921 196 198 197
131.344735622406 521.336555480957 1748.99995326996 197 199 198
136.243015527725 521.923243999481 1751.00004673004 194 196 195
141.151875257492 522.509574890137 1753.00002098083 194 196 195
146.320968866348 523.989617824554 1758.00001621246 193 195 194
151.259124279022 524.575293064117 1759.99999046326 189 191 190
156.207859516144 525.160670280457 1761.99996471405 186 188 187
161.167129874229 525.745689868927 1764.00005817413 183 185 184
166.231021285057 526.628434658051 1766.99995994568 178 180 179
171.407699584961 527.809023857117 1771.00002765656 180 182 181
176.605761051178 528.989195823669 1774.99997615814 177 179 178
181.927397847176 530.46703338623 1779.99997138977 172 174 173
187.48565018177 532.540619373322 1786.99994087219 165 167 166
193.081557750702 534.613966941834 1794.0000295639 143 145 144
198.384061455727 535.792887210846 1797.99997806549 135 137 136
203.029602766037 535.183608531952 1796.0000038147 176 178 177
207.548275589943 534.276127815247 1792.99998283386 177 179 178
212.16881275177 533.666551113129 1791.00000858307 173 175 174
216.778188943863 533.056735992432 1789.00003433228 179 181 180
221.624091267586 533.04260969162 1789.00003433228 178 180 179
226.343125104904 532.730400562286 1787.99998760223 185 187 186
231.573581695557 533.609747886658 1791.00000858307 189 191 190
236.687943339348 534.190952777863 1792.99998283386 191 193 192
241.812780499458 534.771919250488 1794.99995708466 192 194 193
246.535867452621 534.459054470062 1794.0000295639 194 196 195
250.972896814346 533.550143241882 1791.00000858307 195 197 196
256.1075091362 534.130573272705 1792.99998283386 198 200 199
261.980354785919 536.200344562531 1799.99995231628 198 200 199
268.483728170395 539.461374282837 1810.99998950958 195 197 196
273.989647626877 540.637075901031 1815.00005722046 193 195 194
279.824167490005 542.408168315887 1820.99997997284 196 198 197
286.003559827805 544.774830341339 1828.9999961853 199 201 200
-196.584895253181 517.950057983398 1753.99994850159 205 207 204
-202.878296375275 547.788679599762 1855.00001907349 205 207 204
-197.424829006195 546.620905399323 1850.99995136261 203 205 202
-192.200660705566 546.043574810028 1848.99997711182 201 203 200
-187.088191509247 545.761227607727 1848.00004959106 196 198 195
-182.079374790192 545.773983001709 1848.00004959106 197 197 195
-176.303669810295 543.423652648926 1840.0000333786 188 188 186
-170.757248997688 541.663646697998 1833.99999141693 190 190 188
-165.423855185509 540.494084358215 1830.00004291534 195 195 193
-160.462558269501 540.505528450012 1830.00004291534 190 190 188
-155.415996909142 540.221273899078 1828.9999961853 183 183 181
-150.292336940765 539.641439914703 1827.00002193451 179 181 180
-145.417883992195 539.94745016098 1827.99994945526 189 191 190
-140.384033322334 539.66224193573 1827.00002193451 157 159 158
-135.503634810448 539.967656135559 1827.99994945526 171 173 172
-130.403250455856 539.386451244354 1825.99997520447 161 163 162
-125.450924038887 539.395749568939 1825.99997520447 156 158 157
-120.366349816322 538.814008235931 1824.00000095367 142 144 143
-115.039274096489 537.050127983093 1817.999958992 171 173 172
-109.562829136848 534.399747848511 1809.00001525879 170 172 171
-104.192845523357 532.044291496277 1800.99999904633 173 175 174
-98.8660752773285 529.688477516174 1792.99998283386 177 179 178
-93.7397703528404 528.218507766724 1787.99998760223 183 183 183
-88.5907039046288 526.452720165253 1781.99994564056 185 185 185
-83.5680142045021 525.277435779572 1777.99999713898 189 189 189
-78.5225704312325 523.806393146515 1773.00000190735 193 193 193
-73.6288204789162 523.22119474411 1771.00002765656 193 193 193
-68.7457695603371 522.635698318481 1769.00005340576 191 191 191
-63.8372898101807 521.754384040833 1766.00003242493 196 196 196
-58.9783936738968 521.168172359467 1764.00005817413 197 197 197
-54.1916787624359 521.17246389389 1764.00005817413 195 195 195
-49.3768304586411 520.880937576294 1763.00001144409 195 195 195
-44.567309319973 520.588994026184 1761.99996471405 195 195 195
-39.7405438125134 520.001292228699 1759.99999046326 196 196 196
-34.9444225430489 519.708693027496 1758.99994373322 197 197 197
-30.1364958286285 519.120275974274 1756.99996948242 199 199 199
-25.3538060933352 518.826961517334 1756.00004196167 200 200 200
-20.5764845013618 518.533229827881 1754.99999523163 200 200 200
-15.8135611563921 518.534600734711 1754.99999523163 200 200 200
-11.0506033524871 518.535614013672 1754.99999523163 196 196 196
-6.29478879272938 519.127190113068 1756.99996948242 197 197 197
-1.52549881022424 518.832087516785 1756.00004196167 201 201 201
3.24021209962666 518.83202791214 1756.00004196167 200 200 200
8.00135638564825 518.53609085083 1754.99999523163 199 199 199
12.7716036513448 518.8307762146 1756.00004196167 201 201 201
17.5572372972965 519.420564174652 1758.00001621246 201 201 201
22.3282873630524 519.418954849243 1758.00001621246 203 203 203
27.0838793367147 519.121646881104 1756.99996948242 203 203 203
31.8158529698849 518.528521060944 1754.99999523163 203 203 203
36.557748913765 518.230438232422 1753.99994850159 202 202 202
41.3412526249886 518.522918224335 1754.99999523163 203 203 203
46.1038313806057 518.519580364227 1754.99999523163 202 202 202
50.8952960371971 518.811345100403 1756.00004196167 200 200 200
55.5652938783169 517.921030521393 1753.00002098083 201 201 201
60.2532997727394 517.325699329376 1751.00004673004 202 202 202
64.930334687233 516.730129718781 1748.99995326996 202 202 202
69.7557255625725 517.315924167633 1751.00004673004 201 201 201
74.5067223906517 517.310500144959 1751.00004673004 201 201 201
79.2575851082802 517.304658889771 1751.00004673004 201 201 201
83.9602872729301 517.003118991852 1750 201 201 201
88.7080952525139 516.996741294861 1750 199 199 199
93.4023186564446 516.69442653656 1748.99995326996 199 199 199
98.1470346450806 516.687333583832 1748.99995326996 198 198 198
102.83274948597 516.384541988373 1748.00002574921 197 197 197
107.512816786766 516.081392765045 1746.99997901917 195 195 195
112.251505255699 516.073286533356 1746.99997901917 195 195 195
116.989970207214 516.064941883087 1746.99997901917 196 198 197
121.867574751377 516.646981239319 1748.99995326996 198 200 199
126.61100924015 516.637921333313 1748.99995326996 196 198 197
131.504386663437 517.219424247742 1751.00004673004 190 192 191
136.330559849739 517.505168914795 1751.99997425079 191 193 192
141.322955489159 518.381297588348 1754.99999523163 191 193 192
146.3313549757 519.257187843323 1758.00001621246 190 192 191
151.355743408203 520.132720470428 1761.0000371933 189 191 190
156.21879696846 520.417213439941 1761.99996471405 188 190 189
161.361113190651 521.587431430817 1766.00003242493 185 187 186
166.524797677994 522.757411003113 1769.99998092651 177 179 178
171.709910035133 523.926973342896 1774.00004863739 176 178 177
176.816880702972 524.801015853882 1776.99995040894 174 176 175
182.042017579079 525.969982147217 1781.00001811981 172 174 173
187.708213925362 528.319954872131 1789.00003433228 171 173 172
193.417444825172 530.669569969177 1797.00005054474 134 136 135
198.617994785309 531.542181968689 1799.99995231628 107 109 108
203.156128525734 530.642867088318 1797.00005054474 173 175 174
207.561925053596 529.448091983795 1792.99998283386 167 169 168
212.18267083168 528.843641281128 1791.00000858307 162 164 163
216.792225837708 528.239130973816 1789.00003433228 179 181 180
221.638366580009 528.224945068359 1789.00003433228 177 179 178
226.484179496765 528.210461139679 1789.00003433228 187 189 188
231.58822953701 528.786361217499 1791.00000858307 190 192 191
236.702799797058 529.36202287674 1792.99998283386 191 193 192
241.962522268295 530.232727527618 1796.0000038147 192 194 193
246.688470244408 529.922246932983 1794.99995708466 196 198 197
251.268476247787 529.316425323486 1792.99998283386 195 197 196
256.265878677368 529.596209526062 1794.0000295639 198 200 199
262.141585350037 531.646907329559 1800.99999904633 198 200 199
268.499672412872 534.58297252655 1810.99998950958 195 197 196
274.156659841537 536.042809486389 1815.99998474121 193 195 194
280.147731304169 538.092732429504 1822.99995422363 196 198 197
286.489099264145 540.732800960541 1832.00001716614 199 201 200
-206.013262271881 537.805497646332 1838.00005912781 206 208 205
-202.891990542412 542.793691158295 1855.00001907349 205 207 204
-197.438269853592 541.636824607849 1850.99995136261 202 204 201
-192.213818430901 541.064977645874 1848.99997711182 200 202 199
-187.10108101368 540.785431861877 1848.00004959106 195 197 194
-181.993439793587 540.505588054657 1847.00000286102 196 196 194
-176.31596326828 538.469612598419 1840.0000333786 187 187 185
-170.862346887589 537.018537521362 1835.00003814697 188 188 186
-165.616318583488 536.152422428131 1832.00001716614 195 195 193
-160.561621189117 535.87132692337 1830.9999704361 194 194 192
-155.597031116486 535.882592201233 1830.9999704361 184 184 182
-150.46763420105 535.308241844177 1828.9999961853 170 172 171
-145.507887005806 535.318911075592 1828.9999961853 187 189 188
-140.471011400223 535.036563873291 1827.99994945526 170 172 171
-135.661721229553 535.631954669952 1830.00004291534 157 159 158
-130.627036094666 535.349011421204 1828.9999961853 160 162 161
-125.734940171242 535.65114736557 1830.00004291534 150 152 151
-120.573177933693 534.7820520401 1827.00002193451 139 141 140
-115.237601101398 533.034384250641 1820.99997997284 172 174 173
-109.631508588791 529.822885990143 1809.99994277954 170 172 171
-104.258447885513 527.489125728607 1802.00004577637 173 175 174
-98.9837124943733 525.447547435761 1794.99995708466 178 180 179
-93.7992036342621 523.698389530182 1789.00003433228 180 180 180
-88.6967778205872 522.241592407227 1784.00003910065 183 183 183
-83.5272818803787 520.198881626129 1776.99995040894 188 188 188
-78.5727649927139 519.32680606842 1774.00004863739 192 192 192
-73.6759528517723 518.747091293335 1771.99995517731 190 190 190
-68.7898397445679 518.166959285736 1769.99998092651 188 188 188
-63.8421326875687 517.001032829285 1766.00003242493 192 192 192
-58.9494407176971 516.127467155457 1763.00001144409 193 193 193
-54.195798933506 516.424536705017 1764.00005817413 193 193 193
-49.3805967271328 516.135692596436 1763.00001144409 193 193 193
-44.5707142353058 515.84655046463 1761.99996471405 194 194 194
-39.7435873746872 515.264272689819 1759.99999046326 194 194 194
-34.9669642746449 515.267133712769 1759.99999046326 194 194 194
-30.155960470438 514.684081077576 1758.00001621246 196 196 196
-25.3990665078163 514.979004859924 1758.99994373322 198 198 198
-20.6132419407368 514.688014984131 1758.00001621246 200 200 200
-15.8327985554934 514.396607875824 1756.99996948242 197 197 197
-11.0577512532473 514.104902744293 1756.00004196167 196 196 196
-6.29527308046818 514.398336410522 1756.99996948242 197 197 197
-1.52735377196223 514.691472053528 1758.00001621246 199 199 199
3.24230641126633 514.398634433746 1756.99996948242 199 199 199
8.01109056919813 514.398157596588 1756.99996948242 199 199 199
12.7798588946462 514.397323131561 1756.99996948242 200 200 200
17.5585839897394 514.688909053802 1758.00001621246 201 201 201
22.3300028592348 514.687418937683 1758.00001621246 202 202 202
27.070539072156 514.100015163422 1756.00004196167 202 202 202
31.8182930350304 513.804972171783 1754.99999523163 202 202 202
36.5813933312893 513.802349567413 1754.99999523163 203 203 203
41.3444116711617 513.79930973053 1754.99999523163 203 203 203
46.1073480546474 513.795971870422 1754.99999523163 202 202 202
50.8411973714828 513.49949836731 1753.99994850159 201 201 201
55.5378198623657 512.909948825836 1751.99997425079 201 201 201
60.2578781545162 512.612760066986 1751.00004673004 202 202 202
64.9352446198463 512.022435665131 1748.99995326996 202 202 202
69.7610080242157 512.602865695953 1751.00004673004 202 202 202
74.5123475790024 512.597382068634 1751.00004673004 202 202 202
79.2635455727577 512.591600418091 1751.00004673004 201 201 201
83.9665904641151 512.292683124542 1750 201 201 201
88.6133536696434 511.700749397278 1748.00002574921 200 200 200
93.2490676641464 511.1083984375 1746.00005149841 200 200 200
98.0982258915901 511.686742305756 1748.00002574921 198 198 198
102.840378880501 511.679291725159 1748.00002574921 197 197 197
107.582315802574 511.671483516693 1748.00002574921 194 194 194
112.195499241352 511.07782125473 1746.00005149841 194 194 194
116.998560726643 511.362135410309 1746.99997901917 192 194 193
121.806800365448 511.646032333374 1748.00002574921 194 196 195
126.692607998848 512.222349643707 1750 193 195 194
131.589025259018 512.798309326172 1751.99997425079 189 191 190
136.573851108551 513.666689395905 1754.99999523163 189 191 190
141.494169831276 514.241993427277 1756.99996948242 191 193 192
146.508291363716 515.109658241272 1759.99999046326 190 192 191
151.452451944351 515.684366226196 1761.99996471405 187 189 188
156.495839357376 516.551434993744 1764.99998569489 187 189 188
161.646604537964 517.71080493927 1769.00005340576 184 186 185
166.912823915482 519.162535667419 1774.00004863739 175 177 176
172.012239694595 520.028531551361 1776.99995040894 172 174 173
177.127629518509 520.894229412079 1779.99997138977 171 173 172
182.36118555069 522.052407264709 1784.00003910065 171 173 172
188.140735030174 524.673283100128 1792.99998283386 176 178 177
193.645849823952 526.416003704071 1799.00002479553 146 148 147
198.741734027863 526.987850666046 1800.99999904633 117 119 118
203.395858407021 526.389122009277 1799.00002479553 168 170 169
207.923039793968 525.497496128082 1796.0000038147 163 165 164
212.552085518837 524.8983502388 1794.0000295639 163 165 164
217.169985175133 524.299025535584 1792.00005531311 177 179 178
221.900537610054 523.992002010345 1791.00000858307 176 178 177
226.751998066902 523.97745847702 1791.00000858307 188 190 189
231.861665844917 524.547815322876 1792.99998283386 190 192 191
237.11384832859 525.410413742065 1796.0000038147 190 192 191
242.11248755455 525.68781375885 1797.00005054474 190 192 191
246.978715062141 525.672435760498 1797.00005054474 193 195 194
251.564264297485 525.071799755096 1794.99995708466 195 197 196
256.424337625504 525.056183338165 1794.99995708466 198 200 199
262.157440185547 526.795327663422 1800.99999904633 198 200 199
268.070936203003 528.826832771301 1807.99996852875 195 197 196
273.870974779129 530.565500259399 1814.00001049042 193 195 194
279.395759105682 531.719028949738 1817.999958992 196 198 197
285.723805427551 534.334659576416 1827.00002193451 199 201 200
-202.468290925026 536.638617515564 1850.99995136261 205 207 204
-197.238475084305 536.072492599487 1848.99997711182 202 204 201
-192.123129963875 535.796105861664 1848.00004959106 200 202 199
-187.114074826241 535.80915927887 1848.00004959106 195 197 194
-181.809082627296 534.952282905579 1845.00002861023 195 195 193
-176.232516765594 533.225119113922 1838.99998664856 187 187 185
-170.874431729317 532.077670097351 1835.00003814697 187 187 185
-165.62807559967 531.219720840454 1832.00001716614 195 195 193
-160.573080182076 530.941367149353 1830.9999704361 195 195 193
-155.608206987381 530.952751636505 1830.9999704361 185 185 183
-150.560766458511 530.673861503601 1830.00004291534 170 172 171
-145.597994327545 530.684590339661 1830.00004291534 189 191 190
-140.634968876839 530.695021152496 1830.00004291534 179 181 180
-135.819911956787 531.285166740417 1832.00001716614 154 156 155
-130.850896239281 531.294941902161 1832.00001716614 159 161 160
-125.881627202034 531.304478645325 1832.00001716614 145 147 146
-120.714083313942 530.443489551544 1828.9999961853 137 139 138
-115.309454500675 528.422117233276 1822.00002670288 174 176 175
-109.821401536465 525.820314884186 1812.99996376038 172 174 173
-104.439824819565 523.508131504059 1804.99994754791 173 175 174
-99.2668867111206 522.06563949585 1799.99995231628 178 180 179
-93.9635783433914 519.752621650696 1792.00005531311 181 181 181
-88.8029113411903 518.019258975983 1786.00001335144 183 183 183
-83.6276262998581 515.995442867279 1779.00004386902 187 187 187
-78.6230266094208 514.841437339783 1774.99997615814 188 188 188
-73.7231448292732 514.267086982727 1773.00000190735 180 180 180
-68.7950775027275 513.402342796326 1769.99998092651 182 182 182
-63.8108626008034 511.957168579102 1764.99998569489 185 185 185
-58.9205138385296 511.091709136963 1761.99996471405 186 186 186
-54.1385002434254 511.096000671387 1761.99996471405 187 187 187
-49.3563748896122 511.099994182587 1761.99996471405 189 189 189
-44.5994399487972 511.39372587204 1763.00001144409 192 192 192
-39.7918149828911 511.106908321381 1761.99996471405 192 192 192
-35.009391605854 511.109709739685 1761.99996471405 191 191 191
-30.1754400134087 510.24204492569 1758.99994373322 192 192 192
-25.4154708236456 510.534286499023 1759.99999046326 195 195 195
-20.6265598535538 510.245978832245 1758.99994373322 200 200 200
-15.8340223133564 509.667277336121 1756.99996948242 193 193 193
-11.0586062073708 509.378254413605 1756.00004196167 196 196 196
-6.29217689856887 509.378969669342 1756.00004196167 196 196 196
-1.52660300955176 509.669244289398 1756.99996948242 196 196 196
3.24255740270019 509.669184684753 1756.99996948242 198 198 198
8.01627058535814 509.958863258362 1758.00001621246 201 201 201
12.7881206572056 509.958028793335 1758.00001621246 200 200 200
17.5599437206984 509.956896305084 1758.00001621246 201 201 201
22.2936179488897 509.085059165955 1754.99999523163 203 203 203
27.0572137087584 509.083211421967 1754.99999523163 204 204 204
31.8207480013371 509.080946445465 1754.99999523163 204 204 204
36.6050563752651 509.368360042572 1756.00004196167 203 203 203
41.3240343332291 508.78518819809 1753.99994850159 204 204 204
46.0583455860615 508.49175453186 1753.00002098083 203 203 203
50.8161149919033 508.48799943924 1753.00002098083 201 201 201
55.542066693306 508.193850517273 1751.99997425079 202 202 202
60.2624863386154 507.899343967438 1751.00004673004 203 203 203
64.977340400219 507.604479789734 1750 201 201 201
69.7264671325684 507.599353790283 1750 201 201 201
74.4328871369362 507.303714752197 1748.99995326996 201 201 201
79.1790038347244 507.297933101654 1748.99995326996 200 200 200
83.9249491691589 507.291674613953 1748.99995326996 200 200 200
88.5693281888962 506.705105304718 1746.99997901917 200 200 200
93.2026654481888 506.118178367615 1745.00000476837 199 199 199
98.0494543910027 506.691038608551 1746.99997901917 198 198 198
102.848052978516 506.973564624786 1748.00002574921 196 196 196
107.651866972446 507.255673408508 1748.99995326996 192 192 192
112.268097698689 506.667494773865 1746.99997901917 191 191 191
117.141157388687 507.238924503326 1748.99995326996 182 184 183
121.885441243649 507.230043411255 1748.99995326996 180 182 181
126.846715807915 508.090913295746 1751.99997425079 183 185 184
131.748855113983 508.661448955536 1753.99994850159 191 193 192
136.739447712898 509.521663188934 1756.99996948242 188 190 189
141.584947705269 509.8015666008 1758.00001621246 184 186 185
146.518841385841 510.371029376984 1759.99999046326 182 184 183
151.4632999897 510.940194129944 1761.99996471405 182 184 183
156.595677137375 512.08907365799 1766.00003242493 184 186 185
161.932215094566 513.817548751831 1771.99995517731 184 186 185
167.112767696381 514.965713024139 1776.00002288818 178 180 179
172.217920422554 515.823602676392 1779.00004386902 179 181 180
177.438527345657 516.971111297607 1782.99999237061 173 175 174
182.782724499702 518.408238887787 1787.99998760223 168 170 169
188.363566994667 520.424902439117 1794.99995708466 175 177 176
193.659096956253 521.571516990662 1799.00002479553 152 154 153
198.755234479904 522.137820720673 1800.99999904633 122 124 123
203.40958237648 521.544396877289 1799.00002479553 159 161 160
208.052754402161 520.950615406036 1797.00005054474 159 161 160
212.803244590759 520.646631717682 1796.0000038147 167 169 168
217.426732182503 520.052492618561 1794.0000295639 177 179 178
222.286820411682 520.03800868988 1794.0000295639 177 179 178
227.273195981979 520.313084125519 1794.99995708466 188 190 189
232.264593243599 520.588040351868 1796.0000038147 190 192 191
237.393066287041 521.152555942535 1797.99997806549 188 190 189
242.12783575058 520.847380161285 1797.00005054474 189 191 190
246.856793761253 520.542085170746 1796.0000038147 195 197 196
251.579940319061 520.236492156982 1794.99995708466 195 197 196
256.58306479454 520.510494709015 1796.0000038147 198 200 199
262.02791929245 521.653771400452 1799.99995231628 198 200 199
267.790615558624 523.37634563446 1805.99999427795 195 197 196
273.434430360794 524.808943271637 1810.99998950958 193 195 194
278.95125746727 525.951564311981 1815.00005722046 196 198 197
285.427778959274 528.832614421844 1825.00004768372 199 201 200
292.594432830811 532.872378826141 1838.99998664856 199 204 200
-208.619579672813 534.511685371399 1860.99994182587 210 212 209
-202.591598033905 531.940877437592 1851.99999809265 208 210 207
-197.358801960945 531.380295753479 1850.00002384186 199 201 198
-192.136496305466 530.819296836853 1848.00004959106 201 203 200
-187.127202749252 530.832648277283 1848.00004959106 194 196 193
-181.821882724762 529.983818531036 1845.00002861023 196 196 194
-176.436677575111 528.847515583038 1840.99996089935 187 187 185
