ply
format ascii 1.0
comment KinectMotionCapture
element vertex 795
property float x
property float y
property float z
property uchar red
property uchar green
property uchar blue
end_header
99.4516909122467 -118.68642270565 2872.99990653992 10 13 6
110.019207000732 -121.699936687946 2946.00009918213 9 12 5
119.502000510693 -123.184703290462 2982.00011253357 8 11 4
126.99781358242 -122.562520205975 2967.00000762939 10 13 6
135.777220129967 -123.179420828819 2982.00011253357 10 13 4
143.576174974442 -122.887387871742 2974.99990463257 12 15 6
152.458146214485 -123.503938317299 2990.00000953674 8 11 4
159.32634472847 -122.509397566319 2966.00008010864 12 14 9
-108.505725860596 -131.413921713829 2983.99996757507 13 15 10
-100.159674882889 -131.151989102364 2977.9999256134 19 22 15
-90.3007835149765 -128.687828779221 2921.99993133545 13 16 9
-82.7475935220718 -129.350364208221 2937.00003623962 14 17 8
-75.0612840056419 -129.924654960632 2950.00004768372 14 17 10
-59.0751394629478 -130.191892385483 2956.00008964539 17 20 13
-51.0398633778095 -130.281195044518 2957.99994468689 16 18 13
-41.8750420212746 -126.978933811188 2882.99989700317 15 18 11
-33.8862165808678 -126.539334654808 2872.99990653992 18 20 15
-26.4866705983877 -128.698199987411 2921.99993133545 19 21 16
-18.6674259603024 -129.79981303215 2947.00002670288 17 19 14
-10.5746369808912 -129.227548837662 2934.00001525879 11 13 8
5.48161519691348 -130.06454706192 2953.00006866455 4 6 1
13.7274228036404 -131.826117634773 2993.00003051758 10 12 9
21.7891726642847 -131.165042519569 2977.9999256134 8 10 7
29.3971933424473 -128.87416779995 2926.00011825562 9 11 8
37.8072001039982 -130.326882004738 2959.00011062622 8 10 7
53.2706044614315 -128.651171922684 2921.0000038147 7 10 3
61.8947334587574 -130.015224218369 2951.99990272522 12 15 8
68.5788467526436 -127.459317445755 2894.00005340576 14 17 10
74.9988704919815 -124.991342425346 2838.00005912781 13 16 9
93.9037725329399 -129.700019955635 2944.9999332428 11 14 7
110.35294085741 -130.135908722878 2954.99992370605 12 15 8
119.699820876122 -131.54262304306 2986.99998855591 12 15 8
128.493189811707 -132.200449705124 3002.00009346008 12 15 8
136.138558387756 -131.669074296951 2990.00000953674 13 16 7
141.111865639687 -128.759667277336 2924.00002479553 17 20 11
-109.812282025814 -141.240417957306 3019.99998092651 15 17 12
-89.6188542246819 -135.632783174515 2900.00009536743 14 17 10
-82.1822360157967 -136.429905891418 2917.00005531311 16 19 10
-74.6015682816505 -137.133300304413 2931.99992179871 18 21 14
-66.7115747928619 -137.368842959404 2937.00003623962 17 20 13
-59.7132779657841 -139.755696058273 2987.99991607666 16 19 12
-50.1759722828865 -136.015191674232 2907.99999237061 18 20 15
-42.0629009604454 -135.454997420311 2895.99990844727 16 19 12
-34.2392772436142 -135.783329606056 2903.00011634827 17 20 13
-26.3591594994068 -136.01790368557 2907.99999237061 16 18 13
-18.9076997339725 -139.620020985603 2984.99989509583 14 16 11
-10.6969336047769 -138.825222849846 2967.99993515015 9 11 6
-2.53787473775446 -135.831832885742 2904.00004386902 7 9 4
13.630791567266 -139.012187719345 2971.99988365173 10 12 9
21.3643126189709 -136.579543352127 2920.00007629395 4 6 3
29.5773539692163 -137.701511383057 2944.00000572205 9 11 8
45.7448922097683 -137.980371713638 2950.00004768372 9 11 6
53.7253059446812 -137.792110443115 2946.00009918213 8 11 4
60.9707944095135 -136.013403534889 2907.99999237061 13 16 9
69.2644789814949 -136.713474988937 2923.00009727478 14 17 10
75.4992514848709 -133.624851703644 2857.00011253357 13 16 9
111.769489943981 -139.976724982262 2993.00003051758 13 16 9
120.338261127472 -140.441700816154 3003.00002098084 13 16 9
130.587548017502 -142.683565616608 3051.00011825562 13 16 9
137.000560760498 -140.716284513474 3009.0000629425 14 17 10
143.473356962204 -139.029487967491 2973.00004959106 19 22 15
-109.591469168663 -149.183928966522 3013.99993896484 20 22 17
-90.852789580822 -145.526066422462 2940.00005722046 19 22 15
-66.0058408975601 -143.848910927773 2905.99989891052 17 20 13
-49.7088879346848 -142.614260315895 2881.00004196167 16 18 13
-41.844017803669 -142.615392804146 2881.00004196167 15 17 12
-34.002561122179 -142.715349793434 2882.99989700317 11 13 8
-27.0383302122355 -147.666364908218 2983.00004005432 8 10 5
-18.976915627718 -148.310482501984 2996.00005149841 7 9 4
21.9125188887119 -148.260787129402 2994.99988555908 8 10 7
29.5264050364494 -145.488008856773 2938.99989128113 9 11 8
61.7031343281269 -145.681470632553 2943.00007820129 13 16 9
68.7177926301956 -143.551304936409 2900.00009536743 14 17 10
84.8117172718048 -143.992990255356 2908.99991989136 15 18 11
90.9978970885277 -141.268372535706 2854.00009155273 15 18 11
103.079311549664 -147.403702139854 2977.9999256134 16 19 12
110.982604324818 -147.104069590569 2971.99988365173 16 19 12
118.251629173756 -146.061822772026 2950.99997520447 16 19 12
125.105932354927 -144.672960042953 2923.00009727478 16 19 12
143.325135111809 -146.992534399033 2970.00002861023 22 25 18
-107.370741665363 -154.221713542938 2953.00006866455 16 18 13
-100.488722324371 -156.052321195602 2987.99991607666 17 20 13
-64.5505115389824 -148.435667157173 2842.00000762939 20 23 16
-57.0125542581081 -149.01177585125 2852.9999256134 18 21 14
-49.000222235918 -148.334175348282 2839.99991416931 13 15 10
-41.8284274637699 -150.424599647522 2880.00011444092 12 14 9
-34.8508469760418 -154.342919588089 2954.99992370605 10 12 7
-26.9651245325804 -155.388355255127 2974.99990463257 6 8 3
5.54432393983006 -156.016275286675 2986.99998855591 5 7 4
13.6759728193283 -155.75484931469 2982.00011253357 16 18 15
30.1284193992615 -156.641647219658 2999.00007247925 9 11 10
45.2929362654686 -152.565643191338 2921.0000038147 10 12 7
52.5555349886417 -150.527372956276 2881.99996948242 9 12 5
61.0306523740292 -152.040541172028 2911.00001335144 14 17 10
69.7586238384247 -153.762400150299 2944.00000572205 15 18 11
75.9182795882225 -150.052234530449 2872.99990653992 11 14 7
83.6142376065254 -149.789035320282 2868.00003051758 12 15 8
94.5027619600296 -154.800519347191 2963.99998664856 13 16 9
98.6116603016853 -148.791953921318 2848.99997711182 14 17 10
107.843071222305 -150.826051831245 2888.00001144409 15 18 11
115.844391286373 -150.979816913605 2891.00003242493 15 18 11
122.834399342537 -149.880021810532 2869.99988555908 15 18 11
132.349953055382 -151.808932423592 2907.00006484985 9 11 6
-99.4771495461464 -162.555783987045 2957.99994468689 22 25 18
-90.3227254748344 -160.634949803352 2923.00009727478 21 24 17
-82.6830267906189 -161.296799778938 2934.99994277954 24 27 18
-49.6717765927315 -158.226445317268 2878.99994850159 11 13 8
-42.4808524549007 -160.755842924118 2924.99995231628 9 11 6
-35.8523614704609 -167.077243328094 3039.99996185303 8 10 5
-26.9190818071365 -163.230940699577 2970.00002861023 6 8 3
-18.6908971518278 -162.187308073044 2950.99997520447 6 8 3
-10.6852985918522 -162.957161664963 2964.99991416931 8 10 7
13.6664323508739 -163.781449198723 2980.00001907349 19 21 18
21.9113677740097 -164.605349302292 2994.99988555908 12 14 11
38.4805388748646 -165.538012981415 3012.00008392334 9 11 10
46.1135134100914 -163.448393344879 2973.99997711182 10 12 7
52.8094172477722 -159.160226583481 2895.99990844727 9 12 5
60.0226894021034 -157.345041632652 2862.99991607666 14 17 10
70.3728049993515 -163.223743438721 2970.00002861023 14 17 10
74.8328641057014 -155.637666583061 2832.00001716614 10 13 6
83.9035287499428 -158.163487911224 2878.00002098084 11 14 7
93.6394035816193 -161.403432488441 2937.00003623962 11 14 7
101.447179913521 -161.071017384529 2930.99999427795 11 14 7
107.877537608147 -158.760085701942 2888.99993896484 13 16 9
115.721084177494 -158.702075481415 2888.00001144409 13 16 9
124.671451747417 -160.072579979897 2913.00010681152 14 17 10
-116.986513137817 -172.638013958931 2993.00003051758 23 25 22
-108.455590903759 -172.064438462257 2983.00004005432 18 20 15
-98.3982309699059 -168.779537081718 2926.00011825562 18 21 14
-90.0111943483353 -168.032363057137 2913.00010681152 22 25 18
-58.4281533956528 -168.675452470779 2924.00002479553 10 13 6
-50.222460180521 -167.927101254463 2911.00001335144 8 10 5
-42.2908551990986 -167.986109852791 2911.99994087219 8 10 5
-34.8607189953327 -170.52549123764 2956.00008964539 9 11 6
-18.785372376442 -171.103924512863 2966.00008010864 9 11 8
-10.6417527422309 -170.354396104813 2953.00006866455 6 8 5
-2.62236967682838 -173.123642802238 3000.99992752075 5 7 4
21.2742779403925 -167.757794260979 2907.99999237061 5 7 6
38.2878221571445 -172.890305519104 2996.99997901917 9 11 10
45.321449637413 -168.620228767395 2923.00009727478 9 11 6
53.6831915378571 -169.830217957497 2944.00000572205 8 11 4
62.0335824787617 -170.69385945797 2959.00011062622 13 16 9
68.1435987353325 -165.904030203819 2875.99992752075 13 16 9
77.2617012262344 -168.670833110809 2924.00002479553 8 11 4
95.964141190052 -173.626691102982 3009.99999046326 10 13 6
101.825058460236 -169.701412320137 2941.99991226196 11 14 7
-116.474971175194 -180.016800761223 2980.00001907349 17 19 14
-106.234639883041 -176.516428589821 2921.99993133545 23 25 20
-98.9333838224411 -177.727684378624 2941.99991226196 22 24 19
-88.6798799037933 -173.38091135025 2869.99988555908 23 26 19
-66.1348327994347 -175.925239920616 2911.99994087219 9 12 5
-59.1657496988773 -178.887441754341 2960.99996566772 8 11 4
-50.1864664256573 -175.747528672218 2908.99991989136 9 12 5
-42.2024689614773 -175.567671656609 2905.99989891052 10 12 7
-34.163910895586 -175.025090575218 2897.0000743866 10 12 7
-26.5912506729364 -177.261412143707 2934.00001525879 9 11 6
-19.0128181129694 -181.370407342911 3002.00009346008 9 11 6
-11.088284663856 -185.9021037817 3076.99990272522 8 10 5
21.7345282435417 -179.497271776199 2970.99995613098 13 15 12
30.1861371845007 -181.550651788712 3005.00011444092 7 9 6
37.5201888382435 -177.441328763962 2937.00003623962 14 16 13
45.7232296466827 -178.165063261986 2948.99988174438 9 11 6
54.1009940207005 -179.251030087471 2967.00000762939 9 12 5
61.5915097296238 -177.497252821922 2937.99996376038 13 16 9
70.3213587403297 -179.30768430233 2967.99993515015 15 18 11
79.5317590236664 -181.842803955078 3009.99999046326 15 18 11
86.6681039333344 -179.605007171631 2973.00004959106 9 12 5
95.100536942482 -180.206418037415 2983.00004005432 11 14 7
101.579800248146 -177.303731441498 2934.99994277954 11 14 7
140.169024467468 -185.988038778305 3078.9999961853 13 16 9
-124.727793037891 -188.330367207527 2983.00004005432 77 79 74
-95.5676585435867 -179.438456892967 2842.00000762939 22 24 19
-89.0788286924362 -182.030007243156 2882.99989700317 21 23 18
-81.830658018589 -183.421775698662 2904.99997138977 13 16 9
-74.0041434764862 -183.676764369011 2908.99991989136 11 14 7
-57.9051189124584 -182.986363768578 2898.00000190735 8 11 4
-50.8232302963734 -186.01892888546 2946.00009918213 8 11 4
-42.869184166193 -186.39925122261 2951.99990272522 9 12 5
-34.3987047672272 -184.190467000008 2917.00005531311 9 12 5
-26.5723019838333 -185.138553380966 2931.99992179871 9 11 6
-10.7528176158667 -188.42326104641 2983.99996757507 9 11 6
38.5793261229992 -190.693840384483 3019.99998092651 9 11 8
46.3884994387627 -188.924491405487 2992.00010299683 9 11 6
54.1540272533894 -187.533736228943 2970.00002861023 9 12 5
62.1346458792686 -187.153071165085 2963.99998664856 12 15 8
77.7062103152275 -185.696423053741 2940.99998474121 12 15 8
87.4233692884445 -189.355984330177 2999.00007247925 9 12 5
95.5120548605919 -189.16366994381 2996.00005149841 11 14 7
102.303475141525 -186.635062098503 2956.00008964539 11 14 7
111.7138043046 -188.904643058777 2992.00010299683 11 14 7
-90.4663503170013 -192.857027053833 2927.99997329712 20 22 17
-73.3403563499451 -189.898326992989 2882.99989700317 10 13 6
-66.0852566361427 -191.679090261459 2910.00008583069 8 11 4
-51.0458573698998 -194.910526275635 2959.00011062622 10 13 6
-43.0275425314903 -195.17557322979 2963.00005912781 9 12 5
-35.4470983147621 -198.009297251701 3006.00004196167 9 12 5
-18.7203027307987 -194.717526435852 2956.00008964539 9 11 6
-10.8605716377497 -198.538556694984 3013.99993896484 10 12 7
-2.62474780902267 -197.880059480667 3003.99994850159 10 12 7
22.179376333952 -199.723526835442 3032.00006484985 0 1 0
29.9732945859432 -196.560814976692 2983.99996757507 9 11 8
38.1437614560127 -196.691438555717 2986.00006103516 6 8 5
46.4800260961056 -197.480499744415 2997.99990653992 9 11 6
54.3346218764782 -196.293205022812 2980.00001907349 9 12 5
62.9082694649696 -197.67452776432 3000.99992752075 12 15 8
68.9902007579803 -191.810011863708 2911.99994087219 14 17 10
77.3602500557899 -192.861512303352 2927.99997329712 13 16 9
87.5080153346062 -197.733029723167 3002.00009346008 10 13 6
96.3697358965874 -199.113234877586 3023.00000190735 11 14 7
104.515098035336 -198.912352323532 3019.99998092651 11 14 7
-118.691504001617 -208.307892084122 3036.99994087219 24 26 21
-106.260821223259 -200.492367148399 2923.00009727478 20 22 17
-92.6260575652123 -205.643534660339 2997.99990653992 12 14 9
-83.3181589841843 -202.902749180794 2957.99994468689 11 14 7
-74.3554383516312 -200.50460100174 2923.00009727478 11 14 7
-65.9695044159889 -199.272260069847 2904.99997138977 12 15 8
-58.8603541254997 -202.086851000786 2946.00009918213 12 15 8
-51.6306720674038 -205.312818288803 2993.00003051758 12 15 8
-10.7629206031561 -204.906523227692 2986.99998855591 10 12 7
-2.63514462858438 -206.896156072617 3016.00003242493 10 12 7
14.2283188179135 -212.863892316818 3102.9999256134 33 35 30
22.4492829293013 -210.530906915665 3069.00000572205 9 11 6
30.002424493432 -204.90488409996 2986.99998855591 6 8 5
38.053072988987 -204.354956746101 2979.00009155273 7 9 6
53.986381739378 -203.117027878761 2960.99996566772 8 11 4
62.4450109899044 -204.34981584549 2979.00009155273 11 14 7
85.5521187186241 -201.324045658112 2934.99994277954 12 15 8
93.1787490844727 -200.497925281525 2923.00009727478 11 14 7
102.331414818764 -202.826738357544 2957.00001716614 11 14 7
112.826585769653 -207.281559705734 3022.0000743866 11 14 7
-117.163270711899 -213.807538151741 2997.99990653992 24 26 21
-91.9122770428658 -212.178230285645 2974.99990463257 11 13 8
-84.0757638216019 -212.894514203072 2984.99989509583 12 15 8
-67.1026259660721 -210.760191082954 2954.99992370605 13 16 9
-58.9981637895107 -210.619747638702 2953.00006866455 12 15 8
-10.7769593596458 -213.337555527687 2990.9999370575 9 11 6
-2.63942126184702 -215.477585792542 3020.99990844727 9 11 6
5.60807716101408 -215.548872947693 3022.0000743866 7 9 4
22.0608320087194 -215.119928121567 3016.00003242493 5 7 2
30.6040216237307 -217.330098152161 3046.99993133545 10 12 7
38.0262024700642 -212.336093187332 2976.99999809265 8 10 7
45.159138739109 -207.769781351089 2913.00010681152 9 11 6
53.182315081358 -208.053350448608 2917.00005531311 8 11 4
61.2271055579185 -208.336636424065 2921.0000038147 11 14 7
69.6014538407326 -209.546819329262 2937.99996376038 14 17 10
107.371963560581 -205.109357833862 2875.99992752075 11 14 7
119.304999709129 -212.379723787308 2977.9999256134 12 15 8
133.59622657299 -209.304332733154 2934.99994277954 16 19 12
-114.189073443413 -216.354072093964 2921.99993133545 21 23 18
-106.944032013416 -217.838987708092 2941.99991226196 21 23 18
-99.6902659535408 -219.545766711235 2964.99991416931 12 14 9
-91.0748466849327 -218.290463089943 2947.99995422363 15 17 12
-82.1856930851936 -216.07218682766 2917.99998283386 12 15 8
-76.0798677802086 -221.480637788773 2990.9999370575 12 15 8
-68.3718323707581 -222.964257001877 3010.99991798401 13 16 9
-51.2992888689041 -220.228731632233 2973.99997711182 13 16 9
-43.0666208267212 -219.638079404831 2966.00008010864 12 15 6
-18.6360310763121 -217.938259243965 2943.00007820129 8 11 4
-10.6720831245184 -219.345763325691 2961.99989318848 9 11 6
-2.65068397857249 -224.677875638008 3033.99991989136 9 11 6
13.7917352840304 -222.752064466476 3007.99989700317 22 24 19
22.3891846835613 -226.676255464554 3061.00010871887 0 2 0
30.1710460335016 -222.454264760017 3003.99994850159 13 15 10
37.8843322396278 -219.639003276825 2966.00008010864 9 11 8
45.6690900027752 -218.156471848488 2946.00009918213 9 12 5
53.5268001258373 -217.414140701294 2936.00010871887 8 11 4
61.2668246030808 -216.449365019798 2923.00009727478 10 13 6
68.4381872415543 -213.929295539856 2888.99993896484 14 17 10
76.7974406480789 -215.25950729847 2907.00006484985 14 17 10
85.0214511156082 -215.997040271759 2917.00005531311 12 15 8
102.324217557907 -218.952089548111 2957.00001716614 11 14 7
112.669341266155 -223.464906215668 3017.99988746643 11 14 7
118.779957294464 -219.536393880844 2964.99991416931 12 15 8
-115.005508065224 -225.932031869888 2943.00007820129 18 20 15
-108.212299644947 -228.546380996704 2976.99999809265 19 21 16
-99.1486310958862 -226.400673389435 2948.99988174438 10 12 7
-90.3918445110321 -224.638491868973 2926.00011825562 12 14 9
-82.5487822294235 -225.025624036789 2930.99999427795 12 15 8
-74.907012283802 -226.10342502594 2944.9999332428 12 15 8
-67.1204328536987 -226.9506752491 2956.00008964539 13 16 9
-60.0326955318451 -230.715125799179 3005.00011444092 13 16 9
-50.2969622612 -223.883986473083 2915.99988937378 13 16 9
-42.8762622177601 -226.726546883583 2953.00006866455 12 15 6
-35.6071479618549 -231.872200965881 3019.99998092651 11 14 5
-18.4643678367138 -223.889201879501 2915.99988937378 8 11 4
-10.621246881783 -226.346701383591 2947.99995422363 9 12 5
-2.59642000310123 -228.189662098885 2971.99988365173 9 12 5
13.864578679204 -232.181787490845 3023.9999294281 9 11 6
22.0665298402309 -231.643661856651 3016.99995994568 9 11 6
37.5380665063858 -225.652620196342 2938.99989128113 10 12 7
46.4269556105137 -229.950621724129 2994.99988555908 10 13 6
54.5274801552296 -229.641601443291 2990.9999370575 8 11 4
61.3274276256561 -224.648907780647 2926.00011825562 8 11 4
76.1077478528023 -221.188798546791 2881.00004196167 14 17 10
83.9399099349976 -221.109002828598 2880.00011444092 14 17 10
94.9218347668648 -228.629425168037 2977.9999256134 10 13 6
106.438174843788 -236.149311065674 3075.99997520447 12 15 8
113.038495182991 -232.460200786591 3028.00011634827 11 14 7
127.5914311409 -228.919789195061 2982.00011253357 12 15 8
-117.501981556416 -239.041790366173 3006.99996948242 18 20 15
-108.935132622719 -238.251268863678 2996.99997901917 21 23 18
-99.4474142789841 -235.154882073402 2957.99994468689 12 14 9
-90.6973034143448 -233.409643173218 2936.00010871887 13 15 10
-83.1088721752167 -234.605506062508 2950.99997520447 12 15 8
-66.777266561985 -233.81632566452 2940.99998474121 13 16 9
-59.091467410326 -235.17033457756 2957.99994468689 13 16 9
-49.6396087110043 -228.81218791008 2878.00002098084 13 16 9
-43.4989333152771 -238.195493817329 2996.00005149841 12 15 6
-34.9101684987545 -235.414355993271 2960.99996566772 11 14 5
-26.6482159495354 -233.825460076332 2940.99998474121 9 12 3
-18.6029598116875 -233.587816357613 2937.99996376038 9 12 5
-10.5740008875728 -233.349874615669 2934.99994277954 9 12 5
-2.57797446101904 -234.622210264206 2950.99997520447 9 12 5
5.49055077135563 -235.258221626282 2959.00011062622 9 12 5
13.8044441118836 -239.392146468163 3010.99991798401 8 11 4
21.9267178326845 -238.35788667202 2997.99990653992 8 11 4
37.1917821466923 -231.518104672432 2911.99994087219 10 12 7
45.9291413426399 -235.571205615997 2963.00005912781 10 13 6
54.2701669037342 -236.682340502739 2976.99999809265 9 12 5
61.8699975311756 -234.692469239235 2951.99990272522 8 11 4
69.404199719429 -232.940867543221 2930.0000667572 10 13 6
77.0822241902351 -231.983989477158 2917.99998283386 15 18 11
86.151696741581 -235.001847147942 2956.00008964539 16 19 12
94.3763479590416 -235.395804047585 2960.99996566772 11 14 7
104.877039790154 -240.956798195839 3030.99989891052 11 14 7
112.511552870274 -239.601135253906 3013.99993896484 11 14 7
-115.73900282383 -243.537545204163 2961.99989318848 15 17 12
-109.294302761555 -247.242018580437 3006.99996948242 16 18 13
-99.8469218611717 -244.203969836235 2970.00002861023 11 13 8
-91.0952761769295 -242.48106777668 2948.99988174438 11 13 8
-83.3027139306068 -243.224591016769 2957.99994468689 11 14 7
-75.1809477806091 -243.063345551491 2956.00008964539 12 15 8
-67.4784705042839 -244.381844997406 2971.99988365173 12 15 8
-58.8893666863441 -242.410883307457 2947.99995422363 12 15 8
-50.4137650132179 -240.357384085655 2923.00009727478 12 15 8
-42.7712798118591 -242.25053191185 2946.00009918213 12 15 6
-35.0266769528389 -244.307860732079 2970.99995613098 12 15 6
-26.7558824270964 -242.828965187073 2953.00006866455 11 14 5
-18.7098570168018 -242.994338274002 2954.99992370605 10 13 4
-10.7356980443001 -245.050728321075 2980.00001907349 9 12 5
-2.59446981362998 -244.228690862656 2970.00002861023 9 12 5
5.54970744997263 -245.955497026443 2990.9999370575 10 13 6
13.7305436655879 -246.283993124962 2994.99988555908 9 12 5
29.9968346953392 -245.624393224716 2986.99998855591 10 13 6
45.2608093619347 -240.111917257309 2920.00007629395 10 13 6
53.9216622710228 -243.234664201736 2957.99994468689 10 13 6
62.433410435915 -244.959115982056 2979.00009155273 8 11 4
71.106880903244 -246.847674250603 3002.00009346008 9 12 5
77.8188034892082 -242.239981889725 2946.00009918213 15 18 11
85.3614062070847 -240.838840603828 2928.99990081787 18 21 14
95.0738117098808 -245.275378227234 2983.00004005432 12 15 8
104.146294295788 -247.491419315338 3009.99999046326 11 14 7
114.000260829926 -251.104831695557 3053.99990081787 11 14 7
122.251272201538 -250.935673713684 3052.00004577637 13 16 9
-123.103223741055 -250.160664319992 2944.9999332428 25 27 22
-115.656159818172 -251.439720392227 2960.00003814697 15 17 12
-108.054131269455 -252.548664808273 2973.00004959106 15 17 12
-99.338598549366 -251.023828983307 2954.99992370605 12 14 9
-90.9062400460243 -250.008404254913 2943.00007820129 12 14 9
-82.5953111052513 -249.162495136261 2933.00008773804 11 14 7
-75.4830613732338 -252.139061689377 2967.99993515015 11 14 7
-67.5211250782013 -252.651751041412 2973.99997711182 12 15 8
-59.9256679415703 -254.863202571869 3000 12 15 8
-51.7224445939064 -254.780560731888 2999.00007247925 12 15 8
-43.3212108910084 -253.50821018219 2983.99996757507 12 15 6
-35.0724011659622 -252.74521112442 2974.99990463257 12 15 6
-26.9359927624464 -252.576589584351 2973.00004959106 11 14 5
-18.8673734664917 -253.172218799591 2980.00001907349 11 14 5
-10.8145121484995 -255.041927099228 3002.00009346008 9 12 5
5.61256380751729 -256.996154785156 3025.00009536743 10 13 6
13.8996001332998 -257.590442895889 3032.00006484985 10 13 6
22.2906079143286 -258.949011564255 3048.00009727478 10 13 6
30.3872488439083 -257.078856229782 3026.00002288818 10 13 6
38.2615365087986 -254.528760910034 2996.00005149841 11 13 8
45.971941202879 -251.97833776474 2966.00008010864 11 14 7
53.9012253284454 -251.211643218994 2957.00001716614 11 14 7
62.6613795757294 -254.012733697891 2990.00000953674 10 13 6
71.7198103666306 -257.238209247589 3028.00011634827 10 13 6
76.600581407547 -246.361166238785 2900.00009536743 14 17 10
84.4836458563805 -246.272876858711 2898.9999294281 17 20 13
94.8149636387825 -252.725392580032 2974.99990463257 14 17 10
112.054646015167 -255.010485649109 3002.00009346008 11 14 7
122.005976736546 -258.743286132813 3046.0000038147 13 16 9
-116.315536201 -260.995745658875 2976.99999809265 13 15 10
-108.085945248604 -260.737478733063 2973.99997711182 14 16 11
-98.7293571233749 -257.498025894165 2937.00003623962 12 14 9
-90.7170996069908 -257.502019405365 2937.00003623962 9 11 6
-74.7932568192482 -257.859796285629 2940.99998474121 11 14 7
-67.2685503959656 -259.791731834412 2963.00005912781 11 14 7
-59.803307056427 -262.512475252151 2993.99995803833 12 15 8
-51.6685210168362 -262.690216302872 2996.00005149841 12 15 8
-43.7984503805637 -264.533549547195 3016.99995994568 11 14 5
-35.0119806826115 -260.414212942123 2970.00002861023 12 15 6
-26.9348565489054 -260.678619146347 2973.00004959106 12 15 6
-19.17046867311 -265.502095222473 3028.00011634827 11 14 5
-2.63006682507694 -264.012426137924 3010.99991798401 8 11 2
13.9219341799617 -266.291677951813 3036.99994087219 8 11 4
22.1580360084772 -265.677124261856 3029.99997138977 8 11 4
30.2152596414089 -263.834685087204 3009.0000629425 9 12 5
38.3110046386719 -263.044118881226 3000 10 13 6
46.6984547674656 -264.182150363922 3013.00001144409 11 14 7
54.5004680752754 -262.163311243057 2990.00000953674 12 15 8
61.8414580821991 -258.741348981857 2950.99997520447 12 15 8
68.8983276486397 -255.056023597717 2908.99991989136 11 14 7
76.8878981471062 -255.228281021118 2911.00001335144 13 16 9
85.0920751690865 -256.013929843903 2920.00007629395 14 17 10
103.999316692352 -263.54593038559 3006.00004196167 12 15 8
-125.140860676765 -270.638197660446 2993.99995803833 14 17 10
-117.209158837795 -271.185874938965 3000 19 22 15
-107.463486492634 -267.303675413132 2957.00001716614 15 18 11
-99.5318442583084 -267.669796943665 2960.99996566772 10 13 6
-90.1881232857704 -263.967603445053 2920.00007629395 12 15 8
-83.066962659359 -266.683399677277 2950.00004768372 12 15 8
-74.8917385935783 -266.234844923019 2944.9999332428 11 14 7
-66.3348659873009 -264.158666133881 2921.99993133545 10 13 6
-51.7870001494884 -271.486580371857 3003.00002098084 10 13 6
-35.2933742105961 -270.676761865616 2993.99995803833 12 15 8
-26.9155669957399 -268.598765134811 2970.99995613098 12 15 8
-18.9543906599283 -270.679146051407 2993.99995803833 12 15 8
-10.8424024656415 -272.126317024231 3009.99999046326 10 13 6
-2.6290793903172 -272.126615047455 3009.99999046326 9 12 5
5.56570198386908 -271.222472190857 3000 9 12 5
13.6967189610004 -270.137161016464 2987.99991607666 9 12 5
22.003510966897 -272.03494310379 3009.0000629425 9 12 5
29.8926290124655 -269.140779972076 2976.99999809265 11 14 7
38.1944142282009 -270.40496468544 2990.9999370575 10 13 6
53.6961294710636 -266.332685947418 2946.00009918213 10 12 7
61.3568127155304 -264.702886343002 2927.99997329712 10 13 6
69.1321790218353 -263.886392116547 2918.99991035461 10 13 6
85.4672193527222 -265.145242214203 2933.00008773804 15 18 9
105.101890861988 -274.628847837448 3038.00010681152 12 14 9
111.037403345108 -268.929153680801 2974.99990463257 10 12 7
-123.965092003345 -276.187032461166 2966.00008010864 15 18 11
-115.875661373138 -276.192396879196 2966.00008010864 16 19 12
-108.512602746487 -278.059810400009 2986.00006103516 12 15 8
-92.9946526885033 -280.396938323975 3010.99991798401 12 15 8
-83.7671980261803 -277.048379182816 2974.99990463257 10 13 6
-75.0918462872505 -275.00319480896 2953.00006866455 10 13 6
-58.4998317062855 -272.774130105972 2928.99990081787 11 14 7
-50.8362613618374 -274.546056985855 2947.99995422363 12 15 8
-43.6349287629128 -279.949724674225 3006.00004196167 12 15 8
-35.2918021380901 -278.83392572403 2993.99995803833 12 15 8
-27.4035576730967 -281.722396612167 3025.00009536743 12 15 8
-19.099147990346 -280.978411436081 3016.99995994568 11 14 7
-2.60101282037795 -277.347236871719 2977.9999256134 10 13 6
5.48753747716546 -275.484532117844 2957.99994468689 9 12 5
13.6227700859308 -276.787936687469 2971.99988365173 8 11 4
21.7392910271883 -276.880294084549 2973.00004959106 10 13 6
30.0519503653049 -278.741747140884 2993.00003051758 11 14 7
53.0376061797142 -271.006315946579 2910.00008583069 10 12 7
61.8360266089439 -274.82196688652 2950.99997520447 9 12 5
69.7448551654816 -274.260252714157 2944.9999332428 10 13 6
77.224500477314 -272.301286458969 2924.00002479553 13 16 7
105.685353279114 -284.488290548325 3055.0000667572 13 15 10
-123.499743640423 -283.211559057236 2954.99992370605 14 17 10
-116.182930767536 -285.03805398941 2973.99997711182 15 18 11
-107.853583991528 -284.468144178391 2967.99993515015 11 14 7
-102.211818099022 -291.469722986221 3040.99988937378 10 13 6
-93.2374969124794 -289.365589618683 3019.00005340576 12 15 8
-83.5099890828133 -284.289658069611 2966.00008010864 10 13 6
-75.444407761097 -284.389168024063 2967.00000762939 10 13 6
-67.713588476181 -285.926133394241 2983.00004005432 10 13 6
-59.7354099154472 -286.695867776871 2990.9999370575 11 14 7
-51.2995086610317 -285.164773464203 2974.99990463257 11 14 7
-43.6039045453072 -287.946760654449 3003.99994850159 11 14 7
-35.2312549948692 -286.510765552521 2989.00008201599 11 14 7
-27.112428098917 -286.895602941513 2993.00003051758 12 15 8
-18.9146976917982 -286.417424678802 2987.99991607666 11 14 7
-10.7189621776342 -285.267859697342 2976.0000705719 10 13 6
-2.59128701873124 -284.405440092087 2967.00000762939 10 13 6
5.54108386859298 -286.322474479675 2986.99998855591 9 12 5
13.7229831889272 -286.993026733398 2993.99995803833 8 11 4
22.074643522501 -289.388626813889 3019.00005340576 9 12 5
29.5686423778534 -282.294064760208 2944.9999332428 11 14 7
37.9483625292778 -284.880608320236 2971.99988365173 10 13 6
53.6183901131153 -282.000750303268 2941.99991226196 11 13 8
62.0636940002441 -283.915132284164 2961.99989318848 9 12 5
69.5522278547287 -281.515806913376 2937.00003623962 9 12 5
78.5150527954102 -284.963011741638 2973.00004959106 10 13 4
85.9548822045326 -282.754719257355 2950.00004768372 11 14 5
94.2248329520226 -283.421456813812 2957.00001716614 17 20 13
114.610202610493 -294.338345527649 3071.00009918213 11 13 8
-124.622397124767 -293.920606374741 2982.00011253357 4 7 0
-115.786895155907 -292.152047157288 2963.99998664856 14 17 10
-93.0787324905396 -297.095268964767 3013.99993896484 11 14 7
-83.6187079548836 -292.762279510498 2970.00002861023 11 14 7
-73.4576061367989 -284.781485795975 2888.99993896484 11 14 7
-68.2097896933556 -296.21958732605 3005.00011444092 10 13 6
-60.2718219161034 -297.504067420959 3017.99988746643 9 12 5
-52.2627010941505 -298.788249492645 3030.99989891052 8 11 4
-43.2389937341213 -293.664455413818 2979.00009155273 10 13 6
-34.4634875655174 -288.244515657425 2924.00002479553 11 14 7
-27.0386915653944 -294.259309768677 2984.99989509583 11 14 7
-18.9707782119513 -295.44335603714 2996.99997901917 11 14 7
-10.786890052259 -295.246869325638 2994.99988555908 10 13 6
-2.62697180733085 -296.528726816177 3007.99989700317 10 13 6
5.57606806978583 -296.331524848938 3006.00004196167 9 12 5
13.8002540916204 -296.82394862175 3010.99991798401 8 11 4
21.5617977082729 -290.711164474487 2948.99988174438 9 12 5
30.1194470375776 -295.737504959106 3000 10 13 6
37.8699786961079 -292.384207248688 2966.00008010864 10 13 6
45.8997264504433 -291.987895965576 2961.99989318848 11 13 8
54.563544690609 -295.139998197556 2993.99995803833 11 13 8
69.1937655210495 -288.036614656448 2921.99993133545 10 13 6
77.5078684091568 -289.314657449722 2934.99994277954 10 13 4
92.2448933124542 -285.363703966141 2894.99998092651 16 19 12
115.64976722002 -305.462121963501 3098.99997711182 11 13 8
-118.945464491844 -308.427900075912 3045.00007629395 13 16 9
-110.02355068922 -306.711435317993 3028.00011634827 8 11 4
-100.992292165756 -304.386824369431 3005.00011444092 10 13 6
-93.5992524027824 -307.025134563446 3030.99989891052 10 13 6
-84.3466892838478 -303.48414182663 2996.00005149841 9 12 5
-73.9625990390778 -294.675081968308 2908.99991989136 10 13 6
-66.0956352949142 -294.982373714447 2911.99994087219 10 13 6
-60.4886114597321 -306.837499141693 3029.00004386902 10 13 6
-52.3291639983654 -307.448029518127 3035.00008583069 9 12 5
-43.3530285954475 -302.587896585464 2986.99998855591 9 12 5
-34.897904843092 -299.955904483795 2960.99996566772 10 13 6
-26.8200058490038 -299.957424402237 2960.99996566772 11 14 7
-19.1660858690739 -306.745857000351 3028.00011634827 11 14 7
-10.9628429636359 -308.367431163788 3043.99991035461 10 13 6
-2.63383169658482 -305.53126335144 3016.00003242493 10 13 6
5.57579984888434 -304.518163204193 3006.00004196167 9 12 5
13.7125141918659 -303.099453449249 2992.00010299683 8 11 4
21.9263210892677 -303.807705640793 2999.00007247925 8 11 4
30.2685908973217 -305.42728304863 3015.00010490417 10 13 6
38.8129465281963 -307.95818567276 3039.99996185303 11 14 7
46.5328395366669 -304.20795083046 3003.00002098084 11 13 8
54.0871135890484 -300.659954547882 2967.99993515015 11 13 8
60.9264485538006 -294.579178094864 2907.99999237061 11 14 7
85.1309821009636 -295.986711978912 2921.99993133545 11 14 5
93.1326374411583 -296.083718538284 2923.00009727478 13 16 9
112.285770475864 -304.78498339653 3009.0000629425 17 19 14
-125.864028930664 -313.280254602432 3012.00008392334 1 4 0
-117.103807628155 -311.830043792725 2997.99990653992 11 14 7
-108.128845691681 -309.547305107117 2976.0000705719 7 10 3
-101.424239575863 -313.921093940735 3017.99988746643 9 12 5
-93.1623727083206 -313.821941614151 3016.99995994568 8 11 4
-83.807684481144 -309.665560722351 2976.99999809265 8 11 4
-75.535275042057 -309.045374393463 2970.99995613098 9 12 5
-59.2276081442833 -308.53196978569 2966.00008010864 10 13 6
-43.6701960861683 -313.010096549988 3009.0000629425 9 12 5
-35.4500971734524 -312.90802359581 3007.99989700317 9 12 5
-27.2624921053648 -313.117623329163 3009.99999046326 10 13 6
-19.1334951668978 -314.471125602722 3023.00000190735 11 14 7
-10.857867076993 -313.639670610428 3015.00010490417 10 13 6
-2.61449092067778 -311.455428600311 2993.99995803833 10 13 6
5.56996138766408 -312.391608953476 3003.00002098084 9 12 5
13.7439193204045 -311.975032091141 2999.00007247925 8 11 4
22.1080128103495 -314.574778079987 3023.9999294281 8 11 4
30.5883474647999 -316.96605682373 3046.99993133545 10 13 6
39.0280745923519 -318.004608154297 3056.99992179871 11 14 7
46.2981313467026 -310.824751853943 2987.99991607666 11 13 8
53.2280020415783 -303.852707147598 2921.0000038147 11 13 8
61.9500242173672 -307.594656944275 2957.00001716614 12 15 8
69.8737278580666 -306.967258453369 2950.99997520447 12 15 8
77.9228508472443 -306.963592767715 2950.99997520447 12 15 6
86.1756056547165 -307.687640190125 2957.99994468689 11 14 5
94.5618003606796 -308.723390102386 2967.99993515015 9 12 5
103.036761283875 -309.862703084946 2979.00009155273 13 15 10
110.302612185478 -307.465076446533 2956.00008964539 19 21 16
-125.89955329895 -321.586549282074 3013.00001144409 9 12 5
-118.113495409489 -322.766751050949 3023.9999294281 10 13 6
-100.444652140141 -319.042026996613 2989.00008201599 9 12 5
-92.3857837915421 -319.36714053154 2992.00010299683 11 14 7
-84.394633769989 -320.012003183365 2997.99990653992 10 13 6
-58.9450746774673 -315.112680196762 2951.99990272522 10 13 6
-43.3342158794403 -318.747282028198 2986.00006103516 9 12 5
-35.7075780630112 -323.446154594421 3029.99997138977 9 12 5
-27.4150911718607 -323.127508163452 3026.99995040894 9 12 5
-18.759123980999 -316.403537988663 2963.99998664856 9 12 5
-10.6700640171766 -316.297560930252 2963.00005912781 9 12 5
-2.58641690015793 -316.191136837006 2961.99989318848 9 12 5
5.52331376820803 -317.8990483284 2977.9999256134 8 11 4
13.7478103861213 -320.247054100037 3000 28 31 24
21.924139931798 -320.13937830925 2999.00007247925 4 7 0
30.5868051946163 -325.261950492859 3046.99993133545 9 12 5
38.4005717933178 -321.097046136856 3007.99989700317 10 13 6
46.3112965226173 -319.066673517227 2989.00008201599 11 13 8
54.6283945441246 -320.024847984314 2997.99990653992 12 14 9
61.7164745926857 -314.471155405045 2946.00009918213 12 15 8
79.3447867035866 -320.761889219284 3005.00011444092 10 13 4
87.9483297467232 -322.252005338669 3019.00005340576 10 13 4
93.76060962677 -314.135164022446 2943.00007820129 15 18 11
101.544424891472 -313.38307261467 2936.00010871887 15 17 12
112.498581409454 -321.809887886047 3015.00010490417 14 16 11
-126.854166388512 -332.305192947388 3036.00001335144 7 10 3
-92.0723006129265 -326.416999101639 2982.00011253357 13 16 9
-86.1355513334274 -334.959715604782 3059.99994277954 10 13 6
-68.2643353939056 -329.275459051132 3007.99989700317 10 13 6
-51.7006628215313 -328.296512365341 2999.00007247925 10 13 6
-43.9269617199898 -331.364095211029 3026.99995040894 8 11 4
-35.9296426177025 -333.774536848068 3049.00002479553 8 11 4
-26.5804920345545 -321.296483278275 2934.99994277954 9 12 5
-18.6379142105579 -322.392404079437 2944.9999332428 9 12 5
-2.60112783871591 -326.115548610687 2979.00009155273 9 12 5
13.5821383446455 -324.472874403 2963.99998664856 51 54 47
21.6232985258102 -323.815137147903 2957.99994468689 9 12 5
29.8524759709835 -325.565367937088 2973.99997711182 9 12 5
38.1560549139977 -327.205628156662 2989.00008201599 17 20 13
46.3244169950485 -327.312916517258 2990.00000953674 10 12 7
54.2429573833942 -325.887203216553 2976.99999809265 11 13 8
62.5093355774879 -326.650470495224 2983.99996757507 12 15 8
78.7598565220833 -326.533675193787 2983.00004005432 10 13 4
86.3708108663559 -324.559032917023 2964.99991416931 10 13 4
93.787670135498 -322.255700826645 2944.00000572205 14 17 10
101.089648902416 -319.951981306076 2923.00009727478 10 12 7
-133.433386683464 -336.298286914825 2997.99990653992 14 16 11
-124.215371906757 -333.500653505325 2973.00004959106 12 15 8
-116.656333208084 -335.077464580536 2986.99998855591 13 16 9
-108.511909842491 -335.083365440369 2986.99998855591 15 18 11
-101.005494594574 -337.220340967178 3006.00004196167 14 17 10
-93.3642089366913 -339.24475312233 3023.9999294281 12 15 8
-76.6675919294357 -338.356286287308 3016.00003242493 13 16 9
-59.5978312194347 -334.885597229004 2984.99989509583 13 16 9
-51.5772849321365 -335.673898458481 2992.00010299683 13 16 9
-44.1713482141495 -341.510355472565 3043.99991035461 10 13 6
-35.8924046158791 -341.736853122711 3046.0000038147 11 14 7
-27.1405670791864 -336.241126060486 2996.99997901917 11 14 7
-18.5673236846924 -329.174160957336 2934.00001525879 12 15 8
-10.7373688369989 -334.560245275497 2982.00011253357 13 16 9
-2.63416930101812 -338.487356901169 3016.99995994568 13 16 9
5.52273960784078 -334.111720323563 2977.9999256134 70 73 66
13.6180808767676 -333.438068628311 2971.99988365173 54 57 50
30.1921758800745 -337.474673986435 3007.99989700317 8 11 4
38.4987071156502 -338.37041258812 3016.00003242493 12 15 8
46.5233884751797 -336.909651756287 3003.00002098084 9 11 6
54.732047021389 -337.019145488739 3003.99994850159 10 12 7
63.0925819277763 -337.913542985916 3012.00008392334 11 14 7
72.0410272479057 -341.387838125229 3042.99998283386 10 13 6
79.8382014036179 -339.252263307571 3023.9999294281 10 13 4
86.9488641619682 -334.872603416443 2984.99989509583 11 14 5
93.1138172745705 -327.912449836731 2923.00009727478 15 18 11
99.1131812334061 -321.512967348099 2865.9999370575 16 18 13
109.278403222561 -328.57483625412 2928.99990081787 17 19 16
-131.86864554882 -340.434730052948 2963.00005912781 21 24 17
-125.336825847626 -344.692796468735 3000 17 20 13
-116.650134325027 -343.205600976944 2986.99998855591 14 17 10
-109.196342527866 -345.394790172577 3006.00004196167 17 20 13
-101.100921630859 -345.745116472244 3009.0000629425 16 19 12
-93.4827402234077 -347.933560609818 3028.00011634827 13 16 9
-85.2820798754692 -348.168164491653 3029.99997138977 16 19 12
-74.8841688036919 -338.520228862762 2946.00009918213 16 19 12
-67.9167434573174 -343.924820423126 2993.00003051758 16 19 12
-58.6563050746918 -337.608128786087 2937.99996376038 16 19 12
-51.0746464133263 -340.48393368721 2963.00005912781 16 19 12
-44.1109389066696 -349.334716796875 3039.99996185303 12 15 8
-35.9965264797211 -351.060569286346 3055.0000667572 12 15 8
-27.2025000303984 -345.201700925827 3003.99994850159 13 16 9
-18.87640170753 -342.789739370346 2983.00004005432 14 17 10
-10.715190321207 -341.986149549484 2976.0000705719 15 18 11
-2.60783615522087 -343.250572681427 2986.99998855591 15 18 11
5.5409874767065 -343.365401029587 2987.99991607666 85 88 81
13.7364808470011 -344.514012336731 2997.99990653992 45 48 41
21.7891186475754 -342.559486627579 2980.99994659424 8 11 4
30.3411092609167 -347.384482622147 3023.00000190735 10 13 6
39.1603782773018 -352.553725242615 3068.00007820129 7 10 3
47.6672612130642 -353.585571050644 3076.99990272522 9 11 6
54.7837764024735 -345.539003610611 3006.99996948242 10 12 7
71.2559670209885 -345.876902341843 3009.99999046326 11 14 7
79.0947377681732 -344.264149665833 2996.00005149841 11 14 5
93.2999774813652 -336.556136608124 2928.99990081787 14 17 10
100.352808833122 -333.448499441147 2901.99995040894 17 19 14
109.235294163227 -336.430341005325 2927.99997329712 18 20 17
-142.158016562462 -354.01651263237 3009.99999046326 5 7 2
-134.531691670418 -355.553030967712 3023.00000190735 19 22 15
-124.494515359402 -350.502550601959 2980.00001907349 16 19 12
-117.971539497375 -355.331569910049 3020.99990844727 14 17 10
-109.045140445232 -353.10298204422 3002.00009346008 13 16 9
-100.52427649498 -351.932436227798 2992.00010299683 16 19 12
-93.9715951681137 -358.054310083389 3043.99991035461 18 21 14
-84.6864134073257 -353.94224524498 3009.0000629425 13 16 9
-75.6426155567169 -350.064933300018 2976.0000705719 13 16 9
-68.321481347084 -354.185938835144 3010.99991798401 13 16 9
-59.9707067012787 -353.366017341614 3003.99994850159 13 16 9
-51.5544787049294 -351.839900016785 2990.9999370575 13 16 9
-43.7022745609283 -354.312837123871 3012.00008392334 12 15 8
-26.9836951047182 -350.552439689636 2980.00001907349 14 17 10
-18.6981949955225 -347.612768411636 2954.99992370605 15 18 11
-10.7434066012502 -351.02504491806 2983.99996757507 16 19 12
-2.61293165385723 -352.084100246429 2993.00003051758 16 19 12
13.9052513986826 -357.024222612381 3035.00008583069 44 47 40
29.4462274760008 -345.140635967255 2934.00001525879 18 21 14
38.9795489609241 -359.254866838455 3053.99990081787 8 11 4
47.1534729003906 -358.076184988022 3043.99991035461 9 11 6
54.7079183161259 -353.250443935394 3003.00002098084 10 12 7
63.1067231297493 -354.423552751541 3013.00001144409 12 15 8
70.82599401474 -351.949602365494 2992.00010299683 11 14 7
78.8792446255684 -351.474940776825 2987.99991607666 11 14 5
86.2696170806885 -348.412066698074 2961.99989318848 12 15 6
94.3778827786446 -348.5247194767 2963.00005912781 13 16 9
102.110892534256 -347.343146800995 2953.00006866455 12 14 9
109.751649200916 -346.043467521667 2941.99991226196 16 18 15
-133.189290761948 -360.166251659393 2993.00003051758 23 24 19
-124.487668275833 -358.609050512314 2980.00001907349 14 15 9
-116.207852959633 -358.134359121323 2976.0000705719 21 22 16
-108.348987996578 -358.983010053635 2983.00004005432 15 16 10
-92.4229249358177 -360.318034887314 2993.99995803833 10 11 5
-82.9368755221367 -354.666590690613 2947.00002670288 14 15 9
-75.4096731543541 -357.077986001968 2967.00000762939 14 15 9
-68.7487795948982 -364.664107561111 3029.99997138977 13 14 8
-59.8675683140755 -360.93682050705 2999.00007247925 12 13 7
-43.3806553483009 -359.859436750412 2990.00000953674 13 16 9
-35.5919860303402 -363.592594861984 3020.99990844727 13 16 9
-27.090847492218 -360.104084014893 2992.00010299683 14 17 10
-18.5389705002308 -352.643311023712 2930.0000667572 15 18 11
-10.6528056785464 -356.134474277496 2959.00011062622 14 17 10
-2.64421314932406 -364.559799432755 3029.00004386902 14 17 10
5.69612951949239 -369.735032320023 3072.00002670288 8 11 4
14.2389163374901 -374.067276716232 3108.00004005432 24 27 20
37.3565182089806 -352.278530597687 2927.00004577637 9 12 5
46.7016510665417 -362.867414951324 3015.00010490417 10 12 7
55.5792823433876 -367.197275161743 3051.00011825562 11 13 8
62.6843422651291 -360.213458538055 2993.00003051758 13 15 10
71.2481290102005 -362.255692481995 3009.99999046326 13 15 10
79.1124477982521 -360.686928033829 2996.99997901917 12 14 9
87.2259363532066 -360.441565513611 2994.99988555908 12 14 9
94.8185697197914 -358.270257711411 2976.99999809265 10 12 7
102.693043649197 -357.422292232513 2970.00002861023 12 14 9
109.260648488998 -352.482289075851 2928.99990081787 15 17 12
118.086121976376 -355.003178119659 2950.00004768372 15 17 12
-123.102195560932 -362.653315067291 2947.00002670288 25 26 20
-115.459464490414 -363.890677690506 2957.00001716614 11 12 6
-108.161292970181 -366.481304168701 2977.9999256134 22 23 17
-100.849002599716 -369.440793991089 3002.00009346008 10 11 5
-91.9238328933716 -366.492658853531 2977.9999256134 18 19 13
-83.8608518242836 -366.743832826614 2980.00001907349 14 15 9
-77.0065486431122 -372.901856899261 3029.99997138977 14 15 9
-60.2434463799 -371.432840824127 3017.99988746643 15 16 10
-51.4280498027802 -367.251515388489 2983.99996757507 15 16 10
-42.9139472544193 -364.054292440414 2957.99994468689 15 18 11
-35.4486033320427 -370.333343744278 3009.0000629425 15 18 11
-18.4746515005827 -359.382718801498 2920.00007629395 13 16 9
-10.7349986210465 -367.01425909996 2982.00011253357 12 15 8
-2.64057121239603 -372.306972742081 3025.00009536743 12 15 8
5.63091272488236 -373.783767223358 3036.99994087219 19 22 15
13.9540815725923 -374.890923500061 3046.0000038147 18 21 14
22.5236006081104 -379.320591688156 3082.00001716614 10 13 6
29.8443213105202 -366.026878356934 2973.99997711182 13 16 9
38.3370704948902 -369.717240333557 3003.99994850159 12 15 8
47.5973598659039 -378.20690870285 3072.99995422363 11 13 8
53.8820698857307 -364.050537347794 2957.99994468689 11 13 8
62.2828900814056 -366.016387939453 2973.99997711182 12 14 9
70.91274112463 -368.720173835754 2996.00005149841 11 13 8
79.2399644851685 -369.454324245453 3002.00009346008 11 13 8
103.102169930935 -366.977393627167 2982.00011253357 11 13 8
110.895752906799 -365.863740444183 2973.00004959106 12 14 9
118.880048394203 -365.488082170486 2970.00002861023 12 14 9
-123.053416609764 -370.54169178009 2946.00009918213 22 23 17
-115.882337093353 -373.315691947937 2967.99993515015 13 14 8
-109.135694801807 -377.976179122925 3005.00011444092 25 26 20
-91.6407704353333 -373.45951795578 2969.00010108948 18 19 13
-52.2006005048752 -381.027787923813 3029.00004386902 11 12 6
-42.5633043050766 -369.080156087875 2934.00001525879 9 12 5
-33.9386947453022 -362.415283918381 2881.00004196167 7 10 3
-18.973384052515 -377.262234687805 2999.00007247925 7 10 3
-10.9431622549891 -382.420718669891 3039.99996185303 10 13 6
-2.62208841741085 -377.892434597015 3003.99994850159 11 14 7
5.55828167125583 -377.137571573257 2997.99990653992 13 16 9
13.7242330238223 -376.88547372818 2996.00005149841 11 14 7
22.0399908721447 -379.400312900543 3016.00003242493 13 16 9
30.4045341908932 -381.159961223602 3029.99997138977 16 19 12
38.1434410810471 -376.000344753265 2989.00008201599 10 13 6
46.0148379206657 -373.733580112457 2970.99995613098 8 10 5
53.6057502031326 -370.208501815796 2943.00007820129 7 9 4
61.4207088947296 -368.947237730026 2933.00008773804 5 7 2
87.2451215982437 -376.859039068222 2996.00005149841 7 9 4
96.8459621071815 -382.514089345932 3040.99988937378 8 10 5
104.410022497177 -379.866808652878 3019.99998092651 7 9 4
110.665626823902 -373.19415807724 2967.00000762939 8 10 5
119.593694806099 -375.828891992569 2987.99991607666 10 12 7
-118.725642561913 -390.766263008118 3040.99988937378 18 21 14
-109.601438045502 -387.817442417145 3017.99988746643 21 24 17
-98.5532253980637 -377.029418945313 2934.00001525879 18 21 14
-90.8020809292793 -378.06299328804 2941.99991226196 16 19 12
-83.17581564188 -379.867196083069 2956.00008964539 17 20 13
-75.5999609827995 -382.313519716263 2974.99990463257 15 18 11
-68.2151466608047 -386.43005490303 3006.99996948242 12 15 8
-60.4560002684593 -389.26112651825 3029.00004386902 10 13 6
-51.7667196691036 -386.051595211029 3003.99994850159 8 11 4
-42.8509339690208 -379.628777503967 2953.9999961853 9 12 5
-34.2194139957428 -373.333871364594 2904.99997138977 7 10 3
-26.6425665467978 -378.219217061996 2943.00007820129 6 9 2
-19.275926053524 -391.586154699326 3046.99993133545 7 10 3
-10.838134214282 -386.960506439209 3010.99991798401 9 12 5
-2.60971509851515 -384.262055158615 2990.00000953674 10 13 6
5.5282935500145 -383.233904838562 2982.00011253357 15 18 11
13.7005215510726 -384.389936923981 2990.9999370575 14 17 10
22.0606215298176 -387.987315654755 3019.00005340576 18 21 14
30.2923787385225 -387.98576593399 3019.00005340576 15 18 11
37.5925004482269 -378.602176904678 2946.00009918213 10 13 6
70.8335116505623 -384.629458189011 2993.00003051758 6 8 3
79.362727701664 -386.424154043198 3006.99996948242 8 10 5
86.5411758422852 -381.921499967575 2971.99988365173 9 11 6
95.7894399762154 -386.542320251465 3007.99989700317 9 11 6
