ply
format ascii 1.0
comment KinectMotionCapture
element vertex 794
property float x
property float y
property float z
property uchar red
property uchar green
property uchar blue
end_header
267.604835288814 125.619608179132 3410.15132360222 19 22 15
277.655576245026 125.153955424586 3408.82977188508 18 21 14
302.354921697056 124.655604917056 3395.09855979949 14 17 10
289.547086377453 120.689807488187 3470.85934448763 18 19 11
292.783878608189 119.569928669835 3486.20392191708 16 18 7
295.707451943302 118.408672286757 3502.50080100491 22 24 13
98.4648972609452 125.403399226343 3418.27017763502 6 9 2
178.639042134797 125.32018642089 3352.55426644857 11 13 8
214.72210671443 127.020442719433 3295.94441740793 12 14 9
210.743521027369 125.396418471964 3324.55476891595 14 17 10
236.734300082718 126.30672433407 3288.67925756105 16 19 12
236.618856629939 124.99919618892 3309.14132411427 17 20 13
243.65576278913 124.300516538724 3314.1534297396 17 20 13
252.765641878607 123.783455345998 3314.6091928819 17 20 13
250.382205839476 122.241304512594 3340.62810696619 15 18 11
246.903790974269 120.578624030057 3369.44126710638 15 18 11
248.426460973436 119.34960065933 3387.32906028309 15 18 11
262.90519832359 119.306737966372 3375.92976432613 15 18 11
272.10579088523 118.78343118889 3376.4223040516 15 18 11
282.880559050389 118.41220449646 3373.23531659372 14 17 10
275.068008403766 116.264092216139 3413.24402187571 15 18 11
281.185246510236 115.432562495522 3421.12144903466 12 15 8
279.535062546897 113.833737156939 3447.43768127601 16 19 12
308.980558201986 115.302900500732 3400.00999762544 18 21 14
279.692457013803 110.91586166376 3492.83681185131 17 20 11
300.389820851775 110.036072001257 3489.35577817499 18 19 11
67.0839598784823 116.645947315096 3440.15506997442 14 17 10
155.374941260969 116.01816628598 3379.88735245167 13 15 10
181.373504923144 115.603523312608 3365.60274200732 11 13 8
195.766140459809 115.537757830846 3355.24730854876 12 15 8
212.18464372315 115.671181031335 3340.31632686586 15 18 11
228.502199183216 115.812811353428 3325.3444099236 17 20 13
236.414559802321 115.182851382548 3328.55284370509 16 19 12
259.596373610864 116.0032383414 3298.01404706169 13 16 9
246.908822481846 113.411254155446 3346.84085944064 15 18 11
239.774245245497 111.314020151193 3383.8867468349 14 17 10
248.625246673572 110.754244486747 3385.31708137695 16 19 12
255.453861777717 109.995452635808 3391.32437243122 17 20 13
273.497767574334 110.361322329813 3371.65518768767 13 16 9
267.567910917547 108.313161742436 3407.03086967462 11 14 7
261.026189284828 106.169868485473 3444.31714922656 14 17 10
277.430238837408 106.378744743078 3428.3009352814 11 14 7
284.371899132849 105.612048029284 3434.35380022429 16 19 12
262.281317126237 101.753523968929 3509.59193498243 18 21 14
274.445886569904 101.508066146512 3503.73029050927 17 20 11
298.026510843587 102.515257224006 3470.11487182168 22 23 15
78.4911681935656 108.715691036585 3415.70399944324 17 20 11
119.925786535022 108.252096817486 3391.48630112454 5 8 1
151.315559814839 106.944653027755 3386.94349197021 28 30 25
163.315509094421 105.23889879658 3402.60396883284 25 27 22
185.005945465532 105.904808889058 3376.85705007503 23 26 19
209.898620347823 106.914455532902 3343.77259556066 20 23 16
201.571364343227 104.659711214909 3382.49464315516 17 20 13
227.505768634211 105.811241742912 3346.59447763966 14 17 10
256.525386076171 107.315799582336 3303.30983765857 12 15 8
266.411493017231 106.902956524592 3301.92122650992 10 13 6
247.319195863243 103.48650007483 3365.42326822135 11 14 7
245.582932258822 101.830136967212 3390.626275402 12 15 8
263.299505324246 102.215807348471 3371.90321401015 12 15 8
261.387026830602 99.0044483630993 3419.70317384395 11 14 7
298.796726016067 100.068654486223 3376.58227471344 14 19 12
320.806632310236 101.011113774179 3346.64686387389 18 21 14
271.72269963294 93.9257347120778 3485.42294695552 18 21 14
278.433559829818 93.0947709547 3492.46217229394 18 21 14
312.81004453411 93.8790873129912 3455.66718179007 22 25 16
114.065935924268 101.799488770263 3362.19059389348 14 17 6
113.788538061669 100.345494069583 3382.58793920155 6 9 0
107.908678295049 98.3295758854147 3414.74693853036 8 11 4
167.274311815914 101.276668449463 3331.95160254419 22 25 18
148.545693366611 97.9577356205928 3391.28466618851 23 25 20
185.8086294802 100.26317349587 3332.99033538947 14 16 11
198.782929567608 98.6850701694315 3345.80767078755 16 19 12
190.784348286816 96.3739703619722 3383.58441546909 15 18 11
233.135352842202 97.8871655255836 3332.75076775203 11 14 7
236.516797420913 96.7647207800183 3345.99605982984 11 14 7
268.691189078024 98.7789876628953 3295.35366533473 8 11 4
260.175872247835 96.3550712662451 3335.07965885258 9 12 5
269.298255903023 95.8619908271406 3335.54030323754 12 15 8
267.930023402247 94.1879280636165 3359.81339239787 12 15 8
270.456923771742 89.8026126637027 3419.12976857689 10 15 8
303.29618089401 92.0756672951842 3364.4391220658 16 21 14
307.329497984948 90.9809647977278 3376.86933429154 17 22 15
311.801481894697 89.9291683428464 3388.39776902381 15 20 13
312.082569682431 88.3581816628914 3410.10119335922 18 21 14
319.734808444123 87.6740540637519 3414.28378158609 23 26 19
47.791612043854 87.927473127041 3474.63801729249 22 26 12
121.55382306787 92.4075388938389 3365.29357486152 10 13 4
156.265019283283 91.5639930177409 3353.46083331737 22 25 18
147.498322228638 89.1281236192964 3392.00632721725 17 19 14
171.065485137592 90.1410732297087 3362.70090427033 18 20 15
210.636234964664 92.9317528702432 3298.86420683524 16 18 13
207.040039524235 87.9951861546406 3367.57296718996 15 18 11
220.060408215347 87.9217142960178 3359.89890988616 14 17 10
243.351742152402 89.0384168006364 3329.40221117719 16 19 12
237.294939086851 86.7901378529349 3363.64894493369 18 21 14
256.309997198762 87.4447278317497 3342.21316818654 16 19 12
267.481298769549 87.1982259421932 3338.10698077681 12 15 8
294.736449781569 88.8836511434219 3297.34323154841 11 14 7
307.519881659954 87.3058006418766 3310.08328384218 11 14 7
301.48065009223 84.9772935808497 3345.4165484245 15 20 13
275.578402538519 80.1348957135126 3427.75006108169 17 22 15
302.66012737959 80.2314020050665 3408.50558539612 13 18 11
314.553212363877 80.0899444093177 3402.53323049199 15 20 13
95.784921649438 80.9326348189807 3416.4433425906 11 14 5
141.767714857115 84.4113669641618 3342.25089429546 15 18 11
158.085145665081 84.6876167246268 3328.35671464721 26 29 22
156.957604652048 83.0308312080429 3350.56925361853 21 24 17
155.505953167023 81.3169825955062 3373.73006044459 14 16 11
164.883159315376 80.8176109917762 3374.29392834017 20 22 17
174.24582947433 80.319689927755 3374.85189972176 17 19 14
192.912792759499 80.9084706788184 3355.43355417043 16 19 12
200.57181076337 78.6353947103461 3380.12957191735 18 21 14
225.277313525777 79.9900983161181 3346.96697452422 20 23 16
229.521580878062 78.9042335996967 3358.40346666096 21 24 17
221.48458928597 76.3046128070479 3397.24565433292 15 18 11
239.781686582289 76.924386022065 3377.67731774405 13 16 9
278.244191679701 80.0919138511205 3312.3099780792 10 13 6
265.059446246527 75.1627626576669 3384.6887748301 13 16 9
277.059853677488 75.0390139266816 3378.75973979725 14 17 10
308.79414135184 77.4972687054152 3326.85671963488 15 20 13
280.465490452076 72.112972113593 3414.68501226888 16 21 14
272.134473482995 69.2897171311291 3456.64652788806 16 21 14
316.256012078354 71.7615127528502 3396.81244598176 14 19 12
154.462330327894 72.5352979944142 3374.45287585639 11 13 8
153.549814258661 70.8038169894806 3396.75330030474 14 16 11
169.797338914167 71.1387014066495 3382.83037171504 13 15 10
185.101443610203 71.3773238210805 3370.68406220891 15 18 11
190.210007274761 70.3685647239943 3380.31230108362 18 21 14
209.691058870315 69.5020229269909 3379.57562965048 23 26 19
195.82450991184 66.0574825702901 3431.16821794653 21 24 17
231.55959307226 68.9613948830781 3373.3295421624 11 14 7
253.880938000292 70.187537806934 3344.59714574846 11 14 7
251.257437070479 68.1655092903006 3371.60130474173 10 13 6
275.735801072015 64.5897378614781 3402.03816543934 14 19 12
304.238433647655 66.7840768971051 3357.45990821875 15 20 13
321.818487909654 64.0176250859563 3381.86113323698 13 18 11
333.608477260446 63.9396135150367 3375.84655473639 15 18 11
77.4095712943665 62.7320420063879 3430.71895494555 10 13 4
78.1952077189707 61.1602732518612 3449.38999172691 17 20 13
149.777187627328 68.2096937075957 3322.95990584444 19 22 15
98.8034980722072 60.3096997927894 3448.03054488907 18 21 14
142.284576730349 64.0180981660292 3378.21798442822 15 18 11
130.976262785903 60.9306382479761 3422.21244058979 14 17 10
193.818891804289 63.8913197540173 3350.53485746025 27 30 23
203.084456389794 63.4177547712165 3351.05332686944 25 28 21
209.403026789697 62.55916173622 3357.93366903928 21 24 17
209.080414346171 60.8125566079994 3379.39424778707 11 14 7
262.024411281793 61.112722583913 3345.80529159972 11 14 7
293.525959856099 62.059577837454 3316.47626461536 16 19 12
307.733629761988 62.3462977016266 3304.96445999479 17 20 13
291.758801228491 58.3056009794898 3363.26036818732 14 19 12
296.159077789728 57.1596746158564 3374.76048260035 14 19 12
263.143365022428 48.6334872450334 3497.39713807543 17 23 21
334.537648230115 55.6181954007875 3371.97035377128 13 21 23
101.870930959122 55.2484383202068 3399.68211398541 14 17 10
130.938386215936 55.5748642574791 3380.16135285655 21 24 17
143.408603720087 55.4919460011376 3374.42223111587 23 26 19
205.113680726627 60.2526316194754 3285.00794402758 27 30 23
190.668251753485 54.9153311436547 3355.80058444588 23 26 19
201.635850345937 54.6795917190932 3352.69090293426 21 24 17
265.486829670168 53.1527079287796 3336.47868194554 12 15 8
286.313519618483 54.4168520440761 3310.37724669239 13 16 9
252.505807247421 45.7869846152188 3430.53613948233 17 20 13
298.684126481829 50.8775888967599 3345.62178762757 13 19 9
276.260687783127 45.6331928235686 3419.65659022722 14 19 12
311.094371405987 47.2464862867383 3381.96188199474 15 21 21
300.528507992162 43.7070916761101 3429.49705832389 5 13 15
162.783544133454 49.4860451497796 3332.68375478821 28 31 24
190.350051843063 49.8250994092808 3314.71253395355 15 18 11
185.888481191629 47.4500811615876 3344.21182873846 15 18 11
193.032227254358 46.6909709947957 3349.26790835852 12 15 8
195.611832930131 43.4720109274453 3384.86120414718 10 13 6
217.572127433088 43.0380909707961 3378.65146093781 15 18 11
243.731770993539 45.0934253309064 3341.75683447952 13 16 9
242.665202856334 43.1084684729076 3365.07561375631 14 17 10
240.897477609201 40.9915030141875 3390.26911635403 16 19 12
246.525059566072 39.9791985721672 3399.02872079403 17 20 13
234.516052229499 36.2325581489353 3448.13902273521 18 21 14
273.433322427108 40.377766327955 3380.79078740591 19 22 13
265.971168998051 37.3044463190521 3419.86905626906 20 24 10
268.948993491898 35.8458904276617 3435.11134657321 12 15 4
287.256941651098 36.8355918054565 3414.46553409741 15 18 11
295.323106031161 36.195329198109 3417.73632002515 12 16 17
134.957872281288 38.7828230041986 3368.96936680556 21 24 17
133.490729456985 36.7661954268594 3392.12619627991 21 24 17
155.472430153869 38.1106566127662 3366.49180792886 17 20 13
151.515175429397 35.7119979264058 3395.11641048409 11 14 7
188.700835895754 39.3318574093401 3336.7810855911 10 13 6
173.32250082231 35.2291543897692 3389.92416736125 10 13 6
165.397813357225 32.1790462135219 3427.73643260815 9 12 5
193.741821402166 34.5676119398264 3387.40796705169 11 14 7
208.083613358131 34.8764512347147 3377.02936521135 16 19 12
246.799957853371 38.9570861392596 3312.83669036417 13 16 9
215.946874326304 32.3120141899715 3401.81028792759 12 15 8
254.339422836645 36.4190500447883 3337.48631026408 14 17 10
236.210567868335 29.7297098724316 3420.82334040969 20 23 16
278.414394958579 32.663566004682 3367.76145984167 20 23 14
285.981493149802 31.9652174653197 3371.90968304454 21 23 9
272.546687517885 25.7766806989068 3447.43320241897 16 19 10
274.090166727091 24.0098746829787 3466.41281994 14 18 19
153.155986074276 32.8324171224761 3329.99066272211 20 23 16
165.05682249496 32.7771340751669 3325.09960128358 20 23 16
161.348133850819 30.3808156789989 3352.74602060465 21 24 17
152.189290069311 27.1243287277604 3392.21802249547 17 20 13
180.834589511049 29.6197092060565 3352.01073806807 14 17 10
195.175871834062 28.0747567752763 3362.14462197423 14 17 10
197.746146926104 26.5738299067756 3377.22221956832 15 18 11
201.217179927017 25.2006099555623 3390.50568617238 14 17 10
205.573614051735 23.9562932529366 3401.98905209143 15 18 11
226.458686670312 25.3789740002341 3376.98911927407 16 19 12
246.594849742854 24.7703514012734 3374.35786937431 23 26 19
237.21165262212 21.2360280535339 3416.9775625391 23 26 19
257.386861606317 22.6169408246295 3392.76933568978 19 22 15
271.486755728288 20.9980056275606 3403.88485213309 14 14 2
291.514782233154 20.4018359328538 3401.20972411222 17 18 12
302.658664249915 20.3129786724599 3397.09149704222 16 20 19
132.24371613294 22.9738159721572 3351.80684385594 21 24 17
189.255135428808 28.0432655595813 3273.43677146208 21 24 17
174.582921106212 23.8876851605979 3323.62973289632 25 28 21
176.9452216831 22.3661595953902 3338.62327921257 25 28 21
200.747700034595 24.2535471584586 3308.32744045289 22 25 18
204.816021806223 23.0060693968827 3319.69417567772 16 19 12
192.034570359422 19.0079307561527 3367.4148186061 16 19 12
191.678215463089 16.9878686865263 3388.86355077591 15 18 11
206.864924521672 17.5162765554206 3376.66751211168 13 16 9
204.959466930574 15.2109149015535 3401.80667584921 15 18 11
271.395444529842 18.5133075376268 3338.05478738338 24 27 20
285.728451106818 19.0093260691175 3326.59214426769 17 20 13
265.617325163939 13.4489317767285 3394.01340967241 15 16 8
277.227456253191 13.446225106741 3389.0042451865 21 18 9
298.654564491518 15.2201191982508 3360.98443500003 24 24 16
296.783580292318 12.8126667644291 3387.21739596036 13 14 8
306.333057771197 12.4634744706204 3386.77081161116 16 20 19
163.772064990611 17.4979535000445 3305.27539136557 23 26 19
173.43102870777 17.1449436251375 3304.87316615616 19 22 15
177.011973702393 15.8053527844571 3317.12232953281 18 21 14
192.689904482466 16.4446077934378 3304.04527750853 24 27 20
226.666604809444 20.1449583882237 3251.96222870583 28 31 24
211.711164287107 13.7657582480611 3323.63481728704 23 26 19
192.326421266206 8.47772494015653 3385.95382763416 22 25 18
206.255897634198 8.83754638078302 3376.48670384087 22 25 18
207.250387334668 6.97067393383588 3395.24454064211 23 26 19
242.529017883746 6.99574814035567 3380.398540913 24 27 20
246.506069440727 5.62815728294555 3392.80804004133 22 25 18
260.994044996403 6.15577357213562 3381.40790326675 17 20 13
273.402261933011 6.32399149277418 3374.56296624759 15 18 11
285.816710601621 4.39186881017181 3389.3139214226 18 17 13
300.881899888133 5.08498483838993 3375.98862367574 21 23 22
171.963842975985 8.46974727257205 3306.50274216632 21 24 17
166.889255925632 5.63540328715392 3336.83612065398 17 20 13
172.296691963238 4.55423884534387 3345.50711150821 22 25 16
182.441541297953 4.28203212774075 3344.2224545663 27 30 21
224.460636886087 9.55837084852509 3274.88461385635 26 29 22
222.105138980331 7.15566321664457 3299.84229730924 26 29 22
221.552755379 5.04095936254959 3321.21263342823 25 28 21
207.053124576541 -1.67887977379125 3394.15142346211 24 27 20
234.949766339059 1.27371507718599 3353.63754727477 24 27 20
247.01939085061 1.38983342039134 3347.73471962131 24 27 20
249.135914680668 -2.44547401677592 3385.3028048775 22 25 18
252.738928046621 -3.91834188421789 3398.64072192855 16 19 12
251.598587446257 -6.30698618917785 3423.01149924094 14 17 10
280.469774333025 -5.15378918351519 3400.16806485449 16 16 14
295.960952611429 -4.33733517572407 3385.93524679954 18 18 16
253.66378833738 -14.8759825083197 3508.06584375471 16 20 19
128.219443722925 -3.47299221767844 3355.77245918401 26 28 23
150.30985787689 -1.69914974631327 3330.1788335498 27 29 24
163.090129931487 -1.50529548858563 3323.48434470021 24 27 20
166.719917089127 -2.90419292362848 3335.75347622451 21 24 17
176.429144579881 -3.2390135829572 3335.3717218188 21 24 15
188.259004206728 -3.18948977343014 3330.45112797101 24 27 18
189.406026489023 -5.05309335557791 3348.19189121537 27 30 23
217.28209368137 -2.07913899698742 3308.74858800079 27 30 23
225.159776848631 -2.70889202272184 3311.94297955869 26 29 22
242.23186525419 -1.63801351165321 3295.11165070853 25 28 21
216.410004215969 -8.53959371392954 3372.0985069414 24 27 20
249.208586309515 -4.518715218116 3320.6148250272 24 27 20
263.239917270246 -3.97858786118171 3310.10876662508 24 27 20
256.399855297529 -7.41513538291724 3346.20524465465 23 26 19
246.095808202077 -11.5705892281807 3390.61441646378 21 24 17
250.114327767239 -12.9963100924312 3403.04114630496 15 18 11
244.980413121558 -16.2359371972932 3436.59025706116 13 16 9
270.23282402097 -13.4915872860193 3400.40188410794 11 13 8
278.27899652687 -14.1312223922921 3403.66457071093 22 22 20
263.951564598606 -21.6113948109954 3482.07340114025 0 2 1
156.283930796238 -9.13741603655313 3316.47092239829 27 29 24
156.82448445519 -11.1114877478446 3335.04577624786 26 29 22
161.35163343461 -12.3829172968586 3345.51940354227 25 28 19
170.22758701071 -12.8672299321072 3346.9592690434 18 21 12
184.971124877289 -14.3884094870313 3356.17703503898 21 24 17
184.526608871285 -16.622359416854 3377.59169261065 22 25 18
206.898153785509 -14.5537499918101 3349.95178706654 24 27 20
212.791969112956 -15.5919832481176 3357.74057590536 24 27 20
251.125267086284 -10.374317154169 3294.46325521396 24 27 20
250.264612473634 -12.6869801271123 3316.78882597363 25 28 21
255.668152078747 -13.798381450386 3325.45846837722 24 27 20
259.878622130761 -15.1543770729659 3336.88358097129 20 23 16
249.134727093709 -19.5119616405229 3382.19525892529 18 21 14
234.192861466239 -24.7813777262219 3437.68178096763 16 19 12
301.844303391887 -15.549527041325 3325.82711411122 14 19 12
85.9830394151662 -28.4013135411847 3439.19654734475 25 27 22
155.979301442733 -21.920773676067 3355.28439714789 19 22 13
170.485799751503 -21.3393531798471 3344.97016042722 15 18 9
172.920849035696 -23.0460156291177 3359.99456546768 15 18 9
191.606365326909 -21.6359859377576 3340.57724982765 18 21 14
207.625418608122 -20.7096182541665 3326.55758873894 19 22 15
225.991076220811 -21.4809575547052 3327.52619684829 24 27 20
250.950372167589 -18.7118728464664 3293.37657252751 26 29 22
226.116282028524 -25.9051901947092 3368.60796521293 26 29 22
252.196820529993 -22.8764111464945 3331.67393123035 25 28 21
263.769605666208 -22.7543053811584 3326.64869958795 19 22 15
272.45774408752 -23.2146219180484 3328.01233817729 16 19 12
223.093830360867 -35.7654225925955 3461.32218737442 15 18 11
261.366658341491 -30.1078972426922 3395.85917528403 14 17 8
293.687345849503 -25.6009581452207 3343.09924765512 15 23 10
313.439427872371 -23.6908882620733 3318.71568882496 11 19 8
123.309530093331 -30.1599429050132 3361.5389211472 22 24 19
101.120615828643 -36.5960848824862 3427.04673454032 20 23 16
115.488507963284 -36.0823748090836 3417.75595575649 22 25 18
160.577955118295 -29.5794082346292 3344.25768323346 19 22 15
175.487674229226 -28.8702510313402 3333.02693141109 12 15 8
170.17176068041 -32.1341512888008 3364.34491979562 15 18 11
221.682858301184 -24.121167870033 3275.09400081765 15 18 11
223.969188513019 -25.8510464941091 3290.05836652977 14 17 10
222.111827706508 -28.4387542398942 3314.14033627822 18 21 14
209.49112521031 -33.2581752285536 3361.93229041615 22 25 18
219.580232111282 -33.4697461529707 3360.62460415425 25 28 21
247.007558152671 -30.0713953256619 3320.99639201171 28 31 24
254.064313481611 -30.8723852655391 3326.0173099096 25 28 21
234.933677075587 -39.5688086487316 3411.12155526628 13 16 9
242.229764793688 -40.3877496654422 3416.23977044674 13 16 9
257.150134553914 -39.5558878117875 3403.93359278574 15 18 9
278.753874298838 -37.235970070866 3375.98090351016 15 16 8
299.789654189605 -34.9892877574088 3348.87787178089 11 14 7
113.87222184728 -40.6051759246773 3379.37470002723 22 25 18
125.51930656582 -40.5662140797235 3375.45924733845 19 22 15
158.074376888424 -36.3572651864369 3328.19103350817 20 23 16
182.536573931605 -33.691192073434 3297.07759981348 20 23 16
174.455958604569 -37.5499146817244 3333.75379467883 15 18 11
176.854920914107 -39.3254792389869 3348.76411061766 16 19 12
190.829763054035 -38.7404291221013 3339.31364793263 13 16 9
216.598949909762 -35.6905513866419 3304.41100623515 13 16 9
229.519483573724 -35.2638423529864 3296.6927352001 14 17 10
219.352908858631 -39.6840445437102 3339.00195903729 17 20 13
215.646885533564 -42.7949794771247 3367.73368226914 19 22 15
226.972775114826 -42.7263258401702 3363.68795488515 25 28 21
258.81173783571 -38.2126719536564 3313.96961105729 22 25 18
232.345925308427 -46.3175893734596 3393.94179573777 14 17 10
250.491403230966 -47.1558793838773 3395.90057025927 15 18 11
274.179146872119 -44.3011334035819 3363.39332762691 17 20 11
282.132345259535 -44.9340299937891 3366.61831859075 21 22 14
272.668414215111 -49.5283443640964 3410.29242297374 15 17 12
102.660932890306 -51.5150932278376 3400.81121864375 24 27 20
111.296019719457 -52.084623018446 3403.23301296871 21 24 17
153.54526188142 -45.7594431369711 3336.13828056215 18 21 14
160.674270227338 -46.581077099567 3341.18886689823 19 22 15
181.191716249095 -44.6150136720013 3318.19358226599 17 20 13
183.115767271451 -46.5129339140888 3334.09134554945 15 18 11
205.155235220406 -44.169970406056 3307.39397023143 15 18 11
211.342407434404 -45.1636086250607 3314.2223910373 14 17 10
234.827820173172 -42.4376225094324 3283.79181830497 12 15 8
208.700375856534 -50.4288353459452 3360.66346237442 12 15 8
200.053515097407 -54.7151449509742 3400.35031111856 12 15 8
222.230373100043 -52.2567385292574 3372.6288808924 19 22 15
233.131395311291 -52.2562732029593 3369.49045270726 18 21 14
221.927161794782 -59.6950372829113 3437.29561173799 16 19 12
274.37838708259 -52.6843652534694 3361.37992490426 21 24 15
279.934665901658 -53.8723064571514 3370.1119904868 25 28 19
270.472127346451 -58.5876229056166 3413.78731861504 11 13 10
262.019907178394 -63.1343936209779 3455.71282369552 21 25 26
124.738809900047 -57.9714953103172 3374.19609167511 22 25 18
157.311966220497 -53.4567600566402 3326.93288296021 19 22 15
178.745456225564 -51.2305169589776 3302.14890968056 18 21 14
187.5024924932 -51.6788022190687 3303.54009610027 20 23 16
200.97111130742 -51.1042367248458 3294.96355478477 20 23 16
187.068264249623 -56.4810056396175 3344.39847571602 22 25 18
212.705634369094 -58.0246721177527 3350.47507633496 20 23 16
206.105490877736 -61.9486068932801 3385.59332455344 20 23 16
213.758500028043 -62.6873412226281 3389.77663860934 20 23 16
230.05744242847 -61.4459250547418 3374.78884929398 19 22 15
230.307880131454 -63.8813298490809 3395.40735031055 17 20 13
245.233093215882 -65.4525297482394 3404.69905445756 20 23 16
274.177364220422 -61.1505513264475 3360.28363818149 21 24 15
270.557896542062 -64.5466581268647 3390.13163407752 20 26 16
257.179866732871 -70.3417553490624 3443.01890227238 12 17 13
140.831091414144 -63.1136745098319 3339.75318002706 30 33 26
142.292426506459 -65.183006526698 3356.54370030081 23 26 19
192.955776012901 -58.8448237572148 3290.69806560639 27 30 23
197.373887899951 -60.2398147669807 3301.12873834197 25 28 21
168.994087704059 -71.4872938270755 3401.92723171288 23 26 19
232.582425556658 -64.3592386232807 3326.2045034598 20 23 16
235.514283349527 -66.1526381500227 3340.35165482533 14 17 10
205.987852810706 -75.6154039069834 3426.64708049546 14 17 10
248.516364841456 -68.1000126480535 3353.18303769243 14 17 10
267.038323997669 -66.2010362482646 3332.616984699 14 17 10
268.05525928063 -68.4893505599935 3351.38736119884 15 18 11
271.969262654958 -70.0992698532064 3363.77316934739 15 18 11
270.348808486875 -73.0852570212526 3389.03288791114 17 24 16
271.625250885092 -75.3929306592985 3407.90822651852 20 26 22
147.704278125721 -70.0950660648985 3324.24797719199 26 29 22
124.637553469691 -77.6745602252386 3391.56665395039 14 17 10
141.483480915948 -76.3712448284136 3376.7998658324 15 18 11
170.327651257994 -72.3117435370025 3336.66150444327 16 19 12
114.303422492743 -87.6042636413012 3474.84759212728 11 14 7
184.58427084291 -73.9868157969304 3346.76209527836 13 16 9
207.435324405589 -71.1715247655543 3318.2318716084 14 17 10
180.317007215236 -80.0171109030225 3396.86641046247 14 17 10
172.075078032087 -84.5334896532102 3435.64014885595 12 15 8
204.053725839592 -79.5277639883474 3387.05369813179 11 14 7
222.0697874507 -77.7837137773869 3368.4418586118 10 13 6
212.371995602777 -82.7131086394725 3410.94474885819 10 13 6
273.922530940035 -75.4232559472188 3336.55331868441 12 15 8
272.571668538035 -78.3646481592478 3360.84304688661 10 15 8
253.375886175962 -85.8493046070862 3426.49164030288 15 21 11
141.789088829805 -77.4446942455561 3315.43530374411 33 36 29
151.065074676502 -77.7843644937681 3315.95697776267 30 33 26
127.52420066 -85.6565523476228 3384.16495870665 21 24 17
138.265654342267 -85.7063802190102 3382.04111170476 17 20 13
142.492858032567 -87.2662529405671 3393.47454496345 11 14 7
131.7246111826 -92.3667304320541 3436.62412045311 9 12 5
154.931087260835 -89.4844651928796 3408.23729719984 11 14 7
181.81611884507 -88.2514832753075 3392.14150651352 10 13 6
183.624732349071 -90.4283995994602 3409.07345281985 10 13 6
213.4548486767 -85.7716621417607 3365.01427729997 10 13 6
207.638268072951 -92.4838210996309 3419.89100850981 10 13 6
238.305290669287 -87.486270462312 3372.93116826504 9 12 5
235.323752780423 -90.9031030011126 3400.87974100334 10 13 6
251.891361374351 -89.3819789098023 3384.91980447645 14 17 10
255.894520044666 -91.0540753767495 3397.34218225985 13 18 11
255.198613591787 -99.5205929677251 3465.09438889263 12 22 23
123.487767921919 -90.1295365161836 3351.27678844058 23 26 19
131.104921449231 -90.881295213036 3355.44542630292 24 27 20
181.170586131155 -81.6242275177409 3272.07345247084 28 31 24
181.158039187747 -84.1138894535365 3291.50733320146 28 31 24
183.399823604312 -86.0924640633143 3306.45554768388 23 26 19
174.959297480137 -90.670880368853 3344.07028043826 20 23 16
187.65538041713 -90.1684866462302 3337.33936536533 17 20 13
221.965524225545 -84.3468917547996 3284.29618164664 16 19 12
201.478577688444 -91.9679164983872 3348.34421731095 14 17 10
216.712797145233 -96.0892533080195 3377.20045523586 13 16 9
231.755826797105 -94.9427046580343 3364.94155645739 13 16 9
231.863034103672 -100.338000003177 3407.10220589018 15 18 11
231.458439679495 -103.205538203717 3429.61689522431 19 22 15
248.047786491646 -101.628058492896 3413.66507596146 18 23 16
265.729429580191 -99.7230764741064 3394.91661292754 24 31 23
141.99383417087 -91.7385832639428 3292.96977586942 16 18 13
129.526134964786 -97.2287004956972 3337.59208199536 17 20 13
133.582428507006 -98.8259615661071 3348.9565983373 19 22 15
181.459427772642 -89.8352001247549 3270.09502305583 25 28 21
182.743731947316 -92.0553389171707 3286.81500783727 28 31 24
188.864088011161 -93.1116733207439 3293.61659324992 27 30 23
214.850841186926 -91.812774062524 3278.23540449678 20 23 16
197.14829782815 -98.8544685013 3335.85426269337 19 22 15
219.891849550051 -95.7423655709636 3307.27851976163 17 20 13
236.853457398941 -99.3552148051623 3331.43549843616 16 19 12
238.575598308387 -101.606461429236 3348.33325323047 16 19 12
247.034055292868 -107.634164368198 3392.8015071562 19 22 15
267.548228645793 -104.903825427991 3367.64123093011 17 22 15
130.263951102531 -102.953184884972 3315.27769419188 29 31 26
153.72160926509 -104.987065536565 3325.86975848824 25 28 21
182.589882326958 -100.4036533706 3285.73718501831 25 28 21
172.466601984796 -108.220444608392 3346.43070823048 24 27 20
174.912544146038 -115.749417771213 3402.5014514156 24 27 20
193.969811671022 -113.539187538205 3382.14978177566 23 26 19
201.618819807183 -114.295233411042 3386.33134983946 23 26 19
235.011431896522 -108.201970720194 3333.99341299226 20 23 16
242.514186145614 -108.945388503858 3338.11592540061 20 23 16
250.022466896648 -109.688790407171 3342.24041810358 18 21 14
262.834017876811 -108.988065457601 3334.47568655813 17 20 13
265.865175965295 -110.952855303697 3348.66460022953 16 19 12
279.30946094671 -112.885270768462 3360.59610663336 17 24 17
115.429043509102 -112.43904952538 3324.44738820493 30 32 29
141.702383232844 -108.543498717297 3290.82152983683 26 28 23
134.52968170927 -112.953010860786 3324.632825758 33 36 29
163.223038720421 -108.371542480104 3285.50825289294 28 31 24
162.324705234188 -111.232304840843 3306.7439140437 25 28 21
175.902864746055 -110.418825433176 3298.20991407965 24 27 20
168.628904296992 -114.965059545535 3333.06031266322 22 25 18
197.266554290582 -110.230607407944 3292.8329594756 21 24 17
189.282234653656 -115.01198203617 3329.55513723563 22 25 18
194.675098834863 -116.323953143844 3338.22197749987 22 25 18
161.612743480489 -127.883798413233 3429.57499082355 22 25 18
189.578785341568 -123.240127930597 3390.15520449645 22 25 18
210.621286715708 -120.384847628495 3365.20815475477 23 26 19
217.386181033627 -121.365411422872 3371.19132668421 17 20 13
230.35855488284 -120.645687057223 3363.49156717067 16 19 12
255.988262052538 -116.398869228189 3327.44457051174 15 18 11
243.482562829611 -122.718358430518 3376.3732669132 14 17 10
270.705994056041 -123.717864028131 3378.77243806609 13 20 13
133.217226860786 -116.412015355148 3287.44559124177 36 38 33
155.380998267521 -113.417737869544 3261.87241687571 36 38 33
161.421716761942 -114.502940974228 3268.6419764166 26 29 22
153.841868973553 -121.811452619232 3322.8092934044 24 27 20
156.573039329655 -123.823967218457 3336.87710590515 24 27 20
192.800493943268 -119.717916340693 3300.80663941153 23 26 19
200.674205137807 -120.350373367662 3303.99944324136 20 21 15
180.030032590507 -128.695203646766 3367.98930545471 19 20 14
200.767978259767 -125.880821643751 3343.99806140338 18 19 13
201.587124264727 -128.483394266879 3362.69047918915 18 19 13
202.492866257998 -131.092469071237 3381.41800836291 19 20 14
205.147226436293 -133.244175238738 3396.53458414344 18 19 13
232.233631578776 -128.548981413769 3357.83731396702 17 18 12
216.401021235601 -135.933445689128 3414.05827663215 14 15 9
212.284265749551 -140.077903955707 3444.78940465528 14 15 9
252.911129418984 -131.392701821322 3374.86227805882 17 18 12
123.206089115516 -127.35251084159 3306.1315927137 35 37 32
147.659066894165 -123.694406994454 3276.08597225143 29 31 26
173.256136063801 -119.671533992123 3243.26413979459 29 32 25
160.281188005312 -125.778064725695 3288.76454483728 27 30 23
162.45402465956 -127.93128213109 3303.68616660313 25 28 21
166.437234194333 -129.621234021859 3315.02179431847 23 26 19
171.526024232754 -133.832983079425 3344.08613749648 18 21 14
177.378985674857 -135.063477303025 3351.85984217177 20 21 15
205.827358767695 -130.049878513284 3311.55373625012 19 20 14
203.131652797199 -133.633793489579 3337.46169046322 17 18 12
196.355421766494 -138.409938322275 3372.51535882881 17 18 12
197.703630451338 -140.949195070076 3390.34244506498 17 18 12
224.491149081292 -136.256439874757 3352.60324170753 17 18 12
226.350509181813 -147.64289780523 3433.27985130516 17 18 12
223.221702076156 -151.643937251237 3462.25228927815 18 19 14
135.179435232814 -132.588210643113 3280.81051522787 15 17 12
136.807382380273 -134.889621944101 3296.59144649873 28 30 25
160.251063725379 -131.358181973405 3268.29574541295 31 34 27
175.576081258986 -129.960409360505 3256.14911732436 28 31 24
175.900122953482 -132.620055098633 3274.64150347496 26 29 22
165.842931453329 -138.160447705194 3314.84589025346 24 27 20
208.919826181359 -134.657242219064 3283.71089931188 17 18 12
197.566087673007 -140.710725656714 3327.70970226501 16 17 11
203.804246201546 -141.830311373449 3334.5594644902 14 15 9
206.274470310603 -144.039877421851 3349.60192344066 13 14 8
255.675041815009 -132.68181857086 3262.70805148775 12 13 7
207.055898710827 -152.764354103753 3410.40207631009 15 16 10
240.235614661745 -145.984074162925 3357.97273191862 18 19 13
209.097873045742 -161.430423080353 3470.63336445572 19 20 14
140.428562920123 -139.491771030923 3268.96264224072 25 27 22
146.791643369028 -143.318170835495 3294.22452595142 24 27 20
177.200946828124 -137.729465188706 3251.47160328352 24 27 20
191.114095600489 -136.643918140042 3241.99211053343 23 26 19
186.193777700775 -140.818987299803 3271.31930569706 22 25 18
190.531064043059 -142.429104889953 3281.71888334202 22 25 18
214.748743241338 -138.388953269703 3250.49603096072 19 20 14
213.47802753066 -141.595537910905 3272.6623465644 19 20 14
215.297621571596 -143.947167246241 3288.52151217262 18 19 13
193.462324520784 -153.220195998114 3355.27281364654 16 17 11
202.726344118944 -153.490623985488 3355.78911777823 15 16 10
203.135339694985 -162.496599852367 3417.51941706156 15 16 10
220.316684785796 -160.407818057027 3400.72486726773 19 20 14
212.060951290109 -166.042312254263 3440.58029954636 19 20 14
213.345136231635 -168.819154300936 3459.4623292234 19 20 14
195.351752134719 -177.608431013585 3522.37122942934 18 19 13
194.12430248394 -181.285005158497 3547.79530720374 21 24 17
147.208832144236 -199.406433506851 3678.90205599465 20 23 16
161.953187418637 -198.221086059634 3668.67980550208 20 23 16
142.391609014354 -144.451667604111 3244.98067250095 22 24 19
143.886091764238 -146.819884936047 3260.70807135263 26 28 23
128.925316885622 -153.796071489898 3309.7267679408 28 30 25
146.201468916407 -151.821517165163 3294.05002153641 20 23 16
168.229578361933 -148.465157392712 3268.41917411667 20 23 16
193.16970971298 -144.22025978107 3236.40873466703 20 23 16
181.243661589006 -150.476704717429 3280.17709467058 21 24 17
189.510425399921 -150.982054057494 3282.44927114 21 24 17
201.655996733036 -150.355935631595 3276.57332815589 21 24 17
204.314696375112 -152.493408960651 3290.61274493016 22 23 17
209.166791543805 -154.005188319118 3300.14095428115 22 23 17
203.457996510375 -158.675054350265 3332.38907548523 20 21 15
198.754350408748 -163.104538053232 3362.88499329039 19 20 14
208.442841644146 -163.240180272395 3362.49307597672 18 19 13
214.364869426576 -164.515329728041 3370.29508359924 16 17 11
210.796652081612 -168.713899821812 3399.09084747585 17 18 12
200.000143258267 -178.418001870549 3465.99945385215 19 20 14
198.102324203027 -182.2681913527 3492.23248512257 19 20 14
174.940331728254 -192.903976725651 3567.08818315256 19 20 14
147.361115302938 -205.107442218187 3653.11373043298 19 22 15
149.730133889012 -207.855771087468 3671.355977315 13 16 7
146.330572779168 -151.566126585837 3235.84060361796 46 48 43
119.934522324116 -161.839383840027 3307.22623306607 20 22 17
147.546868684705 -156.888963891575 3270.89759451166 19 21 16
163.384578783702 -155.230518226799 3257.87776804284 27 30 23
168.087046780098 -156.75250028677 3267.34547174366 24 27 20
178.975232594474 -156.488720417925 3264.19985033975 22 25 18
184.151108670511 -157.884730794744 3272.77947064955 18 21 14
197.173572131289 -156.976197003755 3265.09856094151 16 19 12
194.595863909275 -160.682829408442 3289.97615640317 15 18 11
202.43943916552 -161.313526470583 3293.15674506466 20 21 15
198.196867625828 -168.634564796904 3342.20229046544 20 21 15
206.160989423027 -169.273437685179 3345.43174953936 19 20 14
203.231525351251 -173.275249048404 3372.32703243454 18 19 13
247.027256957382 -165.866681482613 3317.71791214056 19 20 14
226.913871006467 -175.333237647745 3383.01025383931 19 20 14
215.32271468802 -182.223435632792 3430.15595172512 19 20 14
185.690229444122 -194.999360129855 3518.59116572203 19 20 14
139.495344667164 -220.451300790901 3693.2006502507 6 9 0
99.3518781233773 -170.275490717584 3308.66645435492 31 33 28
129.024500453762 -164.708283797938 3268.85184209268 31 33 28
164.299447685552 -157.43557133254 3217.2671095246 28 30 25
167.973009663821 -159.226729459926 3228.47813024989 30 32 27
181.027576168385 -158.290079406184 3220.81026295019 25 28 21
184.740531279474 -160.083396746032 3232.03699281605 24 27 20
189.817967721442 -161.488614236384 3240.57682540161 24 27 20
188.372677065406 -164.855734523605 3262.67367366097 23 26 19
170.961881259815 -173.073074169418 3318.26195316191 20 23 16
203.076945222054 -166.371569932206 3270.79669097816 18 21 14
197.557798617917 -171.067653721176 3302.04324729663 20 23 16
198.171314789672 -173.935151353438 3320.65441507654 18 21 14
195.901658543804 -177.730837993936 3345.65741361156 16 19 12
200.079875803419 -179.557555581775 3357.07303522225 15 18 11
197.177873890506 -183.633034939267 3383.97999573464 15 18 11
241.465364247902 -175.914733325261 3328.48882923817 18 21 14
209.04134002077 -196.174312324411 3464.40046052887 18 21 14
131.246053165967 -232.507605033157 3710.45085204606 20 26 14
115.132292745703 -174.108176065234 3276.24496068838 29 31 26
121.655218279954 -175.143153508897 3282.1305736092 27 29 24
141.237331676532 -172.340251492303 3261.98691806029 28 30 25
169.633216559925 -166.874938446677 3223.81400967629 24 26 21
181.787602900831 -166.170165640917 3217.94103964772 22 25 18
198.755981298939 -163.998205058711 3202.13818159049 19 22 15
187.041887429136 -170.474097858708 3244.91547281069 18 21 14
171.180183948645 -178.301374064665 3296.81226523728 18 21 14
163.60931672798 -186.795739401412 3352.07101498454 16 19 12
199.974478016248 -178.596743908759 3295.5263834613 14 17 10
206.117199376537 -179.764664387579 3302.33812744289 14 17 10
204.120041004545 -186.680484193461 3346.89494091264 14 17 10
194.4745999351 -192.981593111439 3388.35061669419 15 18 11
214.221752228835 -189.848101560641 3366.1136621622 18 21 14
220.569423769541 -191.029773735879 3373.00823602994 17 20 13
248.350445277209 -185.170521368107 3332.42551434754 21 24 17
214.501191014559 -199.634970770802 3428.87623191944 23 26 19
200.284682660437 -207.756346027424 3482.52044677808 23 26 19
130.515636605606 -238.368261664796 3686.46395398532 13 19 9
117.731052842869 -181.649037542708 3269.80216649001 29 31 26
124.006099506106 -185.759811320263 3295.03056142068 24 26 21
151.60898842816 -180.447450389767 3258.69560742886 19 21 16
181.659313922074 -174.303542437157 3216.87167975637 20 23 16
181.818775718184 -177.231042139219 3235.29971615664 17 20 13
177.226930492288 -181.659945609931 3263.6827662078 16 19 12
188.013588774608 -193.836246620985 3339.34898289826 17 20 13
189.608641024399 -196.533097480047 3356.19865795169 17 20 13
194.235016387289 -198.274039391006 3366.71602008273 17 20 13
229.950634082173 -189.840039253394 3309.9066116811 18 21 14
220.292055285833 -196.254698082873 3351.35782876732 17 20 13
227.426977359096 -197.168103161987 3356.41124790328 16 19 12
200.378534507513 -209.54797595407 3437.25874082564 19 22 15
195.051964411402 -214.767665638598 3470.74485508701 23 26 19
108.736562803503 -259.013184112352 3758.71877087915 11 17 7
148.315420272406 -249.000959069483 3691.59393716872 20 26 16
153.107422882916 -179.257229241347 3198.87566250868 32 34 29
119.365184414102 -195.520730117465 3302.93551779528 26 28 23
167.141229819607 -183.879669774899 3226.17059475346 28 30 25
178.860999882201 -183.259528409657 3221.20110129416 26 29 22
167.080693327286 -189.971964224382 3263.95311917145 22 25 18
187.64516760541 -186.581754990954 3240.96608131065 20 23 16
204.563445694896 -184.289924605932 3225.1422866389 18 21 14
181.795035412089 -194.64177679893 3291.52395435195 16 19 12
220.785883431732 -185.248952005139 3229.56003260264 17 20 13
204.08337709587 -196.957679277518 3303.80258183765 17 20 13
200.478459389183 -201.365704998493 3331.50626547051 16 19 12
199.544451356145 -204.943909772808 3353.81198563743 16 19 12
203.334711645722 -206.987175271111 3366.1509757322 17 20 13
234.29602194625 -199.903770599407 3319.29448029265 21 24 17
235.120893828978 -202.925677913143 3337.99239488847 20 23 16
207.180688024163 -215.814773938579 3420.64055258445 22 25 18
192.789882712462 -224.224293543028 3474.21612266669 24 27 20
143.807571108671 -248.465297206812 3629.34705187016 18 21 14
142.044173189815 -252.841666898803 3656.71730575399 10 15 8
153.995746796728 -252.403967572918 3652.92185891474 11 16 10
159.158522217021 -254.37782092129 3664.73723641062 14 19 13
100.459366858503 -200.454550424403 3282.37135635915 25 27 22
134.32219963268 -193.108848955934 3234.53006242394 24 26 21
123.064112371347 -199.632264270541 3275.33421696273 18 20 15
122.37685287295 -202.940116402535 3295.57992115359 28 30 25
175.970371264426 -189.225428975611 3207.12919948288 27 29 24
176.061164391663 -192.241241590943 3225.52984458601 25 28 21
178.895032414884 -194.41669167497 3238.56166550903 23 26 19
191.029630531744 -193.627650847149 3232.68004463987 22 25 18
179.917340558652 -200.336741885881 3274.62370421088 20 23 16
202.964697337913 -196.005300733468 3246.16147032042 18 21 14
200.743775949548 -199.89329601245 3270.10609278549 16 19 12
252.400119223953 -186.018554460576 3180.86980944339 17 20 13
231.284488447144 -196.163399946198 3244.68242517843 17 20 13
236.009603211591 -197.780253073113 3254.16027471883 18 21 14
203.169508309956 -212.107082888748 3344.54518734654 18 21 14
248.730885176774 -203.217574651583 3286.32424940485 22 25 18
230.375989277277 -212.874474490451 3346.93547887203 22 25 18
248.627745886743 -209.92013989093 3327.33108882086 23 26 19
116.032704646804 -267.469783107004 3690.530543831 16 19 12
138.164618700399 -263.410739112086 3663.85759186469 16 21 15
142.543287559319 -265.700356242781 3677.51549984944 16 21 17
163.658391662703 -261.91192487289 3652.59077340868 8 13 9
84.1371724262541 -210.743021679302 3294.18162364569 25 27 24
110.966368809829 -208.605468877079 3279.1351774242 25 28 21
119.76056913667 -208.959233640384 3280.54069486905 22 25 18
155.125953469044 -200.859307020647 3228.98656681218 21 24 17
166.88797401787 -200.194154215111 3224.0338391015 16 19 12
190.187057621678 -195.789376298846 3195.67297174936 16 19 12
177.242309093149 -206.242232815936 3259.55983012982 19 22 15
186.777031501895 -206.293278884661 3259.10526891651 21 24 17
193.244819286804 -207.35368084104 3264.9684924369 21 24 17
245.812437132733 -196.146234755684 3193.38361152372 20 22 17
234.556947938377 -203.139241138992 3236.35050811363 20 22 17
233.30466543917 -206.80756220019 3258.52778703045 20 22 17
227.087034935637 -212.230010956658 3291.65465409313 21 23 18
226.429861831726 -219.174073414917 3333.51780776264 19 21 16
263.814680645524 -209.433692387611 3271.97978990799 18 20 15
125.487493112254 -273.320634529687 3667.43080727554 11 13 8
136.696570444137 -273.139002506762 3665.49480060588 16 18 13
119.484064790364 -283.414785197798 3728.73088305441 14 17 10
128.825960353145 -283.979013726215 3731.43881905479 11 13 8
77.455044459547 -218.070759069282 3287.21612974109 31 33 32
89.9991819714725 -217.264581002892 3281.50019858104 25 27 24
108.90961980465 -214.418702959848 3263.24213411354 27 30 23
104.911089077207 -218.841161348389 3289.7077478703 25 28 21
124.160051651859 -215.839132644654 3270.50650072711 24 27 20
136.973197004039 -214.870165891807 3263.81944690182 23 26 19
166.762223290815 -208.341097485212 3222.96586698704 19 22 15
172.684629896987 -209.550287445987 3229.68846266767 20 23 16
173.753680532178 -212.373160625321 3246.32586137564 19 22 15
172.255610515509 -216.082626784357 3268.40419176008 19 22 15
170.426443626958 -219.947093179317 3291.42844636562 18 21 14
187.001335776858 -217.637248352724 3276.54403152773 17 20 13
196.980519979487 -217.530021774748 3275.18942194452 17 20 13
224.583879837217 -211.367813558773 3236.69034350713 15 17 12
232.270060304893 -211.986160079029 3239.80711051812 15 17 12
225.918592000711 -217.488924569694 3272.88039637322 15 17 12
214.138611332738 -228.384671468889 3338.32102615467 17 19 14
215.061461575899 -235.014761943707 3377.58485862433 15 17 12
125.40618637315 -278.635683924572 3642.62378549326 12 14 9
134.141716864475 -279.33286460099 3646.16602444899 11 13 8
126.773227997921 -286.023366875591 3686.38895728304 11 14 7
125.36632729037 -294.642814083741 3737.67103825146 11 14 7
154.4709639776 -287.682054129138 3694.37946543693 16 21 15
116.151372636561 -217.201566930209 3229.5130556024 28 30 25
126.207938986264 -217.09228186863 3228.18976190052 27 30 23
133.96023710707 -217.721963929099 3231.33338540197 25 28 21
135.36531522129 -220.430187839961 3247.02716210613 25 28 21
134.58743274896 -223.887234368389 3267.2373045486 25 28 21
135.251456189106 -226.904835115032 3284.79125196157 22 25 18
142.238946996513 -227.840870974265 3289.78514875579 23 26 19
154.11338396551 -227.134836631373 3284.87788501425 20 23 16
161.976026864189 -227.770272296635 3288.06622994663 17 20 13
163.703887244174 -230.501409604845 3303.89087258471 15 18 11
164.631705613818 -233.537668725465 3321.5517701244 13 16 9
197.696606764857 -225.469810070442 3272.30286019358 13 16 9
203.337326016424 -226.84924787603 3279.9917584587 14 16 11
226.556813161991 -222.057876838894 3250.51692464967 14 16 11
205.3334533528 -232.929035951353 3315.37023506407 15 17 12
209.415054054221 -234.921359824207 3326.74799256413 15 17 12
214.383763228125 -236.614384027409 3336.32479188762 16 18 13
218.970235445574 -238.461171624288 3346.82705702526 15 17 12
179.559045507349 -256.375966374289 3453.99840825497 13 15 10
123.810164697594 -284.440357701842 3621.52292459165 16 18 13
110.064325884491 -293.503519908857 3675.36459148056 11 13 8
132.671626719611 -289.027372050912 3647.80215058307 11 13 8
114.424545873568 -299.946618039482 3712.78209164273 12 15 8
128.66557700339 -302.742479692834 3728.27942127075 13 16 9
102.821488086114 -316.932338277955 3812.86494943928 15 20 14
127.467527963739 -224.830625399042 3224.44292530359 25 28 21
138.402353172792 -224.402444867107 3221.31468452199 24 27 20
148.395087188042 -224.273397568034 3219.96539576697 22 25 18
147.086186318526 -227.927498080168 3241.04083437478 21 24 17
136.459534994942 -234.773618296367 3281.02429073088 21 24 17
142.543798644249 -236.018143003956 3287.81294623789 20 23 16
146.875098618375 -237.871906495051 3298.21168958767 17 20 13
147.719759509116 -240.946469057648 3315.83920758191 14 17 10
149.084395386262 -243.874599800322 3332.59734171408 13 16 9
174.50029085985 -238.41233493007 3299.69098588451 13 16 9
186.279608927556 -237.671865248673 3294.74494816206 14 17 10
208.785021419715 -233.100605548706 3267.1402752467 12 14 9
214.843030627593 -234.339099529356 3273.91799757824 13 15 10
204.742175994403 -241.410566286513 3315.19511873103 14 16 11
196.547408840683 -247.883844588355 3352.92397731839 14 16 11
205.374105399593 -248.217050615453 3354.34249642817 14 16 11
105.090028694594 -300.582942848115 3661.53653256658 12 14 9
125.720947437558 -296.794030982691 3638.57337554243 10 12 7
99.9758797339643 -310.673148960463 3719.95995971423 11 13 8
100.452809893122 -314.647285427639 3742.83995983098 16 19 12
126.665668909294 -308.677381235075 3707.01575947907 8 11 4
116.449802718788 -316.858045438201 3754.72808399345 13 16 9
122.292952923358 -318.821428051901 3765.73979569245 11 14 7
114.963211516876 -237.151582145294 3247.52421781515 24 27 20
134.178411441759 -233.942569184861 3228.30798875616 22 25 18
149.183735954587 -232.108289247296 3217.10741876128 20 23 16
151.021884784151 -234.737288555089 3231.89713409102 19 22 15
167.734989606386 -232.277512092881 3217.06780137231 19 22 15
167.391510926078 -235.682213915467 3236.37436870942 17 20 13
169.358111422986 -238.32001535774 3251.2161599286 15 18 11
145.804247516968 -249.950770864661 3318.36856213294 14 17 10
154.62975304765 -250.282507678462 3319.78658786758 14 17 10
169.987058063178 -248.282269318219 3307.64846622595 14 17 10
207.341623088336 -241.766867057822 3268.77941488338 12 14 9
193.692483905018 -250.192087110671 3317.26110139734 13 15 10
206.110999019896 -252.713789040097 3330.93962098079 14 16 11
78.1023440448816 -311.926809572161 3673.35190770294 12 14 9
101.004018454662 -307.290172864821 3645.90744012223 12 14 9
104.016670414206 -310.194773348976 3662.25360058812 11 13 8
108.733503635926 -312.473950819338 3674.96954165862 10 12 7
