ply
format ascii 1.0
comment KinectMotionCapture
element vertex 755
property float x
property float y
property float z
property uchar red
property uchar green
property uchar blue
end_header
-138.611928351555 663.678332937744 2772.34791495781 136 136 138
-130.105321325861 663.643946665967 2770.26851470736 98 98 100
-124.691921212876 662.890542220293 2765.58140832663 102 102 104
-123.954663449572 661.063971387484 2757.01404048898 125 123 126
-123.242657392879 659.240621581649 2748.46853834078 141 139 142
-120.205929555333 657.955323378498 2741.87472780531 148 146 149
-116.396613838253 656.84956312755 2735.93370055885 149 147 150
-111.80891291355 655.92241812473 2730.64012231505 157 155 158
-111.173392352625 654.108650102132 2722.16085080507 159 157 160
-110.563101083931 652.298100087929 2713.70342557676 176 174 177
-108.390849865113 650.844582973649 2706.53671719063 187 185 188
-104.644661557369 649.746253981511 2700.65004107134 173 171 174
-97.7167554096945 649.354087280995 2697.29475429951 163 161 164
-93.9801374871014 648.25674771623 2691.41636676551 178 176 179
-88.6489417662388 647.511808811799 2686.80045502931 191 189 192
-85.7297248178801 646.240599278695 2680.30840411045 202 200 203
-80.4060843740224 645.496348480891 2675.69903634545 168 168 170
-73.467446632586 645.101748418592 2672.33446388381 160 160 162
-64.9017382393482 645.055031185801 2670.20391825867 182 182 184
-58.7561674525863 644.483142086837 2666.20429788553 184 184 186
-48.5373567626941 644.780644500883 2665.28555578497 186 186 188
-39.9268901170387 644.727240858713 2663.11625990174 189 189 191
-28.0285144927124 645.365279383834 2663.3864090758 190 191 193
-23.4790265301497 644.440533560764 2658.12562032025 192 193 195
-16.4677885821538 644.034928652416 2654.69819396167 189 190 192
-5.32849041529859 644.490921065405 2654.30386613124 186 187 189
9.96963997908651 645.804358940531 2656.91630803996 186 187 189
27.8005918472299 647.626932771938 2661.29994593878 187 188 190
36.5593715380985 647.552320175033 2659.00255475561 164 165 167
43.6689235504417 647.132584616784 2655.48969211773 161 162 164
53.2892616516634 647.225296377849 2653.76773389805 168 169 171
67.9472999658164 648.340185110909 2655.61267683898 191 191 193
81.8111804621022 649.278373115496 2656.82382905936 190 190 192
92.3534799079668 649.52991536306 2655.62500544935 170 170 172
100.392191904772 649.268122922577 2652.62935936427 173 173 175
109.286903545927 649.174403447482 2650.21395937398 168 168 168
123.276668676263 650.095099402623 2651.31611620608 165 163 164
154.278190250232 654.392982276612 2664.11879851168 150 149 147
192.206345675895 660.024745682774 2681.49630821932 134 132 133
216.645927417296 662.937957317111 2689.4083988328 114 112 115
224.935708909813 662.641514561828 2686.1953663261 119 117 120
229.810350624376 661.671624606459 2680.65336317412 137 135 140
233.821488997334 660.534709909326 2674.53729534612 166 165 170
242.128107505748 660.236359004699 2671.3096819574 177 176 181
252.172222819853 660.270922097014 2669.22079759964 189 189 191
258.776606158046 659.635267774738 2664.82392109659 210 210 212
260.183553455565 658.000026296868 2656.99844583388 222 222 222
-232.131902687189 671.117614252586 2861.29702778064 113 114 109
-228.91600101098 669.823906557893 2854.5479753326 181 181 179
-227.933500205775 667.986975390017 2845.76811367061 200 200 200
-229.944965836179 665.428111320187 2834.29454947718 201 201 201
-229.765175076684 663.417457693523 2824.88829031864 199 199 201
-228.122171388728 661.771723425162 2816.8579689781 195 194 199
-225.003470710974 660.489249464495 2810.19309133438 193 192 197
-221.897633146124 659.208238310909 2803.53935313395 189 188 193
-214.290006592007 659.007405277764 2800.91694927876 187 186 192
-206.670726192055 658.804673429645 2798.28445692085 181 181 183
-200.552926952271 658.24143503296 2794.30885108895 175 175 177
-195.190263793377 657.498366750611 2789.66565327145 164 164 166
-189.828281255024 656.754970925256 2785.02304749472 164 164 166
-183.704108302674 656.189788473688 2781.0422454474 163 163 165
-176.812065490247 655.801800541125 2777.71770012596 155 155 157
-169.912336924863 655.41247037945 2774.38681749668 159 159 161
-159.161113908653 655.909466859144 2774.32858264114 165 165 167
-146.840068812435 656.756838076793 2775.55429338227 156 156 158
-132.937220125468 657.952798552014 2778.05326097116 123 123 125
-124.414797551221 657.905413036249 2775.96023705172 87 87 89
-121.315647200376 656.620623592195 2769.3126348963 98 98 100
-121.345958097636 654.632852720896 2760.08801460202 129 127 130
-121.405423737217 652.648820757999 2750.88895505549 144 142 145
-117.578521085936 651.546411177443 2744.93266286857 153 151 154
-115.331092696938 650.094395503649 2737.70047048462 153 151 154
-111.526025468081 648.994567215397 2731.76308711634 158 156 159
-110.887153030435 647.196786544629 2723.2808068159 156 154 157
-110.273456312391 645.402336439893 2714.82032563441 183 181 184
-107.30493562729 644.133589796154 2708.28552543513 181 179 182
-103.553896872367 643.040289026987 2702.39492818875 163 161 164
-96.6222592053656 642.642207844875 2699.03612998813 171 169 172
-93.6804755790943 641.376493002622 2692.52448411264 184 182 185
-90.7516562077824 640.112404303832 2686.02406428547 194 192 195
-87.0321555607401 639.022722014511 2680.16077880298 200 198 201
-80.9048846948799 638.451321149882 2676.1770164653 163 163 165
-73.1588966897436 638.223530593174 2673.43486445258 161 161 163
-66.211067812155 637.822183218884 2670.06236942561 183 183 185
-59.2559507729189 637.419562652281 2666.68325022445 184 184 186
-50.6657475398011 637.358437777536 2664.53156740301 186 186 188
-42.8757497006274 637.12394182974 2661.75131393632 188 188 190
-33.4384788032751 637.229210521111 2660.18794527328 190 191 193
-24.8014776092469 637.161124546362 2657.99574608509 192 193 195
-14.5049716639853 637.431066120935 2657.0098413089 189 190 192
-3.3608686601756 637.867487429012 2656.61147577482 185 186 188
11.9412020701453 639.147786632649 2659.22071719216 185 186 188
30.6035391786708 641.098442839991 2664.2065100273 186 187 189
40.1995631595464 641.180962378042 2662.5053762627 163 164 166
48.1511960454797 640.923231583033 2659.58517845347 159 160 162
57.7827755963343 641.000775393939 2657.85357515402 163 164 166
69.1062855088171 641.411837979076 2657.29987552865 185 185 187
81.2958597422129 641.9868633405 2657.31772521524 190 190 192
91.8370148503418 642.222270659053 2656.11999799862 168 168 170
101.559540138041 642.287065383975 2654.30933586159 171 171 173
111.301986688985 642.349139592894 2652.4817403915 167 167 167
128.681319439956 643.908998301016 2655.93525434088 171 170 168
162.236557078832 648.623336278189 2670.49193863047 151 147 144
199.327351200222 653.983668352389 2687.27371748882 127 126 124
219.518747091214 656.005617301281 2692.25701900917 119 117 118
226.961393351508 655.534495844583 2688.45578459556 129 127 130
232.698669366618 654.731785355426 2683.48828283326 174 172 177
239.294203824308 654.094350613471 2679.09940302301 177 175 180
245.032532760533 653.291797756695 2674.13098763467 179 178 183
250.770336867467 652.489495237988 2669.16302551255 196 195 200
255.64300513469 651.523202478574 2663.62239399555 206 206 208
259.644725815813 650.393986093401 2657.51475444716 214 214 216
-238.534279350134 662.522149429693 2856.31486307601 161 162 157
-233.120048193521 661.776178723753 2851.62698822907 208 208 206
-230.666291759108 660.314574190195 2844.21634156067 207 207 207
-231.197513612478 658.140725590482 2834.10413922615 193 193 193
-229.53007753599 656.505834111958 2826.05257119471 198 198 200
-227.883737207417 654.873424312656 2818.01927152491 193 192 197
-224.761894567599 653.598903536959 2811.35193460575 191 190 195
-223.153639531557 651.970963993666 2803.35161586058 187 186 191
-215.548297937687 651.762473818734 2800.73124208103 184 183 189
-207.931333656233 651.551969252613 2798.10080755369 176 175 180
-199.546421469141 651.516065843312 2796.12689442521 170 170 172
-193.421044994168 650.948752814157 2792.14474753493 158 158 160
-187.292044140781 650.380584621163 2788.15978031993 158 158 160
-181.922227499602 649.635984049913 2783.51039225147 160 160 162
-175.024163277039 649.241855335667 2780.18066774984 160 160 162
-166.585157686261 649.196653152906 2778.16024569316 158 158 160
-155.824788001466 649.673403977403 2778.09421428353 160 160 162
-141.183141352806 651.018876426254 2781.27513115402 155 155 157
-127.26559916806 652.182967159955 2783.76188538979 101 101 103
-120.276997199664 651.774579517735 2780.35378096771 98 98 100
-118.718402668891 650.148888506737 2772.39680570979 105 105 107
-119.517772308136 648.005530220715 2762.51650360891 135 133 136
-120.350410005607 645.866614504992 2752.66532285477 150 148 151
-118.084769068328 644.423396973789 2745.41760350125 150 148 151
-115.051234352742 643.154967547331 2738.82645124927 150 148 151
-110.456800863409 642.232522963203 2733.52669167803 160 158 161
-109.812277914362 640.45062193897 2725.03972648858 177 175 178
-109.984397967763 638.500154117224 2715.93777556251 178 176 179
-107.806207529541 637.06793515665 2708.76578142888 159 157 160
-103.259431020378 636.151272058967 2703.50760592403 171 169 172
-96.3257985353883 635.747734331559 2700.14742961435 179 177 180
-91.7827770408435 634.831075641198 2694.89219317424 185 183 186
-88.04564681681 633.744708336414 2689.0136060225 197 195 198
-84.3176313846539 632.659336736028 2683.14259702347 194 192 195
-78.9875787971224 631.91455177909 2678.52767508444 162 162 164
-72.8508954576594 631.339098615434 2674.53578087656 167 167 169
-65.9012612591643 630.932148303481 2671.16175742024 183 183 185
-58.1327356434 630.692878622481 2668.4001456353 184 184 186
-50.3526551378886 630.451903111588 2665.6285298659 186 186 188
-43.3768347155428 630.040865088956 2662.23152084375 187 187 189
-34.7580197024935 629.964710505257 2660.05545206993 189 190 192
-24.4844938790036 630.221675156744 2659.08923356923 191 192 194
-11.7218174187519 630.977651881699 2659.93275877149 188 189 191
-1.39455303724212 631.226952530877 2658.92032830672 183 184 186
13.0854554434752 632.307278077797 2660.91980007381 184 185 187
29.2653475113998 633.714504108869 2664.09064056803 185 186 188
40.5182930792503 634.116594816961 2663.59815973454 161 162 164
48.4713552339544 633.850616850073 2660.67677656857 157 158 160
58.9379222733908 634.08019922105 2659.54373525793 161 162 164
70.2641705280205 634.471909113082 2658.98778761892 186 186 188
81.6183383550681 634.859739261761 2658.40766622378 193 193 195
93.0005840933648 635.243720483241 2657.80354914769 170 170 172
102.726196368661 635.2945053179 2655.99030219199 169 169 171
113.31587303108 635.507029240537 2654.75066788515 167 167 167
132.390972699322 637.356374998111 2659.37936106745 168 164 163
172.735444523151 643.29012783023 2678.6303882166 160 156 153
207.294892420642 648.05660368895 2693.63992590931 117 116 114
224.946520470916 649.540566535163 2696.85792354232 120 118 119
229.839999069494 648.573447460644 2691.29926031766 141 139 140
236.441828216132 647.932350353345 2686.90494840646 176 174 179
242.188665872522 647.128531842023 2681.92916640599 165 163 168
249.655775650268 646.649025521866 2678.10678291659 156 155 160
251.955958320726 645.198102008501 2670.82917493628 168 167 172
255.968508832821 644.072697136736 2664.71212408542 193 193 195
261.705357310626 643.27094251725 2659.74498669101 204 204 206
236.174415969145 636.677445035499 2634.27543524178 204 204 204
-236.841136344305 655.912144995771 2858.86028629605 204 204 202
-234.371316485593 654.459785492298 2851.4356569724 197 197 195
-232.658379058972 652.833198845573 2843.34459746975 197 197 197
-231.708084146817 651.033384826701 2834.59272480569 202 202 202
-229.295534709256 649.587607926416 2827.21737564634 195 195 197
-227.645681358791 647.968491096349 2819.18126048827 192 191 196
-223.773160231428 646.876863596478 2813.1850437474 190 189 194
-219.159337650594 645.960753090477 2807.86875342148 185 184 189
-213.04621250955 645.39368264194 2803.89722363075 183 182 187
-206.175374217638 644.999978885356 2800.59140958095 175 175 177
-199.297198008684 644.60475569114 2797.27892982784 168 168 170
-191.653156372793 644.381711480281 2794.62510764133 156 156 158
-184.757729474235 643.983468672362 2791.29801117548 156 156 158
-178.617270764326 643.410710984049 2787.30282725159 158 158 160
-170.180282533755 643.355308148476 2785.28390430115 161 161 163
-163.260307485371 642.952591623776 2781.93556006127 155 155 157
-150.185422156812 643.925680426321 2783.83033659558 155 155 157
-137.070344551258 644.892787555555 2785.69031580011 152 152 154
-123.915094897119 645.853945678753 2787.51551499587 94 94 96
-119.239944812611 644.924994813021 2782.14615312398 105 105 107
-117.676264571866 643.312370524471 2774.18436971289 109 109 111
-117.690946223455 641.360993901155 2764.94628266681 141 139 142
-118.515687537939 639.242903163361 2755.08812288733 153 151 154
-117.025839152364 637.639623060602 2747.19027164842 148 146 149
-114.772149746572 636.209004172714 2739.9528294773 151 149 152
-110.175057426898 635.289188082181 2734.65106388237 177 175 178
-107.949510627912 633.861880112306 2727.43799246532 187 185 188
-106.532066135152 632.267662060232 2719.60283756051 169 167 170
-104.342695589242 630.844926570169 2712.42109177256 152 150 153
-100.580487463382 629.76123823608 2706.52043582925 178 176 179
-96.0300870030908 628.846752030062 2701.25910520938 182 180 183
-91.4844269066162 627.932754500574 2696.00188006659 191 189 192
-88.5460091594341 626.684021529735 2689.49304147655 201 199 202
-82.4079453613717 626.106106783108 2685.4999667267 183 181 184
-76.2664855075332 625.527584969089 2681.50395242705 167 167 169
-70.1215428741606 624.948436662168 2677.50523904972 177 177 179
-65.5920815899074 624.035760048 2672.26172992733 182 182 184
-57.8219698047193 623.788222065073 2669.49879693114 184 184 186
-51.667131829126 623.207239851291 2665.49120327595 185 185 187
-45.508759687336 622.625714053546 2661.48086546716 186 186 188
-38.5298874827282 622.208785458074 2658.08124952668 187 188 190
-24.1678108631702 623.276030356643 2660.18333735263 189 190 192
-11.4049695398606 624.007499181303 2661.02656296111 187 188 190
-0.253034903778371 624.404950098648 2660.62197751178 181 182 184
13.4034480322276 625.290970891436 2662.0132266973 182 183 185
29.5829146244828 626.662951323739 2665.18466435894 183 184 186
44.1552394548008 627.700332483869 2667.10440050825 159 160 162
51.2863740072693 627.261722961279 2663.57326932367 154 155 157
60.0923682039261 627.148001925897 2661.23489354204 161 161 163
70.5856273784322 627.357670644918 2660.07884623946 175 175 177
83.616010058218 628.051312685651 2660.69042925612 186 186 188
95.8428204580004 628.57783828933 2660.67663481136 170 170 172
104.733781562411 628.452285371965 2658.26469182757 162 162 164
117.016183110681 628.971032747102 2658.20244942648 168 166 167
142.020148369719 631.905186275573 2666.94880923964 163 162 160
189.165356651778 639.013289884082 2690.88481734386 153 149 148
217.808434718046 642.557071797826 2701.76643587473 107 103 102
229.519490101853 642.876380485992 2700.87774673958 111 109 110
234.425228745395 641.910365096589 2695.30845014136 109 107 108
239.326658153735 640.945191779885 2689.74319856837 131 129 132
245.081484072936 640.140417249482 2684.76049904841 148 146 151
250.83591090525 639.335756350885 2679.77814469506 180 179 184
254.865186977793 638.213346808932 2673.64626227711 189 188 193
258.021722375659 636.933443019311 2666.94857526675 154 154 156
266.363531006482 636.606398539039 2663.69064726912 145 145 147
-233.976118151827 651.600173922833 2872.28540624325 112 112 114
-235.884764145773 649.110734698939 2860.72227470036 199 199 201
-234.884872482607 647.321316715884 2851.92703187005 204 204 206
-236.128926126529 645.014678568274 2841.10995056548 198 198 200
-233.702203655552 643.578483362839 2833.72257055184 196 196 198
-230.548855409279 642.317064472509 2827.02752617772 194 194 196
-227.408403620127 641.056963164346 2820.34365108857 191 191 193
-221.289781442045 640.487385779459 2816.36737306327 186 186 188
-217.417015190345 639.400957562058 2810.37122568569 179 179 181
-211.2976205154 638.830497623619 2806.39428382855 179 179 181
-205.174804629633 638.259157742347 2802.41438238708 174 174 176
-198.292465965826 637.858096254645 2799.09864822986 161 161 163
-188.370556816283 638.139080244796 2798.43734840611 157 157 159
-180.704988402789 637.90466309697 2795.7649418846 154 154 156
-174.552118619123 637.327688828301 2791.75902816051 154 154 156
-166.867444932678 637.089890281178 2789.07008432375 157 157 159
-159.171233844228 636.850148714575 2786.37115319678 158 156 159
-144.549199339435 638.133517662576 2789.56978656239 150 148 151
-131.419428108683 639.071487600232 2791.41721908353 148 146 149
-122.111245401561 639.159055242927 2789.96553498538 106 104 107
-119.752719346699 637.726354965594 2782.63724060966 109 107 110
-118.964161214821 635.959109540531 2774.02502446848 114 112 115
-117.422327358755 634.363073638478 2766.08238412394 147 145 148
-117.463014916117 632.434131046341 2756.86637644524 165 163 166
-115.967670113455 630.844026521419 2748.96399139883 167 165 168
-114.493660311185 629.256503528671 2741.07976592291 177 175 178
-109.894089914382 628.33928813416 2735.77583563689 195 193 196
-106.876925234965 627.089232551572 2729.1987528207 187 185 188
-104.663354567812 625.67449659489 2721.99598008063 158 156 159
-103.259843436138 624.095779073673 2714.17280127688 162 160 163
-99.4928094634466 623.017092332435 2708.26824570106 178 176 179
-94.1411691210625 622.270358298676 2703.63462550899 188 186 189
-89.589226313135 621.358337063302 2698.37162659508 198 196 199
-85.8428753309637 620.281896756107 2692.48498315363 189 187 190
-80.4996168569407 619.53569265951 2687.85862439416 172 170 173
-74.3520891986136 618.953808522793 2683.85737269819 167 167 169
-69.8152598784532 618.043156149477 2678.60777982995 176 176 178
-63.6651583837708 617.460566073298 2674.604301872 184 184 186
-56.700441753327 617.040805076536 2671.21728894334 182 182 184
-50.541671897157 616.456658358901 2667.20630789199 186 186 188
-43.5641358731669 616.034841581093 2663.80819725566 184 184 186
-35.7620095669509 615.774488317857 2661.01759916669 185 186 188
-22.21333580923 616.648678020052 2662.50236710795 191 192 194
-9.44595519480185 617.355131916549 2663.34182044701 187 188 190
0.0640301411465316 617.409496187715 2661.71575742826 179 180 182
14.5460432997133 618.429815305365 2663.71388051216 177 178 180
29.0723940929096 619.443916115781 2665.67393038206 185 186 188
46.1311495623939 620.934481220386 2669.40574920859 156 156 158
52.4363777447423 620.329113584348 2665.26796497364 155 155 157
60.4121510189173 620.043877867234 2662.32702205478 161 161 163
72.5774385495881 620.557227402402 2662.3663215605 168 168 170
87.2877797146208 621.545501943397 2664.16706771654 187 187 189
100.362834160764 622.208596836244 2664.74044556671 172 170 173
108.423366803168 621.911445160755 2661.72580035964 170 168 171
120.714513619751 622.407298313859 2661.65644198813 167 165 168
153.336342539906 626.705609234848 2675.70158015881 166 164 165
202.196202440049 633.994246680782 2700.79678995364 146 144 145
228.317083648323 636.986597239286 2709.89796232042 100 98 99
237.497507441511 636.810166792823 2707.23577682015 108 106 107
238.154208992583 635.056786091594 2698.73775567333 113 111 112
242.209799414781 633.935743422488 2692.58305680531 117 115 116
246.256821869758 632.816116355958 2686.43609044215 118 118 120
254.595360417058 632.480948540221 2683.18104938287 137 137 139
260.359223148249 631.675316325721 2678.19052289095 144 144 146
263.530438103272 630.40169990965 2671.48007183841 128 128 130
270.153471576917 629.753113751573 2667.06711439121 150 150 152
275.912039033316 628.948733635277 2662.08116939066 205 205 207
-229.361006386189 645.617985748017 2877.58754484647 123 123 125
-233.458914667193 642.639774045302 2863.95499474859 199 199 201
-235.398605575849 640.181674065854 2852.4185678701 199 199 201
-235.901258865142 638.070130117382 2842.28088488567 197 197 199
-232.729812262781 636.815039471953 2835.57042852144 193 193 195
-230.315068993082 635.391035179252 2828.19303680188 192 192 194
-226.426012578632 634.308791018302 2822.18274304191 189 189 191
-221.050732375974 633.566448969557 2817.52860487305 184 184 186
-214.926478641743 632.993118865908 2813.54747009332 178 178 180
-209.550425942224 632.249894263611 2808.89266809263 178 178 180
-201.913842419191 632.012583474296 2806.2454025684 171 171 173
-194.265609422257 631.77331457261 2803.58805271502 158 158 160
-185.090259511168 631.868260985545 2802.25145176119 155 155 157
-178.174565901198 631.456599147325 2798.90687636374 152 152 154
-172.013415847421 630.875874770612 2794.89381013271 152 152 154
-164.320879965419 630.628962719638 2792.19811090419 154 154 156
-155.850863833636 630.547163684768 2790.15073253262 150 148 151
-139.684448310249 632.130286286948 2794.65569020317 147 145 148
-127.312226180768 632.872859271742 2795.83740755235 107 105 108
-121.080858040901 632.280784358566 2791.76386984675 104 102 105
-121.039802185749 630.360797549511 2782.47726969334 118 116 119
-119.475765146725 628.775732735553 2774.51499844628 130 128 131
-117.154522688904 627.358683292054 2767.21891768646 176 174 177
-115.630817306951 625.778630800101 2759.29157085631 182 180 183
-113.345824903246 624.366073946053 2752.0268802093 183 181 184
-113.431233682495 622.462160141676 2742.84978734677 185 183 186
-110.40017231792 621.218826737136 2736.26061621417 172 170 173
-106.593757883604 620.140922762338 2730.32160759155 165 163 166
-102.796049720018 619.064093698629 2724.39045355412 161 159 162
-101.385254831047 617.498199025387 2716.56087856373 169 167 170
-97.6115808849989 616.424217425958 2710.6505373949 184 182 185
-93.0503799276314 615.514033519451 2705.37950220414 191 189 192
-90.0913698290089 614.279325416688 2698.85272460142 196 194 197
-87.1451432321342 613.046271254962 2692.33733171443 181 179 182
-81.0010181218153 612.462449897659 2688.33904168236 167 165 168
-73.2438242593991 612.201200958613 2685.5873939615 170 170 172
-68.7027453783746 611.292888516131 2680.33378717046 179 179 181
-64.166387380546 610.385054380404 2675.08458455198 182 182 184
-58.823896998613 609.638564463812 2670.45889337765 187 187 189
-51.043222687396 609.373404800097 2667.68691964941 188 188 190
-42.4360030506681 609.266750484592 2665.52078313123 183 183 185
-32.9960344251603 609.317728371216 2663.955428056 183 184 186
-19.4410478340368 610.163939478815 2665.43490573963 188 189 191
-6.66700149623889 610.845084331013 2666.26906117273 185 186 188
4.49653625530955 611.203072438864 2665.85435909331 178 179 181
17.3382151897785 611.874577877808 2666.62964187464 171 172 174
31.8706350645472 612.858008099243 2668.58463019957 179 180 182
46.4470310675229 613.835164418295 2670.50122797568 156 156 158
54.4168456092553 613.542796254933 2667.56549592285 154 154 156
63.2315852673146 613.406458205578 2665.21968669429 157 157 159
72.8974045042765 613.425223863907 2663.45878751205 162 162 164
85.0951256777641 613.912406944884 2663.47014517299 180 180 182
97.3249549787933 614.39513845717 2663.4540179248 167 165 168
107.90343033014 614.560401336733 2662.22408293679 165 163 166
126.097868912594 616.128247230766 2666.29463999117 159 157 160
163.801346573238 621.273899815547 2683.87003600392 168 166 167
209.287437160929 627.79868987607 2706.60100367942 141 139 140
232.872972033017 630.257758807393 2713.93300939682 103 101 102
240.361306830224 629.758827809025 2710.09267080538 108 106 107
243.588463506393 628.484983749777 2703.33373452746 112 110 111
247.658581577403 627.367554034221 2697.16642061198 119 117 118
250.862274215947 626.097229229409 2690.42779865402 122 122 124
256.632720216673 625.290620606794 2685.43157253291 131 131 133
265.850227508758 625.098895647962 2682.73734454002 140 140 142
268.172078187077 623.678089041219 2675.44044544731 140 140 142
273.075230597757 622.719091505559 2669.87366046704 198 198 200
277.97387497758 621.760970561 2664.31077707883 194 194 196
-233.54540798587 637.570366977443 2874.64952950338 203 203 205
-236.915468290633 634.797510797066 2861.70837307835 205 205 207
-238.12401560904 632.535856367629 2850.86022566958 195 195 197
-237.152457961463 630.782922075937 2842.0893045338 199 199 201
-233.982334920792 629.536251771459 2835.37962527121 191 191 193
-232.311635128259 627.9560981243 2827.32518927009 190 190 192
-226.935369802326 627.214222269231 2822.67019423853 187 187 189
-220.065097285976 626.805750682204 2819.3646507498 182 182 184
-214.686024126624 626.062658285562 2814.70722995131 176 176 178
-207.804583961262 625.651866524759 2811.3923376074 176 176 178
-200.915616381776 625.23970171869 2808.07092988047 168 168 170
-190.997009288308 625.489069103064 2807.41238143097 155 155 157
-183.327231471328 625.238364948437 2804.73643200836 153 153 155
-174.886271224705 625.150867182972 2802.71427434477 151 151 153
-168.714638481557 624.566208121139 2798.69246339977 151 151 153
-159.484774220637 624.639110949049 2797.30875574243 152 152 154
-150.234945498981 624.708958069542 2795.90807948327 149 147 150
-133.28699089184 626.416111886567 2801.05779077173 131 129 132
-122.437407949762 626.804485611677 2800.91532322393 96 94 97
-118.507712441749 625.717375130591 2794.86952212185 111 109 112
-120.004886015045 623.488961134923 2784.2713220639 122 120 123
-119.987541802922 621.591241354355 2775.0051293529 147 145 148
-117.665288807596 620.185134762008 2767.70810181396 173 171 174
-115.360175699635 618.781126822594 2760.42591643216 175 173 176
-112.290057786776 617.541276994744 2753.80287101163 176 174 177
-112.369777656351 615.655880403593 2744.6207273746 177 175 178
-110.120274951576 614.258710599612 2737.386381704 162 160 163
-107.099463191276 613.024961930293 2730.80603216252 162 160 163
-103.30116256474 611.953712321929 2724.87432846114 168 166 169
-101.096703656359 610.562151741501 2717.67930303289 176 174 177
-98.114981463711 609.333068461611 2711.13280359291 190 188 191
-94.3498500750009 608.265694689202 2705.22950823385 195 193 196
-92.1905867439436 606.879801462269 2698.07361871241 198 196 199
-88.4474006635849 605.815053723754 2692.18932712415 177 175 178
-83.1078952441353 605.069834146061 2687.56621489226 165 163 166
-74.5506348096447 604.960116522745 2685.44339966073 174 174 176
-71.6243583165346 603.737713932478 2678.94522922332 182 182 184
-64.6678186285983 603.308641689333 2675.56504836891 183 183 185
-58.5144953351939 602.720317802456 2671.55881511744 189 189 191
-49.9192711388936 602.604821047789 2669.40344829071 188 188 190
-42.1234608887691 602.329418598784 2666.61842207368 182 182 184
-31.8657185291764 602.523981483193 2665.66628803347 182 183 185
-19.1272754218614 603.185846835217 2666.53142699782 186 187 189
-4.71083879545287 604.155881845787 2668.58702897437 183 184 186
7.28044758180957 604.650624286694 2668.77726210858 173 174 176
20.1288414403424 605.296873941579 2669.54720399482 168 169 171
33.0129673075295 605.938019828293 2670.28589322448 174 175 177
48.4205966425417 607.04058410328 2672.80479493165 154 154 156
57.227112150279 606.894633987942 2670.46617615621 153 153 155
66.0492236938954 606.746523644712 2668.11405373422 156 156 158
75.7222629080685 606.750842589166 2666.34699035327 161 161 163
85.41501803193 606.752386589925 2664.56285646643 179 179 181
95.9664981538988 606.905205520719 2663.35639985115 168 166 169
109.065958245609 607.516146552286 2663.90896240939 166 164 167
129.791754272524 609.503608334135 2669.75287998579 158 156 159
170.879522210718 615.158171068436 2689.68473570605 167 165 166
216.375072702212 621.553702654196 2712.40865725387 135 133 134
239.974901824099 623.95365526332 2719.72865670641 106 104 105
246.629439149019 623.294538385955 2715.28846197824 109 107 108
248.166368004134 621.722548597843 2707.34991715491 112 110 111
250.537990154563 620.305361810068 2700.01017139463 120 118 119
254.60785768599 619.193744850625 2693.84303696402 127 127 129
261.247948111565 618.537022705314 2689.41534836487 136 136 138
266.168361714405 617.578185854947 2683.83360144767 142 142 144
268.493062347489 616.168126522136 2676.53447806696 165 165 167
272.532451771919 615.061302786395 2670.393729047 202 202 204
279.166547150315 614.406166523379 2665.97122629418 193 193 195
-230.015201675183 633.292539155789 2888.8211466216 161 161 161
-235.529326540053 630.04707136319 2873.77129242419 212 212 214
-237.431100354873 627.639020195555 2862.20167712001 194 194 196
-240.111527817258 625.070633016579 2849.98441151696 201 201 203
-237.664537630984 623.665244583451 2842.5792651173 185 185 187
-234.493493089952 622.426774356995 2835.86873402052 196 196 198
-231.335385462864 621.189687047258 2829.16940685072 187 187 189
-225.954763003525 620.447344182793 2824.51063836125 183 183 185
-220.574727135275 619.704720998406 2819.85238010785 178 178 180
-215.195376259503 618.961710973617 2815.19471806878 171 171 173
-206.811379657142 618.872893916161 2813.22225690511 171 171 173
-197.658530352396 618.944820035064 2811.90530720766 168 168 170
-186.975048268922 619.339730667682 2811.90644737227 156 156 158
-180.80821249883 618.75383895334 2807.88848661101 155 155 157
-173.878438546065 618.329591212429 2804.53178883131 152 152 154
-169.225752957187 617.417409550677 2799.1817890804 151 151 153
-158.469324598195 617.800789642243 2799.11977880419 149 149 151
-144.622525140119 618.826346592598 2801.66843049351 154 152 155
-127.660672727484 620.490838541936 2806.80668801721 102 100 103
-119.105130923398 620.375004434972 2804.68540201939 106 104 107
-117.479668504262 618.809776183576 2796.67007815889 121 119 122
-119.744794625245 616.444737235391 2785.41479912591 128 126 129
-119.723776611595 614.565835988794 2776.14530025451 164 162 165
-118.176312936163 613.010543027451 2768.19751632789 174 172 175
-115.87016469035 611.617504569309 2760.9143626724 175 173 176
-113.581357313525 610.226569633801 2753.64590982764 172 170 173
-111.309488842442 608.837728481522 2746.39244048643 172 170 173
-109.840731872271 607.29228649397 2738.51281065578 170 168 171
-106.817140404118 606.066457711974 2731.93000052052 168 166 169
-103.016390545317 605.000455422058 2725.9958244659 179 177 180
-100.01680432242 603.777560031859 2719.4338015311 182 180 183
-98.6185640652884 602.240985831811 2711.61523360686 194 192 195
-96.4455963524946 600.864393589306 2704.44709022172 195 193 196
-93.4910271396778 599.647163701477 2697.92436394793 193 191 194
-88.1485143762015 598.901898437249 2693.29864543893 172 170 173
-82.8068708468712 598.156510689411 2688.6736811201 167 165 168
-73.443753131865 598.192124839829 2687.17471953592 182 182 184
-68.89980556759 597.289287165976 2681.9189063902 185 185 187
-64.360962807311 596.386875222309 2676.66719949001 186 186 188
-59.0162025698917 595.640468880965 2672.03954040877 189 189 191
-51.2343600981335 595.35922217763 2669.26665843822 186 186 188
-42.6262631948378 595.231032666637 2667.10021662301 182 182 184
-33.186223670052 595.255000087999 2665.53465961247 183 184 186
-22.0889319846171 595.584600568711 2665.17755933227 184 185 187
-6.03930540623665 596.833843280846 2668.46232934445 182 183 185
5.94872087604337 597.307428052481 2668.65584073523 169 170 172
18.7932067385517 597.929808134417 2669.42900898468 163 164 166
33.3276826778324 598.853314835518 2671.3826035505 166 167 169
47.0771608682257 599.617789041278 2672.69403803128 149 149 151
57.5428870722798 599.766578430854 2671.56224904342 151 151 153
66.3663186191115 599.607510809889 2669.20905353062 154 154 156
76.8754620300753 599.750153707741 2668.03967311834 157 157 159
85.7341606937156 599.586156952346 2665.65594226866 174 174 176
96.2867234975562 599.722683007173 2664.44896834517 168 166 169
111.068657702778 600.61134477856 2666.18799222028 168 166 169
134.326476591005 603.001931770774 2673.80448492518 155 153 156
180.489781563268 609.444615608183 2697.2725949867 162 160 161
223.458814052826 615.259242661781 2718.21969113528 124 122 123
243.676019939091 617.000345189067 2723.18275760966 105 103 104
248.637800792627 616.037921338492 2717.56486394036 108 106 107
251.035098596081 614.628176054973 2710.20281594757 111 109 110
253.415462058817 613.220861060139 2702.85542980825 120 118 119
256.636414418928 611.964800332103 2696.10175579764 129 129 131
259.844603698791 610.710638085887 2689.35913170523 140 140 142
263.039942426857 609.458416044501 2682.6276330754 136 136 138
266.222750962336 608.208180893945 2675.90698193877 189 189 191
271.989441167821 607.402826647098 2670.91400297201 197 197 199
280.358531692335 607.039919255683 2667.63266116904 185 185 187
285.260874835223 606.087139094853 2662.06653732152 210 208 211
-236.381346562893 624.75530722366 2883.80751669729 191 191 191
-240.443400175462 621.879612881345 2870.14322575445 207 207 209
-242.355215000559 619.50040170455 2858.58212647093 194 194 196
-242.835180153479 617.452186131802 2848.42436849374 200 200 202
-238.915538979306 616.383788926554 2842.38747609455 187 187 189
-235.745655289198 615.153829154598 2835.67789600102 195 195 197
-231.102839303881 614.249324581473 2830.33640084255 186 186 188
-224.230039703218 613.830302075906 2827.02873540923 182 182 184
-218.096435351765 613.248428794354 2823.0398669863 177 177 179
-212.708576310528 612.50445262058 2818.37483687508 169 169 171
-205.8193042944 612.081954140325 2815.05291673158 168 168 170
-195.909781476411 612.300557955826 2814.4027568117 168 168 170
-185.22120754099 612.675798944617 2814.39961114499 156 156 158
-178.29080585427 612.246555999746 2811.04240165475 154 154 156
-169.834449633572 612.135455756458 2809.00705269169 150 150 152
-163.646452959889 611.543360645637 2804.97079121283 147 147 149
-150.584557801355 612.383245366074 2806.87768996019 143 143 145
-134.420643631508 613.852921103075 2811.38555078228 147 145 148
-121.270241169897 614.679868346338 2813.21582090389 103 101 104
-117.313970171164 613.600736934896 2807.14693416418 111 109 112
-117.995894944221 611.574142409129 2797.16439725704 120 118 121
-117.16420894825 609.867442767683 2788.51440830765 141 139 142
-118.684858802433 607.691506620638 2777.93621592842 167 165 168
-116.354416405926 606.306514918962 2770.6319535161 172 170 173
-114.821069030759 604.766665042202 2762.6959891099 174 172 175
-112.526988760264 603.386181022869 2755.42321384932 172 170 173
-111.03401349899 601.851408802666 2747.52220850205 172 170 173
-109.56205000254 600.319368693038 2739.63971261531 171 169 172
-106.535600653558 599.101598986123 2733.05437322901 171 169 172
-105.101991976888 597.574364861005 2725.20508970032 184 182 185
-101.313775182685 596.515530002549 2719.28173005815 185 183 186
-98.328448551944 595.302789321783 2712.73200062166 196 194 197
-95.3562250343714 594.091633598554 2706.19361785378 195 193 196
-93.1950931570231 592.72770650137 2699.03596645505 188 186 189
-87.0502708179721 592.136455191186 2695.03712025605 170 168 171
-80.0998348841437 591.69831598521 2691.66260401172 169 167 170
-70.7294567351031 591.7194180872 2690.15744358682 183 183 185
-65.3707935794743 590.971528678967 2685.51774395694 184 184 186
-60.821196026084 590.070714819526 2680.2570206482 187 187 189
-57.0869705115267 589.017683837084 2674.38041957953 187 187 189
-50.1118120394772 588.575286973864 2670.9845030124 181 181 183
-41.5004869769904 588.435890957177 2668.81502034118 182 182 184
-32.8736642800118 588.294228192118 2666.63212000168 185 186 188
-20.9569282806936 588.756363744537 2666.88749543442 184 185 187
-4.90557539759484 589.970071074387 2670.17099946642 182 183 185
4.61699534142479 589.968820698973 2668.5340730979 168 169 171
17.4579347143307 590.567386803107 2669.31078504538 162 163 165
32.814928966701 591.611973343407 2671.87394969589 163 164 166
49.8774716112229 592.950037319641 2675.6034742528 146 146 148
59.5193535680294 592.931790886566 2673.86324669812 150 150 152
69.1811119593226 592.910829974647 2672.10612462595 152 152 154
80.5320584320337 593.185579709517 2671.52952805829 155 155 157
90.2371443727201 593.158484380187 2669.73489219285 172 172 174
101.63971171507 593.425982823675 2669.11360095054 169 167 170
112.229142782067 593.541224791999 2667.87480989958 169 167 170
142.23072352425 597.059496462127 2680.22565238162 155 153 156
188.405287290737 603.369962490959 2703.68486081619 152 150 151
228.844978023215 608.620376527267 2722.85778636703 107 105 106
243.978563859891 609.430292741777 2724.29284691921 106 104 105
249.793782860109 608.617504756233 2719.25785447251 111 109 110
253.048985270951 607.36482632603 2712.47447279445 113 111 112
257.146411263244 606.260397310267 2706.28340587718 122 120 121
261.235405960558 605.157395434308 2700.09995293126 127 127 129
263.596851584948 603.763954366094 2692.76855814619 135 135 137
265.080444392558 602.227533469488 2684.87601110507 150 150 152
267.406444468585 600.839397136092 2677.57561938887 211 211 213
274.042484026098 600.17869912134 2673.15146758642 178 178 180
283.284216305542 599.95168039128 2670.4361561179 180 180 182
290.803122523825 599.433870352112 2666.56944251359 205 205 207
-237.631707879486 617.387199911523 2883.61573444091 203 203 203
-240.228142915419 614.868525354516 2871.32534744375 200 200 202
-241.401158056059 612.67661409369 2860.44595108184 197 197 199
-241.874973986729 610.649660646959 2850.28304108643 198 198 200
-238.689257230994 609.426282050112 2843.55969525964 194 194 196
-236.257013556503 608.044708061597 2836.16717587361 191 191 193
-230.87102861207 607.302331714135 2831.50375974254 186 186 188
-223.996108451015 606.877715957011 2828.19460810056 181 181 183
-218.607288886848 606.134179346794 2823.5287426212 176 176 178
-212.47033849812 605.548838943964 2819.53668102168 167 167 169
-204.077203157583 605.437179997132 2817.55613148831 164 164 166
-193.409525488801 605.796730290672 2817.5711990431 164 164 166
-182.71384240732 606.15202996359 2817.56202084418 157 157 159
-175.018344265726 605.873757829868 2814.86395733291 146 146 148
-168.070309965825 605.436510974193 2811.49151688858 151 151 153
-159.592648304975 605.311342780976 2809.43779289538 145 145 147
-144.230554930378 606.592152619678 2813.31826809261 137 137 139
-124.989910027081 608.646382961909 2820.44867135621 123 121 124
-117.952775242274 608.195340224134 2816.99909371658 107 105 108
-117.832184309077 606.342135012114 2807.64312490576 117 115 118
-117.740987370679 604.492768561449 2798.31260805152 146 144 147
-116.9058510966 602.802162792313 2789.65952433338 160 158 161
-116.096105387342 601.114736864224 2781.02842692498 166 164 167
-115.311604826791 599.430620909204 2772.41918894568 173 171 174
-115.33193361651 597.59546533356 2763.18524336192 175 173 176
-113.818381987688 596.072077396165 2755.2666454797 176 174 177
-110.758950387142 594.858609300658 2748.65269131588 176 174 177
-107.712534428217 593.646684439677 2742.05000827629 176 174 177
-106.254698716572 592.130238676702 2734.17934088387 182 180 183
-104.028160900127 590.769181066343 2726.96498121238 186 184 187
-99.4433291507883 589.867904025765 2721.67372216096 188 186 189
-95.6573550352338 588.814880720029 2715.75226866997 197 195 198
-91.8802080061756 587.76282882348 2709.83877515023 189 187 190
-90.5059675203916 586.256862435666 2702.04049483824 177 175 178
-83.5529220886793 585.813281480071 2698.66375211097 170 168 171
-76.5927186096582 585.368504741031 2695.28049748266 172 170 173
-68.8209386906617 585.073282316927 2692.5164276513 183 183 185
-64.2620425310092 584.1742404518 2687.24763342371 182 182 184
-59.7080638642384 583.275741060527 2681.98309784871 183 183 185
-55.9692293409459 582.227808505311 2676.10246894857 183 183 185
-50.6148221766667 581.480222770092 2671.46645617156 180 180 182
-42.0041878471746 581.330230093812 2669.29764085007 183 183 185
-31.7453028980172 581.476153501673 2668.34514718429 186 187 189
-19.8261344317938 581.916290422231 2668.59824134937 184 185 187
-3.77309351483124 583.094557353047 2671.88051195641 182 183 185
5.7528679667298 583.079458035545 2670.24105196379 167 168 170
17.7716295550843 583.505344193439 2670.40791753539 162 163 165
33.1284486415178 584.517466075451 2672.9714443803 162 163 165
51.0190564283235 585.96498580456 2677.30612222288 144 144 146
59.8335818357096 585.785828052812 2674.96077616582 149 149 151
66.9984068013969 585.310739865046 2671.40036515892 153 153 155
76.6748245577764 585.274300422559 2669.63063758937 155 155 157
88.0440583937876 585.527513624889 2669.03833026388 172 172 174
101.118739972849 586.068880202149 2669.61282009388 170 168 171
115.070029965887 586.750811341733 2670.74987191239 171 169 172
143.388711552761 589.899015150122 2681.91521988822 156 154 157
195.471893549702 597.095199293821 2709.51093417457 152 150 151
232.534666308323 601.65327486552 2726.32188328452 105 103 104
244.280516427143 601.85406182802 2725.40348881274 109 107 108
248.395977448129 600.752645903024 2719.19708627578 115 113 114
250.796572508019 599.364562316647 2711.83172455114 116 114 115
256.600343763747 598.553705276269 2706.8066417635 126 124 125
260.689614936736 597.456295467053 2700.62291294945 130 130 132
265.628998734793 596.503265739072 2695.02437073904 132 132 134
267.980582620361 595.122553335548 2687.70175650826 175 175 177
271.178494725084 593.886812747888 2680.96792064015 191 191 193
276.95919336277 593.079871395166 2675.96281034615 162 162 164
287.075571513703 592.983103870397 2673.81214421593 193 193 195
296.342391782019 592.7420467644 2671.07517905471 210 210 212
-234.147265184712 612.993427241074 2897.8277678555 140 139 137
-239.612230494991 609.864951861658 2882.73423167851 201 201 203
-240.745694766603 607.692746645305 2871.82042746113 198 198 200
-241.182187252621 605.68307439284 2861.62505591209 194 194 196
-240.179455717585 603.992505346464 2852.82671111918 194 194 196
-237.725029493316 602.619352316159 2845.4149107519 188 188 190
-235.287630807165 601.248133093113 2838.01785623284 185 185 187
-229.897217114253 600.505339977916 2833.35060424693 183 183 185
-222.273940485342 600.231202413682 2830.71479541171 178 178 180
-213.892062020125 600.111200425725 2828.74437219276 173 173 175
-206.992059256953 599.677046227274 2825.41322685444 164 164 166
-200.084350512413 599.241517132433 2822.07572688729 162 162 164
-193.169297292927 598.804557546053 2818.73155495648 155 155 157
-183.227416523609 598.985836329828 2818.05359110422 156 156 158
-174.018408455598 599.008930144621 2816.68859853544 149 149 151
-165.548745170013 598.874448853897 2814.64186737068 146 146 148
-152.497659410016 599.661981567092 2816.55847425461 140 140 142
-134.06541527221 601.520109823004 2823.06755739359 139 139 141
-117.094270202654 603.061332241343 2828.19855942715 132 130 133
-114.637346275045 601.68260280153 2820.78463034588 114 112 115
-116.812299034375 599.388354671985 2809.45105160568 120 118 121
-117.486724168616 597.404804184104 2799.46142005272 150 148 151
-116.648133244493 595.730351584674 2790.80523739227 164 162 165
-114.284316983331 594.363262802428 2783.47193264048 170 168 171
-114.269556310676 592.542874624751 2774.2074780653 172 170 173
-113.50490712765 590.877810952702 2765.61532252918 175 173 176
-113.546964165204 589.064805014147 2756.40006606863 177 175 178
-112.051655268358 587.557385931043 2748.49686082652 178 176 179
-109.006298134822 586.354159639941 2741.89535465485 179 177 180
-105.18674525767 585.302782507323 2735.94478657698 183 181 184
-102.955175986001 583.952246017394 2728.72599778527 188 186 189
-99.1576624466512 582.903447695587 2722.7945152829 189 187 190
-93.781624362864 582.154805363073 2718.13976105722 196 194 197
-89.9977859737877 581.10754151727 2712.22043686855 188 186 189
-87.8186486354151 579.763355227261 2705.04673605577 176 174 177
-81.6574124747467 579.164795372031 2701.03402628 171 169 172
-75.4930528549975 578.56558307745 2697.01829800494 174 172 175
-69.3254136233028 577.965719510971 2692.99973139258 184 184 186
-66.3781579648806 576.773915854909 2686.48286376381 184 184 186
-61.0200108946706 576.026395379538 2681.84360905302 185 185 187
-57.2825527496379 574.984389509456 2675.96445021716 184 184 186
-48.6819450193634 574.825207164225 2673.8043848589 181 181 183
-40.8798557034133 574.517069717503 2671.01412847341 182 182 184
-29.8018793303405 574.792858646774 2670.67411816891 184 185 187
-17.0597882743984 575.356827865766 2671.53672969444 185 186 188
-1.00094163573194 576.499010033047 2674.81420210396 184 185 187
10.998775955946 576.906081511454 2674.99769571159 164 165 167
23.0305973032294 577.308642123774 2675.15370858366 161 162 164
39.2254950766828 578.431491760508 2678.31307034679 156 157 159
53.8162225745249 579.257653607827 2680.21854046194 142 142 144
62.6381690681619 579.066776822444 2677.86683822231 142 142 144
69.8110183198004 578.585420091821 2674.29982841151 153 153 155
79.4944058710767 578.534485544921 2672.52383828599 149 149 151
88.3610696056079 578.337287190273 2670.13341897025 160 160 162
100.597570351287 578.710935879842 2670.1122162006 167 165 168
114.546886415384 579.366094244895 2671.25115238252 158 156 159
149.601096089478 583.583115584044 2687.15836809767 155 153 156
199.156147066998 590.201419326864 2712.97895096141 151 149 150
234.52877524954 594.374053863713 2728.6107850503 115 113 114
244.581918097669 594.271587113243 2726.51464864826 114 112 113
248.699811746654 593.17553276887 2720.30610292199 120 118 119
251.956016341653 591.939517444176 2713.52174463756 119 117 118
258.618518146423 591.269297044513 2709.07471875953 126 124 125
263.570992759647 590.317311260451 2703.46513901713 124 124 126
268.518766911176 589.366048323926 2697.85962864977 193 193 195
271.740003965464 588.135340992498 2691.10554359384 202 202 204
274.085482293629 586.766657294014 2683.78782780997 154 154 156
279.87426103761 585.958777496596 2678.77572027856 196 196 198
286.529675300742 585.290402133162 2674.33514098459 235 235 237
296.664599995997 585.17773016107 2672.16818744612 192 192 194
299.850897927156 583.952716255986 2665.44434849053 235 235 237
-237.582378703302 605.127683524741 2895.5623999169 177 177 175
-242.322134701015 602.196714614963 2881.16259529947 198 198 200
-241.263434921205 600.515795571765 2872.3156782848 197 197 199
-242.432287504754 598.372819654 2861.4323569828 194 194 196
-239.957702860074 597.008420060636 2854.00302786547 192 192 194
-239.714808217654 595.182490871703 2844.54087728441 184 184 186
-234.319381371142 594.439531659994 2839.86928129439 180 180 182
-227.439869816932 594.004116923826 2836.55622010458 177 177 179
-219.808451837866 593.721000173794 2833.91372856674 173 173 175
-212.165417729117 593.435780086479 2831.26118254145 168 168 170
-204.510959728438 593.148580126375 2828.59843233518 160 160 162
-196.094050555789 593.012152753543 2826.59775317983 158 158 160
-189.166805414028 592.568311222543 2823.24305866693 158 158 160
-182.231905677561 592.123011886215 2819.88205460111 149 149 151
-173.01969780227 592.132058420354 2818.51406415822 148 148 150
-163.787568109032 592.138084932931 2817.1291418423 144 144 146
-147.689032359489 593.503298333103 2821.69402989696 139 139 141
-126.957077797793 595.766874956082 2830.17734216306 144 144 146
-113.027494119304 596.66168279919 2832.65540456321 142 140 143
-114.391752109999 594.539692553614 2821.94131216368 121 119 122
-116.562550742418 592.272312848161 2810.60395878431 122 120 123
-117.23312556644 590.310281944371 2800.61085058165 154 152 155
-117.93706247814 588.352646387799 2790.64694553044 166 164 167
-115.574264458127 586.996923390822 2783.31444967428 171 169 172
-115.559974458102 585.195941832799 2774.0502772926 173 171 174
-114.016911288678 583.696374461594 2766.10563082666 175 173 176
-113.276233356987 582.05097778832 2757.53412459307 179 177 180
-110.994273594213 580.705362881374 2750.27162865947 180 178 181
-107.944228596848 579.509807249636 2743.66569412881 182 180 183
-104.907311312998 578.315809945315 2737.07112776133 184 182 185
-102.672732252155 576.976006950467 2729.84966072384 190 188 191
-100.455333535497 575.638367943103 2722.64307048551 191 189 192
-95.8745873705249 574.74339018683 2717.3553117374 194 192 195
