ply
format ascii 1.0
comment KinectMotionCapture
element vertex 761
property float x
property float y
property float z
property uchar red
property uchar green
property uchar blue
end_header
233.475070873873 711.82855389036 3075.7754401872 157 157 157
240.784845451564 711.265643363294 3078.73938292564 158 158 158
247.207293835769 711.03017837949 3083.49918790257 149 149 149
254.523576722387 710.465885457816 3086.46577628745 142 142 142
261.840583450238 709.901056978736 3089.4326618099 163 163 163
270.031191515462 709.008973709476 3090.59812655083 143 143 143
277.344485629159 708.443542732315 3093.56351342884 157 157 157
287.678461582357 706.736543256469 3090.20817711526 161 161 161
298.406339172319 704.869025844967 3085.93499455398 181 181 181
307.815348816309 703.491940557358 3084.36051877712 187 187 187
315.504239771931 702.76595291053 3086.4003909925 185 185 185
322.767341696438 702.20204774623 3089.34544384283 188 188 188
330.449680905321 701.475652652423 3091.38266639063 200 200 200
336.878885910831 701.234481721289 3096.14525032526 196 196 196
343.732232592759 700.830546433094 3100.00224901765 192 192 192
350.180076935559 700.587002100661 3104.77239787787 193 193 191
357.047000227154 700.180974969382 3108.6349094991 199 199 197
362.701147570639 700.25706415601 3115.23914683592 197 197 195
367.972412540263 700.491836411132 3122.7659631764 200 200 200
372.066154110675 701.206160267254 3133.04931263314 203 203 201
379.388832592811 700.633111532355 3136.01855691609 196 196 194
391.067463253464 698.297039777999 3128.89719740662 126 127 121
-109.854129193112 762.074750777034 3207.18341591983 224 228 229
-100.379452496822 760.974558272963 3207.79130300958 211 212 214
-80.0510323738039 756.37129293719 3190.16383201898 184 185 187
-51.08761479986 748.943643211339 3157.71273669417 185 186 188
-25.9171148891144 742.696627623051 3131.26939563047 182 183 185
-11.1157724949844 739.787767188552 3122.18005994264 180 181 183
2.60133092055659 737.216065382081 3114.80678427669 178 178 180
15.7540494184201 734.814462419401 3108.28276921611 200 200 202
25.8382025967461 733.410905573444 3106.98185492873 190 190 192
37.8976266742295 731.346879803959 3102.17023023308 214 214 216
49.4153917305662 729.451182236129 3098.21708111857 209 209 211
64.3574986709103 726.402348479964 3088.10673558966 204 205 207
73.3175272121094 725.33799905613 3088.50597360034 210 211 213
82.7532087757155 724.109708682795 3088.02023464016 203 204 206
91.1951729931391 723.211668656711 3089.28751686007 199 200 202
102.051797277582 721.492072814715 3086.14389263654 205 206 208
112.873984954305 719.774811361965 3082.9865648066 204 205 207
125.100774690711 717.567922211206 3077.16498000468 203 204 206
135.846604569254 715.855843690197 3073.97669615708 201 202 204
147.032619438961 713.982365292862 3069.88905532296 199 200 202
155.818830397261 712.928439648578 3070.2178368142 191 192 194
166.46901140461 711.222534469943 3066.99077862284 181 182 184
176.617678137731 709.681871978034 3064.63821649756 183 183 183
185.343422310321 708.631451817639 3064.94248884428 175 175 175
191.283004537608 708.557505047355 3070.58462583514 172 172 172
199.995301395192 707.507283539033 3070.88345195339 189 189 189
208.693305249725 706.457835781937 3071.17648507096 168 168 168
217.831277945795 705.247065049748 3070.57007310168 165 165 165
223.335015670411 705.332052215374 3077.1133432033 163 163 163
230.20778355098 704.930050649943 3080.97793351803 158 158 158
237.53313332135 704.365696913193 3083.94819348097 151 151 151
244.414885829056 703.962171121236 3087.81669038746 157 157 157
250.860792522577 703.718840081227 3092.58605309049 149 149 149
257.756639608499 703.313300960713 3096.4602720525 147 147 147
265.531745033656 702.585509309659 3098.53480834418 136 136 136
273.736453813687 701.69718061957 3099.70595390613 155 155 155
284.52148949572 699.847436579863 3095.45552230823 161 161 161
295.266583037336 698.000313682182 3091.18915577917 174 174 174
305.118702868499 696.475584368494 3088.71640314138 180 180 180
313.668947360927 695.43177603428 3088.94956679294 182 182 182
322.204546145722 694.38864984321 3089.1767953306 186 186 186
330.30645720234 693.505476818933 3090.3062797428 199 199 199
336.73315260508 693.258975429418 3095.06788796045 196 196 196
343.170358996609 693.01118753922 3099.83401898099 192 192 192
350.029597325961 692.603323866854 3103.69317570929 193 193 193
357.303111317432 692.036053289637 3106.64246984081 200 200 198
363.358136146987 691.943246601654 3112.33149167792 197 197 195
369.428749587581 691.848696760362 3118.02683844603 201 201 201
371.903806892286 693.173718452408 3131.96565496834 198 198 198
378.825751080596 692.758465780206 3135.85025686207 197 197 197
385.75306447552 692.342369283108 3139.73703910554 133 134 129
-101.528761842097 752.602643545652 3208.46822075855 143 149 149
-83.2635541268367 748.720583178729 3194.31539291867 147 151 152
-54.7944230541315 741.567167679072 3162.74115123449 170 171 173
-28.0637892262214 734.91994082211 3133.69584919578 184 185 187
-11.2111704280782 731.39402994134 3121.12599086431 167 167 169
3.52127297019678 728.528077973519 3112.00843322585 180 178 181
16.1637740798715 726.319844460136 3106.35517720886 193 193 195
25.7414544199324 725.092976323677 3105.92692176886 191 191 193
35.3000745447514 723.867229747679 3105.49094048138 211 211 213
47.8248999923772 721.667034270229 3099.78997749494 205 206 208
62.2803925416295 718.820638968944 3090.55987895562 201 202 204
72.2337615294975 717.439214387536 3089.20610054447 208 209 211
82.1630620375928 716.059283687921 3087.84230842632 201 202 204
90.1183374523173 715.328151119122 3089.99007682236 196 197 199
100.979068974087 713.627173479013 3086.84823169584 200 201 203
112.287931803565 711.767011169664 3082.80997297296 198 199 201
122.597482216597 710.232097455173 3080.52276516425 200 201 203
133.355247109441 708.53790823169 3077.33892089698 198 199 201
144.553283786698 706.685205982426 3073.25599013018 197 198 200
156.184183994119 704.674409149115 3068.27045568934 195 196 198
166.361312971284 703.148079515471 3065.92930908622 184 185 187
174.639991043308 702.264859291874 3067.13036557059 176 176 176
184.768359203503 700.741496244824 3064.76945357161 184 184 184
191.632080504678 700.339255005278 3068.63038280698 160 160 160
199.880590184814 699.457139780616 3069.81921594724 171 171 171
207.205631853431 698.89430485676 3072.78933964978 179 179 179
215.440726505003 698.012361252097 3073.97248261246 159 159 159
221.858218178444 697.767211291911 3078.73061128829 162 162 162
228.736206311908 697.361867106593 3082.59734058265 159 159 159
236.513937029652 696.638195812006 3084.67316583209 147 147 147
243.398520306352 696.231522128463 3088.54257553054 149 149 149
250.730792710582 695.665573842611 3091.51565050522 148 148 148
257.184910636261 695.415459777564 3096.28864651811 131 131 129
263.649954727034 695.164067034189 3101.06581892346 117 117 115
271.863078259322 694.280361844143 3102.24033651422 155 155 153
281.794049513348 692.766720349813 3099.79942621725 155 155 155
292.553847675907 690.940226236 3095.5385998981 167 167 167
302.846955703631 689.273490530974 3092.16666848867 181 181 181
312.681000556906 687.765974155033 3089.68646695079 182 182 182
321.220141407174 686.730637106626 3089.91507060613 183 183 183
329.325405424572 685.852578282798 3091.0458738442 197 197 199
336.587842777504 685.287500361152 3093.99066650338 194 194 196
343.022659852032 685.034228456272 3098.75561444715 188 188 190
349.467964573682 684.779731676128 3103.52507527584 196 196 196
357.560025031417 683.900721860115 3104.6502824677 196 196 196
364.016295986757 683.644429716237 3109.42419705522 197 197 197
370.079170751424 683.542184117452 3115.11646881991 197 197 197
370.939060644396 685.455657293911 3132.71234497838 200 200 200
376.268238279221 685.657357924154 3140.26286042132 201 201 201
381.622947366936 685.856611898548 3147.82398914051 194 194 192
-99.555700237232 743.254452275103 3203.94365824621 145 151 151
-84.4063107098765 740.395910394448 3194.99460575369 125 129 130
-59.0187722106286 734.318081133977 3168.63785969328 157 158 160
-29.6984217203826 726.964629687298 3135.25191343584 176 177 179
-12.3267479329285 723.326178360844 3121.8145189077 171 171 173
1.39559077089046 720.819128060142 3114.44287293216 178 176 179
14.5532130309813 718.476703467966 3107.92039481431 190 190 192
26.1482029344611 716.618947921941 3103.99796867753 188 188 190
35.2026146740476 715.564216659591 3104.4353488747 209 209 211
45.7362607554397 714.030622256071 3102.23860859068 201 202 204
59.2117489135295 711.540852555556 3094.76714081927 201 202 204
68.1937481784944 710.490692763843 3095.17516706707 206 207 209
79.6124725992866 708.644780349986 3091.18128251523 199 200 202
87.578336141602 707.915319499999 3093.33332529808 194 195 197
97.9657714405069 706.391246827186 3091.07731313015 197 198 200
109.77157694703 704.392948422198 3086.16275909981 196 197 199
121.533058632092 702.397599251502 3081.22997908669 199 200 202
133.250027349937 700.405358327049 3076.27915252829 196 197 199
143.972477949527 698.732432390609 3073.08110581006 196 197 199
156.077930706903 696.587968728057 3067.20991935527 196 197 199
165.31410269223 695.393388067441 3066.6431448674 187 188 190
172.193898223506 694.987751245124 3070.51060818245 166 166 166
181.404067034715 693.794423789867 3069.93329569433 179 179 179
189.670197775971 692.916596625293 3071.12897374874 171 171 171
199.30656255735 691.56811836246 3069.6465928522 154 154 154
206.174678249332 691.161822845196 3073.50933207565 185 185 185
213.958184613688 690.441489739479 3075.58747054101 183 183 183
221.285243984001 689.87741898705 3078.55842056394 161 161 161
228.163437262218 689.469099631411 3082.42525547093 155 155 155
235.047440450958 689.059901534731 3086.29444943023 149 149 149
241.047852426467 688.961528775806 3091.96140109827 151 151 151
246.622129573753 689.017016794086 3098.53345570875 148 148 148
253.536062725069 688.604216578492 3102.41505262785 145 145 143
260.01880820146 688.345802433854 3107.19944541935 116 116 114
269.119578508489 687.155941896096 3106.57781197228 139 139 137
277.336639021655 686.276796538809 3107.75388905646 154 154 154
288.550673438087 684.315465629037 3102.5991936668 155 155 155
299.719718234745 682.35716117759 3097.42625935854 161 161 161
310.84383060078 680.401908541531 3092.23510909497 173 173 173
319.391567839491 679.373960191251 3092.46713736287 175 175 175
327.085911652485 678.654384888519 3094.50916879782 194 194 196
333.525255845815 678.395697813848 3099.27624801204 193 193 195
341.21814829348 677.675286496397 3101.31744090964 187 187 189
348.494640073653 677.108019098974 3104.26794070264 194 194 194
357.817626450684 675.775014259666 3102.65855782213 195 195 195
363.862221947864 675.66632644742 3108.34347727092 196 196 196
369.922417144409 675.55595437946 3114.03472569385 196 196 196
369.973904191269 677.730814159493 3133.45892030474 198 198 198
374.905931104001 678.070863277857 3141.92664895518 200 200 200
381.058343344217 677.951810176008 3147.65530120679 198 198 196
-97.5803229218375 733.932264882127 3199.41957901983 179 185 185
-85.0312180154718 731.905896253808 3194.80593719779 141 145 146
-62.2145539793357 726.71266504411 3172.79611240712 150 151 153
-33.3860301291131 719.630538534728 3140.28778059579 169 170 172
-13.9529753097554 715.409832860465 3123.37369097143 174 174 176
0.285062364375754 712.776764915512 3115.13299489782 176 174 177
13.4476165156565 710.463747966063 3108.61229076592 188 188 190
24.0410082863516 708.94230677259 3106.43964897095 186 186 188
31.6024500933314 708.366869359393 3109.50558494107 207 207 209
43.6464279753943 706.376635551762 3104.68714686718 197 198 200
56.1414848305608 704.232567188524 3098.97370535995 202 203 205
67.6013062421628 702.405450705059 3094.99657544756 205 206 208
78.041135085033 700.894143627039 3092.76168029532 197 198 200
86.5003988219868 700.010339969237 3094.03560183399 193 194 196
96.89177349403 698.502119209097 3091.78132176376 195 196 198
108.702323929276 696.52774927204 3086.86825032369 195 196 198
121.428821117227 694.244856866883 3080.1707614754 198 199 201
133.145383496723 692.277036785779 3075.21958529014 194 195 197
143.391833860611 690.778420573675 3072.90629636607 195 196 198
155.026938600639 688.816127699076 3067.92209666396 197 198 200
163.796647479798 687.786971603923 3068.24400883363 190 191 193
171.149202811026 687.2230925701 3071.22528053764 165 165 165
179.432777763378 686.349586537217 3072.4282461033 170 170 170
188.169790506655 685.321825373572 3072.73690926558 184 184 184
197.352532384635 684.140563847834 3072.1484003497 158 158 158
204.685860822108 683.576624058043 3075.12188768093 180 180 180
212.020015808284 683.01223023768 3078.0957131173 187 187 187
220.260007340184 682.140000823732 3079.28076516128 169 169 169
227.140831735823 681.728543980556 3083.14868917042 158 158 158
233.580079754044 681.46947598099 3087.91573233132 145 145 145
239.140532958386 681.515329433915 3094.48226275244 153 153 153
244.722002459315 681.559129260384 3101.05731808935 151 151 151
251.203932684615 681.295543883599 3105.84167721453 144 144 142
257.259479686684 681.183089263163 3111.53105940158 120 120 118
265.504650155488 680.307520502716 3112.71823367182 134 134 132
274.172535815539 679.280065515421 3112.99890544625 147 147 147
285.403813686558 677.341960891374 3107.85127298704 150 150 150
297.444551270924 675.103362962988 3100.8755319585 162 162 162
307.731683392947 673.474729774453 3097.50089214042 170 170 170
315.873467375792 672.604895897325 3098.64641971137 173 173 173
323.586248729881 671.886465497211 3100.69565047171 193 193 195
331.711374421211 671.017054783756 3101.83443001077 193 193 195
340.241401183034 669.997174636822 3102.05922627705 187 187 189
347.932861134776 669.279028753038 3104.09982199582 193 193 193
356.847863842087 668.109804068192 3103.40281614728 194 194 194
362.894845764948 667.992558529526 3109.08876670818 195 195 195
368.553089053887 668.023640565264 3115.69500360627 195 195 195
369.811938053496 669.699746890759 3132.3754065181 197 197 197
373.542831311832 670.472177328051 3143.5902089708 198 198 198
380.493708844302 670.045695793859 3147.48661088266 198 198 196
394.545802528817 666.933729195994 3134.85876752377 136 137 132
-103.936118925201 727.134724241809 3208.76560415624 189 195 195
-89.802304135481 724.66241124181 3201.56029863856 195 199 200
-70.0541562402515 720.480851203932 3184.77349125896 156 157 159
-40.6686743536628 713.351690089216 3151.4122161837 157 158 160
-19.6657084972518 708.724499121941 3131.90017182643 168 168 170
-2.35028667047232 705.193354731655 3118.43893069337 175 173 176
10.8247781727806 702.909204746855 3111.92307324845 186 186 188
22.4359104560476 701.093382978655 3108.00712242703 184 184 186
32.0053709907584 699.898643614039 3107.57503809209 207 207 209
44.5444735823735 697.778552708872 3101.87924864946 193 194 196
55.5473825175112 696.124622207023 3098.79461354762 206 207 209
66.0229176749481 694.627074053139 3096.57407134072 204 205 207
75.9786213666975 693.285335158055 3095.22093742798 196 197 199
83.9581015027542 692.559637355191 3097.37846495047 192 193 195
95.3321584650872 690.759704893302 3093.36614634509 192 193 195
107.149847515282 688.809128139035 3088.45578493389 194 195 197
121.805709264891 685.943197482277 3078.22841162256 197 198 200
133.997202403728 683.847060456359 3072.39169600699 194 195 197
142.811355722278 682.823229974784 3072.73156304915 191 192 194
153.029964661105 681.342570589679 3070.40686522112 195 196 198
162.27844252745 680.168474578063 3069.84491802938 194 195 197
172.44330938865 678.691236211601 3067.49843448381 178 178 178
178.856347861009 678.431285828142 3072.25487227318 160 160 160
186.205994721265 677.866621033276 3075.23497231372 191 191 191
194.01680269575 677.149988344201 3077.32387973324 179 179 179
202.281043677649 676.281959328342 3078.5189755967 152 152 152
208.715379315604 676.018742957619 3083.28380398655 161 161 161
216.971162647809 675.150577048105 3084.47547644509 184 184 184
224.317475727941 674.584203770999 3087.45423961146 176 176 176
231.216962074606 674.167950802719 3091.3297560659 160 160 160
236.787109933753 674.2018580351 3097.90030233329 153 153 153
241.935658717004 674.383941198413 3105.37808835328 151 151 151
248.870329000786 673.963675262635 3109.26788095223 150 150 148
255.373216399258 673.692302437767 3114.06078451535 130 130 128
263.191873663553 672.970923313083 3116.15290603348 113 113 111
271.438369260991 672.10008601553 3117.34083820229 132 132 132
281.394956529803 670.632803767539 3114.90994825809 144 144 144
293.031131121107 668.571398293373 3108.84812483428 153 153 153
304.192462534327 666.662273042326 3103.67169466668 164 164 164
313.619605005011 665.350575393751 3102.10432234918 164 164 164
321.762842182016 664.485533437172 3103.25014476017 185 185 187
329.479183431552 663.768967518941 3105.30105999129 186 186 188
338.434982434202 662.608316400374 3104.62050728891 181 181 183
346.958904788846 661.596511459229 3104.84277071604 190 190 190
355.468059589045 660.585428202973 3105.05904939464 192 192 192
361.927079452282 660.312096709322 3109.83394892261 194 194 194
367.182890541655 660.479106309862 3117.35527894526 194 194 194
370.454412713806 661.37868070433 3129.4619297208 195 195 195
374.975384223034 661.833378283991 3138.84116408476 196 196 196
382.707667683022 661.111843175937 3140.89857186924 199 200 195
393.196140561901 659.365276796242 3136.52728203118 160 161 156
-111.33799787428 720.582880454528 3219.84383167772 166 172 172
-97.687322021119 718.293602202779 3213.5203274114 162 166 167
-77.8990667674882 714.171599553909 3196.74930778879 172 173 175
-48.9832380425192 707.306621350137 3164.2749364054 159 160 162
-22.3166118941454 701.067601152593 3135.20036678818 162 162 164
-2.95340158164903 696.977122078041 3118.25701053483 175 173 176
10.2240865481418 694.722548599962 3111.74191007963 185 185 187
20.3269276353755 693.384395191018 3110.44832388073 183 183 185
30.9066388173489 691.895898547716 3108.26989320143 206 206 208
43.4505096382916 689.802508439224 3102.57583199637 191 192 194
54.9534503573705 688.015557886726 3098.61559911327 206 207 209
65.9237469519878 686.382622239138 3095.51760037012 203 204 206
76.859779046462 684.752012759007 3092.40571054146 194 195 197
85.8086102433908 683.727524498767 3092.80011268988 191 192 194
96.200493997397 682.251488138373 3090.54553756781 191 192 194
106.079844945169 680.927933076945 3089.16135114052 193 194 196
119.2996058092 678.553413811871 3081.58521040287 196 197 199
131.503526508967 676.483400636192 3075.75332860718 194 195 197
141.27979801055 675.166697291821 3074.32735410698 187 188 190
151.504918959932 673.701751184224 3072.0051738436 191 192 194
161.230232968605 672.388193878936 3070.55828594224 193 194 196
171.867090788282 670.777491633324 3067.32511167414 181 181 181
177.814628302968 670.660921868346 3072.97079277529 162 162 162
184.704207674052 670.244796274042 3076.84229699992 183 183 183
191.599594314375 669.827846510094 3080.71641602033 185 185 185
200.332635998778 668.815612984151 3081.02335363369 153 153 153
206.319051612009 668.694588129931 3086.68480997034 156 156 156
213.680085792122 668.127227855974 3089.66954108716 180 180 180
221.041893534114 667.559447637542 3092.65458859677 184 184 184
227.509021150899 667.286788856034 3097.43276579784 173 173 173
233.986916057077 667.012942819832 3102.21556882384 163 163 163
240.475780545503 666.737844553492 3107.00256562114 158 158 158
248.295994711693 666.019773790326 3109.09554966791 154 154 152
254.798880175901 665.742692500894 3113.88849571646 142 142 140
260.877487369314 665.611255123229 3119.58735869602 109 109 107
268.702449898945 664.891498495838 3121.68202087341 123 123 123
277.813085758998 663.732268670803 3121.06414974654 141 141 141
289.469318533822 661.69659170331 3115.01025272431 151 151 151
299.800510288236 660.102515242085 3111.65319040921 162 162 162
310.519234981516 658.364899155481 3107.37531728817 160 160 160
319.518392411105 657.212534360126 3106.7120000716 168 168 168
327.662834971097 656.352293129766 3107.85853137198 184 184 186
335.797736407191 655.49236491797 3109.00093993964 180 180 182
343.922899793875 654.632694722731 3110.13966091081 189 189 189
352.448255226131 653.628427582686 3110.36244744645 191 191 191
360.144340051338 652.914189270192 3112.40488612545 193 193 193
366.62142863054 652.633443201795 3117.18741497573 193 193 193
371.500234600367 652.928453407044 3125.63393622546 194 194 194
375.610497002256 653.508770814512 3135.92473335583 195 195 195
382.144374162352 653.222150642927 3140.73030002499 196 197 192
390.267185491123 652.359384525148 3141.86783490425 176 177 172
-119.266060814741 714.109825033452 3231.78722197144 196 202 202
-106.615137042755 712.148495660918 3227.21431290818 152 156 157
-86.2656201664362 707.935331446369 3209.59242698364 157 158 160
-54.2213984215309 700.277810470634 3171.9171065274 171 172 174
-25.4799970430717 693.537656041407 3139.37116461481 171 171 173
-4.57354369038532 689.059183181405 3119.81891578463 179 177 180
7.59929637084111 687.132951896416 3115.05216797407 183 183 185
18.2170398586399 685.657904927145 3112.88929158811 188 188 190
29.3068660276628 684.035619247961 3109.83935157388 191 191 193
41.8579819362648 681.96870381125 3104.14802318279 203 204 206
53.8636982507823 680.054034282622 3099.3137777407 202 203 205
63.851252761951 678.736855895333 3097.97309661099 200 201 203
76.2693510036319 676.679194012845 3092.22784016787 193 194 196
86.1958382957089 675.366131139661 3090.8626593851 188 189 191
96.5841678953392 673.906426251846 3088.60652142294 188 189 191
104.526404472354 673.187839039471 3090.74865816888 192 193 195
116.311208819321 671.288191243709 3085.82485317284 194 195 197
127.573408243946 669.539024092906 3081.76685945431 193 194 196
138.320347507833 667.939804623528 3078.57816934814 185 186 188
148.559578407892 666.48991004678 3076.26158801751 184 185 187
160.181636942216 664.601363013634 3071.27180425215 188 189 191
171.291059379001 662.862476926092 3067.15187428406 188 188 188
178.635405185356 662.298052795482 3070.12982614119 172 172 172
184.591113593416 662.172078466883 3075.77888686331 163 163 163
190.562910024232 662.044470857779 3081.43447389188 187 187 187
198.383177239219 661.331656188698 3083.52743957797 165 165 165
204.376958437625 661.201589454431 3089.19194672295 159 159 159
211.292910663616 660.778861292506 3093.07417917569 156 156 156
219.115663828204 660.064773696448 3095.16816105363 143 143 143
226.038254614586 659.64074248449 3099.05309128928 155 155 155
232.966714601807 659.215887610134 3102.94040416598 176 176 176
239.015105014604 659.079581454878 3108.62706948877 155 155 155
245.960227475009 658.652599466615 3112.52114500596 153 153 151
252.473212182385 658.369099079417 3117.31822882166 142 142 140
257.691050111899 658.516731071758 3124.82433065743 108 108 106
264.66612525165 658.086180466796 3128.7305608518 109 109 109
272.507386774132 657.367279026479 3130.83207312059 137 137 137
285.477053518917 654.925830401578 3122.07637020568 140 140 140
297.531137450966 652.775719669005 3115.10536231011 155 155 155
309.107340523821 650.772625013906 3109.01881486249 154 154 154
319.373048510452 649.201789091897 3105.63506247599 174 174 176
327.515854906035 648.346913314739 3106.78063340976 181 181 183
334.403704873768 647.920129737303 3110.65177542236 179 179 181
341.297215901341 647.492424849855 3114.52495931478 188 188 188
350.246207811813 646.353025464047 3113.84148938658 192 192 192
358.767902783882 645.356729564605 3114.06273340795 192 192 192
365.655092215214 644.928150675016 3117.93336435547 192 192 192
370.93804221319 645.0649153424 3125.46591197863 195 195 195
375.846836625093 645.34060309446 3133.92472179539 193 193 193
381.183773849928 645.472229115531 3141.47891018789 198 199 194
388.520291421059 644.896589532981 3144.45377745802 196 197 192
415.470327085289 637.282105639414 3101.4791064454 134 135 127
-121.985132799462 706.07949688235 3235.06264645305 202 208 208
-109.322093354197 704.141446817397 3230.49446648941 170 174 175
-89.9902689178909 700.2876903547 3214.61567339384 133 134 136
-58.4353482112407 692.904008616272 3177.81922815085 157 158 160
-29.1564858059783 686.126559033284 3144.41211772411 165 165 167
-8.22951158004748 681.717384688874 3124.86765238652 179 177 180
5.47938545383797 679.373601801309 3117.4893264514 182 182 184
15.6023941932959 678.060570465011 3116.20371557379 189 189 191
26.2026045535444 676.60266902962 3114.03335296347 193 193 195
40.2648188726256 674.122869335057 3105.7203055253 204 205 207
54.2624639942508 671.647707128164 3097.38107932483 199 200 202
64.7398797118215 670.19830907205 3095.16093357882 198 199 201
75.6792245301927 668.60515585185 3092.05010114041 191 192 194
86.0956837447706 667.159780287829 3089.80524404805 187 188 190
95.510668029229 666.007012984132 3089.31055246164 187 188 190
103.939405550258 665.145503415367 3090.57194516826 191 192 194
113.802129804954 663.849656805033 3089.18081668803 194 195 197
126.033280713588 661.831792820295 3083.35956493467 193 194 196
136.786942333227 660.250870223638 3080.17345797749 184 185 187
148.453171529183 658.383666016426 3075.20113960129 183 184 186
159.603890068228 656.663649748202 3071.09804433141 187 188 190
168.841567398404 655.5220065271 3070.53122086912 192 192 192
176.196335569324 654.956517547669 3073.51340073922 177 177 177
181.235140219829 655.108381290033 3080.94698119097 160 160 160
187.682757473376 654.827733989646 3085.71731933474 179 179 179
195.974437826944 653.973282006875 3086.92342229552 172 172 172
203.801110913575 653.262141640341 3089.01896898298 157 157 157
211.170429761381 652.693646778868 3092.00706310302 174 174 174
218.089812109503 652.267329281093 3095.89071159413 169 169 169
224.566963972881 651.982488949741 3100.67303987458 146 146 146
231.500529294571 651.55432503435 3104.56270217327 168 168 168
237.553749143897 651.409148045298 3110.25139013926 171 171 171
244.063533858729 651.12064630444 3115.04695898296 149 149 147
250.146090620982 650.97239780548 3120.74754853872 152 152 150
255.373406556613 651.105410817322 3128.25759876002 117 117 115
262.358785917386 650.671144687258 3132.16802922328 104 104 104
269.780351478897 650.09492385042 3135.17733622898 129 129 129
279.770090146124 648.6734337225 3132.75952195976 137 137 137
292.707854118925 646.269481714538 3123.99061762397 150 150 150
305.580344421251 643.870193120271 3115.19524909322 149 149 149
317.546847353482 641.756037150074 3108.18876496947 156 156 156
327.369209779699 640.345775540519 3105.70309613488 180 180 182
334.67005371709 639.776429327066 3108.66347170098 179 179 181
340.733210354054 639.625473760374 3114.35622680205 190 190 190
348.863040074544 638.775690875848 3115.49650496911 193 193 193
357.390710013142 637.787015838959 3115.72036767466 192 192 192
365.093461358343 637.077061326853 3117.76547311041 192 192 192
371.181077041663 636.922404520732 3123.46815956076 194 194 194
376.084054575234 637.182025040749 3131.92473594987 192 192 192
380.62026049784 637.577174150105 3141.31058998123 197 198 193
387.167186605438 637.27786379483 3146.12153626508 197 198 193
402.358656256296 633.940422163162 3130.72004555957 155 156 148
-112.030447209392 696.111494899087 3233.77422781413 190 194 195
-95.2667801300364 693.04080613574 3222.2439684712 126 127 129
-69.3345841267894 687.371962400269 3195.02584224004 125 126 128
-36.4159327736944 679.693144770057 3155.54711728402 172 172 174
-11.3784760765736 674.197390937459 3129.04395637818 180 178 181
3.35859712476627 671.596747047707 3119.92626235134 177 177 179
15.5063183281394 669.720715309616 3115.14896359399 195 195 197
25.1024794548842 668.566415678327 3114.72764084433 199 199 201
38.1721868663585 666.408521328055 3108.16816793711 205 206 208
49.2017753783653 664.827944383062 3105.09377920729 189 190 192
60.1972032627176 663.249595711749 3102.00554219121 192 193 195
71.1584878688423 661.673628793781 3098.90320552367 188 189 191
83.0630113719233 659.814438807522 3094.02756730809 184 185 187
92.9780232379962 658.528592010014 3092.6572766895 188 189 191
103.352651008401 657.101923019369 3090.3953405505 191 192 194
113.697882722057 655.677189064563 3088.12174471553 193 194 196
124.492709608658 654.112318116122 3084.95192639015 192 193 195
135.25305110304 652.549875086184 3081.76838399694 183 184 186
147.873734633319 650.423222288957 3075.02686769336 181 182 184
159.026330385328 648.724666353814 3070.92436983026 183 184 186
167.796388928481 647.734934783256 3071.24612474926 197 197 197
173.755689998472 647.591998282118 3076.89676868342 191 191 191
180.658271196636 647.165846273959 3080.77361325337 155 155 155
187.566802126459 646.738834335046 3084.65287334563 152 152 152
195.398219582673 646.030157445883 3086.7503223223 189 189 189
202.769504559896 645.461656251918 3089.73921256223 169 169 169
209.688233757747 645.032760353494 3093.62261614099 154 154 154
216.161866856257 644.742903208222 3098.40381495106 161 161 161
223.094896047265 644.31215703491 3102.29302252049 167 167 167
230.033762692791 643.880529938298 3106.18460031114 162 162 162
236.091818282135 643.726571280191 3111.87531279672 156 156 156
242.165798731432 643.571022156714 3117.57248520076 157 157 155
247.379132429599 643.691573779698 3125.07696856693 153 153 151
253.489994745122 643.532325485752 3130.78910221648 120 120 118
260.049988812907 643.2329416121 3135.60508295569 105 105 105
265.75941933267 643.208889499678 3142.23246310336 119 119 119
274.486513531433 642.216250120785 3142.5371013301 131 131 131
287.455061368418 639.845366169998 3133.78041051635 146 146 146
302.896727943541 636.653003007459 3119.55793126417 143 143 143
315.719526255838 634.292680212637 3110.74214744796 151 151 151
327.222989067684 632.348878132096 3104.62569856155 176 176 178
334.521711181362 631.779490810399 3107.58521532782 178 178 180
341.820915543813 631.209676736367 3110.54493058787 194 194 194
349.120584180714 630.639377557971 3113.50483750633 193 193 193
357.644258075098 629.659124196069 3113.72676118128 192 192 192
364.531858732082 629.224804108029 3117.59760214788 192 192 192
370.619297148443 629.061762804 3123.30028037629 193 193 193
375.521503139488 629.304886471422 3131.75666941493 191 191 191
379.659073815444 629.816509493156 3142.05904415706 197 198 193
387.39411471136 629.104887968038 3144.1174932656 197 198 193
397.087687160653 627.716665815307 3141.57951122711 169 170 162
-113.701423222512 687.773830684998 3235.31873217904 177 181 182
-98.9963991307146 685.317374184643 3227.2657769367 141 142 144
-76.1273179147493 680.593990080788 3205.27335695191 136 137 139
-41.6331434034476 672.620591704848 3163.19810136518 170 170 172
-14.0200595517606 666.507470058726 3132.34843244151 179 177 180
0.223351909046654 664.085195217806 3124.10831442186 177 177 179
13.3941515808125 661.949842519708 3117.58934496975 200 200 202
24.0021564943131 660.523537441885 3115.42215605368 201 201 203
36.5777434661114 658.535864570213 3109.73987795942 204 205 207
46.1242772001536 657.395389769236 3109.29835664098 185 186 188
58.6161515871491 655.413566785447 3103.58239679916 191 192 194
68.6008748269851 654.136358408839 3102.24052357247 188 189 191
80.5176394275877 652.30056275921 3097.36940714146 183 184 186
89.9574749463607 651.167076943326 3096.88463149566 188 189 191
101.798104201901 649.336476488946 3091.98264902372 190 191 193
112.149984085042 647.927330885796 3089.71136960354 192 193 195
124.867087362262 645.823823625658 3083.00871753674 191 192 194
135.14770928851 644.419516679485 3080.70854959807 183 184 186
146.820615673076 642.60053086293 3075.73856928606 180 181 183
155.149543120163 641.755381963816 3076.95968281676 180 181 183
163.46941566558 640.910567336894 3078.17687032156 194 194 194
170.381310437114 640.48098750715 3082.05751187346 196 196 196
178.226563653349 639.774472234253 3084.16054646704 159 159 159
186.06773638496 639.067831929734 3086.26192984897 145 145 145
193.446055586568 638.498922867613 3089.25367128813 189 189 189
201.281508569866 637.79199394072 3091.35248374555 182 182 182
208.205313457029 637.359761461938 3095.23822495193 152 152 152
214.684056673518 637.063736471653 3100.02128233666 156 156 156
221.173624368551 636.766549583736 3104.80898850962 165 165 165
228.120268656123 636.331317473985 3108.70374273754 160 160 160
235.072586695288 635.895331549044 3112.60105716762 155 155 155
240.707915819961 635.867436734569 3119.19846331111 155 155 153
246.802625122908 635.701458215764 3124.90410773337 156 156 154
252.477388135613 635.669721815018 3131.51750949741 137 137 135
257.739728570869 635.771691218771 3139.04171896645 111 111 111
261.735337231471 636.277998230466 3149.286911813 109 109 109
268.342209701179 635.968414561746 3154.12195059729 133 133 133
281.772367799244 633.49510599495 3144.4741307209 145 145 145
298.094991447221 630.082083813333 3128.45240100559 144 144 144
312.208212508552 627.350749129624 3116.92523074652 153 153 153
323.73175894675 625.432643651917 3110.81671880514 174 174 176
331.879945240681 624.592943198314 3111.96435299688 177 177 179
340.431588999632 623.619470139932 3112.19755007935 194 194 194
347.32603820964 623.182599540459 3116.07144053535 192 192 192
355.858296821633 622.209765689394 3116.29678386389 190 190 190
362.75369519615 621.771928661826 3120.1708087286 192 192 192
370.057511638349 621.199866234124 3123.13240842904 191 191 191
375.359376167308 621.293289066743 3130.67294293132 191 191 191
380.289129294721 621.517139674767 3139.14037446864 196 197 192
387.226368537092 621.074338416865 3143.0316352589 193 194 189
397.704710001855 619.437367237132 3138.65541258117 186 187 179
-122.841793211235 679.893243798965 3232.756401857 216 222 222
-114.853487644003 679.284584531147 3235.99542375737 194 198 199
-101.177095239667 677.141717342466 3229.68147941135 126 127 129
-80.8668572443587 673.192587808556 3212.04168843478 117 118 120
-42.758353470252 664.385532445444 3163.88399664098 175 175 177
-17.172341867701 658.933492358676 3136.52380225517 176 174 177
-2.91345237006269 656.545229234481 3128.28969338362 180 180 182
11.2810077512551 654.161622408241 3120.02946221979 210 210 212
22.9017616361948 652.474065056368 3116.11643490753 199 199 201
33.484709709352 651.065441825985 3113.93870940388 197 198 200
41.0576772427771 650.486132333997 3117.00934140843 181 182 184
54.5631819041048 648.253956167037 3109.54781739158 190 191 193
66.5337947628131 646.438666001467 3104.69860554002 186 187 189
78.9493165710908 644.48913399849 3098.95148632223 180 181 183
87.421920190258 643.640049444321 3100.23054592353 184 185 187
98.7904319790522 641.969816724371 3096.21525625447 184 185 187
110.119749432831 640.302216503271 3092.18381989618 188 189 191
122.846882341365 638.227742889517 3085.48500868904 190 191 193
133.136573667318 636.838886827599 3083.18839577268 188 189 191
141.974706920768 635.860409469954 3083.53762835657 180 181 183
151.741729085293 634.610730631175 3082.10740083773 178 179 181
160.546454032461 633.634152949735 3082.44309223564 188 188 188
169.803524807682 632.522744220944 3081.88389187288 197 197 197
178.113213523279 631.683244121557 3083.09717296089 170 170 170
185.490928858173 631.114412790715 3086.08866930952 148 148 148
192.410720538999 630.680172416714 3089.97254358979 178 178 178
198.879963512641 630.379933282363 3094.75204356199 191 191 191
205.814137818606 629.943836086696 3098.64175533966 146 146 146
212.302884499179 629.641304508917 3103.42916960096 143 143 143
219.700059645449 629.069168018662 3106.42857014179 161 161 161
225.759367593346 628.898641822226 3112.11991527592 164 164 164
233.165758764645 628.325027962298 3115.12305851817 156 156 156
238.367080931955 628.418979866961 3122.6226228925 148 148 146
244.471689867561 628.243758700276 3128.33234566277 147 147 145
249.720038495683 628.333327249461 3135.85098394314 140 140 138
255.427851058019 628.287460081092 3142.47813157001 119 119 119
259.432537379763 628.770846478507 3152.72691640283 100 100 100
266.906458228855 628.189610876875 3155.75745970475 116 116 116
277.362911615565 626.680893279092 3152.45046794178 133 133 133
293.712807058587 623.323155239015 3136.4393613447 143 143 143
307.431458270536 620.765506872778 3125.82992419256 155 155 155
319.401049513705 618.740680711471 3118.82401340847 172 172 174
328.820350426461 617.509560286237 3117.25259811969 176 176 178
338.628109497191 616.148575435883 3114.76064298534 193 193 193
345.941226135714 615.57691191701 3117.72600524587 189 189 189
354.071185982336 614.742774647784 3118.86647473713 189 189 189
361.380079860301 614.170638712928 3121.83013081256 191 191 191
367.883052181683 613.85933413711 3126.6231142056 191 191 191
374.396408860207 613.546812869499 3131.42056860015 191 191 191
380.124086716859 613.493489278946 3138.05555883529 195 196 191
386.267904445842 613.308108092926 3143.78123397888 192 193 188
394.785483106946 612.341936708309 3144.00058299944 189 190 182
420.470388496967 605.671626488948 3103.74319476379 136 138 127
-129.218966967663 672.769016857478 3242.09624748549 186 190 191
-118.604167411956 671.47324669519 3241.00937116978 163 167 168
-104.910259713323 669.358730413691 3234.7023037504 131 132 134
-81.4919077372782 664.654315809406 3211.85332768477 122 123 125
-44.9078764312461 656.416532508666 3166.31075449978 170 170 172
-19.3070791205674 651.058843190155 3138.95583158952 175 173 176
-5.03788565471619 648.705061490548 3130.72563336202 181 181 183
9.67149829194947 646.220126187673 3121.59585111224 213 213 215
22.8052773540759 644.146939266946 3115.06167830402 198 198 200
34.3862097146366 642.483703054157 3111.13208596401 195 195 197
42.9458951485706 641.634204878172 3112.44640751139 180 181 183
54.4633681648545 639.975333479185 3108.49134507414 189 190 192
63.9737753897138 638.858254005114 3108.03501905743 185 186 188
75.4229169561209 637.203994815411 3104.05199751354 178 179 181
84.3981902381381 636.224425503146 3104.45676540182 182 183 185
98.2029958084236 633.903665077651 3096.03854673397 182 183 185
111.461478581906 631.72151591622 3088.47662611066 186 187 189
123.222373669927 629.945113308791 3083.54194903329 189 190 192
133.508457854679 628.572622805551 3081.2437515645 186 187 189
140.919608582106 628.002666741847 3084.24879419226 181 182 184
150.218733960505 626.899308039273 3083.70681765045 176 177 179
159.498585075197 625.797177519973 3083.15702778628 181 181 181
169.225877584837 624.56332433504 3081.71033683046 194 194 194
177.072187333374 623.861567219392 3083.81376314097 190 190 190
184.452697447553 623.292305247066 3086.8063943401 167 167 167
190.456906589363 623.11932995005 3092.47544892083 152 152 152
197.846866852523 622.548572058848 3095.47191775711 191 191 191
206.145807459384 621.713664932365 3096.68055497188 160 160 160
212.629332618758 621.40583842811 3101.46589521027 144 144 144
219.57285923452 620.965294148097 3105.35942737973 146 146 146
224.736474611555 621.049017558399 3112.8440592971 134 134 134
230.814000707287 620.868201109049 3118.54285882775 160 160 160
235.583350533417 621.078393494702 3126.94570495494 185 185 183
242.578076982884 620.632358121363 3130.86000919596 189 189 187
247.833420455302 620.707444650203 3138.38158940909 152 152 150
253.114623224872 620.78011832481 3145.91391538408 127 127 127
256.265700538862 621.500850951812 3157.97315446021 116 116 116
263.326512249836 621.048115252551 3161.91426694288 102 102 102
272.950017908139 619.816292664714 3160.42579526014 95 95 95
288.479952674547 616.772921918956 3146.23792585246 134 134 134
303.493142151673 613.865843540861 3132.9186050161 157 157 157
317.578359618592 611.223726233035 3121.37967728286 173 173 175
328.254781593053 609.61873294773 3117.08341361892 175 175 177
338.064085185677 608.273914715801 3114.591961312 189 189 189
345.788515464211 607.573624556044 3116.64602836794 184 184 184
353.916804133922 606.744945178149 3117.78552261561 186 186 186
361.629412193119 606.044724917182 3119.83480240873 190 190 190
368.127224427167 605.728204797781 3124.62599327785 191 191 191
373.833883990996 605.665936188934 3131.25254115568 193 193 191
378.764513162417 605.856625902788 3139.72083597411 195 196 191
384.121724520385 605.917126034789 3147.28377233458 196 197 192
392.650414478074 604.958263649046 3147.50756484032 192 193 187
409.759520610413 601.207721167078 3127.49134483246 139 140 132
-130.375836419006 664.240011744137 3242.77129490329 194 195 197
-119.237412629139 662.822975883046 3240.81854135434 150 151 153
-106.058433629057 660.872015387242 3235.38055138174 134 134 136
-87.2652529183087 657.45286539808 3220.35917919592 123 123 125
-49.6199108435076 649.098107545729 3173.08933635723 172 172 174
-22.4625182353448 643.433642958918 3143.13056871702 177 177 179
-6.6559275694571 640.714178794376 3132.28894185964 197 197 199
8.56635188986443 638.133610417755 3122.28848687829 204 204 206
24.2163448996027 635.425626662403 3111.38336771906 203 201 204
35.7888716184458 633.784630171975 3107.45046064968 185 183 186
42.3502767970461 633.470728457895 3112.26712277896 179 180 182
51.8908996788185 632.362223968816 3111.822965872 193 194 196
61.9045840315815 631.122860710511 3110.49253193943 184 185 187
72.3837875433215 629.753211772146 3108.27250558207 180 181 183
82.3467473621096 628.517155424332 3106.9212513524 178 179 181
95.1929130520057 626.493804258505 3100.27024818239 179 180 182
107.98456520356 624.474323777374 3093.5971435275 190 191 193
121.201265981687 622.327644468404 3086.01803681796 190 191 193
132.927373751749 620.577908436076 3081.0690724762 185 186 188
141.28766652585 619.746234740327 3082.30278346761 184 185 187
150.582751465673 618.653896076521 3081.7590874519 174 175 177
157.981020694996 618.08391450797 3084.7589146455 172 172 172
168.181483144573 616.732882687551 3082.42588689071 192 192 192
175.102163639755 616.293192045206 3086.31016235718 191 191 191
183.414300461464 615.463545786194 3087.52410275007 183 183 183
188.961354145632 615.411436329806 3094.08620755893 142 142 142
197.270243334911 614.58130017334 3095.29883672171 169 169 169
203.298681747693 614.397259492876 3100.97778543549 181 181 181
210.698242715658 613.824784538184 3103.97815454412 161 161 161
216.751119412693 613.638120233083 3109.66701803272 153 153 153
223.266727021783 613.321301491344 3114.46515916027 136 136 136
228.460795385531 613.38835556808 3121.96224762559 133 133 133
233.239414037598 613.58116595741 3130.36897838565 147 147 147
239.366301198016 613.387263091651 3136.08786305377 169 169 169
244.636172797194 613.447270752297 3143.61543989639 172 172 172
250.799961899324 613.24975678968 3149.34929327086 144 144 144
255.253856076485 613.560089419342 3158.70246274441 120 120 120
261.88839644913 613.231361735429 3163.54910639989 101 101 101
269.812833302535 612.520455838611 3165.68423516789 106 106 106
283.242875867846 610.161393971591 3156.03524532771 134 134 134
299.551664407003 606.921354103182 3140.00660271592 159 159 159
316.173398680605 603.562817780653 3123.02650241965 173 173 173
327.689252661089 601.726706925852 3116.91425435965 184 184 184
337.086326276263 600.524091919756 3115.33388055852 188 190 189
346.047469658888 599.4487417213 3114.65458797353 184 186 183
353.354149865122 598.876930611763 3117.61734528684 187 189 186
361.067321556608 598.179295843786 3119.66683369336 191 193 190
367.565112717052 597.8571883284 3124.45805838086 190 192 189
373.672386265567 597.658831914023 3130.16903539292 189 191 188
378.599785550577 597.833224959233 3138.63588875095 194 196 191
383.953769707131 597.880196970696 3146.1978782064 191 193 188
393.267785842189 596.680760629188 3144.583593699 192 194 189
403.338448263202 595.234499077342 3141.11992450262 156 159 152
-137.2816673186 657.15253729544 3252.97562056282 185 186 188
-124.031242611147 655.223293745215 3247.56639384334 184 185 187
-112.382759942382 653.691357128084 3244.7422223002 152 152 154
-91.497081941881 649.802556506125 3226.25590026544 147 147 149
-52.2847850178667 641.211461146061 3176.38561608046 182 182 184
-24.0893579976456 635.387960602283 3144.69047316832 178 178 180
-8.27439204713731 632.711349882443 3133.85191258702 204 204 206
8.97585578318449 629.649674569905 3120.36098174265 206 206 208
23.6193804303608 627.245459807637 3111.20366446203 194 192 195
36.1936107690404 625.366023975373 3105.52027389591 179 177 180
43.2470203440978 624.91700756489 3109.45861834145 180 180 182
52.2862705847365 623.949106786878 3109.88920160352 192 193 195
61.3114523766065 622.982021745179 3110.31408246712 183 184 186
72.2819444712168 621.499168402507 3107.21502529757 179 180 182
82.7309060280574 620.147606704518 3104.98261709019 176 177 179
94.1202012939359 618.540500169938 3100.97500679819 176 177 179
105.47004904628 616.936154917331 3096.95166078373 190 191 193
118.219702553791 614.949471528706 3090.26130258187 189 190 192
131.869215035609 612.710270712552 3081.77933141461 180 181 183
141.656806110676 611.499525737234 3080.35687976756 179 180 182
149.05937640545 610.929263179431 3083.35845056196 176 177 179
155.054134505087 610.741315555748 3089.02379196871 170 170 170
165.735808637916 609.277937480995 3085.8076468318 178 178 178
173.595686195695 608.580036941729 3087.91653742052 194 194 194
180.989489782218 608.00918376758 3090.91456311347 195 195 195
187.005749922269 607.818217503276 3096.58863342478 156 156 156
195.779796953328 606.866097869493 3096.9117181661 135 135 135
202.721930434237 606.420343891798 3100.80472575319 189 189 189
209.669933115986 605.973766251705 3104.70011598134 200 200 200
215.275718460208 605.904485916416 3111.28587374803 170 170 170
221.34940244055 605.70732622605 3116.98324151064 163 163 163
226.10614490054 605.885521060972 3125.38122553716 166 166 166
231.335775661961 605.93550099509 3132.89284238314 149 149 149
237.03080329846 605.857775309888 3139.51479773628 141 141 141
242.746851433874 605.778055441392 3146.14527925614 127 127 127
247.181283221734 606.070891350954 3155.49070116627 120 120 120
251.651908047087 606.360471209323 3164.8508020613 113 113 113
258.733165662198 605.900252147358 3168.80050689436 107 107 107
266.246806573954 605.314913181964 3171.84716367113 94 94 94
278.001477593219 603.488633606223 3165.83153642275 135 135 135
296.028686562098 599.80816208078 3146.18626141508 162 162 162
314.767656256381 595.889771505028 3124.67336036612 174 174 174
327.956596791729 593.586598477214 3114.92658362353 186 186 186
336.108321800683 592.767569181869 3116.07549393421 177 179 176
343.838929464438 592.071990120398 3118.1320264609 175 177 174
351.156109299877 591.499227592713 3121.09904221131 185 187 184
358.880077757688 590.803283315516 3123.15263211215 192 194 191
366.599285578056 590.107382032164 3125.20455136523 191 193 190
372.307668598914 590.022770054874 3131.83196641526 189 191 188
377.239254302776 590.18026802353 3140.30090011129 190 192 187
384.182425365023 589.725584977003 3144.19439548764 188 190 185
392.705448102912 588.783430694412 3144.4157667333 192 194 189
401.604561723819 587.720521372689 3143.71152166458 172 174 169
-137.918001328403 648.451522186897 3252.78392474502 193 194 196
-126.226419320829 646.935269354764 3249.97708494055 186 187 189
-116.639885182578 645.935545087158 3250.62950079561 162 162 164
-97.277156773713 642.498077174398 3234.75980791971 126 126 128
-59.565525193058 634.455299106059 3187.51444051141 178 178 180
-30.8189791740758 628.609914103389 3154.96379951906 176 176 178
-9.89346224127252 624.696518661612 3135.41498626487 204 204 206
7.87111057933654 621.558255261428 3121.05381711851 205 205 207
22.5199749311846 619.191659519798 3111.89863393118 191 189 192
33.5987056636662 617.72038059332 3108.84305686316 180 178 181
42.155053010476 616.886444156055 3110.15616611548 180 180 182
51.6926229590879 615.799402061625 3109.71061041837 191 192 194
60.2261562428874 614.966680792755 3111.01421598073 181 182 184
72.6708554120892 613.123091644246 3105.27810745207 178 179 181
82.6286932939295 611.914101239725 3103.92457423389 175 176 178
91.5922969915519 610.958793640913 3104.32469051936 175 176 178
99.5771053691556 610.255872233298 3106.48394554375 178 179 181
