ply
format ascii 1.0
comment KinectMotionCapture
element vertex 794
property float x
property float y
property float z
property uchar red
property uchar green
property uchar blue
end_header
-116.529191499494 233.326602950469 2753.34986584628 112 89 73
-115.83050361045 232.493625187583 2744.80948939719 120 97 81
-116.729492253884 231.631308050894 2735.00754500229 108 85 69
-112.933230673455 230.870102013383 2729.07528401255 112 89 73
-108.355809137895 230.125916224041 2723.78942970455 102 84 70
-101.406569001334 229.429005222982 2720.41762674836 26 13 0
-109.542422639187 228.441004739641 2704.97833790116 22 18 6
-134.472052836618 227.147756317895 2676.30674097938 18 18 6
-120.436360355745 226.596553424496 2678.70188973922 17 25 14
-102.354323327309 226.111517690909 2684.20643285687 19 25 15
-98.6527991215116 225.362875448746 2678.35620274131 31 32 26
-106.223606436863 224.42111158912 2663.75076021936 28 29 23
-117.08716673659 223.433898783832 2646.70588506182 21 20 15
-117.521513933701 222.631093698357 2637.82377894372 23 24 18
-116.363860757253 221.858384396777 2630.20878662654 22 25 18
-118.478474369227 221.037459756796 2620.13662347765 26 29 22
-109.224343319805 220.396552337604 2618.73682394348 27 30 23
-94.2335851581793 219.838508145507 2621.62748815226 27 30 23
-74.2817617670393 219.345574707219 2628.15830865503 29 32 25
-73.1371387944062 218.574485719509 2620.55428407133 32 35 28
-76.9510300401146 217.737949394196 2609.30852534734 30 33 26
-89.0598456875069 216.796478510061 2592.01940047891 29 32 25
-92.9857791083641 215.975098706252 2580.87033900794 30 33 26
-70.4292511632532 215.49777752217 2589.11356541011 29 32 25
-56.9295585417851 214.895841862768 2590.65035239187 24 27 20
-49.2215173993169 214.218460937189 2587.94400364581 22 27 20
-54.8637557310956 213.383867337997 2575.63608921452 20 25 18
-42.9800257486659 212.755077640228 2575.92682585844 19 25 15
-34.4211184634027 212.085262413763 2573.80621268857 19 24 17
-25.8468371000822 211.413346793886 2571.67228786323 25 30 23
-33.2785775073612 210.575509258653 2558.26889848028 26 31 24
-27.2478646553269 209.879605871657 2554.36963322336 19 24 17
-13.5879677147503 209.255908110218 2555.76770638224 21 26 19
5.20792631576228 208.673560909281 2560.65415455763 18 21 14
4.48630256501614 207.90959324632 2552.02110519999 26 29 22
19.9503822515776 207.28718454964 2554.5022572262 32 35 28
33.7516608977855 206.644334413679 2555.77791388677 23 26 19
31.3007151481099 205.868951161396 2545.99696678162 23 26 19
58.8953705667823 205.323162026926 2556.49053055643 20 23 16
82.287286470236 204.732439852023 2564.01011551583 24 27 20
96.2645081550848 204.065760457282 2565.13343043481 26 31 24
84.31357217597 203.226086586352 2549.03006680787 25 30 23
83.5600888405219 202.466596646095 2540.42460228172 29 34 28
103.649692094782 201.831899823804 2545.51334627 38 43 37
132.524651299057 201.235543941279 2556.22081327973 26 31 25
-99.2207831930187 229.860657430132 2805.86185831933 112 100 88
-102.242097696892 228.948112949651 2793.92932186624 88 70 56
-107.642526827732 227.997442963878 2780.08931401455 96 77 62
-109.202286830106 227.127082285816 2769.536559645 97 74 58
-110.017889664319 226.276007742121 2759.6622689197 106 83 67
-111.651215844683 225.415524389333 2749.1732129956 115 92 76
-110.964516820965 224.601086514336 2740.64310758809 96 73 57
-111.091283159168 223.776688597873 2731.49486551865 109 86 70
-107.297389116313 223.021782271105 2725.56493124939 104 85 71
-107.473335133302 222.203940344878 2716.45895697947 39 23 10
-110.061050248575 221.352415454986 2705.4737853272 25 17 6
-125.429008080931 220.310155221196 2684.39350938315 24 22 10
-116.958353594167 219.64229899951 2682.34937539154 19 22 13
-110.072803305669 218.948875142459 2679.03243660635 19 25 15
-105.586784410989 218.220112765818 2673.82570430853 28 34 24
-109.149145048414 217.380356667523 2662.36195582938 30 33 24
-114.370236200839 216.525015673143 2649.68915244343 26 28 17
-118.836902558727 215.687570831117 2637.68560687516 27 29 18
-114.43845882894 214.970572391188 2632.55470289 25 28 19
-114.107596816418 214.203935851876 2624.33270445666 27 30 21
-106.471332330047 213.528772854434 2621.68855274618 26 29 20
-93.1077986962103 212.918576985647 2623.34340714307 30 33 24
-80.5229444010034 212.293721417527 2624.35000503517 31 34 25
-78.5709908795198 211.54763413584 2617.36933690605 29 32 23
-77.4586572226488 210.795183676284 2609.79349336767 29 32 23
-84.6151089588556 209.961624261789 2596.15115816319 26 29 20
-81.9123401056521 209.233941421064 2589.84318852203 24 27 18
-63.4755604560509 208.65709316909 2595.04085840624 22 25 16
-44.9744564570205 208.071514887831 2600.1828326355 21 24 15
-47.230908386223 207.294866477803 2590.2333189434 19 22 11
-52.0293657080355 206.502261366965 2578.51737347992 19 22 11
-35.1172878771129 205.891651113717 2582.38993875671 23 26 15
-24.8608313721945 205.221712929671 2581.44483671428 26 29 18
-18.7859003577633 204.517631341799 2577.50729898156 25 28 17
-30.4116844323019 203.688942162316 2561.12204333041 22 25 14
-18.4572771674851 203.029239652762 2561.35203726185 22 25 16
-4.77692611450564 202.375935842857 2562.73257395423 18 21 12
3.8483258258637 201.686720772925 2560.55458319852 20 23 14
16.7450696557756 201.01946582396 2561.29112996919 20 23 14
45.0355195668952 200.42893024873 2572.5051744775 21 24 15
40.9353479652816 199.661871713998 2561.50677949754 24 23 18
34.2182692206876 198.889040925395 2548.80680679008 26 25 20
37.7552786314301 198.168512552858 2543.09930089509 25 24 19
57.6489049024707 197.51435041107 2548.35803131479 25 26 20
82.7912325764975 196.869847157783 2557.00765723459 27 28 22
92.4489290716872 196.16097461238 2555.25819792545 25 28 21
98.6568012064071 195.439041782824 2551.2058665346 28 33 27
113.562708720704 194.739931595518 2552.8477270884 29 36 29
105.853527124722 193.981542752112 2539.68397561386 29 36 29
-96.6631786233387 222.59183841779 2808.98555163625 13 0 0
-102.000382205362 221.67157227765 2795.09054691111 94 76 64
-104.285742311339 220.807370481647 2783.84339545094 93 74 59
-104.274313943461 219.984116886689 2774.57505213431 98 75 59
-107.418889965329 219.118841166271 2762.74936007955 104 78 63
-110.609483527113 218.259751468838 2750.96351299514 119 93 78
-108.345876347454 217.483449461607 2743.71323474324 92 66 51
-108.463156808967 216.677454421489 2734.55633615956 97 74 58
-103.870825511794 215.937765847421 2729.25752988317 100 81 67
-104.034932818133 215.138065560085 2720.14149253176 51 35 22
-107.404239229741 214.30300222046 2708.51038660665 21 13 2
-114.003511887673 213.435889060063 2694.38534169657 25 23 11
-111.88683834029 212.679273769218 2687.26228853482 19 22 13
-113.787818572902 211.879958041148 2677.00482163079 18 23 16
-108.507685865965 211.164267097985 2672.43297851668 26 32 22
-104.03256919367 210.440229250695 2667.23566495181 29 32 23
-114.879887223677 209.561554862994 2650.17600870362 28 30 19
-111.262032936046 208.836195238348 2644.39814744168 29 31 20
-114.945475230482 208.043459510091 2633.03904009373 27 30 21
-105.678181114871 207.374422260081 2631.62769842611 31 34 25
-91.505295386543 206.745141371818 2633.90475832723 30 33 24
-88.7177435588202 206.014799032405 2627.52332146818 31 34 25
-83.4881432455967 205.305771133408 2622.99523341938 31 34 25
-84.0026597312065 204.553189864943 2614.18260296654 28 31 22
-78.7891988638787 203.846320517972 2609.66848956814 27 30 21
-80.1729442801031 203.094066453835 2600.2856725683 25 28 19
-71.6714951549262 202.411279817865 2598.21494450614 23 26 17
-58.1828929355757 201.757172224056 2599.7616820135 22 25 16
-44.654530613506 201.097668905387 2601.2739929751 20 23 14
-39.4130126817802 200.386942470554 2596.73558650452 16 19 8
-43.3540809305222 199.628968990824 2585.59954757118 22 25 14
-28.9325782525278 198.965821225534 2587.66102617095 25 28 17
-21.1773355695453 198.26668910815 2584.91390710134 26 29 18
-24.3412715444231 197.520813937862 2574.42748216731 23 26 15
-30.9181266947931 196.767774264187 2561.60584438354 21 24 13
-9.67161465264565 196.11910431492 2568.338781744 21 24 15
21.8143729958431 195.49184239957 2582.07673582191 17 20 11
18.6187015391903 194.750286009199 2571.61778918484 20 23 14
24.7424457356709 194.037440827664 2567.63831561382 20 23 14
28.3103066676693 193.318686625655 2561.90374258689 20 23 14
56.6658695793807 192.645991680815 2573.06188371189 26 25 20
37.9909784976031 191.888627017892 2552.199162294 28 27 22
36.3836436307929 191.166708656091 2543.0099417317 26 25 20
51.9663293658099 190.463702438591 2545.38881590642 25 26 20
76.2287581439391 189.758658993576 2553.47821325674 27 28 22
96.2539126760538 189.040738761838 2558.62335655885 25 28 21
79.137496109658 187.602325578763 2531.12058795706 37 42 36
-97.883208561492 214.437490372993 2799.50880230025 100 82 70
-103.263610612892 213.56195287607 2785.65094939855 85 63 50
-103.246440791956 212.757654561125 2776.37782244034 118 95 81
-105.603304880324 211.930993013385 2765.19240279014 94 66 54
-111.135968628309 211.075949600577 2751.46638777168 128 98 87
-109.657173560212 210.302788051121 2743.57273765142 110 80 69
-108.98734144407 209.524547184327 2735.05701684146 79 53 38
-100.446503900659 208.826443570701 2732.95256418866 90 71 57
-96.6406182838648 208.081862386551 2727.01185397121 76 60 47
-74.5883098888833 207.502207800038 2735.69245319159 19 11 0
-100.992697426165 206.493686876907 2705.65039916746 24 21 12
-113.998888114239 205.619015473989 2686.49179138322 20 23 16
-119.901209254928 204.813761866643 2673.08584907501 18 23 16
-117.041015668487 204.082496162336 2666.64145697604 23 28 21
-110.978310494021 203.375932643846 2662.71453190124 25 28 19
-108.136409500093 202.647096744644 2656.28597890452 25 27 16
-110.963754683549 201.883750682328 2645.50793184475 28 30 19
-106.542375204976 201.170191043166 2640.35712633819 29 32 23
-98.0656152433177 200.480447627052 2638.3078423416 29 32 23
-94.4581522944672 199.762475776355 2632.53925526638 27 30 21
-85.9629272564124 199.070185754327 2630.47398342642 28 31 22
-86.4525577487494 198.333985545118 2621.63967723903 29 32 23
-86.9717303926665 197.601763822105 2612.83095051559 26 29 20
-80.9421192250164 196.899514893866 2608.9326812474 26 29 20
-79.8551845554902 196.178990772049 2601.37864504085 24 27 18
-64.741520013178 195.507180620826 2604.16351907792 24 27 18
-62.8341281871836 194.790127988285 2597.22160153962 23 26 17
-48.4874909331099 194.107568523205 2599.34809448161 22 25 16
-45.751573320683 193.392893279577 2593.01130932976 21 24 13
-37.1869423551114 192.691132480659 2590.88625776137 25 28 17
-26.9340801211428 191.989912731827 2589.94415819524 24 27 16
-19.173254959572 191.282370869409 2587.19225508614 22 25 14
-15.6040374992741 190.569459767193 2581.45678395679 23 26 17
-19.6279679549991 189.853367332699 2570.39197777363 25 28 19
0.798766752557967 189.149654691165 2576.51254142245 21 24 15
11.9837713275546 188.436820443882 2576.08617223106 19 22 13
21.4989691098317 187.720897043622 2574.46026736818 25 28 19
21.6752533475839 187.009077840299 2566.3722073436 26 29 20
26.0901910835525 186.296232522552 2561.22666498524 25 28 19
39.9038413387731 185.571259211624 2562.4921308878 27 28 22
52.9006650204389 184.842317989563 2563.14233458222 29 28 23
48.7549685184008 184.142810856303 2552.18327544791 26 25 20
63.5046414627354 183.405704477987 2553.96079633556 25 26 20
88.654135234016 182.635493259893 2562.60502573202 27 28 22
113.031538799853 181.85525198751 2570.59525758491 25 28 21
104.549967375477 181.169965503731 2556.77722956066 27 32 26
57.7635277012596 180.629550522784 2517.93088889074 46 51 45
-90.6681843831407 207.19821886276 2806.53574742307 98 84 75
-97.5794620919444 206.345220110777 2791.3580916845 81 59 48
-101.440611602694 205.52652376597 2778.82960140904 114 90 78
-103.008057111288 204.732763226678 2768.28301197317 97 67 56
-111.662894084743 203.892008662678 2751.9696451211 121 91 80
-109.397565165763 203.138444875945 2744.71772723161 118 88 77
-107.149787870507 202.387196395906 2737.48069144919 82 56 41
-99.3930785602872 201.672955108862 2734.73239910884 86 67 53
-95.5824969459629 200.933763550252 2728.78789928947 79 63 50
-87.0200126434062 200.222197543387 2726.66445633623 19 10 1
-64.9176776529856 199.578666906089 2735.30210962655 20 17 8
-117.705571588652 198.561784472522 2684.45687921712 20 23 16
-119.615108902416 197.814045296077 2674.20649482556 18 23 16
-115.148746587858 197.097766404489 2669.01671869899 21 26 19
-109.08006108866 196.388189204048 2665.08462979052 23 26 17
-111.871789751087 195.647987253009 2654.27556263734 23 25 14
-108.242635039173 194.933161357572 2648.4881541455 26 28 17
-115.150943258465 194.191061720214 2634.63015137386 27 30 21
-107.507172071906 193.491831608008 2631.97964929201 27 30 21
-103.921882918222 192.78287224236 2626.22990712812 24 27 18
-93.8178101206986 192.086025954476 2625.41705588743 26 29 20
-93.5064518933451 191.372937979764 2617.21161508971 27 30 21
-94.8604449915202 190.661651380427 2607.80306072904 25 28 19
-88.8492829863288 189.95970866928 2603.9207800288 25 28 19
-75.41785239995 189.259672398918 2605.51736786443 24 27 18
-63.5987429042495 188.554265898981 2605.86492539859 23 26 17
-57.5455356226611 187.846604743638 2601.94623960166 23 26 17
-48.1680387909842 187.136233921594 2600.43996463426 22 25 16
-38.7712891726411 186.423221900678 2598.91670418682 24 27 16
-31.8577726425531 185.71092524028 2595.57596386389 24 27 16
-22.428121174987 184.993448591638 2594.02421513198 23 26 15
-24.7163483297173 184.296723119884 2584.10172426736 21 24 13
-21.9993130809186 183.593397542309 2577.78154710551 23 26 17
-10.028490289026 182.867395157054 2577.99742722159 26 29 20
-14.0710929446826 182.184538681507 2566.94890504828 22 25 16
11.4688313825573 181.410835846438 2576.57801774589 20 23 14
11.6490231229585 180.71544594671 2568.48614897318 25 28 19
16.0569612696584 180.006866696238 2563.34696127905 25 28 19
30.6915120188176 179.25576257258 2565.22435341701 25 28 21
32.5503015082185 178.556813321293 2558.32444396047 28 29 23
32.6786758494508 177.868465378074 2550.27744155811 28 29 23
60.2609666295728 177.041985594347 2560.783541092 23 24 18
62.9865023210003 176.337556681578 2554.45568792777 22 23 17
85.5431140026925 175.520497405139 2561.37746687879 23 24 18
115.099008019479 174.650557262282 2572.82009242837 22 25 18
119.629263273396 173.925498156885 2567.5746793778 17 22 16
68.5470591600019 173.572164244256 2525.83379999346 16 21 15
122.579853972463 172.519835652819 2553.11642621467 34 39 33
58.0755146710947 202.339787758585 2952.90417389575 7 7 0
-74.9332670424781 199.95039195635 2820.73538198176 53 40 32
-90.3450658646214 199.092676255985 2798.36833236128 76 58 48
-98.0782946047167 198.286221523826 2782.57921313487 75 50 43
-101.195841966569 197.509339890691 2770.72920606021 109 80 72
-107.491531805636 196.726369867771 2756.34080527208 95 65 55
-107.568741860164 195.974146023035 2747.14882778767 111 81 70
-106.100893624653 195.230926828423 2739.26478716634 106 80 67
-102.286956920748 194.497294769832 2733.31702783169 87 68 54
-95.3169374433998 193.772732622291 2729.92739385406 78 62 49
-90.7197042178049 193.042115401017 2724.62428011752 21 12 3
-87.7183442470679 192.309347825862 2718.05754377127 17 14 5
-115.829257606734 191.534124096179 2686.8462479891 16 19 12
-125.725348542315 190.801947382419 2670.28444059024 14 19 12
-118.067069855618 190.093161722325 2667.62142625674 20 25 18
-111.200991045571 189.382526306692 2664.32179114599 22 25 16
-110.772463200342 188.670677823899 2656.01478719691 22 23 15
-107.138990946779 187.961263099177 2650.22328595917 24 26 15
-110.801411289588 187.257767559037 2638.84537985147 22 25 16
-108.8278265925 186.554871780166 2631.84599883576 24 27 18
-105.244115080153 185.852147181003 2626.09758366888 25 28 19
-97.5905513371891 185.14388794582 2623.43865253534 26 29 20
-94.8325932071818 184.443843521092 2617.0826692666 25 28 19
-96.1870532346314 183.755084603987 2607.67437363037 23 26 17
-84.4248850576004 183.036008546445 2608.07105731837 22 25 16
-74.2788075601304 182.317542014498 2607.22193919412 22 25 16
-62.4573795903505 181.590432950715 2607.56731234377 22 25 16
-67.1640891392449 180.91910802081 2595.77105988907 22 25 16
-56.9799547586181 180.19547888204 2594.88898995007 21 24 15
-48.4365874481067 179.475775250419 2592.78216911299 25 28 17
-39.8777099337892 178.75397535044 2590.66191860865 23 26 15
-32.1394736839138 178.034189625568 2587.9296734618 22 25 14
-32.7717806819483 177.356687578571 2579.21864976478 21 24 15
-20.8303092221414 176.613303532894 2579.46008236899 22 25 16
-19.8061601777138 175.929748149592 2571.96022516217 24 27 18
-8.67174659540204 175.186552726659 2571.57790174378 22 25 16
7.56819556389221 174.406733363705 2574.71086677396 21 24 17
17.0733190578964 173.665929054094 2573.09385488775 26 29 22
21.495663275366 172.958699712859 2567.94217218682 26 29 22
46.371479445102 172.100718204736 2576.82417655144 26 29 22
46.5607119261469 171.421103476025 2568.72436962034 28 29 23
21.030286352826 170.950620618256 2543.21469384903 28 29 23
75.1953080115459 169.836711838102 2571.70668973584 21 22 16
83.1211711310074 169.091572293312 2568.81167041749 19 22 15
92.7839320190715 168.329530971336 2567.05848166485 20 23 16
118.89392081107 167.41365350806 2576.19442029527 20 23 16
123.434838459913 166.690474418066 2570.94006909406 19 21 16
133.182841159534 165.916920027059 2569.1127572915 15 20 14
146.43373256997 165.105569723345 2569.54328536594 23 28 22
-85.445383541142 191.782149023647 2803.43243110343 86 69 61
-97.0549630761739 191.015935546603 2784.38588829428 72 49 41
-100.166011563537 190.2688963029 2772.53037054492 94 65 57
-104.888872809478 189.527340372852 2759.42499606031 92 62 52
-104.95621607222 188.793531214072 2750.22466285802 96 66 55
-104.266281806721 188.063501377938 2741.69120638397 104 78 65
-102.812860683494 187.336422130436 2733.81925015932 72 53 39
-97.4254511764396 186.608454932211 2729.15450593697 72 56 43
-90.4526346887957 185.878538069043 2725.76248238867 13 4 0
-92.2196359405416 185.16199755922 2715.38835470063 19 16 7
-108.374126823729 184.479024291796 2693.66389064989 18 21 14
-133.431740327364 183.831505979201 2665.09872159986 17 22 16
-118.58072809989 183.09837738451 2668.11195869702 18 23 16
-114.928479318769 182.392482499789 2662.30416035928 20 23 16
-112.896089986355 181.693188014097 2655.25378791595 23 24 16
-110.880915443539 180.996204384362 2648.21832117514 25 26 18
-106.454647980296 180.291834005278 2643.06321952994 19 22 13
-107.714155904393 179.612734091175 2633.57224738929 25 28 19
-100.058148515645 178.896476593658 2630.91125008906 27 30 21
-96.4686416082099 178.199008534048 2625.15809329528 24 27 18
-94.5237373086294 177.511439907164 2618.18315577782 21 24 15
-91.7761003424395 176.82157722723 2611.83636776763 19 22 13
-86.5767789070611 176.118816618622 2607.33448289842 19 22 13
-73.9648894433302 175.369672265349 2608.31813831977 22 25 16
-73.7036348222322 174.697309735677 2600.15586021665 23 26 17
-66.0174625977184 173.9769225222 2597.46874472966 23 26 17
-50.851325787316 173.201059935746 2600.2091289411 23 26 17
-39.7967172852147 172.450054756107 2599.89602606172 25 28 19
-37.0535881403748 171.760732039861 2593.5528261305 22 25 16
-36.8314239230836 171.093637616828 2585.42439494799 20 23 14
-16.5227205211194 170.259713142168 2591.64810434788 18 21 12
-18.8223735242725 169.614954306149 2581.73517993169 20 23 14
-15.265079157178 168.921749760829 2576.00959976396 22 25 16
-0.743437550815518 168.126825713551 2577.9854537815 24 27 20
16.3604263160906 167.301375358459 2581.69318337645 22 25 18
10.6201651940419 166.696987665507 2569.46873708088 28 31 24
28.6317262799511 165.855047896821 2573.71341610608 30 33 26
34.7722967285988 165.131212292357 2569.71911432286 28 31 24
49.4587025379229 164.314013375027 2571.55199011218 27 30 23
54.9307772427978 162.937375121845 2558.87818617879 13 16 9
84.3182473222468 161.938073641477 2570.46731356063 14 17 10
117.26841288975 160.881940352597 2584.26256748899 20 23 16
108.855988729484 160.320270289022 2570.38380600798 19 22 15
163.628529982337 158.968853369803 2598.35046637133 25 27 22
179.5506379292 158.090894805798 2600.43628481021 11 13 8
168.534994081705 157.56261275171 2584.84351291949 0 3 0
63.6375934746036 185.731431489206 2949.51420370459 9 8 3
-89.0910613477311 184.450422177106 2801.34642187211 72 59 51
-94.4755410385678 183.731089471483 2787.4907754833 67 50 42
-96.0147616869915 183.009160079079 2776.91957259182 90 68 57
-97.591974779843 182.292313761125 2766.38095066625 87 63 53
-102.345928470629 181.591123831091 2753.3022635485 100 73 62
-103.220194503441 180.882637552569 2743.4775788377 101 78 64
-100.972703841019 180.165912490977 2736.24088329049 57 37 26
-91.6245633302313 179.420284658105 2734.76028096792 63 46 36
-83.0500668156584 178.675758023379 2732.62664018444 22 13 4
-80.0249244270561 177.957298724966 2726.03919804378 10 7 0
-128.021628280079 177.51567409887 2678.97773954576 15 17 12
-137.139618328732 176.887025592175 2663.06411414642 15 20 14
-130.310011139525 176.171430003719 2659.79612244246 20 25 19
-121.064038446075 175.439486668005 2658.40366845082 21 24 17
-110.993298656499 174.699501165739 2657.61998766945 21 22 14
-95.2485183321357 173.916591119562 2661.18214728805 22 23 15
-91.5903865477556 173.215912904426 2655.36953164862 20 23 14
-96.8658774636486 172.584966666401 2642.74242440943 22 25 16
-89.9953243309275 171.863754157015 2639.43866426938 25 28 19
-88.8249707442434 171.189001904699 2631.81202928601 22 25 16
-88.4935735119803 170.524189607691 2623.58890713485 19 22 13
-88.1875941855537 169.862800378473 2615.38779341476 18 21 12
-81.334862598192 169.143991405901 2612.09977978652 19 22 13
-81.0633565867351 168.487244750105 2603.92851524365 21 24 15
-76.689257174059 167.793143131711 2598.8185629812 21 24 15
-64.0442972454864 167.015416616094 2599.77374025509 22 25 16
-50.5337543196642 166.224141837627 2601.30234981027 22 25 16
-36.1515761043818 165.418509339301 2603.39915115284 18 21 12
-34.2315205011503 164.745768425886 2596.44565480973 18 21 12
-30.6567736223893 164.056272995928 2590.70523940051 17 20 11
-17.0377485175681 163.250341972408 2592.13991852464 17 20 11
-15.9763512993667 162.590229613434 2584.60730956251 22 25 16
-9.88469067248099 161.870841448865 2580.65568637318 25 28 19
2.96105070566544 161.065985562761 2581.43701494672 23 26 19
12.4591246949088 160.299909574098 2579.82659239363 23 26 19
16.8889888966794 159.598268084201 2574.66835564258 28 31 24
10.2638182420591 159.046187663983 2561.88697690922 28 31 24
22.3258306635468 158.243876698223 2562.0246296899 24 27 20
39.5438042747789 157.365268965635 2565.63380072895 23 26 19
45.6887893205771 156.638675452749 2561.63569052702 22 25 18
43.2561599492449 156.037145106639 2551.83805690006 20 23 16
99.2765139381384 154.568512107582 2581.37078993314 19 22 15
132.256797118638 153.421301001507 2595.14021451743 17 20 13
146.353821570722 152.550864211109 2596.16101242478 17 20 13
158.758409486732 151.702337613768 2596.00204218908 6 8 3
200.716193485589 150.376125559521 2615.22505931171 28 30 25
67.6897241097949 177.804935265782 2953.99363658217 1 0 0
-91.1828789995028 177.131880567988 2800.56006249529 69 58 52
-88.7843031567375 176.406336724896 2793.19247313752 69 54 47
-91.0859133877775 175.711965338265 2781.95830573956 95 75 66
-94.2120026808468 175.028314663239 2770.11509812479 95 73 62
-98.9531160870589 174.36158173193 2757.02505858866 80 56 44
-99.0287876197056 173.668329197911 2747.83168098931 103 80 66
-95.9795579358222 172.955418065626 2741.22332557177 62 42 31
-88.9901833806608 172.213362012509 2737.81702921344 50 33 23
-79.6153930498136 171.450930950023 2736.31343741925 22 13 6
-82.1429638009299 170.786941611099 2725.27460573682 10 7 0
-99.0546942533466 170.254832461687 2702.88222996405 13 15 10
-148.035973384594 170.029839168942 2655.34915808843 14 19 13
-130.821687143129 169.214584220662 2660.28469096072 20 25 19
-122.379481107556 168.477423207693 2658.2656633611 22 25 18
-105.067135100103 167.648919359356 2663.11629016269 20 21 13
-90.9226586091325 166.845829161161 2665.4187841468 20 21 13
-89.6792909096202 166.175478442889 2657.72852117248 20 23 14
-94.9459538514112 165.57952767606 2645.0935356393 20 23 14
-88.0694631641665 164.852604620636 2641.78498172465 19 22 13
-89.3375480414944 164.219624675004 2632.30146019196 18 21 12
-91.4565374407612 163.60093916914 2622.23177918058 18 21 12
-87.0590653859593 162.906991146927 2617.10156801377 17 20 11
-92.522165896348 162.337522995955 2604.63667037415 17 20 11
-79.1024745657669 161.531688020159 2606.24411862299 16 19 10
-71.4206486808666 160.796562760621 2603.56086576768 17 20 11
-62.900043978547 160.048750108585 2601.47395624847 18 21 12
-61.8291326480236 159.401622478692 2593.93301692184 20 23 14
-43.3183587198314 158.511832062649 2599.06858117812 18 21 12
-38.9129089221885 157.816785336994 2593.93146253447 19 22 13
-39.5257422782351 157.19585635449 2585.2031937371 17 20 11
-22.5787754057718 156.316056521076 2589.04726378271 16 19 10
-16.4907919811421 155.594964886042 2585.09852328243 18 21 14
-15.4492216839541 154.951812725688 2577.58330463575 19 22 15
-14.429055824472 154.31152842228 2570.08630388797 23 26 19
12.7875375601123 153.252044774982 2580.91087637024 25 28 21
7.89431432251941 152.706186563294 2569.27546900623 27 30 23
7.20023150294935 152.096203572228 2560.61723559624 25 28 21
23.5135970949427 151.201409033396 2563.68730694013 16 18 13
39.0253012614759 150.314292003138 2566.12889643431 19 22 15
28.0522903076754 149.8852826578 2550.49852979257 19 22 15
71.9085834659348 148.49009854001 2572.0469013683 13 16 9
110.78729757298 147.163544868051 2589.96887863944 14 17 10
124.826062439806 146.27417925096 2591.04029488272 16 19 12
140.632803590174 145.347248932712 2593.22610769628 16 19 12
181.60330816548 143.939467481642 2611.98241859511 8 10 5
-90.1695247298475 169.796306195264 2802.37612388689 29 24 18
-82.318730105321 169.030842834246 2799.54630083024 19 10 3
-87.720792469951 168.3917615911 2785.70568945817 51 37 28
-90.8342632848722 167.737135719284 2773.85167238622 78 61 51
-93.2094586882908 167.080630708267 2762.68103852709 65 46 32
-93.2673052352442 166.404703600015 2753.47209910274 75 53 40
-90.9894681686088 165.706882417914 2746.20897873861 71 51 40
-87.938613607887 165.002500520686 2739.59915971226 32 15 5
-77.7683890735306 164.217287082038 2738.72922949195 23 14 7
-93.7952125449883 163.740877846152 2716.89277296645 20 17 10
-109.933344798107 163.27947276792 2695.15269453565 12 14 9
-117.397644279261 162.723012221815 2680.4521255575 13 18 12
-124.928267498137 162.175489208024 2665.80898383139 21 26 20
-118.075871658842 161.446906926155 2662.52132453936 22 25 18
-106.387811607481 160.652372269293 2662.98272937728 20 21 13
-97.8950629137692 159.897973852844 2660.92032185076 19 20 12
-99.093523116327 159.278075021953 2651.37605383103 19 22 13
-97.0818806497609 158.61608301876 2644.34342172106 18 21 12
-90.2100304310105 157.884830517772 2641.03860240932 18 21 12
-92.2954633052591 157.286864857665 2630.94001799925 19 22 13
-93.6017812265315 156.681495131631 2621.48913999227 19 22 13
-88.3891139863029 155.978599064581 2616.97568871206 17 20 11
-74.145198927416 155.132482765879 2619.19259003812 16 19 10
-68.0889322015412 154.413508435857 2615.27132582051 15 18 9
-66.1552476284055 153.762005782766 2608.30619464769 16 19 10
-65.0660365687137 153.126668481 2600.74931788639 17 20 11
-68.1442358050464 152.564848351457 2590.18738915803 18 21 12
-67.939059975731 151.951032048347 2582.07333717848 15 18 9
-48.5926643732477 151.003002483919 2587.80859186965 18 21 12
-34.1903042585026 150.135485717289 2589.88798633328 19 22 13
-30.6299833415786 149.459996634642 2584.15966814939 21 24 17
-31.2757593924173 148.863242202533 2575.45979531802 23 26 19
-31.9507633153489 148.270430482177 2566.78522978511 22 25 18
-19.1592158808369 147.42475698404 2567.61411020957 23 26 19
2.96888282488483 146.39467672262 2574.90867714087 25 28 21
19.2446808723821 145.469925830035 2578.01150374384 26 28 23
22.8284471614746 144.791278387967 2572.26288507941 23 25 20
92.5696598320882 141.541461895437 2595.20815781719 19 24 17
145.83686510461 138.559317786275 2605.96319987545 19 22 15
162.556015607534 137.574805676694 2608.68214422336 8 11 4
-73.5228270172748 161.576534207541 2807.8512720809 14 7 0
-85.1380940181747 161.054639987557 2788.80807560798 38 25 16
-88.2411197336133 160.429310350065 2776.94481555254 57 43 32
-86.6852537755385 159.745419876587 2768.98410235571 72 54 40
-85.9371711156367 159.075487805727 2760.3998571431 66 44 31
-86.0027897952982 158.420334729441 2751.19751948929 73 53 42
-85.3078517988885 157.75755739142 2742.65929030394 48 31 21
-79.0921302160146 157.014945646891 2738.59997400127 26 17 10
-100.676071576745 156.697863936356 2712.31558172197 23 20 13
-114.436063352648 156.275188092959 2692.48381510818 11 13 8
-128.294858185921 155.865844146288 2672.73791377748 13 18 12
-128.644287562261 155.248914624713 2663.78131736635 19 24 18
-126.615620897063 154.596150081384 2656.73386997732 21 24 17
-112.535807348956 153.742546329935 2659.09273698737 19 20 12
-112.124478558903 153.117962136595 2650.80007460286 18 19 11
-104.460626102181 152.369945708124 2648.13248349889 18 21 12
-101.64975091478 151.706634934033 2641.73039707945 18 21 12
-85.0353011426646 150.79612188315 2645.86318618337 18 21 12
-82.2160880795053 150.131684491846 2639.45388032782 18 21 12
-90.0287139736169 149.666557433042 2625.05462652896 19 22 13
-78.2551148513715 148.83909051883 2625.44210498132 16 19 10
-73.8376614763481 148.149037657333 2620.29455004532 17 20 11
-71.8940356825137 147.507715871587 2613.32073648691 17 20 11
-61.717938389438 146.705781089595 2612.4461400031 18 21 12
-58.9614409296226 146.049787364064 2606.09113730009 17 20 11
-56.2179885700997 145.395551377623 2599.7474298642 17 20 11
-55.9809989910316 144.794443369979 2591.60572141413 21 24 15
-34.9412994617535 143.761967162191 2598.52039768741 24 27 18
-33.8689342142997 143.14315609889 2590.97801470665 24 27 18
-12.7251877181469 142.096659775207 2597.80260058451 21 24 17
-34.3052394085355 141.968733544236 2574.16013300008 21 24 17
-26.5723967568787 141.21140879111 2571.43280593252 21 24 17
-8.70858043373568 140.227402945797 2575.80646124595 21 24 17
43.8736870660548 138.454814701752 2604.35097892813 21 23 18
31.4362567410065 138.138500125372 2587.34230967145 18 20 15
45.2437398602497 137.226719004472 2588.6143313717 16 18 13
99.1083903291923 135.376224552668 2617.37144285891 15 17 12
177.193029734184 131.685288888089 2644.99832059567 10 15 8
149.262821873409 131.748948405417 2617.59506300702 10 15 8
158.221587001842 130.921306821197 2615.12890139048 6 11 4
-80.2883881490817 154.310725511472 2803.17559171796 16 11 5
-86.4565973638927 153.760614379066 2788.6748744463 7 0 0
-81.7404119127154 153.033615433598 2783.26863709364 42 32 22
-76.2454676475612 152.29380042283 2778.51076540527 63 49 38
-78.6114476071096 151.691976575846 2767.33178985439 50 34 21
-82.5954629969949 151.123916429449 2754.90816772393 62 48 37
-81.0988070009904 150.462244104481 2746.99862995534 58 45 36
-75.6630587693343 149.730405791608 2742.29201390778 27 20 12
-104.377457642292 149.638795723391 2710.27609000636 18 15 8
-126.102889105711 149.434542750577 2684.11328563899 11 13 8
-133.599525139655 148.971269731133 2669.44014005598 13 18 12
-129.157960353125 148.281258576318 2664.27168662269 19 24 18
-130.337785308537 147.703830679085 2654.71130706456 21 24 17
-118.681405197337 146.87076999507 2655.20041969495 18 21 12
-112.638233562651 146.149191019189 2651.29052234174 17 20 11
-106.591722916198 145.427184804274 2647.37804922838 18 21 12
-100.542319947514 144.704768516669 2643.46275637981 18 21 12
-78.2390389669456 143.634746174741 2651.92900623442 18 21 12
-72.9570752263413 142.923625971374 2647.35554647911 17 20 11
-61.9598722434795 142.087290440375 2647.09275196947 17 20 11
-61.5773161764621 141.483600689751 2638.82520805457 16 19 10
-63.6824888783747 140.938712926622 2628.74307340374 17 20 11
-70.7616862300902 140.511278691431 2615.03114734607 19 22 13
-67.1808264588183 139.845129947542 2609.28528238607 19 22 13
-48.7265087784938 138.833145618664 2614.47057112127 18 21 12
-40.1540730142145 138.047159355571 2612.33898512357 16 19 10
-41.5369488595854 137.497057472832 2602.95410448424 17 20 11
-42.9530212847333 136.95144654901 2593.59828292517 22 25 16
-26.0338280075723 135.962063442421 2597.46713544647 23 26 17
-35.0049660178384 135.605291808749 2582.74804272296 23 26 19
-31.4608874947884 134.944074254344 2577.03370992581 23 26 19
-27.0846150088317 134.262866873112 2571.92179062766 20 23 16
2.57943003320094 132.93814384222 2584.59688567275 20 23 16
71.2364375388188 130.597301691668 2624.35638033849 19 21 16
69.0363173906521 130.065198773164 2614.35645720606 17 19 14
43.0213715167151 130.162382660077 2587.93979322842 14 16 11
51.7555498842017 129.354620358378 2585.66816021202 14 16 11
144.97763934569 126.283482503432 2641.19477622088 14 16 11
142.825462823587 125.744945375083 2631.15365583112 6 13 5
129.490479476343 125.515500960122 2613.59910424803 10 15 8
143.564799934378 124.540992875505 2614.64025490769 16 21 14
205.916705395604 122.220700450792 2647.9541805994 6 11 4
-121.261503200452 148.390050073539 2779.17567299452 37 34 29
-93.2721015591249 147.211669075626 2793.30129336933 20 17 12
-99.4699931733827 146.70723234943 2778.8260069289 22 17 13
-87.7509626550186 145.844305223354 2779.26132724759 29 24 20
-77.5677761336748 145.009570784613 2778.38079881741 55 52 47
-83.0770351825678 144.501719147815 2764.63193278077 33 32 27
-87.0686284971427 143.968152600357 2752.21497070348 17 16 11
-86.3712095297262 143.339025145082 2743.67437311931 14 13 8
-85.699253023658 142.713330500841 2735.15582252092 21 22 16
-92.19861762619 142.249499211881 2720.9415704315 19 20 14
-111.496218835586 142.080072073264 2696.64466628533 14 17 10
-123.739142958694 141.764463330715 2678.14414606607 14 17 10
-136.872922311527 141.479501259128 2659.09230263254 17 20 13
-127.641689679787 140.683681976228 2657.71335381278 17 22 15
-114.370334792965 139.79038977288 2659.44993731434 20 25 18
-106.702538327161 139.026478120678 2656.77903079738 19 24 17
-94.9822691467981 138.16343216443 2657.21296278037 19 22 15
-94.5745105849656 137.573322135194 2648.92317144754 18 21 14
-82.8192971107895 136.705606410709 2649.32716172808 17 20 13
-74.2900744702739 135.915025378678 2647.23305987224 17 20 13
-61.6632593764157 135.019260574599 2648.20504433049 16 19 12
-61.2776455379644 134.43214216594 2639.93442723962 20 23 16
-66.6608755277007 133.996639215228 2627.399434851 20 23 16
-81.1457916382077 133.804279744729 2608.19480927213 18 21 14
-63.5714562914478 132.778180609762 2612.81932540578 17 20 13
-63.2955390388417 132.205826784596 2604.643690614 16 19 12
-56.4156455541056 131.458738240194 2601.33231804531 15 18 11
-60.3274502672595 131.003720775739 2590.16895219129 18 19 13
-37.6381362233196 129.82477633936 2598.30131913197 19 20 14
-40.741324541643 129.350180882067 2587.76048412115 20 21 15
-28.8240734946159 128.460666030612 2588.02385635897 20 21 15
-32.8126256564207 128.015975839553 2576.92694335636 19 20 14
-6.57585020237139 126.716652439907 2587.27905255364 18 19 13
42.5197899890044 124.750809280919 2613.55344874481 12 15 8
95.2059507702918 122.658771731382 2642.00998842498 14 17 10
78.6683096853986 122.564140168543 2621.93706282943 12 15 8
60.3260727831705 122.533847720739 2600.7809911181 12 15 8
94.6330404744802 120.95174150501 2616.05050145077 12 15 8
131.636491090385 119.274489277702 2632.95327227358 7 14 7
169.644596172962 117.551284514372 2650.30883160391 2 12 4
217.770142394632 114.913066887558 2665.51810572414 18 25 18
-102.362611140729 140.109059119451 2786.66957373609 23 22 17
-103.903250609807 139.538561717484 2776.09830379155 31 28 23
-110.170699940454 139.085167595245 2761.68297476679 17 14 9
-101.613107521361 138.280233481813 2759.56437681244 25 22 17
-104.823923784145 137.761531642354 2747.79385174809 21 20 15
-115.956996793309 137.443946034483 2729.65497287031 11 10 5
-116.121535093429 136.861303204345 2720.53790253898 13 12 7
-105.231578447888 136.002041728516 2720.36821084551 18 19 13
-107.808003775731 135.484482502666 2709.37108982286 18 19 13
-99.2850149225695 134.684266518478 2707.28245344931 14 17 10
-112.288606020138 134.445402726697 2688.11747245738 13 16 9
-114.188658690959 133.923326758172 2677.85740508166 16 19 12
-117.730199389785 133.449160335411 2666.37324218316 16 21 14
-99.6103116813547 132.395530132338 2671.84866326225 17 22 15
-96.7404483607526 131.750590631065 2665.39533066115 16 21 14
-93.0758412276575 131.085204393389 2659.5765583985 19 22 15
-91.0404391794759 130.466071667525 2652.52305527593 19 22 15
-86.5858633810372 129.780902095082 2647.34329335737 18 21 14
-89.4639414220562 129.303966895964 2636.6073623393 16 19 12
-75.2433030624373 128.342601833242 2638.8448697193 15 18 11
-68.3429688305885 127.58783205775 2635.51583019493 20 23 16
-69.6384632852372 127.07092754881 2626.05499784357 20 23 16
-67.678014237464 126.461898213992 2619.06639371038 19 22 15
-63.2617656609615 125.781908940874 2613.91981780426 18 21 14
-59.6769522144109 125.127289225418 2608.17013583055 16 19 12
-65.2139949454225 124.7486576809 2595.7680899454 14 17 10
-60.8391684146392 124.074243034389 2590.65737989149 17 18 12
-39.8191029324475 122.88995590773 2597.5897419248 18 19 13
-30.4060343265062 122.056590506802 2596.05343262997 18 19 13
-22.6466697937218 121.272744508003 2593.30328995304 17 18 12
7.76671699114306 119.776005774846 2606.65327911298 16 17 11
126.765708911145 114.318619592481 2664.99743981663 8 11 4
106.076978305695 114.421845803459 2641.90451072108 9 12 5
103.93460473939 113.932416656217 2631.85426002338 13 16 9
122.174815105104 112.776299236099 2635.90279637808 13 16 9
134.505001700313 111.809926303778 2635.80876057578 5 12 5
184.968774984354 109.000094439201 2652.96261944814 18 25 18
223.224119039368 107.140271944416 2670.1050886733 4 11 4
-97.4594485894711 132.69129925553 2791.73135090985 31 32 26
-105.218036957912 132.312725702632 2775.96112359132 24 25 19
-123.985144279709 132.243046386651 2751.20377495601 28 27 22
-127.21319897723 131.757344636147 2739.44797722127 18 19 13
-129.701872758125 131.25589719019 2728.37469437395 14 15 9
-113.334036798651 130.227050086405 2732.72168382849 12 13 7
-111.910089120811 129.617867899672 2724.87450932248 19 20 14
-88.3448561820601 128.374322951247 2734.89494174245 22 23 17
-101.984110912772 128.200873634825 2714.9572285105 15 18 11
-110.153265302938 127.877598853762 2699.54281069605 13 16 9
-103.23742756709 127.115729473963 2696.20037973311 12 15 8
-105.111139507105 126.615335080689 2685.91734140204 14 17 10
-105.419010225826 126.071748123411 2676.9242493469 15 18 11
-99.3264256257214 125.336919898077 2672.9716098559 11 16 9
-94.8421581063656 124.651028593166 2667.76611773241 9 14 7
-88.747375394262 123.915924930639 2663.81157484358 11 14 7
-92.3681949331821 123.48314922939 2652.39585755252 15 18 11
-91.9751687212433 122.929019859077 2644.11860212133 17 20 13
-84.2817280875798 122.146332229574 2641.42559055112 19 22 15
-85.553346362877 121.648692051183 2631.94393902355 19 22 15
-80.3140275434839 120.944982125462 2627.40739313552 16 19 12
-71.7952443903469 120.135005907519 2625.32246523992 17 20 13
-55.8619096550639 119.081143449696 2628.72295375145 18 21 14
-46.4697500328364 118.237441392742 2627.20483400616 19 22 15
-51.9299140518528 117.884650180926 2614.73598713195 18 21 14
-48.3333621927646 117.234498139057 2608.97610210352 15 18 11
-38.9337601769566 116.38980503237 2607.45153819023 16 17 11
-30.3471025952531 115.570738591519 2605.30783999254 16 17 11
-21.7451128951685 114.749616708331 2603.15086621607 16 17 11
4.43660670373935 113.321916805277 2613.5515261849 15 16 10
60.9023794651038 110.834560637086 2645.35163736604 13 14 8
95.7635271723296 109.076603872466 2661.46490483434 12 13 7
129.081315625637 107.358849159669 2676.26907498893 9 12 5
141.419518053167 106.370127514408 2676.16855190969 9 12 5
98.7629575134723 107.336989302162 2637.7027119724 10 13 6
116.972464269177 106.144534960187 2641.77809571368 11 14 7
125.034678562943 105.312352454455 2638.76577548488 10 13 6
135.66631819885 104.385718416442 2637.49715213254 9 16 9
155.723130156084 103.112224606153 2642.61845693701 5 15 7
218.684463762293 100.253702701218 2676.73091796236 7 14 7
170.279204789279 101.491358737719 2635.30604609288 0 3 0
-120.537620338566 126.649763646545 2782.65923342516 9 10 4
-118.977837939262 126.036460829426 2774.69435278532 36 37 31
-122.892714368796 125.592858004911 2762.21031445905 27 28 22
-112.797951428816 124.722150837775 2761.40665902937 22 23 17
-126.174145747742 124.579632659822 2741.24042593553 8 9 3
-116.878765861362 123.735530859254 2739.80619125635 18 19 13
-118.585288528232 123.237802969116 2729.3782266937 19 20 14
-71.3944284953856 121.182718508329 2758.62740347274 22 23 17
-92.8328198012971 121.315053555817 2732.2139454974 17 18 12
-92.9902610432274 120.770948012924 2723.09047416805 13 16 9
-93.1774234785237 120.230848810941 2713.99273730412 12 15 8
-84.0466003824889 118.843734733542 2703.44087599993 13 16 9
-101.931740419218 118.902909489744 2680.56478138331 14 17 10
-103.0610689182 118.408597671995 2670.96009613705 9 14 7
-109.863518083779 118.110580651045 2657.00746385208 8 13 6
-85.2295671970817 116.741882594574 2667.4256718793 7 10 3
-82.3602382554687 116.114597004133 2660.97300355875 10 13 6
-78.6925970307246 115.460887938777 2655.15152587144 12 15 8
-80.7304232186725 115.00782398055 2645.01042455567 16 19 12
-79.542552565421 114.444777121076 2637.36788304734 17 20 13
-80.8297889338649 113.971718155152 2627.89960899561 17 20 13
-70.6719071107051 113.092817589265 2627.04129925452 17 20 13
-43.230135021743 111.589532508436 2638.9968379762 15 18 11
-35.4543600205934 110.788168084421 2636.2325852763 14 17 10
-35.1013328602763 110.256457448357 2627.98985318695 14 17 10
-62.0988379263667 110.73147522962 2599.77583846159 13 16 9
-25.3404713792702 108.865828105621 2618.21551413199 15 16 10
-5.9024412881703 107.629468145745 2623.87289879342 14 15 9
14.4381290488726 106.352728124702 2630.071857431 13 14 8
35.687314266502 105.034762151141 2636.8068149091 13 14 8
51.145160600651 103.928946099792 2639.29618658476 11 12 6
73.3732549240074 102.560324973043 2646.5062774732 11 12 6
100.735594762419 100.987008412896 2657.20785591522 11 14 7
116.382377161154 99.855852596498 2659.53394962763 10 13 6
99.0692029303606 99.999855691158 2638.80839925522 11 14 7
74.0097398254118 100.456921518123 2612.88451284544 13 16 9
124.490911476395 97.9604700042492 2639.28471834567 11 14 7
143.64593208961 96.6813598740146 2643.86441364431 8 13 6
146.629919661826 96.0387249937402 2637.31215051819 6 13 6
135.896575547424 95.9454286494311 2621.47188058342 16 23 16
-139.708676216808 119.502245630341 2758.29786609456 20 23 16
-82.1450697487012 117.001786150027 2797.08641099611 18 21 14
-98.4937411075566 117.012615625491 2774.20217789937 16 19 12
-85.9889112225236 116.036480243036 2775.28041212616 18 21 14
-120.54752923508 116.69768654475 2737.73828674974 20 23 16
-118.325366243752 116.087816663822 2730.52253566839 14 17 10
-104.28416073323 115.061531410228 2732.91630014564 10 13 6
-98.9014307792733 114.339483112029 2728.25557350555 20 23 16
-99.0717996318695 113.816843557806 2719.1431679009 19 22 15
-83.367661518805 112.723406245985 2722.74256580932 11 14 7
-76.3812653129574 111.942149949706 2719.33878939909 11 14 7
-76.581172764937 111.423537060814 2710.25195986739 13 16 9
-93.6385981935501 111.529691742154 2687.98172720191 14 17 10
-100.367667350747 111.263484528749 2673.96528769772 11 14 7
-108.769616176355 111.065836331905 2658.75182712477 9 12 5
-89.7885026456411 109.844656247353 2664.80513942679 8 11 4
-60.2155427287805 108.215786596808 2678.88441297365 9 12 5
-66.2286282190365 107.931536600222 2665.57109799222 9 12 5
-19.4176246996705 105.626915420369 2692.50428981239 12 15 8
-60.4856785981323 106.693968299858 2652.66130034302 13 16 9
-80.5281575852286 106.966842446493 2629.00714241776 15 18 11
-60.5333160538879 105.687683104004 2635.50545680274 14 17 10
-41.2876513536902 104.431103829706 2641.32970248462 12 15 8
-18.6783850538084 103.035074271573 2649.53317191219 11 14 7
-22.4104895997224 102.678691534216 2638.21309879564 12 15 8
-55.162612478254 103.487496479562 2605.7208825833 13 16 9
40.595668438479 98.1245867319974 2649.80068390415 13 14 8
56.0543177057293 96.9864023557966 2652.28988490922 13 14 8
91.6733528000924 95.0142485583813 2669.0712285242 12 13 7
61.0737432017103 95.7681054074543 2638.68380587493 12 13 7
91.7707492193132 93.9886073470425 2651.78980433876 11 14 7
103.174137265086 93.0047335935637 2651.1759106863 10 13 6
116.297499027819 91.9460107367196 2651.71857627071 11 14 7
94.6807160073502 92.3521222214635 2628.10448447265 13 16 9
128.197761471405 90.4281348813613 2642.73728780637 12 15 8
150.76875350313 88.9593328467139 2649.65082610044 9 14 7
126.434521994288 89.4961547001304 2624.42141496206 16 23 16
120.79628090907 89.2395681190007 2612.10629047363 13 20 13
-68.7902097780366 109.688890573894 2818.64239196252 19 24 17
-67.8932240570882 109.11781765768 2809.9287620177 22 27 20
-72.4868740490812 108.756972693637 2796.7089284783 18 23 16
-112.443404756446 109.230494493945 2745.31935448685 13 18 11
-122.000285995852 109.084371380224 2728.45974420964 10 15 8
-92.9809817290215 107.447805973015 2743.01894087799 13 18 11
-122.367938409606 108.082084588376 2710.2579823544 13 18 11
-97.2212600223017 106.589123614826 2721.55617263881 13 16 9
-91.8486870774213 105.86901209502 2716.9042368932 9 12 5
-84.0861034154758 105.053880224665 2714.1511913017 11 14 7
-91.4946054451979 104.845280862491 2699.4003220305 14 17 10
-101.373067420226 104.742443055086 2682.81915684607 15 18 11
-108.920607554584 104.552512281805 2668.18836041205 13 16 9
-116.534317121847 104.371462702962 2653.6148578536 12 15 8
-101.611164534052 103.272614280573 2656.567938181 10 13 6
-81.784417509295 101.967150505481 2663.21211657031 8 11 4
-49.7150208749058 100.147325298839 2679.09897420661 7 10 3
-62.2474261591957 100.175007128393 2660.84744869641 9 12 5
-107.203451278742 101.09399575919 2609.81813145142 12 15 8
-67.6094604265076 98.9416138262562 2631.09560217402 12 15 8
-13.8793230746352 96.1712782070789 2662.62178335268 12 15 8
-29.0892085495553 96.3325601127524 2642.71964679079 12 15 8
-45.2273946157868 96.5431649740961 2622.2985212327 12 15 8
-29.1945014184622 95.3708058250556 2625.6134867081 12 15 8
51.732750978676 90.3826978080902 2658.72517155545 16 17 11
3.69774970463865 92.0146158382083 2615.65325281703 14 15 9
86.1012103840499 87.8796122627465 2666.00684100714 13 14 8
89.9321837028739 87.2162002651247 2660.04417591107 12 13 7
107.224231487191 85.9502048404114 2663.59165448364 12 15 8
131.323812564056 84.3726175092925 2671.82785189625 13 16 9
141.130631245049 83.4339523091255 2669.95063209067 11 14 7
124.669304461988 83.6878691604102 2649.80930354423 12 15 8
108.101547649322 83.9560292753583 2629.76012943334 13 16 9
134.030223165736 82.283473946838 2639.05843760119 11 16 10
129.308262950829 82.0153356573099 2627.27247527458 11 18 11
129.673633921269 81.5159536784541 2619.01883487079 3 10 3
-31.852861943527 100.235387561455 2840.94652125485 21 26 19
-59.7625766638865 100.865110849768 2808.22847441622 19 24 17
-87.0667700733581 101.486049676352 2776.30891828787 18 23 16
-118.466519312078 102.294171981931 2741.32129478282 14 21 13
-117.807702475141 101.772114190579 2732.81346123858 14 19 12
-136.891131623297 102.087233355305 2708.32778659649 17 22 15
-90.4729275599792 99.628784316695 2736.92568950469 14 19 12
-92.9942038613714 99.2436285561575 2725.87991086075 13 16 9
-101.120984813635 99.1033036925915 2710.42758094455 9 12 5
-108.521403072665 98.937995333439 2695.6691091391 11 14 7
-88.0269873038846 97.5664877739383 2703.05859937919 14 17 10
-106.701515167111 97.8992866214152 2679.54166160298 15 18 11
-104.622284569485 97.3317814637022 2672.44983615328 13 16 9
-121.880803985086 97.6195281025598 2650.35240664132 12 15 8
