ply
format ascii 1.0
comment KinectMotionCapture
element vertex 798
property float x
property float y
property float z
property uchar red
property uchar green
property uchar blue
end_header
-129.106531186291 281.598593575722 2626.90491351801 19 21 16
-115.598764239378 280.892388706552 2620.51154718157 25 27 22
-105.305262632892 280.274424680909 2618.21063386938 23 25 20
-88.1170801904807 279.476342861381 2606.8350320536 30 32 27
-73.5210460692539 278.750506568154 2598.72482991361 32 34 29
-81.4692578037182 278.612507402671 2620.32208907402 38 39 34
-74.3749842239194 278.08156855833 2622.11972650245 44 45 40
-61.7099051587322 277.408854970437 2616.46397331755 31 34 27
-47.2433268918555 276.693288297931 2608.30127757675 15 18 11
-37.1418057443269 276.090551336248 2605.92251731746 16 19 12
-22.7862278049804 275.383807031691 2597.71481145791 21 24 17
-12.1512596804865 274.772107576086 2594.47329989679 21 24 17
-7.61933339582033 274.311030762569 2599.54842129194 24 27 20
-3.67577681292253 273.863267867518 2605.46402318345 25 28 21
-12.9525167229982 273.730443698396 2629.76001311291 30 33 26
-12.5079010097298 273.360090385119 2640.7316951616 27 30 23
-0.671591164329799 272.719800631029 2635.81894156043 21 24 17
11.7148028872573 272.069239586545 2630.05018287421 21 24 17
23.4601850020997 271.436174604194 2625.10081574275 23 26 19
38.6975469875399 270.726268168965 2615.09228846202 24 27 20
48.5793268754839 270.14100814353 2612.62442405038 25 28 21
48.4987240285288 269.778954384158 2624.46245128009 28 31 24
57.2016172632786 269.220509130249 2623.67467703807 29 32 25
51.982674443825 268.965835732157 2643.14120058228 26 29 22
52.0562603823047 268.591530392253 2655.0417506244 25 28 21
57.9288451235398 268.090814268389 2658.50212208898 23 26 19
72.9553583424243 267.397712179945 2648.40835348803 21 24 17
74.2464079206548 266.99357079816 2658.64394135687 20 23 16
71.6168607301424 266.666894248457 2674.84394884255 17 20 13
60.6058758455641 266.504644458595 2703.8325334551 21 22 14
81.7679579890229 265.691875620679 2684.35600187728 19 20 12
112.306100935507 264.70254629878 2650.33608471873 19 20 12
106.447135077577 264.431893645846 2671.70120486625 18 21 12
96.8210719798666 264.226499512945 2699.09298802483 17 23 13
97.2712726152769 263.82234429844 2711.14599572159 17 23 13
106.563501283963 263.250624619153 2709.51838892853 21 27 17
104.353749616738 262.890652964908 2725.88862102051 23 26 17
113.106941453471 262.328361069315 2725.12149870975 18 19 11
90.9735435303551 262.314285512395 2773.34089633708 17 18 10
101.988647231799 261.706048280177 2769.17420737001 15 16 8
115.647118584684 261.054988348648 2760.68382591133 18 13 7
123.367428426781 260.50794934319 2761.65625488633 10 3 0
130.547578188832 259.970421320219 2763.48845569124 101 84 74
135.079060660429 259.476160541145 2769.64271428498 127 105 92
138.579269618511 258.996996815136 2777.5366621552 134 108 93
140.539250003086 258.539911661483 2788.0437539026 137 106 88
143.067108802157 258.071156623684 2797.702055915 138 107 89
145.117909630412 257.606896294502 2808.24571737707 128 105 91
143.600946085826 257.192058751842 2824.89687034883 117 99 85
-204.629219753344 277.351790021416 2689.14268886693 30 35 29
-152.935696989369 275.774858159399 2634.56275433708 35 40 34
-133.57526694425 274.95870670344 2620.83013551917 24 29 23
-129.606215859981 274.497493805219 2626.75641912789 22 24 19
-140.84801196305 274.37685237851 2652.41429564707 24 26 21
-128.559229214838 273.724723489679 2647.68483486168 27 29 24
-108.12942735934 272.895920243356 2632.22767673727 23 25 20
-72.1304864368979 271.734278488398 2596.10435711373 31 33 28
-79.2250352069439 271.138115472348 2627.76077609849 27 28 23
-74.5956710948474 270.660516811262 2632.87547461196 22 25 18
-67.4818544713109 270.130192755914 2634.68102022065 18 21 14
-52.3820732766795 269.435553363407 2625.69547987411 18 21 14
-18.3767085530853 268.360066960819 2590.9224530525 22 25 18
-6.54123698509657 267.743965147341 2586.00917670074 22 25 18
7.67831940524766 267.083127243551 2577.74604871998 21 24 17
-1.74487810349988 266.890119272064 2601.98319518033 21 24 17
-2.60773977043871 266.523339137168 2614.58333531419 28 31 24
-7.00658119051667 266.220466355072 2632.2244039399 30 33 26
-1.76138919222679 265.730075711671 2636.50973562555 27 30 23
2.30585256981874 265.260939323805 2642.47557877662 26 29 22
20.6029417552227 264.529355667677 2628.31177976394 26 29 22
34.6741511820734 263.880341999877 2619.98849752231 28 31 24
43.9851233719499 263.320168306899 2618.36813510644 28 31 24
46.8425409658637 262.874824752511 2626.00182217815 24 27 20
45.0753988368164 262.50751192171 2640.39344587267 22 25 18
38.7437620170779 262.213443144559 2661.56761960498 20 23 16
49.2557678863657 261.630208754148 2658.27610573891 20 23 16
59.7337309544663 261.049693927107 2654.97078756986 19 22 15
73.6092767751511 260.416309344306 2646.56816405367 18 21 14
76.0323226408428 259.969329036854 2655.10479763414 18 21 14
72.8226554388376 259.608104620969 2672.14898863671 16 19 12
87.1955978492231 258.971423225689 2662.86897432753 20 21 13
107.11807466659 258.25563580433 2645.0476737406 21 22 14
106.224794139006 257.855109879628 2658.7145614202 21 22 14
105.398169289896 257.449291742434 2672.40847762614 20 23 14
97.9863769900928 257.132521002373 2696.38190054857 16 22 12
103.393039237538 256.629441981957 2700.73270657059 15 21 11
109.90957322511 256.110556419708 2703.37513810684 21 27 17
111.506542332241 255.656937147651 2713.73496565832 22 25 16
110.428593408881 255.234933224816 2728.40631057781 20 23 14
117.548601964204 254.704340696662 2730.21410806429 18 19 11
113.880418936313 254.307253602262 2749.23079459437 16 16 8
119.969546134375 253.786218886015 2752.77925380422 20 16 7
122.860100156442 253.302254823687 2761.50545845766 13 4 0
127.382103508951 252.797234231626 2767.65570335302 101 85 72
130.338048024269 252.308104347106 2776.40842331024 124 102 89
133.330599821351 251.816092816298 2785.17598713905 130 104 89
134.787417931121 251.337558180226 2796.55832276449 131 102 86
137.860565031646 250.839183650625 2805.35856729147 133 104 88
138.375062044424 250.363188304986 2818.51721803527 126 104 90
135.852334135339 249.911416781401 2836.91904036515 123 105 93
-196.116684731226 269.845474406385 2677.54164978043 29 34 28
-174.635793627269 269.031757332994 2661.43089054015 33 38 32
-170.545533959539 268.549400782051 2667.40641091023 20 25 19
-137.116363400557 267.5255315825 2635.63612033222 24 26 21
-146.431371058098 267.291262302623 2658.83831947771 24 26 21
-136.018006560988 266.695507573356 2656.58602668837 26 28 23
-106.108738779762 265.756836205736 2628.78420453643 28 30 25
-92.6949585444616 265.117237579298 2622.35253601454 33 35 30
-73.7119182547614 264.385311275697 2608.46647634995 33 34 29
-82.8326770452064 264.135474751897 2631.74770070997 24 25 20
-85.0092574282129 263.761858559943 2645.97359352886 20 23 16
-85.2627637780321 263.352150733526 2657.74171733136 21 24 17
-54.7202959631796 262.441082057684 2628.03844788722 20 23 16
-33.5569372241831 261.691592382543 2610.71982706846 21 24 17
-19.2204999925349 261.056530496994 2602.50382793854 22 25 18
10.4691429776009 259.783489246245 2584.32591788319 19 22 15
1.72200903058206 259.503824907965 2607.7583891601 28 31 24
-0.901296698936349 259.126702202111 2622.88249799391 32 35 28
-1.65641463130184 258.717871697423 2635.52632430769 31 34 27
6.57070243633884 258.179102111572 2635.62482789416 28 31 24
15.375942524728 257.633311154008 2634.87865447978 28 31 22
28.2901982727812 257.033479452756 2628.24443060331 26 29 20
34.6910825771014 256.523080380984 2630.83997207543 25 28 19
36.4156257094528 256.072891694264 2640.17261930118 21 24 15
41.6744968484715 255.57539483583 2644.46354343734 19 22 13
42.8868761444969 255.126970132253 2654.66787114734 18 21 12
44.1457830400682 254.674849604117 2664.89080834014 18 21 12
56.3690475698106 254.091082482493 2659.05549338448 18 21 12
73.1201974452773 253.458956516832 2646.42287412962 20 23 14
76.6810589078661 252.979661767579 2653.26257261968 20 23 14
82.5364015702197 252.473749596065 2656.71625949964 18 21 12
100.254340224528 251.842753557037 2642.31720410608 21 22 14
100.448799681503 251.397416007139 2654.26697615923 19 22 13
95.1043564503562 251.002912393012 2674.76255349264 20 23 14
94.8799695481091 250.551923041414 2687.62184582619 21 24 15
104.698500557223 250.003689813134 2685.12809173778 22 28 18
107.863987608778 249.516947135829 2692.88682774822 23 29 19
110.511479391389 249.03245081314 2701.51462225428 24 30 20
112.101543514292 248.554125264669 2711.87209851986 23 26 17
117.004745598512 248.046148455386 2717.09790234968 21 22 14
120.840528921964 247.545146882515 2724.04907928871 21 22 14
118.229870011537 247.089185001148 2741.33652259638 19 19 11
120.001063966805 246.596516347566 2751.76744576692 19 12 4
119.681508602835 246.114258631133 2765.66725021245 16 6 0
123.151526258634 245.603448340943 2773.54947093678 102 86 73
125.594503598851 245.09639923461 2783.17343807884 115 93 80
128.078956664227 244.586077350371 2792.81448048201 111 85 72
129.556448197991 244.07791463755 2804.20541120337 107 79 65
132.650930487615 243.558097494952 2813.01445672669 121 93 79
134.74340258365 243.040045560576 2823.57565554262 101 82 68
130.682224333011 242.543733035049 2844.59158947489 94 80 69
-201.789637897883 262.62690319811 2683.93066279238 26 31 25
-187.995054679592 261.986622563764 2677.65318387461 30 35 29
-162.733863259641 261.184832462904 2656.59958778042 16 21 15
-136.342061415236 260.376535495933 2633.84594365808 25 27 22
-124.710813161548 259.783229953309 2629.92887131111 25 27 22
-114.383883996314 259.210262814741 2627.64115151691 24 26 21
-105.346269548853 258.656436162085 2626.9891257455 33 35 30
-95.7003939719252 258.095921842491 2625.50436592439 35 37 32
-82.9536876424395 257.497265093862 2619.88110171086 27 28 23
-75.2364588516439 256.965021939338 2620.85217104146 24 25 20
-68.7682966845038 256.448728431625 2623.47499752265 19 22 15
-60.4467730994329 255.910111855466 2623.61172448058 23 26 19
-62.5941415779054 255.495218448092 2637.84975786306 22 25 18
-40.7834508396616 254.801176266361 2619.71375154588 20 23 16
-21.5372308732669 254.144308236093 2604.85487440648 21 24 17
1.2494104834837 253.456100580983 2584.95636308166 19 22 15
10.5926950921715 252.919664584832 2583.34890381038 17 20 13
7.86256675806074 252.509374914159 2598.43001232361 27 30 23
2.20914785454362 252.123041944371 2617.72161751776 34 37 30
4.42371900821503 251.653089109723 2626.1740152872 34 37 30
14.40850297869 251.107319157802 2623.74755717611 29 32 25
21.9944594560564 250.585510086683 2624.66539618788 30 33 24
20.7230340511129 250.142555011416 2638.17949728236 24 27 18
23.6297640279202 249.659248772779 2645.8331811094 21 24 15
31.2466248669863 249.134991207007 2646.76355163758 18 21 12
45.843026928325 248.556155044284 2637.57357610961 18 21 12
47.0337251155868 248.08422425692 2647.76904623517 21 24 15
51.1573542702892 247.587572978004 2653.75792879811 21 24 15
54.1525209068092 247.097250918599 2661.44773040778 21 24 15
66.3361417158244 246.543546356941 2655.59613612396 23 26 17
74.4820023116886 246.019026558477 2655.66163153017 22 25 16
80.9121044567878 245.505830667116 2658.26902429851 19 22 13
91.8615009006085 244.96693551005 2654.07546256005 22 23 15
83.6550818132726 244.533269784891 2678.80709811806 18 21 12
91.2535889454478 244.010632411163 2679.72976785296 18 21 12
93.8281031792219 243.512135808881 2688.32812038392 20 23 14
101.986089961396 242.986752411571 2688.39853214304 25 31 21
107.921360035005 242.471298511556 2691.88465339024 28 34 24
108.91590718504 241.97335984887 2703.07996585061 25 31 21
115.433607899581 241.453346975251 2705.72287833107 24 27 18
118.140006455506 240.944453729407 2714.37470869507 21 22 14
117.630275054563 240.441042721672 2728.19767254438 22 23 15
112.330831041513 239.943083873197 2749.79131927538 20 20 12
118.422150990412 239.415361512175 2753.34045977851 20 13 3
118.639673926423 238.895880060781 2766.37894020517 19 9 0
119.982784532369 238.370334898855 2777.71585002 109 93 80
121.377684954014 237.840695676879 2789.07350297025 120 98 85
123.878301544743 237.30660037012 2798.72101284003 111 88 74
126.420482548289 236.769219464851 2808.38537675055 106 80 65
126.916360349105 236.227708953323 2821.53698529421 124 98 83
125.396349835313 235.679657062917 2838.18791429812 97 79 67
117.755707184823 235.117717257724 2865.30721730348 86 74 62
-208.755657548263 255.378620498606 2691.95396382174 21 26 20
-182.07885887469 254.631968295814 2669.31524564946 21 26 20
-154.276332485036 253.884667646185 2644.97471529626 17 22 16
-149.596754519602 253.37685639852 2650.10997404699 16 18 13
-141.725208633548 252.837311046242 2651.14358062676 23 25 20
-125.004815682515 252.21606029862 2640.65604196632 23 25 20
-96.3895814608893 251.49306977111 2614.48651348918 32 34 29
-80.5032762569178 250.893749681514 2604.74015774036 34 36 31
-80.3215141028228 250.432541323085 2615.60610089837 24 25 20
-73.2388753787252 249.911283163572 2617.39869685251 20 21 16
-53.7567351527031 249.292619255125 2602.63505258092 21 24 17
-49.8211535041293 248.799438184014 2608.54776973532 22 25 18
-50.1708954829267 248.335978134637 2620.277593066 23 26 19
-38.8236281413057 247.786595806196 2616.24494870357 21 24 17
-24.4647965870508 247.219906917022 2608.03749862782 20 23 16
-5.91646934052892 246.631147371937 2593.97434156144 22 25 18
1.03447601603124 246.12033629716 2595.71379384293 22 25 18
10.392126343167 245.595909138662 2594.11206012573 24 27 20
10.1233571417254 245.125940367743 2605.87471809564 26 29 22
9.91103058987197 244.651479013416 2617.6600061212 23 26 19
16.3010947306961 244.140827609011 2620.25116849825 20 23 16
22.0996489966734 243.632766262236 2623.68162122175 23 26 17
22.5934098207536 243.146558633486 2634.67407992237 24 27 18
27.2516028780836 242.640288495745 2639.80066839385 22 25 16
40.7019309544572 242.101541899671 2632.30422526004 20 23 14
53.5107122388341 241.56940741045 2625.6265251662 21 24 15
51.1839117283659 241.085256048237 2640.87149811428 25 28 19
49.5113435104064 240.593520774723 2655.30235720475 25 28 19
54.8104063311021 240.080764831925 2659.60967032828 26 29 20
62.9833018847135 239.561750709577 2659.68607026615 28 31 22
74.5622674713338 239.038614293101 2654.66823180424 25 28 19
81.557179609067 238.52441321282 2656.42551161979 22 25 16
85.7235770414861 238.012903943706 2662.43182337543 23 26 17
93.8483333096296 237.497812150904 2662.48870232688 23 26 17
91.8803140412374 236.985138087183 2677.8791594568 21 24 15
99.465234281227 236.468561010024 2678.79628201974 21 27 17
96.4981579246023 235.946439740613 2695.93991589424 26 32 22
106.322539663468 235.429640992813 2693.44829246015 23 29 19
104.020956087962 234.899064402767 2709.78263560083 26 29 20
113.842863857596 234.382532647035 2707.29000845036 26 27 19
115.463230684855 233.851325353319 2717.66015489584 25 25 17
119.841779316097 233.32311235054 2723.75249178125 24 24 16
104.809368014833 232.737866454792 2760.82582321701 22 19 12
111.470374320186 232.206025274997 2763.52684877304 10 1 0
114.389339437258 231.660536835012 2772.26528044247 30 18 6
115.748254235865 231.105743582361 2783.60855372914 114 96 84
117.158815074526 230.546873454784 2794.97276903378 110 91 77
119.675422032448 229.988998086503 2804.62693353654 76 54 41
123.282893100987 229.433337321676 2812.56514812995 134 111 97
122.744829740126 228.851650106639 2827.45604202477 107 85 71
120.719779231966 228.254804230754 2844.98166189524 98 81 71
-188.616577235018 247.901013524035 2665.64038038039 21 26 20
-178.087447497816 247.343763787694 2663.43441103415 20 25 19
-145.172709606854 246.657073918828 2632.53233994959 17 22 16
-142.86350399122 245.665731958178 2651.81585964451 21 23 18
-119.17557695589 245.052523747717 2632.2817040415 23 25 20
-78.6009361478592 244.370026144651 2590.45524970229 32 34 29
-75.9703990255791 243.874868068256 2597.99745205608 32 34 29
-87.0677648001041 243.433597599881 2623.71649490112 23 24 19
-77.4684628042832 242.903070967029 2622.21265046791 21 22 17
-64.1711220145143 242.361480076231 2615.73309356609 19 22 15
-44.7492604518904 241.80461833533 2600.94457444641 22 25 18
-37.7390173855663 241.291303927886 2602.70779769924 24 27 20
-33.7973605247683 240.786108477273 2608.62306572982 22 25 18
-19.4585921416739 240.256112671887 2600.40721409439 21 24 17
-12.4783518541365 239.745162442387 2602.158528741 25 28 21
-3.68606393382787 239.231649354545 2601.40686642792 24 27 20
-0.941233417702803 238.727234282431 2608.99541553407 25 28 21
17.4432298454887 238.205849891112 2594.86540041443 26 29 22
16.5982618488816 237.703815058154 2607.47355353605 20 23 16
21.1722728875765 237.195487192964 2612.56607290056 16 19 12
16.8704118659082 236.685176102339 2630.2482377561 19 22 13
22.1046859924232 236.171510065921 2634.52906806726 22 25 16
26.7622067450575 235.656513578529 2639.65545047068 22 25 16
40.8001566934326 235.150593894315 2631.31761708805 21 24 15
47.7808395233976 234.639634755053 2633.0691109845 22 25 16
47.2145157179722 234.115353666841 2645.79051101559 25 28 19
46.1319569114862 233.584915424315 2659.38174595863 23 26 17
52.5935976167722 233.06805515794 2662.00193624191 24 27 18
63.0654410899125 232.56269841326 2658.69331338781 27 30 21
74.0733173777559 232.061932337269 2654.52314071657 24 27 18
77.0946846072416 231.53553679555 2662.2238241882 25 28 19
85.7990130308552 231.029220470159 2661.43649314748 29 32 23
89.9832755556766 230.504777675459 2667.45013638528 26 32 22
89.708012305491 229.957389514877 2680.2893026955 24 30 20
91.7245337805843 229.416549145296 2689.74111422888 25 31 21
89.8971167348892 228.850972293177 2705.18864396656 25 31 21
102.513073733823 228.364143252334 2698.43278450685 22 28 18
102.423696482256 227.80199986248 2711.34758381044 26 29 20
104.038595355442 227.245947965065 2721.71570463531 26 27 19
116.600473298831 226.76355836066 2714.9376580722 23 23 15
119.343069656919 226.212296434897 2723.60446581334 22 22 14
108.082808539524 225.547163293407 2754.65354824767 21 18 11
109.351502539569 224.971498017358 2765.96044997532 12 2 0
111.206807496908 224.396429084544 2776.4260536674 58 44 33
113.108717418037 223.817675199814 2786.91055531065 107 89 77
115.057260372242 223.235241611304 2797.41396623034 99 80 66
118.107168752717 222.659684234097 2806.20538658887 80 58 45
120.668800862304 222.075777000825 2815.87797877155 127 104 90
120.660372053097 221.460192619797 2829.90476673852 104 82 69
117.599909951888 220.804029484859 2849.16947889963 93 79 68
-183.314159116829 240.630950082675 2658.13235210521 22 27 21
-166.375355064935 240.078893111629 2647.73297931144 20 25 19
-161.687332282303 239.552922492823 2652.87153772546 21 26 20
-144.221603544475 239.008863618976 2641.60638701715 22 24 19
-120.484225834503 238.465135106418 2622.09172700542 27 29 24
-105.744607483232 237.938282481368 2614.03815286275 28 30 25
-85.3940900685304 237.41443003205 2598.54632435853 31 33 28
-78.9711001872748 236.900146317184 2601.15084566695 27 29 24
-83.8079196704225 236.382866337946 2618.61646244706 21 22 17
-91.0460686182295 235.856806775368 2639.42535425668 22 23 18
-69.0058246899963 235.348335578903 2621.3808858252 25 28 21
-56.9792105115727 234.837583573787 2616.54420324178 25 28 21
-42.534525372812 234.33421003456 2608.37103476212 24 27 20
-44.0936371932794 233.805670004481 2621.76930237217 26 29 22
-35.2073029548619 233.29505080491 2621.05569681329 27 30 23
-18.4354918723144 232.8063358549 2609.50916426204 30 33 26
-7.19770402474817 232.308445751177 2605.43180212971 27 30 23
2.19172827904868 231.807789165464 2603.84301376218 22 25 18
14.5597635793029 231.319898799564 2598.06558874798 22 25 18
22.0945745211243 230.81699046085 2598.96231880517 20 23 16
22.4743962442753 230.283930565453 2609.90899949704 19 22 15
18.161534838784 229.724585440835 2627.58708203957 16 19 10
21.6164149496918 229.196597481297 2634.38423851113 18 21 12
30.9769842991185 228.698272485437 2632.78374606468 20 23 14
39.7281971563188 228.198493195871 2632.0153486506 22 25 16
43.7968423744273 227.671632659777 2637.98219758441 22 25 16
40.9215839904322 227.097732264959 2654.08459223492 21 24 15
41.0174948761555 226.537231882268 2665.99533557141 19 22 13
53.8285933651377 226.064217493248 2659.31838280963 18 21 12
66.0127638693482 225.591163382981 2653.46639978507 19 22 13
75.8662833237818 225.103737443049 2650.98635136807 18 21 12
77.1728711763782 224.546879462548 2661.22964535104 21 24 15
81.3526325448706 224.011267706216 2667.24155076016 20 26 16
86.116523258478 223.479153775249 2672.41113135406 23 29 19
86.4142203964828 222.902651301975 2684.4036978085 24 30 20
88.4418635327289 222.338418287292 2693.85993250716 23 29 19
87.7345462904482 221.741951320558 2707.60360058548 20 26 16
101.46571272687 221.296012644312 2699.14109808882 19 25 15
98.0750234316727 220.663202063143 2717.19311844513 24 27 18
102.992063481677 220.119021645419 2722.42479958291 24 25 17
106.289910884279 219.553782044678 2730.23772234868 20 20 12
115.588770212264 219.060874673024 2728.61194566032 25 22 15
108.65848663107 218.359868266812 2752.78349768573 24 19 13
107.769620439149 217.727970424478 2767.53273457808 25 12 3
109.093061360112 217.119999908423 2778.86204781173 90 76 65
112.598566613417 216.538360269476 2786.75917408046 75 57 45
115.605494168167 215.946444708559 2795.53331579719 72 50 37
118.121419148107 215.343660534826 2805.18754456839 117 95 82
118.578696540352 214.70474704863 2818.3242623676 114 92 79
119.097756162583 214.060953616177 2831.48603234346 104 84 73
117.598580504619 213.377812077817 2848.14642117585 75 62 53
-171.549970765429 233.422826433272 2642.45158352448 23 28 22
-170.094854785448 232.882045730425 2651.67582826447 20 25 19
-166.676798548669 232.342997179424 2658.45841607264 24 29 23
-130.516433901789 231.354488062409 2634.26706195892 31 33 28
-107.504081926018 230.889214530993 2615.53705763098 30 32 27
-94.0830055097626 230.397004054125 2609.10696889262 29 31 26
-85.1142403768594 229.890314827268 2608.42670923183 24 26 21
-90.557780331441 229.318753792888 2626.72588876292 20 21 16
-89.6724954967618 228.770340753981 2636.79853612313 22 23 18
-81.2919663643592 228.257699475588 2636.95895712421 27 30 23
-67.9794688992599 227.774084033496 2630.48484038839 26 29 22
-45.1968863260139 226.796500115691 2622.45479756763 28 31 24
-32.0319617034659 226.324688673509 2615.92084016044 30 33 26
-24.3955930374438 225.818570557009 2616.85897177771 33 36 29
-19.1909226604408 225.295190141447 2621.12788937241 28 31 24
0.501743084551087 224.883624752361 2605.36910750084 20 23 16
9.27250548775937 224.392688100732 2604.60830130834 20 23 16
19.8187594807073 223.918558967888 2601.32982727723 19 22 15
28.5437120040963 223.431283693267 2600.55070246267 18 21 14
24.7929687795228 222.830022366197 2617.37763502467 16 19 10
25.8539124010821 222.267453106435 2627.52151268569 17 20 11
27.5494496311037 221.707086293647 2636.84325074688 18 21 12
34.5569357655666 221.198356026289 2638.60558021752 22 25 16
35.7292625728007 220.626894837377 2648.79462354108 21 24 15
38.1091564643639 220.064752536118 2657.31465808893 21 24 15
48.0406886906108 219.586934153635 2654.86612366884 17 20 11
56.2165255648881 219.090719475556 2654.94354171307 16 19 10
64.3783737670538 218.595665397839 2655.01528704587 17 20 11
70.8146571206527 218.07979048115 2657.6252028481 16 19 10
72.1395204676267 217.496214220045 2667.87609896678 19 22 13
74.0765052006809 216.916673142064 2677.29574275008 18 24 14
79.9958618392476 216.389258306953 2680.77551142061 23 29 19
83.1190638944068 215.820774508388 2688.51774611047 25 31 21
89.0636338084827 215.291419790777 2692.00748093517 24 30 20
96.1252342078049 214.778656200079 2693.79175146043 19 25 15
100.971372136334 214.231326495439 2698.99449147485 20 26 16
106.934505637213 213.70057779781 2702.4920103571 20 23 14
110.164448024685 213.12374177096 2710.27752676023 21 22 14
116.152795851655 212.591068051622 2713.78501210938 19 16 9
112.918439105097 211.895919071736 2731.90054569054 24 21 14
106.53365276331 211.135037574019 2755.21461138377 24 19 13
106.187422623866 210.473708146599 2769.10497271611 51 38 29
108.049349819293 209.847646513483 2779.57338698978 96 79 69
112.088928410002 209.259243831117 2786.60799889436 55 37 25
114.564158216692 208.637170684986 2796.24589668287 85 63 50
117.08089102989 208.011818863493 2805.90088082321 110 88 75
114.387023781657 207.273758249549 2824.23558003826 100 81 67
114.398648369004 206.584121494935 2838.27104878047 107 89 77
-177.219811693453 226.210182208737 2648.84155450837 22 27 21
-174.459315627743 225.65388441744 2656.43683974163 19 24 18
-167.822111738505 225.121515598312 2659.12823186707 27 32 26
-159.907112561664 224.59825905113 2660.17905168571 29 31 26
-148.82163424414 224.099759449273 2657.11909049161 32 34 29
-118.765879265069 223.754239065128 2629.37234127389 27 29 24
-97.7284779386456 223.350555892007 2613.07890821397 21 23 18
-96.2881201444392 222.788296781626 2622.29734026939 19 21 16
-69.7682605138585 222.447204383837 2598.51345363889 20 21 16
-76.4513993730869 221.810810157063 2618.46883604495 22 23 18
-79.923681171737 221.195951392662 2634.32981059043 22 25 18
-71.5642621452541 220.692656385585 2634.48161341672 28 31 24
-57.6754726497291 220.248210916864 2627.16172820724 31 34 27
-38.9384763331149 219.861457103919 2613.17343076465 31 34 27
-22.7444834967332 219.45538230093 2602.47112544562 29 32 25
-24.8827118249351 218.845068555943 2616.71459806974 24 27 20
-5.13645262904672 218.489008686867 2600.97683786415 22 25 18
-2.39515187209682 217.933880519302 2608.56434218722 20 23 16
2.7808900702595 217.406745838606 2612.8216967875 22 25 18
13.9518039779907 216.95699313947 2608.71715022802 21 24 17
24.4877465817626 216.502346046748 2605.4343535198 19 22 15
23.122289549804 215.885879977978 2618.91169703954 19 22 13
28.3226258204985 215.356827975196 2623.17890277433 15 18 7
32.9456849348231 214.818252861591 2628.29151062368 16 19 8
36.4131234148195 214.260736366998 2635.09423293486 20 23 12
32.9070554466318 213.592709844518 2652.02073883975 20 23 12
38.1996265591649 213.056300002046 2656.32560280666 17 20 9
49.2864675773392 212.613385510637 2652.18670667049 16 19 8
62.6372224233747 212.212189753856 2644.64890444205 16 19 8
66.1832523388346 211.648474437146 2651.48323762846 20 23 12
74.8924233279682 211.173044818118 2650.69763319546 20 23 12
79.6048398876941 210.627457329714 2655.84647439439 23 26 15
79.8078743083306 209.997027388517 2667.80112133955 18 24 14
81.7569953505275 209.394041486861 2677.22585673396 22 28 18
85.4295285138764 208.82030561297 2684.11174337043 24 30 20
93.5939130148655 208.332918618576 2684.18445751827 21 27 17
105.634063259618 207.925447056646 2678.27366461137 10 16 6
109.88099038987 207.361589747493 2684.31297905601 11 17 7
110.294839699917 206.714451923771 2696.35336732671 21 24 15
124.468155909011 206.359315408999 2686.99013452043 21 22 14
112.383608936072 205.430835714994 2718.78653090642 16 16 8
106.445477007191 204.623482321193 2741.20273068695 22 22 14
104.948903708658 203.906499763888 2756.78536433202 23 20 13
105.681102828768 203.234087377312 2768.95484176367 80 66 57
109.147756603913 202.621533623691 2776.83621443767 94 76 64
109.447786123102 201.928091996598 2789.90967699362 53 35 23
111.40097670616 201.269568807002 2800.4155464438 106 86 75
110.761082100588 200.539997374542 2815.26633050986 98 78 67
110.718514038014 199.818414939713 2829.28009917093 92 74 62
108.651070175998 199.036035325095 2846.7899605674 75 61 50
-180.307524272748 218.981024295976 2651.96164636836 26 31 25
-169.170159853334 218.497123775678 2648.92258283291 21 26 20
-156.578750987524 217.427508570744 2655.10767076841 25 27 22
-141.053683142972 217.001449379725 2646.29254744054 26 29 22
-111.657072550421 216.751049846649 2619.35700247561 22 25 18
-108.949286144885 216.181824705533 2626.93104392602 15 18 11
-117.526604844521 215.463659521818 2649.35678776909 17 20 13
-109.07652554649 214.960810596467 2649.54529491698 19 22 15
-60.726789661018 215.005490734795 2596.83613223447 19 20 14
-72.3422356366634 214.23811200961 2623.42668802514 21 23 18
-64.6334697257711 213.73612646602 2624.39384422452 28 30 25
-50.7726828891681 213.326255469136 2617.06261609796 32 34 29
-34.5164290310429 212.95851079646 2606.38522929436 32 34 29
-25.6730670254854 212.482588996146 2605.65396158548 30 32 27
-13.1970166576985 212.066674153334 2599.91972555338 22 24 19
-1.98231511911828 211.634805196945 2595.83251551551 25 27 22
-7.10402440339508 210.932054500088 2614.26299639083 20 22 17
-5.51724626976724 210.335420085504 2623.54097356159 19 21 16
2.69491798529331 209.851562691324 2623.63300664055 20 22 17
11.489088518043 209.379568127252 2622.88179188484 15 18 11
20.2643119344004 208.909119539776 2622.12289385762 15 18 9
31.9757524739976 208.495996004226 2617.15785969963 17 20 11
35.9920606054271 207.93875386606 2623.10374800145 17 20 11
39.4434588601971 207.368266551967 2629.90007405415 15 18 9
35.3355420567776 206.642778470936 2647.66213930842 16 19 10
40.0341685417003 206.089406793052 2652.80545600561 16 19 10
47.0629001346392 205.58343166347 2654.57636672894 17 20 11
60.9995162959172 205.226204843074 2646.1963769612 18 21 12
61.6822496612841 204.585055793468 2657.26652372106 23 26 17
67.5549024198099 204.054741373852 2660.72714707237 23 26 17
80.254984249537 203.679648795871 2654.00450222976 19 22 13
83.2802752348363 203.084947065452 2661.70729214466 18 21 12
77.88599031365 202.28710410289 2682.18574613256 18 21 12
78.7682481720138 201.630087325574 2693.3367992216 20 23 14
94.7779063657508 201.341086943934 2681.48016257382 18 21 12
94.5835663115584 200.653368562044 2694.35341500516 14 17 8
107.730888269189 200.301210042264 2686.73261532349 16 19 10
123.022270886199 200.011404712116 2675.66396821919 20 23 14
103.691310720239 198.808831406809 2718.55395547688 19 22 13
91.1478041604723 197.76472520036 2751.24394970633 14 17 8
104.314963032137 197.411161481385 2743.63144972844 16 17 9
102.823003564157 196.652089659211 2759.21627050603 20 21 13
102.484240266414 195.917720011381 2773.11020873473 72 58 49
104.890687507129 195.256057143649 2782.72081425456 33 13 4
104.139666841474 194.496308529636 2797.52683289962 41 21 14
105.05246721211 193.778867941641 2809.76951857529 94 75 68
102.853155690352 192.959712833367 2827.22626643714 101 84 76
101.792001843189 192.166458843273 2842.9860336819 84 71 62
-174.993430159275 211.853097003351 2644.45752549438 24 29 23
-156.794313772548 211.495698088358 2632.40883805687 26 31 25
-170.11256611174 210.662662839088 2660.46831076549 30 35 29
-153.886485570644 210.279534074241 2650.85763174985 31 33 28
-132.643978820934 209.984375925351 2634.64642183516 18 21 14
-103.909375036694 209.823869458282 2608.52096177388 16 19 12
-100.604002073142 209.251031094385 2615.25818103921 13 16 9
-119.282661949875 208.296023914855 2650.85797490359 15 18 11
-112.70608695857 207.76721825554 2653.52479180926 16 19 12
-88.6609250961332 207.553663225875 2633.0531834292 15 16 10
-62.2700523570192 207.397164581478 2609.21567174825 16 18 13
-53.9847437096752 206.915170907358 2609.33730634786 18 20 15
-42.6318733680089 206.49362791624 2605.3059616132 19 21 16
-27.379710394035 205.512720944081 2607.17339974186 14 16 11
-19.1584124137689 205.035821131176 2607.26907826498 17 19 14
-5.49464627903706 204.674100331159 2599.85771288424 19 21 16
-4.56942626683188 204.046762506719 2609.94687071721 18 20 15
-4.80080029389618 203.38954873345 2621.72608899483 18 20 15
-4.97584368586801 202.727825099425 2633.52789210518 19 21 16
-2.11337957325775 202.128972703629 2641.16478603178 17 20 13
15.6240217049943 201.869700330047 2627.84960149638 13 16 9
34.4495331675794 201.64577870092 2612.81710084343 14 17 8
41.984854722239 201.162630741345 2613.71388786586 13 16 7
42.4766223886899 200.508748410239 2624.70681047959 13 16 7
36.5989156881279 199.691352311761 2644.98993584188 14 17 8
38.9646195854481 199.071103611334 2653.50466539207 19 22 13
45.417364657361 198.552220844629 2656.12126922632 19 22 13
58.2090700781259 198.199336661877 2649.43529656761 19 22 13
61.7681541545736 197.606053529449 2656.27539663401 21 24 15
63.0689097255535 196.948673376101 2666.51709109807 20 23 14
72.9455296508388 196.523153498721 2664.04592666726 16 19 10
85.6237721999169 196.179520287077 2657.3139435744 15 18 9
79.0856395493595 195.292619831411 2679.48781025111 16 19 10
73.7863829278724 194.42898325666 2700.00549644969 18 21 12
81.9995530997597 193.953086051395 2700.0978764812 18 21 12
86.8626175387268 193.378071031812 2705.30793699367 15 18 9
93.4025015994759 192.852530982771 2707.95987324861 17 20 11
106.555853504804 192.532383033383 2700.34127241873 19 22 13
115.261947168528 192.078462573634 2699.55425896487 18 21 12
85.7309923455174 190.399483754671 2758.81659240391 13 16 7
84.7933719234195 189.615492766529 2773.54724187784 13 16 7
94.2052317329882 189.166439351329 2771.96714311082 17 20 11
98.7474382082967 188.556181285567 2778.12636577908 66 51 44
98.4879880014151 187.779288547912 2792.05273963077 30 10 3
98.8285900899299 187.015638365035 2805.14316189481 57 37 30
100.292732884331 186.284567134823 2816.5303773918 92 75 68
98.1102632032254 185.416847085893 2833.99431250483 83 68 61
-186.486129965975 204.457828980331 2658.20129130775 29 34 28
-172.105593136354 204.07126057848 2651.08007242371 32 37 31
-155.860059657004 203.72713579353 2641.4772313522 27 32 26
-169.085575037832 202.80119656376 2669.5746995597 28 30 25
-139.505737514925 202.732241313269 2642.71196658485 15 18 11
-112.007692284635 202.638155312592 2618.24320277463 14 17 10
-114.988675114609 201.914940657373 2633.22511396266 14 17 10
-119.469561266847 200.47762539279 2661.63041513497 16 19 12
-96.642197688108 200.309846247535 2642.82325538701 15 16 10
-72.7013336675844 200.180815961527 2622.30903410041 15 17 12
-54.4710012005736 199.933478589416 2609.19334345315 15 17 12
-50.5149167055416 199.358106137717 2615.11498505334 14 16 11
-37.3277098379143 199.002932888592 2608.58942271044 11 13 8
-41.316837627569 198.232226240067 2625.32111939729 10 12 7
-32.4308635353547 197.773715503729 2624.60697304981 12 14 9
-21.7445196229324 197.36294591713 2621.38474018826 13 15 10
0.987354835852772 197.266943365182 2601.459308154 14 16 11
-5.28591902185549 196.423180955952 2621.58247102135 15 17 12
-12.0515439135267 195.554868848059 2642.58502143394 16 18 13
-15.7237051822852 194.758610745463 2659.44550652305 16 19 12
-2.67896604818252 194.414879802064 2652.8619160463 14 17 10
28.6458417537572 194.590498254801 2620.23049208111 14 17 8
35.0262746140475 194.076821608188 2622.8177777513 14 17 8
32.0252275589241 193.290804048261 2638.87084924876 15 18 9
33.192993835901 192.618787176141 2649.05880823055 18 21 12
41.3836593675521 192.152100152108 2649.14200648171 21 24 15
50.1392045381202 191.704199519242 2648.3749699646 20 23 14
59.4522258061452 191.275662316202 2646.75443943727 19 22 13
60.7073595321472 190.596693596797 2656.97782557439 19 22 13
56.8668781451549 189.749961443027 2674.84934976097 19 22 13
70.7513740159944 189.467287736608 2666.44769176396 15 18 9
70.9805940506107 188.742585991812 2678.4136556336 16 19 10
70.7024113936896 187.994531179053 2691.25341812175 16 19 10
65.9957053636477 187.089257223628 2710.9322740942 18 21 12
65.8609458761912 186.329769955817 2723.82993703768 17 20 11
73.5748581244025 185.837592977166 2724.79935983295 16 19 10
90.1395914516223 185.660545160058 2712.08755524122 18 21 12
103.30752581451 185.371627631598 2704.47487925375 19 22 13
105.991415721004 184.706548144315 2713.11877987391 16 19 10
97.2424220935386 183.613260037309 2739.79334688247 13 16 7
78.8500539990502 182.140337107435 2781.98634723847 11 14 5
87.2057162328475 181.66108580082 2782.13644672127 14 17 8
93.3929971805365 181.099569546742 2785.7249545292 17 6 0
93.689798047683 180.305905504941 2798.7976122588 43 28 21
95.6489282008752 179.57115299611 2809.30646439638 78 65 57
94.4684266490301 178.703907261519 2825.01846943683 66 53 45
96.0074229549612 177.938930311798 2836.43624958736 67 56 50
-193.457489078129 197.074464363447 2666.22345431091 31 36 30
-168.741478848926 196.959590576059 2646.02271971324 33 38 32
-157.641995461824 196.534604371063 2642.96787186126 20 25 19
-158.722713214374 195.817816454176 2655.48245657035 22 24 19
-168.020303237767 194.891954965337 2678.69695007312 15 17 12
-136.600438901062 194.97377827587 2649.3416636515 14 17 10
-131.908021484323 194.394781787889 2654.48240334343 14 17 10
-124.053813906287 193.89599509696 2655.50868082536 15 18 11
-118.71558083609 193.331890659741 2659.83198568693 16 19 12
-108.99714002467 192.883855113897 2658.37601168417 15 16 10
-86.8683020736885 192.776015383802 2640.36437766865 15 17 12
-74.7715088461061 192.4043260908 2635.55531325501 13 15 10
-62.7188035581774 192.03618004867 2630.72811386298 12 14 9
-50.7102756854969 191.671578932425 2625.88300047837 9 11 6
-54.6499479692766 190.849745839716 2642.6351088743 7 9 4
-49.9748772767596 190.271909069851 2647.76907343647 9 11 6
-35.5769243021742 189.98277693831 2639.57535954258 10 12 7
-8.55573828831191 190.083688970789 2613.83323263275 13 15 10
-2.76217279871593 189.549725126211 2617.26186176984 14 16 11
-9.54466958253497 188.621899732149 2638.25828919366 15 17 12
-13.8291379062123 187.760809800014 2655.94989781106 16 19 12
-3.76321172397032 187.351676054703 2653.55551516901 14 17 10
12.1899650109045 187.138262990455 2642.75424479012 15 18 9
21.5837206795106 186.716300766475 2641.16635321407 15 18 9
21.567905129884 185.980392423109 2653.03318885156 18 21 12
35.042223499419 185.698717614239 2645.54451068372 21 24 15
39.1524500026075 185.099461496081 2651.52874432456 21 24 15
56.0229882150802 184.946239903732 2638.94083459841 20 23 14
63.0030879460846 184.450840538938 2640.69171723682 18 21 12
67.108932838172 183.851993401759 2646.67443092089 18 21 12
68.378690803818 183.14667581792 2656.90368079988 17 20 11
78.2297898998321 182.755090874867 2654.42192594824 15 18 9
73.8896432740856 181.83176518475 2673.17052791492 17 20 11
66.82634924286 180.792851263156 2696.21172082669 16 19 10
55.393324278697 179.570012332193 2726.11627151573 18 21 12
63.1265308605282 179.081200868067 2727.09348094055 17 20 11
67.5124737980906 178.460115197619 2733.18951567779 15 18 9
81.8898924708711 178.240155705402 2723.90815513718 18 21 12
99.5066354529148 178.161309543124 2709.46368395951 18 21 12
114.279311288597 177.97661642215 2699.26328479592 16 19 10
100.021035114745 176.579734257384 2734.49833653821 14 17 8
92.4812954485501 175.445668098085 2759.50521472328 12 15 6
84.5324804493857 174.277649101671 2785.42578392231 15 18 9
91.807327710139 173.759278515199 2787.29618186658 20 13 5
89.9615917894339 172.836753774202 2803.81806535897 62 51 45
89.2653143178226 171.955708542481 2818.64716853143 69 58 52
88.640781057391 171.068958793383 2833.50562089284 58 49 42
-129.929886837824 190.860912699054 2595.97155832441 16 21 15
-175.849031722137 188.143621044325 2676.65736917772 10 12 7
-162.156299066529 187.807228505626 2670.33609107196 16 18 13
-172.626849523289 186.767300447736 2695.2346565241 12 15 8
-151.364675976639 186.657870137325 2679.03000179003 12 15 8
-117.628380568454 186.938267042375 2646.29511253995 11 14 7
-121.094994813012 186.10110771493 2662.16006681567 11 14 7
-116.98781253838 185.490617831609 2668.14341024532 14 15 9
-97.9337029917842 185.349762523664 2654.28138863668 9 11 6
-91.3671079914839 184.820051413416 2656.94417157765 9 11 6
-90.9686857596836 184.089827876235 2667.90013515712 9 11 6
-68.4011306492691 184.084272344436 2648.986551187 7 9 4
-68.6024751988696 183.332607191645 2660.77838687682 6 8 3
-59.6072939450658 182.886141652161 2660.10836643743 11 13 8
-53.6652897087186 182.33695026994 2663.59721279387 10 12 7
-32.0040699579465 182.334669939152 2645.39544336472 11 13 8
-20.097054858889 182.002307925325 2640.50924103893 16 18 13
-17.2241284189516 181.351630131283 2648.15076391027 14 16 11
-1.7865683876821 181.153343522842 2638.21941746364 17 20 13
15.9539956678751 181.048513650254 2624.90434288235 15 18 11
11.1114656970037 180.112761481166 2643.44962757488 18 21 12
17.5621094108878 179.592363998229 2646.06539206526 18 21 12
24.6005445869357 179.094354854959 2647.84017132075 18 21 12
32.8037484181658 178.642036903359 2647.92833732709 19 22 13
43.9017479333537 178.305245041088 2643.79315480684 19 22 13
59.0153420877471 178.133203044887 2633.73069516737 18 21 12
63.0967256349966 177.52480739243 2639.70331977452 16 19 10
67.7735605013032 176.938230563598 2644.83806488544 16 19 10
69.6081297728099 176.231926366826 2654.21720220255 17 20 11
70.3456875647401 175.474547760334 2665.31042797335 17 20 11
58.1010772523249 174.158911396329 2695.96588501725 18 21 12
55.6143911297025 173.242873846346 2712.22820313469 17 20 11
56.5792833937235 172.467289683393 2723.41361301863 18 21 12
58.7138688948916 171.737016076765 2732.91466369348 18 21 12
78.1451178306403 171.775493328438 2715.96755943418 18 21 12
85.8257260802522 171.296002762408 2716.92314428985 21 24 15
91.291102495034 170.716043716405 2721.29830599261 15 18 9
74.8053134205708 169.114714185081 2759.94875019693 13 16 7
93.5111364770873 169.142140990726 2743.78681803227 14 17 8
107.211018157973 168.945197594777 2735.309761243 15 18 9
96.4788855044478 167.578000991045 2765.49919246355 17 20 11
90.7601972241341 166.434737052741 2788.00678953578 21 21 13
86.7679615568158 165.361680870512 2807.97620124874 33 30 23
82.8779120075018 164.280498785632 2827.98704899032 23 20 15
87.0612146419265 163.595197343637 2835.08033098339 40 37 32
-121.987242868556 184.830010863222 2574.41880340307 17 22 16
-149.11227252196 183.245730582419 2619.55021822511 11 16 10
-152.859175823584 182.387176778628 2635.30159038164 10 15 9
-177.63332517575 180.830760318789 2678.14796715476 7 9 4
-163.933756202263 180.523380020279 2671.82949434745 16 18 13
-163.615569874248 179.771991942021 2682.75287417183 11 14 7
-167.0391925479 178.887087548775 2698.63559732514 10 13 6
-149.604769316891 178.713580304261 2687.35496255818 8 11 4
-123.475048151486 178.854228405781 2664.48801107749 9 12 5
-111.493471297651 177.741654248306 2671.50557333131 8 10 5
-103.015417123804 177.27484563174 2671.70513413286 9 11 6
-102.573701005009 176.513207254896 2682.67860799037 9 11 6
-83.6435549771719 176.436504407628 2668.76616539806 8 10 5
-68.4852886387988 176.228772297784 2659.80087187469 8 10 5
-68.6351411602026 175.442250307206 2671.61382052789 7 9 4
-51.124409767916 175.334913063206 2659.28477270181 9 11 6
-48.8165345946843 174.640296736487 2667.77665149693 10 12 7
-38.0440198673535 174.278523405693 2664.58893721065 15 17 12
-25.5069332785356 173.992050262272 2658.87817595344 12 14 9
10.8616127406629 174.685073857617 2619.6540245317 15 18 11
23.1998744526198 174.414661647097 2613.86289597704 18 21 14
14.7690454204255 173.280441087429 2637.43017140672 20 23 14
17.6651267653778 172.610944888468 2645.08121217372 20 23 14
22.9403722395767 172.039763539679 2649.37906744419 18 21 12
33.4868893146898 171.696299067973 2646.09970953067 18 21 12
44.5812928813611 171.381216424828 2641.96316371289 19 22 13
55.6366251923923 171.069331874174 2637.81051675279 17 20 11
56.8451264584835 170.318433515169 2648.01556694375 15 18 9
61.5465187936599 169.721123957003 2653.16033655131 16 19 10
64.5483150396429 169.043267108602 2660.85424390554 17 20 11
56.1938109043261 167.830559556919 2685.53182579958 18 21 12
50.8056833850159 166.741335822912 2706.01498146277 17 20 11
53.4252941326236 166.021916662746 2714.63326778601 16 19 10
80.8020761156945 166.49766016671 2685.79559639213 18 21 12
87.2989800825839 165.9734032983 2688.43012058487 18 21 12
82.104262289517 164.86879629809 2708.99170307934 19 22 13
84.7764364336454 164.14534713477 2717.63130249641 23 26 17
77.5531643458915 162.914288467734 2741.68824319923 14 17 8
80.8928162775799 162.209678890628 2749.5191487096 11 14 5
79.8900618785903 161.275019517529 2764.22456792222 13 16 7
87.1222420102002 160.764410025296 2766.07788864722 15 18 9
107.351267262899 160.946666094366 2747.294835059 18 21 12
77.1332182945734 157.508568970889 2822.47571085884 17 18 12
80.2257985261605 156.751841709284 2831.28578196642 15 14 9
-165.841442790101 176.32865904801 2629.01227606979 3 8 2
-177.498562487327 173.578259528064 2677.17869544967 14 16 11
-159.97546199432 173.443754149411 2665.93366985544 11 14 7
-154.598110651601 172.858610141942 2670.27297290311 11 14 7
-159.959399538873 171.859805882447 2688.60869369683 10 13 6
-148.849723229773 171.489671135022 2685.55755712778 10 13 6
-147.183924079184 170.752050227823 2694.86885521519 9 12 5
-122.359721859653 170.931810149998 2673.63088540265 10 11 5
-131.283442875539 169.76848621117 2696.99855572311 9 11 6
-130.784310694823 168.974293763216 2707.99552368901 9 11 6
-106.160593345887 169.170141528305 2686.67651425533 7 9 4
-98.27992887388 168.683871906336 2687.713151844 7 9 4
-89.183913307489 168.250122400852 2687.08386212058 7 9 4
-74.619095541854 168.05281891325 2678.95701456439 7 9 4
-71.048858602569 167.387217659572 2685.80192127118 10 12 7
-57.7769309167968 167.143591686103 2679.30981629044 10 12 7
-72.2615531663673 165.675744206771 2711.21733557498 12 14 9
-7.53620818970147 166.927080490455 2644.63023976634 12 15 8
4.87924144518259 166.677332519509 2638.87020742647 9 12 5
4.80954372948306 165.853625074944 2650.71614927579 13 16 7
4.79623016099207 165.02538111392 2662.58469782656 15 18 9
14.2338793821397 164.639440403979 2661.0145626328 18 21 12
27.740123328305 164.452340412392 2653.53783682727 18 21 12
40.604950319326 164.241745353269 2646.880649289 18 21 12
46.4602434198125 163.693117552978 2650.33438264798 17 20 11
45.3961908113658 162.799141772678 2663.93586613516 16 19 10
44.9732870721908 161.928786908036 2676.71770185511 19 22 13
53.7652112299218 161.519832364104 2675.96509973187 20 23 14
54.5641652712963 160.701571767551 2687.08364587875 19 22 13
50.8780400137199 159.642786227468 2705.01927507735 21 24 15
56.3165337710652 159.052723300959 2709.38337154035 21 24 15
81.4370174078227 159.510326201571 2683.94776820409 20 23 14
86.2502911293037 158.895499899996 2689.13797056585 19 22 13
84.3959470871509 157.915037972532 2704.57799969542 17 20 11
51.0131353922865 155.18608456672 2768.76206536289 16 19 10
78.7095361193659 155.812662142403 2738.97359668695 11 14 5
85.8864214740336 155.308585491406 2740.80447943067 12 15 6
112.20181130027 155.896106165191 2712.61501876182 13 16 7
106.217256918289 154.646799889313 2735.01577230176 14 17 8
110.103760075718 153.956619664776 2741.98891926547 16 19 10
86.5090258096342 151.643221130942 2792.87074204052 18 20 15
85.7451416194699 150.650672029974 2807.67357412625 23 25 20
73.2980250461939 148.9441598491 2841.48668220618 22 24 19
-202.597844370272 167.746401185867 2674.6125490764 0 5 0
-211.373872797502 166.580766909176 2696.96122844982 20 25 19
-212.319050453689 165.719581038743 2709.53178688248 5 10 4
-213.843458038709 164.827034580147 2722.94686506151 13 15 10
-194.264396648581 164.806755474363 2709.29673603354 12 14 9
-190.659661136025 164.124508075471 2716.15573714191 12 15 8
-182.601741739759 163.62912099259 2717.26447033024 12 15 8
-132.343685888298 164.957066038501 2663.16037259437 11 14 7
-126.354493067769 164.394422376504 2666.66842723943 11 14 7
-127.234371038469 163.527569781534 2679.26546800516 12 13 7
-128.052964132124 162.655762506414 2691.88710291275 11 13 8
-141.210174193304 161.21867169391 2721.0951672207 10 12 7
-128.272641378119 160.953622431938 2715.54663864786 9 11 6
-116.614169403988 160.635700450053 2711.63850166045 9 11 6
-111.11928079466 160.034683757975 2716.02551502674 9 11 6
-89.1451052127958 160.21105854703 2697.94936226974 9 11 6
-90.9849883327465 159.265373036486 2712.31591755872 9 11 6
-97.593241803495 158.080042972404 2733.38484668292 10 12 7
-92.0416199198055 157.474426801154 2737.79486581356 12 14 9
-60.6831559830607 158.142313237259 2706.25240309216 12 14 9
-19.3734769833183 159.334081971715 2660.39386429038 12 15 8
-28.8504931357847 157.129968794642 2697.57119021872 10 13 4
-6.90036053892551 157.386521961817 2678.40562952693 12 15 6
8.45950549860519 157.316349096519 2668.44185426446 15 18 9
