ply
format ascii 1.0
comment KinectMotionCapture
element vertex 791
property float x
property float y
property float z
property uchar red
property uchar green
property uchar blue
end_header
-119.606429241231 221.806191739633 2627.72621649285 23 26 19
-110.351556130035 221.165184646379 2626.32545892011 27 30 23
-101.891924870226 220.509008560058 2624.29080346797 29 32 25
-97.5005831293467 219.789635387406 2619.1660704202 30 33 26
-98.0272127122479 218.999257849762 2610.36418374495 28 31 24
-91.1956278290482 218.317854799754 2607.09425633401 25 28 21
-90.9400197258514 217.544345145368 2598.93752770681 25 28 21
-94.0094152743285 216.729811874389 2588.36960609319 23 26 19
-83.8890953907163 216.094286851963 2587.54227555567 22 25 18
-77.8902503207632 215.402750005052 2583.67060295567 22 25 18
-69.3951726291138 214.741620635673 2581.60525690434 25 28 21
-73.3805688664129 213.928315890638 2570.50799718001 24 27 20
-53.1936681767791 213.403320266178 2576.83495998934 25 26 20
-24.5628248357779 212.963018254402 2589.07657614438 23 24 18
-21.8334006758965 212.222905007148 2582.74558394015 25 26 20
-28.3703017541392 211.386658835186 2569.88985570612 24 25 19
-22.3163686983989 210.687613376725 2565.97048502472 33 34 28
-8.65167672018252 210.063247403006 2567.36440648216 37 38 32
15.2208212142271 209.530316704633 2575.79065561574 32 33 27
28.1402774755088 208.884010167813 2576.50706544669 31 32 26
41.9470224977436 208.240386437874 2577.77798921558 22 23 17
44.6992644954913 207.497200277913 2571.42723988364 25 28 21
59.4150839621257 206.853310472402 2573.23381426439 25 30 24
56.1676438882968 206.062964328309 2562.82005350745 24 29 23
-144.461409512481 239.352778465726 2882.06585464636 95 86 69
-151.650282802726 238.284803553511 2865.80661764222 104 87 71
-153.6374276088 237.353005300003 2854.30143028912 113 86 69
-157.177046742171 236.391170239384 2841.49518562076 137 108 94
-154.708445835089 235.576403305593 2834.06748119056 105 77 66
-153.775845233198 234.729373497466 2825.32445524296 109 86 78
-149.823122370362 233.953698772526 2819.25699290613 120 101 94
-141.29908505472 233.279461867922 2817.16663144489 81 72 65
-130.167533167226 229.247730384101 2779.75426963441 18 19 13
-115.429230598419 228.692334357304 2782.86372901972 17 20 13
-109.97584703754 227.953143029971 2778.14187544615 17 20 13
-102.963722413595 227.243017300859 2774.71565387616 17 20 13
-143.637583074312 225.664817766112 2731.90130700302 19 22 15
-150.846111049118 224.718693514381 2716.98157669724 16 19 12
-151.047553900917 223.904464683424 2707.89799355042 13 16 9
-142.610773014017 223.241402329535 2705.88318796101 15 20 13
-145.219012049607 222.392746227808 2694.91578653839 17 22 15
-148.661134306951 221.536902245968 2683.3479273832 17 22 15
-141.825781297674 220.850388247795 2680.07445160817 18 23 16
-131.79841835194 220.211968673224 2679.32770894677 21 24 17
-128.133364690993 219.474346363963 2673.50901775392 24 27 20
-122.076383431746 218.773078582116 2669.58733499853 24 27 20
-124.841663071839 217.945496518198 2658.7559097523 22 25 18
-126.040199514247 217.145872710372 2649.21287243471 22 25 18
-120.014805033502 216.448791395776 2645.31853994721 26 27 21
-119.645254709767 215.676959614671 2637.0630426292 27 28 22
-122.542980369139 214.86722174209 2626.34629747779 27 30 23
-114.107596816418 214.203935851876 2624.33270445666 27 30 23
-111.358515484173 213.470075925784 2617.9846341529 29 32 25
-102.906684695661 212.804507689529 2615.95680051098 31 33 28
-96.8951073092628 212.109152400022 2612.0744326111 31 33 28
-91.70118383991 211.404408894387 2607.5772392023 27 29 24
-91.4442914642022 210.64770401476 2599.41928855458 28 30 25
-87.0892712897211 209.936426493048 2594.32566874111 27 30 23
-76.1248459089599 209.290797690811 2594.09036348588 25 28 19
-60.9891155919606 208.68062934475 2596.85571288245 22 25 16
-56.6060601490208 207.965538581693 2591.73813411683 21 24 13
-53.0609644110656 207.243816670968 2586.0233117327 23 26 17
-39.5059004465796 206.607512720716 2587.51232908855 24 27 18
-23.4001569260909 205.986026991151 2590.76058289681 24 27 18
-22.3439056850645 205.241106777972 2583.23329920792 27 30 21
-22.990847982665 204.486686886321 2574.53545888065 30 33 24
-16.9229108009876 203.783539682704 2570.60397689933 27 30 21
22.9515357540269 203.305406698266 2590.30394102363 33 36 27
21.483555859831 202.542098929835 2580.99452021475 38 41 32
36.1158800214185 201.879922455327 2582.87326596281 30 33 24
32.9174080608872 201.110821285488 2572.41692511397 22 25 16
42.4758299770085 200.415332908694 2570.75373943399 26 29 20
49.4878547778059 199.70443487743 2567.32729387601 22 27 21
79.6541687668539 199.100010434325 2579.56238681808 26 33 26
80.7209159486848 198.353759060423 2572.02601454597 22 29 22
-145.752980952639 231.93616622747 2881.91010499849 89 80 63
-149.185820518491 230.993382456485 2869.01118718797 107 91 75
-155.68070920725 229.995811436219 2853.47325343786 117 90 73
-157.711792408179 229.097784988359 2842.00593022879 127 98 82
-155.999340394461 228.279502197274 2833.91036913468 97 69 57
-156.585881258528 227.420396423845 2823.83727869604 116 92 80
-154.161236891956 226.622882641785 2816.44756117865 81 64 54
-133.041018785057 222.824280393601 2787.57980602279 18 19 13
-105.944882122281 222.440570192069 2801.15092539105 17 18 12
-101.224930463435 221.68390439264 2795.74161597278 21 24 17
-93.3999050037562 220.976081928667 2792.93406997596 19 22 15
-105.833397582683 219.960569262138 2773.27999681003 19 22 15
-126.17854599109 218.842920751748 2747.25034671595 20 23 16
-142.741270309155 217.799745249022 2724.55847099152 16 19 12
-136.632703396165 217.089520419594 2720.5921351377 14 17 10
-132.88453874813 216.346825046278 2714.70144153853 13 18 11
-148.891266612097 215.345621859641 2692.85096810556 16 21 14
-141.253097799478 214.662821433043 2690.2052153378 17 22 15
-141.542787406682 213.880108361655 2681.19791460297 19 24 17
-125.146942351835 213.302077674308 2685.51770626617 22 25 18
-123.058867639391 212.549340031981 2678.41941561537 24 27 20
-120.188103799801 211.807926149069 2671.9659276585 24 27 20
-128.559816286419 210.946084450946 2656.73056415414 24 27 20
-124.940030536746 210.220517113789 2650.95103017061 24 27 20
-131.809636462426 209.389899972337 2637.06005632559 26 27 21
-123.385119160555 208.717735602752 2635.05625452026 26 27 21
-125.478794170333 207.944392828832 2624.96563480054 27 30 23
-117.862499324238 207.264264971703 2622.33882366751 29 32 25
-115.120982805628 206.540174677336 2615.99724675218 29 32 25
-103.412537872661 205.892557786524 2616.4400312497 29 31 26
-89.2170179934344 205.260168836784 2618.69749345897 30 32 27
-82.3618805987962 204.565668062027 2615.40692160053 27 29 24
-79.6118067058194 203.840357961179 2609.05793560562 28 30 25
-80.9974127168025 203.088384148718 2599.67704494694 26 29 22
-73.3244668897983 202.400454845637 2597.00118292602 24 27 18
-66.4688850330233 201.705841814092 2593.71022656369 21 24 15
-62.9283917126431 200.990810418036 2587.99966541844 21 24 13
-47.7397065591125 200.341130859651 2590.71937298839 20 23 14
-29.1640796037167 199.702158870927 2595.79710148523 26 29 20
-29.7692395649354 198.961788439186 2587.06295586431 27 30 21
-28.726202255315 198.232915646527 2579.54702117705 28 31 22
-24.3412715444231 197.520813937862 2574.42748216731 28 31 22
-1.41832202656422 196.879812276411 2582.35417847507 25 28 19
8.07089303872877 196.180529279716 2580.75068593671 29 32 23
40.4465930813269 195.550136706426 2595.04109097398 32 35 26
55.1236032856655 194.852354783304 2596.88133644676 30 33 24
61.334757822253 194.127659318575 2592.82617798217 23 26 17
35.9874870015444 193.335093547494 2567.15984250864 25 28 19
55.810874671145 192.64444662195 2572.47968767121 19 24 18
74.184871838153 191.210509409962 2568.47387021723 22 29 22
-142.552560049153 224.604074198476 2885.80031717596 85 76 61
-146.723337759457 223.680025146949 2872.21761460657 96 80 65
-151.701086820934 222.750583651568 2858.01111718457 124 97 80
-155.98237124537 221.841364305828 2844.52409865957 125 96 80
-153.505872067205 221.048369045783 2837.08940743294 92 62 51
-154.082304027132 220.210347716171 2827.00773412885 114 87 76
-149.365835238119 219.457684504734 2821.60110198934 106 84 73
-109.572967838183 215.103360111161 2799.04970399389 12 13 7
-106.411642269167 214.331776309499 2792.34457124383 19 22 15
-106.373041842651 213.524625588487 2783.05288809311 18 21 14
-131.305197337801 212.431624730206 2753.05860594349 16 19 12
-126.702553877091 211.693945941735 2747.75084872084 16 19 12
-140.125434562451 210.761352258339 2727.63051560071 13 16 9
-157.57534653178 209.801023725013 2704.3837995807 12 15 8
-131.039779811839 209.301982471915 2717.11827154385 12 17 10
-146.24537152287 208.381463447469 2695.89616264735 16 21 14
-140.182967033903 207.675120081265 2691.96949676089 17 22 15
-130.148740882258 207.003905556378 2691.21701802433 19 24 17
-127.252903787956 206.267903316061 2684.74176310877 23 26 19
-129.157242205372 205.49427063253 2674.48704043745 30 33 26
-126.299938089158 204.763453683198 2668.04546535108 30 33 26
-129.871308014982 203.986301951673 2656.58880435532 28 31 24
-128.664718832215 203.249753604998 2648.93116311858 27 30 23
-129.091584418047 202.505164380038 2640.04251069169 25 26 20
-130.356055052002 201.759368344175 2630.55627210259 25 26 20
-125.983625844801 201.052438340888 2625.44785059552 28 31 22
-124.86474501892 200.327657157066 2617.86583757998 29 32 25
-115.625645854493 199.649279174303 2616.47930953104 29 32 25
-107.999560364715 198.960096251586 2613.84407117226 26 28 23
-91.3618598549171 198.311174860516 2617.95469739278 27 29 24
-80.4098120282251 197.629964023909 2617.73003526819 25 27 22
-75.1861356853905 196.922257918959 2613.20707317219 26 28 23
-76.5579085250634 196.190882229688 2603.81405933036 24 27 20
-80.4424721100574 195.455942447505 2592.62858100214 22 25 16
-68.6329207315701 194.773183802526 2592.98427614138 20 23 14
-54.3004933740723 194.092549234349 2595.12307283812 21 24 13
-44.0865181030756 193.396626077239 2594.21495919136 25 28 19
-35.5180540773894 192.694319391755 2592.08627339652 28 31 22
-29.4437551958286 191.985962472295 2588.14931126033 26 29 20
-33.4291137122218 191.264664007266 2577.05142263895 23 26 17
-29.8945015939545 190.556446944728 2571.34591478592 21 24 15
-20.470525689205 189.852872161625 2569.79899518387 19 22 13
-5.1140184924976 189.148155646811 2572.3739175104 18 21 12
28.9181647032617 188.435594765343 2587.87564325412 22 25 16
75.8192294923155 187.69935637968 2612.07409083087 30 33 24
75.2747712428685 186.970509964289 2603.28725817856 26 29 20
61.9086787251844 186.258948241343 2585.76279416387 24 27 18
62.1299928319954 185.541023886282 2577.63542918189 19 24 18
64.8969781400068 184.822183423569 2571.27174353228 25 32 25
81.3937371910858 184.077684018512 2574.18188725697 21 28 21
-131.869432940153 217.349556532349 2896.43836701093 80 70 58
-138.258435468974 216.426465740721 2880.80817528622 78 62 49
-146.971697170523 215.482494168401 2863.22253970989 114 88 73
-151.990541575189 214.597445684654 2849.05137343116 125 96 82
-151.014291148421 213.795320962255 2840.27022362528 104 75 61
-148.546016438373 213.014815419269 2832.84257990712 98 72 59
-143.81268384908 212.263096012689 2827.42164070272 103 81 68
-132.219013355953 211.589004420285 2827.96407588949 149 137 125
-2.6626913502672 210.490608309418 2910.21361867001 17 18 12
-5.33950969424968 209.62360276983 2897.9821999189 16 17 11
-128.661209044462 207.644358070353 2783.88203376496 15 16 10
-129.424055773232 206.853592157643 2773.9613111125 20 23 16
-137.99205534358 206.001199212626 2757.57275457882 19 22 15
-151.31001117533 205.120836504655 2737.36114085857 16 19 12
-135.820851432295 204.478147937058 2741.14363187167 15 18 11
-101.479965478447 203.967219225586 2760.34690089925 15 18 11
-79.5545275081118 203.347781065078 2769.13772107552 13 16 9
-129.196618137838 202.240695418888 2719.53659251445 11 16 9
-134.917520796287 201.449954636421 2705.97331424321 15 20 13
-137.530849863704 200.685775999844 2695.00977711806 16 21 14
-128.283192232346 199.993265368208 2693.61560720527 18 23 16
-131.745046797595 199.232082640258 2682.06423734332 22 25 18
-134.455273772111 198.480945905488 2671.18460060536 28 31 24
-130.810153809609 197.764022606546 2665.38305253535 28 31 24
-129.579101899797 197.03842150766 2657.70413763535 27 30 23
-125.958393382041 196.324755791786 2651.92372673274 27 30 23
-127.181350380849 195.595844820243 2642.40171288108 29 30 24
-125.206876800952 194.881331449732 2635.40132120812 30 31 25
-124.059274990551 194.166949987413 2627.79466280533 29 32 23
-122.121226344128 193.457352985875 2620.82612558615 30 33 26
-109.61940234212 192.771393141198 2621.90476926224 30 33 26
-102.793471368481 192.071026503929 2618.63986518247 28 30 25
-95.1423515445473 191.370761824994 2615.98300047648 28 30 25
-89.9401058237106 190.666521961582 2611.47859060956 24 26 21
-82.2724917492606 189.963998548147 2608.80744438042 24 27 20
-86.9555735338525 189.256034236481 2596.99063480437 22 25 16
-90.0360849571946 188.554779239541 2586.43161367302 21 24 15
-79.0788105272444 187.854191271459 2586.20254702782 20 23 12
-68.9240886107219 187.150422932266 2585.3458412302 21 24 13
-56.2489961868717 186.440926391032 2586.27477496824 28 31 22
-43.538288206407 185.726588794858 2587.1725552805 28 31 22
-31.627869634876 185.008788248666 2587.4410522703 25 28 19
-18.8474801964418 184.285032598756 2588.27881370033 23 26 17
-20.3185868575955 183.589506891785 2578.97134823046 22 25 16
-23.5077596383455 182.902934141567 2568.50641266204 19 22 13
-19.1380593293111 182.19951941002 2563.40033361005 16 19 10
40.2504650625675 181.316593153183 2596.62657676644 19 22 13
64.2593846605957 180.526527919513 2604.93625057874 27 30 21
73.0462470239033 179.784269233645 2602.6185299844 26 29 20
74.175281804322 179.072279677625 2595.02794879426 22 25 16
68.4457921781085 178.394155018917 2582.79464427345 27 32 26
74.6563412961918 177.665207085654 2578.73972259009 15 22 15
-120.444448900855 210.021074122985 2907.75716294414 120 112 99
-135.050958676192 209.055013730558 2884.69284243733 84 70 57
-140.740613260003 208.190637886109 2869.77938110869 97 74 60
-144.983740776789 207.348536301001 2856.25885569554 105 77 63
-144.742196156436 206.553721881704 2846.79119357773 118 89 75
-143.771706676573 205.769253409379 2838.01492257868 76 50 37
-140.545008403611 205.006535930426 2831.25307150232 101 78 64
-135.806222917641 204.257237426683 2825.82739038885 147 135 123
17.0344894127838 203.748243151876 2938.17907956968 200 201 195
9.84063263911938 202.869045581114 2921.92293864787 16 17 11
-142.351290892023 199.587193167018 2764.03914538268 19 22 15
-154.833314068041 198.769140790503 2744.42585588205 17 20 13
-157.283303471224 198.010987939982 2733.32070735149 14 17 10
-143.37281586902 197.328716243514 2735.82554052206 14 17 10
-114.539507224729 196.698755959417 2750.53942345574 14 17 10
-99.7170927896152 196.002064235818 2753.57721117563 13 16 9
-116.334405332289 195.198228012319 2730.93109810313 11 16 9
-144.905611362147 194.376388710091 2698.79579572121 14 19 12
-136.463508672168 193.670678112089 2696.77665389547 15 20 13
-135.145791401004 192.94768476709 2689.02260611331 17 22 15
-129.077418006175 192.236023639121 2685.09080122082 20 23 16
-134.169663424669 191.508049471855 2672.30549726576 25 28 21
-132.120874113952 190.795085660191 2665.24099894932 24 27 20
-132.493844013987 190.082695723161 2656.3054245421 24 27 20
-124.861073163889 189.377341499083 2653.66449653166 25 28 21
-129.300716278159 188.670005674733 2641.63668583713 31 32 26
-125.714177821592 187.966937795578 2635.88582268054 33 34 28
-121.326925504588 187.264557848838 2630.76452396691 28 31 22
-116.944784212498 186.562858725775 2625.64765075053 27 30 23
-110.126540764986 185.858590773506 2622.38911949375 27 30 23
-104.116680030598 185.154689601079 2618.50829485542 29 32 25
-106.28198467132 184.466614561124 2608.47920657449 27 29 24
-100.286402514824 183.764595395134 2604.61042998456 21 24 17
-97.5751556774989 183.070845393666 2598.29489228418 22 25 18
-89.1096056261089 182.36169638764 2596.25545006846 21 24 15
-85.5843307871949 181.666841283079 2590.55794858525 20 23 12
-74.6161788712536 180.946148856578 2590.31958430934 20 23 12
-66.9405200154718 180.234839181448 2587.64152231425 23 27 13
-62.581875277278 179.536218288434 2582.5449944587 24 27 18
-49.887136350991 178.799945799236 2583.45675786287 24 27 18
-35.484055575004 178.050617201601 2585.53507735406 23 26 17
-23.5518180196248 177.308487928444 2585.78450518419 26 29 20
-16.6291131022622 176.590020730652 2582.43584094098 23 26 17
-16.4371928084535 175.910017829934 2574.33370690131 19 22 13
-15.426155154731 175.228209723522 2566.84488697285 17 20 11
21.9556376876628 174.313533068356 2584.73836986484 17 20 11
48.4626262070535 173.45289947416 2594.85343296483 21 24 15
72.5189439004836 172.596741071798 2603.12213791668 24 27 18
65.9771895540198 171.955643810956 2590.26935161486 23 26 17
68.7765645380729 171.249954343962 2583.87750745001 22 27 21
80.9843551790572 170.470588662244 2583.88834480907 13 20 13
98.3752924578969 169.644138352662 2587.34757955174 24 31 24
-128.84549640676 201.675360402659 2891.27214444762 73 61 49
-133.009215938916 200.858709871771 2877.68262835644 91 69 56
-136.472724060192 200.053568497902 2864.80971567196 100 74 61
-138.473990099707 199.263060779769 2853.31585213328 107 79 67
-139.758884033 198.481852407939 2842.52428375255 76 52 40
-139.560690986564 197.712496417618 2833.09403103086 93 71 58
-133.29276779077 196.972045258904 2828.98945571325 146 134 122
2.66392585142805 195.902437025635 2926.86513130934 118 119 113
8.50247585016195 195.113800142018 2921.80976054787 7 8 2
2.00992199091266 194.293121611693 2906.26865684935 18 19 13
-134.38159763942 191.707791178868 2762.4762590086 16 19 12
-164.811461301911 190.93729137779 2727.98149119518 16 19 12
-162.634711144332 190.218690606023 2720.80580562806 16 19 12
-143.251104402251 189.510128816761 2727.83051720196 18 21 14
-150.483233275586 188.789184715094 2712.92978347028 19 22 15
-179.817479131505 188.082830641179 2680.13182591351 14 19 12
-140.686485727579 187.35934413604 2703.12459476093 11 16 9
-134.606146275829 186.643878190064 2699.18244311211 12 17 10
-130.902026249664 185.931057612559 2693.32973098046 18 23 16
-132.773026869275 185.228601194849 2683.04596753033 21 24 17
-133.884866405016 184.529648241706 2673.42713453781 24 27 20
-135.030126254454 183.835221992394 2663.83755431213 23 26 19
-130.600022106952 183.130387321643 2658.67913028339 21 24 17
-122.961805522456 182.416578399538 2656.03322153301 22 25 18
-129.808914256274 181.749586996826 2642.12200377714 27 28 22
-123.799635763736 181.043589879697 2638.24138185767 29 30 24
-118.596588896255 180.340391190576 2633.73627086132 26 27 19
-109.337017513662 179.619757510131 2632.332272623 26 27 19
-106.56635913942 178.926787277132 2625.96523575513 26 27 19
-101.362104354684 178.223392229997 2621.45907908588 26 27 21
-100.24700996744 177.541819812013 2613.88006791894 25 26 20
-100.792432799766 176.8723494367 2605.09368654705 28 29 23
-98.0805905758739 176.187288834893 2598.77757649621 25 26 20
-92.9106314305512 175.48848997603 2594.30111530697 22 23 15
-80.3097030727167 174.740847711134 2595.29457689206 23 25 14
-70.9841063071019 174.011221234666 2593.83341035457 24 26 15
-67.4481490626273 173.320908906322 2588.12630509633 23 25 12
-68.0804492083906 172.663149658754 2579.41514752638 20 23 14
-62.9047987235123 171.963558138392 2574.93375858503 17 20 11
-51.8783872370028 171.21635403634 2574.64507044151 19 22 13
-30.7684284753753 170.380297551967 2581.49757770797 25 28 19
-17.982387757097 169.607583956614 2582.33044270649 23 26 17
-7.68653886471338 168.852961619624 2581.35174662131 20 23 14
0.944602886745916 168.110994620207 2579.16899278843 16 19 10
27.3600307551547 167.194866804901 2589.36377439967 13 16 7
65.7503819320438 166.146567201168 2607.70723028308 15 18 9
82.1936589834782 165.304248667083 2610.66436264965 22 25 16
86.7579878185474 164.581131896105 2605.38971972801 21 24 15
86.1916971273828 163.914438401423 2596.62109177236 19 24 18
77.8898808952526 163.337808711444 2582.64687487588 14 21 14
-123.393649962724 194.244603378266 2897.18201817616 131 122 113
-126.786355306269 193.463302459911 2884.24726817966 93 75 65
-129.475038037502 192.690244545863 2872.02583944933 93 71 60
-134.478038458944 191.91969251979 2857.84019868094 90 68 57
-135.748722758921 191.161732064497 2847.03616365317 79 59 48
-136.297161218501 190.409532652722 2836.9293557351 68 50 38
-126.207880237106 189.66741885438 2836.12961842773 132 122 112
2.09405049050693 188.151616827909 2927.40928827653 23 24 18
7.16412818675582 187.363916152401 2921.69639763044 20 21 15
1.44335018206654 186.586801091481 2906.80966215019 8 9 3
-146.501139644432 185.279750640678 2762.43532204368 18 21 14
-139.567876753572 184.550354654882 2759.07757764415 17 20 13
-139.634897040145 183.836277537176 2749.87683664268 18 21 14
-145.976926263369 183.142906177793 2735.52770375004 20 23 16
-153.163943013129 182.460296097476 2720.58762131391 19 22 15
-158.063093362542 181.778710549834 2707.63465432234 17 20 13
-175.604898293853 181.151103224037 2684.46574470666 13 18 11
-156.979971274425 180.392692883531 2690.82477790152 11 16 9
-133.541185873145 179.604197376009 2700.95185821561 11 16 9
-133.004222271979 178.911757288741 2692.55074333229 16 21 14
-138.057473390042 178.250898524285 2679.73120670593 19 22 15
-143.164854960251 177.597333332506 2666.95853962561 20 23 16
-133.14425217453 176.864154128158 2666.21827028265 19 22 15
-123.100115657043 176.127786886161 2665.45762406702 19 22 15
-120.2607652366 175.434359701521 2659.03105229466 20 23 16
-124.681271403036 174.791311457638 2646.98623833445 22 23 17
-117.850501261956 174.075523695281 2643.71723990359 23 24 18
-113.440467436307 173.376607324465 2638.57585768064 27 29 18
-108.224157967376 172.672144673324 2634.0592597014 26 27 19
-113.582132022052 172.052330893002 2621.50357142481 26 27 19
-104.317157464767 171.317785243866 2620.09498021068 25 26 20
-104.841863241699 170.665259236416 2611.29053282229 24 25 19
-89.0069835348588 169.87012741243 2614.77467926495 26 27 21
-89.549800539928 169.220034857114 2605.98591376016 24 25 19
-83.5339635939842 168.510882571515 2602.09962783895 23 24 16
-69.2592580262312 167.719750037759 2604.28917011522 24 26 15
-59.9061553222175 166.973264923098 2602.80427243662 26 28 17
-54.6818708429053 166.267666507643 2598.280769589 25 27 14
-65.2603826684155 165.732803337243 2582.3091623081 20 23 14
-73.4159844655449 165.180736998311 2568.20774142121 17 20 11
-64.0867307974573 164.437461797915 2566.74349375896 19 22 13
-45.5223677056398 163.58369600708 2571.83237692042 25 28 19
-26.0540259938411 162.711175859964 2577.4611317196 23 26 17
5.26859069117425 161.684466425774 2591.34327371372 21 24 15
45.1556422823396 160.534535580377 2611.03698137983 16 19 10
67.4441559567276 159.591168298618 2618.19194898947 13 16 7
78.7898153982138 158.782241191829 2617.62695713475 15 18 9
85.9129676529236 158.026861061536 2614.10448166313 21 24 15
88.783555656998 157.329116649173 2607.65086312996 20 23 14
88.2249583825896 156.681141760804 2598.87576122929 15 20 14
94.4860237439622 155.938896561456 2594.77745698156 23 30 23
-112.297911761045 186.008553637096 2898.20503085506 114 101 93
-121.727875669162 185.271252379996 2879.91598674183 83 64 57
-128.217294169173 184.539153685915 2864.37159151521 89 69 62
-131.741355701135 183.808932727049 2851.55067716219 81 62 55
-130.75577477451 183.073181654417 2842.7610101738 66 52 43
-117.603166634924 182.303711921448 2844.59971337679 171 164 154
12.2495454552292 180.360506118134 2937.1845566078 5 6 0
16.5804204000146 179.575309143346 2930.7890824606 18 19 13
-155.544314148264 178.178078661047 2755.76256931898 17 20 13
-120.699288373366 176.592116166254 2766.59533671715 17 20 13
-128.547931305857 175.942709847205 2750.90523344217 20 23 16
-136.467089464952 175.302805534612 2735.27618667549 18 21 14
-141.31861405299 174.650969915652 2722.28174794437 14 17 10
-154.87674896962 174.068409172732 2702.27637630597 12 17 10
-153.549994451768 173.386901611894 2694.51391127552 10 15 8
-137.221776384404 172.590738403171 2698.89373118376 12 17 10
-129.557155725492 171.858053712646 2696.2253749013 15 20 13
-146.518980812219 171.332711469209 2673.876374099 18 21 14
-143.676029975564 170.647589578217 2667.44662789799 20 23 16
-134.45553866253 169.905927229493 2666.07632251412 20 23 16
-117.206533231041 169.085987238211 2670.98179337564 20 23 16
-116.758975437829 168.422544710014 2662.65798181483 20 23 16
-126.801670203552 167.868042419046 2646.22208989048 21 22 16
-119.168344253098 167.139514219472 2643.58083092255 21 22 14
-113.141793651053 166.426796632888 2639.68559770659 27 29 18
-108.734614056105 165.731537799205 2634.54666564705 25 26 18
-109.211078193424 165.092245639381 2625.70031973993 22 23 15
-103.195512003341 164.380988625727 2621.8145976441 20 21 15
-91.4565374407612 163.60093916914 2622.23177918058 20 21 15
-84.6012964045886 162.876866607681 2618.94162463105 22 23 17
-76.9177434548434 162.141492179243 2616.25656096833 22 23 15
-71.6926549433858 161.436360016523 2611.73235821582 23 25 14
-61.5163461439781 160.666154668226 2610.85737280435 25 27 16
-57.9355989337147 159.981899667898 2605.11172273401 26 28 15
-52.7051319276475 159.276030075082 2600.58286302547 26 28 15
-61.6107411703091 158.769051221209 2585.8079475102 18 21 10
-63.9183233787546 158.175788122711 2575.90156192759 16 19 10
-62.9212439198188 157.53861851408 2568.42455080969 18 21 12
-47.7063009401566 156.691537876145 2571.12309445467 24 27 18
-19.8492023731105 155.646122918238 2582.71568777925 23 26 17
25.7919026095443 154.3116089769 2606.68680377734 20 23 14
53.909899630237 153.230991058035 2618.05349515033 19 22 13
77.0625550309347 152.217344322988 2625.78319634927 15 18 9
89.2790104763015 151.372851175628 2625.78726115136 15 18 9
89.630070952154 150.722357300913 2617.54700337646 19 22 13
98.474198243693 149.930885543631 2615.17996811239 19 22 13
108.187833718532 149.122610220506 2613.3829841242 13 18 12
-109.463622490827 177.768788000009 2891.83174622466 65 50 45
-119.693292152203 177.097006371971 2872.91215039194 70 55 50
-124.705810993047 176.405519921375 2858.73424723288 61 48 42
-119.899697227841 175.659955146242 2853.24987057222 62 53 46
25.6686648547908 173.224438186312 2960.00727215481 54 53 48
35.4198215898602 172.398176537244 2958.17756818069 0 1 0
32.9029975595505 171.663177819716 2945.80693671235 8 9 3
-97.155059884388 169.859061859466 2796.52003725178 17 20 13
-93.213644230036 169.132325030345 2790.46174264734 16 19 12
-113.469287819727 168.640072703979 2764.35046292683 19 22 15
-124.473263639723 168.072548406282 2746.1013104838 17 20 13
-132.426814576264 167.484433374055 2730.50173757774 15 18 11
-146.742049499569 166.97262045991 2709.82853689613 12 17 10
-154.852903933438 166.405698148873 2694.36516725605 11 16 9
-133.786554962573 165.518871073618 2702.57906256249 10 15 8
-126.904727199182 164.786350414533 2699.26591908471 14 19 12
-140.674673763129 164.298658512072 2679.44320194923 18 21 14
-138.611319274763 163.6297304444 2672.36579411706 22 25 18
-128.578719502281 162.86307708009 2671.61534346784 22 25 18
-119.32344085661 162.103530582177 2670.2150025421 22 25 18
-119.68141621221 161.468018531246 2661.26593365363 21 24 17
-124.092759279357 160.89064103659 2649.21306767065 22 23 17
-118.065583889956 160.175619102506 2645.31699234842 22 23 15
-104.75552808737 159.357744232777 2647.01954366899 26 28 17
-101.947310546031 158.686019915186 2640.61981524689 23 24 16
-108.094559853509 158.147314709611 2627.4244337444 21 22 14
-95.555348579849 157.335691075522 2628.47180234561 19 20 12
-87.8826651007989 156.594125318086 2625.79619976381 19 20 14
-76.1032255845051 155.78726266848 2626.17879813341 20 21 13
-71.681933624669 155.093393973054 2621.02794088468 21 22 14
-63.9733882321325 154.346983665992 2618.32128688622 23 25 14
-57.9035617596593 153.626202614037 2614.38859716928 23 25 14
-51.0036057539982 152.891139799774 2611.0594422527 23 25 12
-55.7055280796472 152.352905345911 2599.25817810994 22 24 11
-63.7825661617786 151.879008147781 2585.08815668934 18 21 10
-67.758921345729 151.34061535383 2573.98127932281 15 18 9
-57.580207773126 150.554176340087 2573.10399928968 18 21 12
-41.5159988679687 149.657956034463 2576.39003292889 24 27 18
-7.77185784882839 148.429178707032 2592.14507578891 22 25 16
26.1097047682335 147.181849015509 2607.78081511738 19 22 13
76.9985527028663 145.594961289664 2635.14503980492 22 25 16
79.9116879257697 144.909084831516 2628.65478267606 17 20 11
82.8116218955168 144.224964945004 2622.17564065234 16 19 10
96.7430390038642 143.323271922473 2623.34017893836 19 22 13
112.417646475603 142.381885671498 2625.64061043548 19 22 13
115.335512221831 141.695354628436 2619.14594192089 22 27 21
-96.8203581882321 169.457896752052 2894.16078463859 51 37 34
-99.4939004156414 168.774749445797 2881.9256504664 55 44 40
45.5601147229165 164.408588653248 2967.96761413577 1 2 0
46.9130268161666 163.657200949294 2958.85966934747 42 43 37
-136.47926436691 164.367324924574 2782.99846332413 0 1 0
-121.765935799655 163.523279932646 2786.1317545396 17 20 13
-82.9496237476124 162.372336952037 2809.40003895439 17 20 13
-103.087174286952 161.955254623184 2783.18591663888 17 20 13
-110.099786779024 161.382380129077 2768.09396067439 17 20 13
-136.731523776512 161.081398590482 2736.92079734163 17 20 13
-140.007363842045 160.47934914058 2725.20717083896 16 19 12
-148.046367340717 159.949902026385 2709.68128257049 12 17 10
-126.202942653704 158.99887700518 2718.54533529846 11 16 9
-178.560946836402 159.128635687208 2667.32007372494 11 16 9
-143.270446183508 157.978414646711 2687.02736554882 13 18 11
-133.245217548253 157.19683219655 2686.28340047004 17 20 13
-135.14254539138 156.59875932603 2676.02177936287 24 27 20
-134.6823976739 155.967606228289 2667.68684642584 23 26 19
-124.641726112132 155.183936102245 2666.92950993575 20 23 16
-126.615620897063 154.596150081384 2656.73386997732 20 23 16
-134.259332133165 154.108273626745 2642.18835918945 22 23 17
-115.350928330916 153.173246117797 2648.30283735084 22 23 15
-103.651812015818 152.355844744817 2648.75512301729 21 23 12
-108.135240795157 151.821594225588 2636.76414133544 20 21 13
-107.792051717399 151.206186510274 2628.53047862502 20 21 13
-104.215039421335 150.534522145955 2622.78798415144 19 20 12
-85.1278151376129 149.57539296239 2628.74762835336 18 19 13
-74.1607221343226 148.761738858684 2628.51078426909 17 18 10
-61.5241560933448 147.91287392665 2629.47401331863 19 20 12
-66.9563774015005 147.411599079483 2616.98190967018 22 24 13
-60.0681218436039 146.673197573237 2613.66291758705 21 23 10
-55.6534480565163 145.983516235883 2608.51776941235 19 21 8
-62.850448102965 145.530290454793 2594.90811431442 19 21 8
-74.2648287655747 145.171008982646 2578.33658595371 19 22 11
-49.1042428598414 144.057611302119 2588.29700164032 15 18 9
-36.3744106596089 143.196152650024 2589.17915965199 17 20 11
-30.3059987289229 142.473379526307 2585.24770887794 22 25 16
-12.4854636189906 141.49518303775 2589.65852441697 19 22 13
12.9666205653041 140.342486528738 2599.3662272123 17 20 11
77.3070615627924 138.313703572196 2636.24840320312 17 20 11
77.6866507040692 137.693381640943 2627.9832230935 16 19 10
93.2936097129646 136.728874525413 2630.34275328159 17 20 11
87.7134988783679 136.24752367003 2617.97870169357 18 21 12
132.313976167007 134.601773354938 2640.20694668141 17 20 11
154.057193246025 133.474485796305 2646.51215787375 14 20 10
45.7423609243048 156.486305456776 2969.18425226681 72 75 68
48.6337450115526 155.72885981022 2961.38973501424 191 194 187
-162.475666363365 157.552916522359 2761.90387299275 5 8 1
-125.394567707529 156.333986017638 2784.02973253337 15 18 11
-129.261939997307 155.750231611845 2771.50542884739 16 19 12
-105.95617064513 154.729295903715 2781.74930517074 15 18 11
-130.908386836195 154.499294490386 2751.76681808944 14 17 10
-138.819256466942 153.999748713688 2736.12967783051 15 18 11
-149.152517460405 153.550231309074 2718.62168892325 16 19 12
-139.918865986434 152.76722991473 2717.24024503291 12 17 10
-155.882773757917 152.431543830318 2695.34834531923 12 17 10
-172.748248012526 152.125189840936 2672.91409922526 11 16 9
-160.420386094994 151.2937681754 2674.14478020203 13 18 11
-136.144280933232 150.234234217174 2684.87114259061 17 20 13
-137.249779876045 149.646795787783 2675.24640687424 24 27 20
-133.599525139655 148.971269731133 2669.44014005598 23 26 19
-128.357706235034 148.265546536279 2664.90144030025 18 21 14
-128.733242484127 147.671863254914 2655.96732101792 18 21 14
-129.942654454033 147.098419417773 2646.43255977193 20 21 15
-116.670188724382 146.231860892309 2648.16800723118 21 22 14
-109.825731893091 145.494431253418 2644.886970781 19 21 10
-112.699868427805 144.961039047089 2634.14798936055 19 20 12
-118.865911147819 144.502710953736 2620.96837593854 19 20 12
-118.573393235189 143.911119902024 2612.77847741571 19 20 12
-98.7074548242601 142.893160694885 2619.38713969799 18 19 13
-79.5878181683385 141.883628291886 2625.31901754598 15 16 8
-66.1445987769245 140.994086744994 2626.90661559946 18 19 11
-66.6479415250034 140.4176193348 2618.08315924448 22 24 13
-69.6551298137238 139.902145409247 2607.45938245081 21 23 12
-66.0895335038694 139.238029788046 2601.72641819394 19 21 8
-65.8482995538701 138.653347096523 2593.58092455856 19 21 8
-60.6471619445541 137.953113507911 2589.07744917096 20 23 14
-32.9579912246381 136.710215564217 2600.81718680426 16 19 10
-29.3735666826858 136.04356642192 2595.06791985913 17 20 11
-19.1021567213157 135.212922394398 2594.11089849635 21 24 15
-1.25611255458669 134.190783181784 2598.49988916889 19 22 13
14.9681296817121 133.20293523537 2601.64780991706 16 19 10
32.9307057817814 132.165129132666 2605.93621520895 15 18 9
75.4619638415459 130.488571020172 2627.31128925793 16 19 12
90.2153877632923 129.514686060783 2629.08740888257 16 19 10
109.2582423693 128.423445408495 2633.76278957968 15 21 11
144.539113484852 126.894727308959 2649.51109772379 16 19 12
136.445066152351 126.511896875364 2635.35522871698 13 18 11
-152.971503599461 150.247491439816 2770.91726622728 13 16 9
-139.850938369537 149.374394956581 2772.78441367577 15 18 11
-143.752920298248 148.828710039932 2760.2895452038 13 16 9
-131.375048929975 147.966338926851 2761.47708174523 13 16 9
-140.791759524388 147.538093245556 2744.4978086929 15 18 11
-159.667543373257 147.311875232822 2719.83566828459 18 21 14
-153.591318310762 146.583589111424 2715.89716579988 18 21 14
-140.439795407803 145.706370297651 2717.73750783319 15 18 9
-143.005061248381 145.159329200222 2706.73090552506 12 15 6
-151.141361699491 144.737296109003 2691.28865197702 13 16 7
-145.885406664519 144.030182657249 2686.7377089379 13 16 7
-125.545054700335 142.988774480285 2694.25859276298 16 19 10
-133.784572482532 142.58062149767 2678.9053959296 24 27 18
-135.709823361993 142.036734156947 2668.66762559812 23 26 17
-135.27268077884 141.44265009417 2660.35239182965 19 22 13
-133.256635015228 140.814590406018 2653.31572334161 18 21 12
-128.845582525936 140.131946596999 2648.17335275966 16 19 10
-121.214546051633 139.372979854074 2645.53427540552 16 19 10
-114.380425119807 138.632022818293 2642.26253582139 18 19 11
-114.83180537304 138.068289098249 2633.39395918973 18 19 11
-114.500480321928 137.488465935356 2625.17034886886 19 20 12
-117.452012610082 136.993451409909 2614.49820044155 18 19 11
-113.913994552943 136.33907303254 2608.78907615001 18 19 11
-95.6527780327647 135.309785231838 2614.14184472858 18 19 11
-79.7887858991992 134.33536643245 2617.60192016862 18 19 11
-73.7431730036899 133.611283369884 2613.68992311345 18 19 11
-70.9924101612698 132.973642475567 2607.3400873955 18 19 11
-63.2955390388417 132.205826784596 2604.643690614 18 19 11
-56.4156455541056 131.458738240194 2601.33231804531 18 19 11
-49.5285792631406 130.710686530302 2598.01473478899 21 24 17
-52.6268812468329 130.235433022939 2587.46966888049 23 26 19
-40.741324541643 129.350180882067 2587.76048412115 21 24 17
-17.9458098718732 128.156952025627 2595.80089572548 23 26 19
21.7108040369856 126.479630991533 2615.69774951538 20 25 18
29.5809621619818 125.688530617942 2612.85162505819 16 21 14
71.1780274852698 123.928570172162 2633.71367710814 16 21 15
56.3393642974246 123.78380450479 2614.81534842746 19 24 18
93.9134780059479 122.118988936631 2632.54668531788 16 21 14
119.755478865184 120.783548518606 2641.91761750073 6 13 5
133.780012236617 119.788968731655 2643.00205048305 15 20 14
-152.728203072285 143.07899866753 2772.07610179886 19 22 15
-148.887294881651 142.389759024367 2766.10499315607 13 16 9
-117.917888994711 141.077225448657 2782.94196504949 13 16 9
-144.342866822445 141.087481862325 2751.58757928275 13 16 9
-138.978817158927 140.366289297248 2746.94303797666 15 18 11
-154.716228955547 140.149298632936 2724.85405691099 18 21 14
-146.275193083583 139.360037037085 2722.83638114731 17 20 13
-113.465364105029 137.97293751334 2740.72551264023 14 17 8
-120.682843519695 137.560910250126 2725.81007990735 11 14 5
-134.284154808351 137.315976568904 2705.83994295077 12 15 6
-98.8978875398185 135.841700706178 2725.46633028991 12 15 6
-120.508289425763 135.809569816694 2699.2030258105 15 18 9
-123.159243383665 135.302036245422 2688.27043646393 22 25 16
-138.617691922929 135.134014876871 2667.26261146573 22 25 16
-142.984818281893 134.684420897618 2655.17027771922 21 24 15
-136.174684839614 133.941725612494 2651.9193402184 19 22 13
-133.37735636232 133.306528287982 2645.52881304369 16 19 10
-117.696904183065 132.321674844532 2649.14803677615 15 18 9
-119.741731738 131.819090314102 2639.01332469136 17 18 10
-116.153357885431 131.163975881327 2633.2608755044 18 19 11
-107.701464300269 130.373377447503 2631.23379763315 18 19 11
-100.04825850195 129.60376999117 2628.57557428111 18 19 11
-109.524408539387 129.322700203558 2612.97012669921 18 19 11
-107.619234716567 128.721096152387 2606.02938347431 18 19 11
-86.0443336898622 127.548605337297 2613.80434954241 18 19 11
-67.678014237464 126.461898213992 2619.06639371038 17 18 10
-55.8425669702571 125.562027187937 2619.40073533285 17 18 10
-58.8506041274659 125.102586293615 2608.77733118857 18 19 11
-53.6158524966841 124.398950591098 2604.24474336611 19 20 12
-46.7210308358501 123.644941916303 2600.92047685324 21 24 17
-38.1540123547364 122.838903067826 2598.79371615083 24 27 20
-30.4060343265062 122.056590506802 2596.05343262997 22 25 18
-5.91497782727668 120.751272052343 2605.27182078559 19 22 15
24.5391141530469 119.249060846215 2618.58656475125 15 20 13
50.0705351924009 117.890271812629 2628.22683892727 13 18 11
65.5865522926442 116.841205049085 2630.66573968508 14 19 13
96.3556170020845 115.296656461592 2643.70775981214 13 18 12
100.996372644275 114.586496111727 2638.3667910717 14 19 13
97.9930874720467 114.12641713185 2627.73927234605 19 26 19
107.710616391385 113.252096647015 2625.93902623102 18 25 18
-119.329531906267 135.044693543684 2801.40823104748 21 24 17
-104.574706585205 134.065260379585 2804.50611734072 18 21 14
-148.684003141727 134.642051327109 2758.03880197844 18 21 14
-145.646455758754 133.983155039926 2751.44022201348 18 21 14
-100.542480550426 132.186057977242 2779.84966786032 17 20 13
-120.078533081561 132.136109567576 2754.4354029485 16 19 12
-117.813175873164 131.497418880455 2747.18240064616 16 19 12
-117.921113336516 130.926865437801 2738.01619399558 15 18 9
-125.14563834115 130.560203839812 2723.10657395813 14 17 8
-130.06808017729 130.135013612023 2710.17213308725 16 19 10
-141.37676374686 129.899189787567 2692.18493237604 13 16 7
-122.616824100717 128.799750740935 2698.42915514886 13 16 7
-131.634653559203 128.506918006581 2682.42685638407 17 20 11
-143.917688872604 128.318439099848 2663.96027817071 18 21 12
-146.695194341862 127.855889053837 2653.13708407351 22 25 16
-140.695430827709 127.133518141231 2649.26481523042 22 25 16
-129.0660858617 126.239915056031 2649.77806802203 19 22 13
-123.851561580843 125.539486233554 2645.26299119015 18 21 12
-124.293022955028 125.013877031627 2636.38557046165 17 18 10
-119.904801258448 124.340885065914 2631.26292560421 17 18 10
-94.4109562565707 123.005519100594 2642.25919288543 17 18 10
-91.6075605517639 122.378311703511 2635.86335525162 17 18 10
-101.873625510836 122.169674540316 2619.61882508815 18 19 11
-108.127795791062 121.839964915784 2606.5147615394 19 20 12
-99.6783196740281 121.039298052371 2604.48984421835 18 19 11
-75.5929595749136 119.72603429576 2614.0599155123 16 17 9
-58.8323559131658 118.644606974371 2618.06681980253 16 17 9
-51.9299140518528 117.884650180926 2614.73598713195 17 18 10
-56.615753000691 117.511409163134 2602.91939827397 20 21 13
-38.1035325524581 116.361841716469 2608.05539214097 19 22 15
-2.04849848638977 114.610638138716 2625.78066888454 20 23 16
39.1626231300157 112.668245478499 2646.97872989597 18 21 14
40.4011680815195 112.084155272326 2639.29208800044 14 17 10
55.0332500794859 111.037978234202 2641.17353197363 12 17 10
65.5070893445933 110.132552367402 2640.04154244526 12 17 10
113.916593428617 107.891735486297 2665.58915842802 8 13 7
116.083632828316 107.266478165663 2658.42128465592 11 16 10
93.6835508554008 107.517901921427 2634.16384772354 12 17 11
105.092227090184 106.570476980011 2633.54544993122 9 16 9
35.7190183611187 108.535610499196 2577.20549382206 0 5 0
-104.449865720658 127.316839635953 2815.02867672588 26 29 22
-125.983464828394 127.380985394098 2787.37460425794 21 24 17
-129.837240005848 126.929116803292 2774.83734532976 21 24 17
-133.740865783332 126.483980122035 2762.34356559839 19 22 15
-116.660360700218 125.402233971922 2767.39646276611 17 20 13
-109.673593346176 124.625737040202 2763.99264934044 16 19 12
-104.246010563858 123.897056967882 2759.29309011585 17 20 13
-120.019464846063 123.834134082145 2737.23435000493 15 18 9
-125.670442476442 123.462142192815 2723.60743618233 15 18 9
-140.850905853778 123.400401597301 2702.35798275017 16 19 10
-119.737667253939 122.181210238211 2710.53370637143 13 16 7
-134.245252556902 122.109925221609 2690.02436804607 12 15 6
-142.492689332962 121.844319521998 2674.67742669222 16 19 10
-142.835971743744 121.325192832638 2665.7148687203 17 20 11
-150.40436676444 121.04920889682 2651.10270559253 19 22 13
-144.412968811257 120.325746927156 2647.23769455191 19 22 13
-130.382724253808 119.330682775102 2649.64044145482 19 22 13
-125.170267713783 118.631069522511 2645.12715152333 19 22 13
-120.766364030978 117.95926473327 2639.99122234465 19 20 12
-106.651275583928 116.952849384104 2642.3205055548 18 19 11
-90.8687124153333 115.88411966379 2645.85176954283 17 18 10
-90.4955830372627 115.349686599622 2637.59194729303 17 18 10
-98.3063008661653 115.106323542477 2623.18960266921 18 19 11
-92.2796821359939 114.378225009794 2619.29409456022 19 20 12
-93.6287623001091 113.913492509328 2609.8796843063 18 19 11
-75.2853709243801 112.743283615318 2615.16182664318 16 17 9
-54.4055886089438 111.474874801654 2622.216637763 16 17 9
-36.7532289699439 110.316714735528 2626.77469870899 16 17 9
-30.6334055135418 109.576142782116 2622.79848754165 17 18 10
-17.0396826906067 108.559054587688 2624.2564653667 12 15 8
48.1849909465408 105.617705611706 2663.02468034008 9 12 5
64.4870524432783 104.479324926005 2666.10612779395 7 10 3
73.3155285114124 103.617420074268 2663.75311441598 7 10 3
82.9976346010719 102.721693903554 2661.98402476292 9 14 7
108.664033456554 101.214525308996 2671.50827031723 13 18 11
176.541819953337 98.0785774735134 2710.62503527263 8 13 7
164.508792643507 97.9982890328797 2693.26432593133 11 16 10
126.152507997568 98.9482872321798 2657.68832696796 11 16 10
-110.29156079329 119.60898499568 2801.61460113909 22 25 18
-127.270638942229 119.626380623476 2777.95377635895 22 25 18
-116.404488280578 118.714112606114 2777.80506165112 18 21 14
-151.462986920299 119.36434111156 2739.37269553372 16 19 12
-123.482352937144 117.870851115843 2753.50795706717 18 21 14
-113.39202495684 116.984785550073 2752.70792958641 21 24 17
-126.042617787895 116.889275734937 2733.23606337118 16 19 12
-134.853000054417 116.668319178999 2717.05349690909 12 15 8
-127.956451537668 115.899046516811 2713.72783257914 10 13 6
-119.470562562944 115.072453961115 2711.67152292462 10 13 6
-123.659969087762 114.699272949695 2699.42465785185 12 15 8
-143.803499272344 114.907600567724 2674.53492650986 18 21 14
-161.686742851956 115.04656689036 2651.6569866272 14 17 10
-154.11226707688 114.264388048224 2649.06708287911 12 15 8
-131.301370658265 112.919064736444 2658.41840901678 12 15 8
-128.485805233282 112.307701444006 2652.01192077887 14 17 10
-120.850916695271 111.517469067278 2649.36970730474 15 18 11
-110.782336610312 110.634590322037 2648.58882436876 20 21 15
-99.0714049679542 109.687267569962 2649.03139564731 19 20 14
-86.5170841422009 108.70477408436 2650.06677549751 17 18 12
-88.5714942281965 108.279157454475 2639.93987018291 17 18 12
-88.2164899270137 107.764163637352 2631.69563162194 17 18 12
-78.075390653924 106.871604970346 2630.85164091223 19 20 14
-68.7302051260419 106.007912756085 2629.37436483968 18 19 13
-66.7611362138141 105.43228437794 2622.3780731211 17 18 12
-58.219259134153 104.598417564432 2620.27328370094 16 17 11
-24.0619859505253 102.744370827082 2636.99756269758 16 17 11
22.6544616865905 100.374601354847 2662.68987079014 15 16 10
33.0590997286113 99.4467608646595 2661.61800569654 9 12 5
60.1256039111311 97.8425219417102 2672.57619591289 6 9 2
73.1196980525253 96.8011219249236 2673.2304746259 8 11 4
76.1179141454402 96.1654115643629 2666.6658342584 10 13 6
104.243710734442 94.4970344382525 2678.02988967232 10 13 6
119.877492217087 93.3353510888397 2680.36713405235 12 17 10
168.400918531106 90.8011930340399 2705.81791040159 7 12 6
-114.780049121497 113.000103849577 2808.19459828146 20 23 16
-97.6984725307339 111.836790661706 2813.24709529142 22 25 18
-85.97824181849 110.866409277047 2813.68207166521 20 23 16
-139.461245669959 112.326828141992 2759.45316690197 17 20 13
-156.659610548739 112.453763630992 2735.98138047888 18 21 14
-156.802213429498 111.946960083757 2726.84480649068 18 21 14
-120.185532641107 110.04302901558 2748.05437163894 17 20 13
-125.000036155003 109.711863100022 2735.02576746449 14 17 10
-135.376390983788 109.600478159994 2717.5529384265 15 18 11
-124.53595841273 108.673131380842 2717.42661222297 11 14 7
-120.786017437877 108.020265328635 2711.5341124341 11 14 7
-120.217199072987 107.493376238039 2703.10431510748 13 16 9
-135.574022079917 107.599030728957 2682.00663418113 15 18 11
-135.89404898781 107.116233430147 2673.0236844136 14 17 10
-126.654671617296 106.253387547046 2671.63779507718 10 13 6
-122.202503390892 105.58161797727 2666.4600330555 9 12 5
-123.377795351511 105.138405403326 2656.89453935636 10 13 6
-120.560312839387 104.535575711931 2650.486649725 11 14 7
-104.840325256996 103.405004464167 2654.07223544464 12 15 8
-91.4958199766565 102.367582829201 2655.74666634592 13 16 9
-88.658942813951 101.762193891822 2649.32166774491 14 17 10
-81.7684983347591 100.989005036778 2646.0010038679 16 19 12
-74.8706791796674 100.214860191325 2642.6742698019 16 19 12
-47.5295594404015 98.57820874947 2654.7179117503 17 20 13
-49.5808256285573 98.1774257190281 2644.5881205841 15 18 11
-49.2051877795316 97.676676055661 2636.32559037023 14 17 10
-66.9732202401376 97.9555391337755 2614.67014720714 14 17 10
-28.7153627578687 95.8320667599983 2634.45866815654 15 18 11
55.2247009267872 91.7163547035196 2687.45040040907 14 17 10
64.0502284187026 90.8341076111588 2685.10007448632 10 13 6
67.0692163915216 90.204418108925 2678.51739136855 8 11 4
75.077579521591 89.3566056888667 2675.55184716121 11 14 7
69.3448497717273 88.6234499124503 2654.05825044468 10 15 8
130.245064910397 85.4179075801567 2688.6361447608 13 18 11
-112.23937265137 105.582127413285 2811.33393033456 20 23 16
-88.9740177156368 104.128179173137 2821.61564121731 21 24 17
-115.948938432031 104.704849206272 2789.41097947318 20 23 16
