ply
format ascii 1.0
comment KinectMotionCapture
element vertex 755
property float x
property float y
property float z
property uchar red
property uchar green
property uchar blue
end_header
72.604989790797 658.396586978071 2806.34340441203 196 196 198
80.750804872455 658.097134968678 2803.25517226848 186 186 188
91.3296302999997 658.296006731448 2802.02471607044 183 183 185
105.169505499377 659.157299867905 2803.25717282517 176 176 178
118.238026296532 659.846606507766 2803.836043771 170 170 172
132.969175044821 660.862538724681 2805.61826051144 167 167 167
151.821620131921 662.700248821832 2810.44001182181 154 154 154
179.730511070932 666.347178940473 2821.95762383582 155 155 155
205.290157358226 669.483561748165 2831.5443053494 141 141 141
224.374607712444 671.288410418757 2836.16518229829 121 121 121
232.817113806011 670.946128046198 2832.8200749321 133 133 135
242.0966495418 670.7663887247 2830.0716914774 162 163 165
248.908711663094 670.092764996191 2825.4950583508 172 173 177
259.872630220408 670.236623914929 2823.93150009263 185 186 188
270.860250074944 670.377111285639 2822.34742091594 203 204 206
-238.411501978034 675.842116278307 2989.78126277735 225 225 227
-228.517757867845 676.137313490747 2989.14428250356 215 215 217
-224.303326222282 675.012096708419 2982.85193728612 203 203 205
-222.95741379053 673.18036144684 2973.75706003512 201 201 203
-224.504620630941 670.645570348472 2961.88095006736 203 203 205
-222.497866356159 668.99707361716 2953.53568643203 195 195 197
-218.34881631203 667.878835345663 2947.29996457774 193 193 195
-214.208489001234 666.761262745386 2941.0717987164 188 188 190
-209.351522268796 665.819833534347 2935.54493068042 189 189 191
-202.317291620173 665.403855994399 2932.09764293665 180 180 182
-193.816818657037 665.336010972795 2930.02377611224 171 171 173
-187.49467016567 664.741839041805 2925.87125388882 164 164 166
-180.435420110562 664.321024889369 2922.40231226751 172 170 173
-172.633132305412 664.072686997341 2919.6114963417 165 163 166
-164.819114112717 663.822260323835 2916.81052680271 158 156 159
-156.253914915134 663.743153360128 2914.68063240201 160 158 161
-149.156061507789 663.315224078416 2911.17827797395 165 163 166
-136.101262689047 664.268560647203 2913.09059220329 148 146 149
-123.751999674964 665.043300307126 2914.29200060218 130 128 131
-118.096371870927 664.262125472159 2909.39512672765 98 96 99
-116.190470098425 662.620623220847 2901.13723025674 115 113 116
-116.561504942557 660.466501256211 2890.88574474153 152 150 153
-113.950203257014 659.002334408091 2883.33856454494 155 153 156
-111.355987331505 657.540079264978 2875.80618080283 157 155 158
-110.294907577575 655.738079241826 2866.9579855868 159 157 160
-106.218748258121 654.621564894902 2860.78574508539 168 166 169
-103.675948506248 653.16531355622 2853.29757117145 172 170 173
-99.6216464688957 652.051084014617 2847.14426035649 173 171 174
-97.10895467658 650.598198669372 2839.68216028159 172 170 173
-90.0036792377597 650.164089697613 2836.17341295662 174 172 175
-82.1207043976742 649.897759106225 2833.3127792705 175 173 176
-76.5432365114229 649.122798381136 2828.48360913856 180 178 181
-73.2897073111851 647.841899353174 2821.70186056245 185 183 186
-68.4962536450513 646.899172267508 2816.23004999424 181 179 182
-62.1508311310821 646.292763290625 2812.05743463521 180 180 182
-55.0214989946736 645.853348494123 2808.52787088761 184 184 186
-47.8849076688999 645.412574577794 2804.99170863394 185 185 187
-38.3869048256753 645.472055890408 2803.37599811379 186 186 188
-26.5094339097489 646.029166619361 2803.66447505132 193 193 195
-13.0227146707789 646.914754024978 2805.20286734351 198 198 200
-1.86806397951145 647.295587817738 2804.79571995806 183 183 185
10.1072674003673 647.838314060403 2804.99978643861 188 188 190
24.4987909043934 648.873544377388 2807.07624353377 185 185 187
42.1219496978633 650.564317963774 2811.64115274116 183 183 185
55.8110276477821 651.420527456893 2813.00434383447 170 170 172
66.3363774945025 651.611352079955 2811.82060450301 168 168 170
72.0673971243553 650.810981301948 2806.8585102133 195 195 197
81.8227512295211 650.832249250288 2805.01967621475 192 192 194
91.5978210512867 650.850465046873 2803.16408918681 179 179 181
105.437916744902 651.684659939427 2804.39653042856 172 172 174
120.940229427702 652.839906453762 2806.83270977977 166 166 168
137.303994554594 654.151554624078 2809.84480023146 171 169 172
161.057024495884 656.921774996487 2818.3531920677 151 149 152
188.985176476355 660.492488899747 2829.85428821487 153 151 154
218.661307039081 664.372487433558 2842.48518157939 119 117 120
232.849440160359 665.157176608229 2843.4162870708 122 120 123
236.37357450574 663.833337126811 2836.40027354382 121 121 123
244.011871220683 663.318642107069 2832.4300597192 164 166 165
250.002553308263 662.480427657243 2827.24315187187 178 179 181
261.798896677492 662.768585622412 2826.28042691873 185 186 188
272.791473277328 662.892176308209 2824.69216104366 194 195 197
-229.057303580314 668.70483028756 2989.66008884259 211 211 213
-224.842108900639 667.585050217158 2983.36704704603 202 202 204
-224.209359084865 665.595499851293 2973.56805524234 201 201 203
-224.322562030646 663.435692322264 2963.09344990861 201 201 203
-221.593723458076 661.974029518781 2955.44406452811 192 192 194
-215.276822587812 661.380406831137 2951.29640256025 190 190 192
-210.402539266228 660.439857225345 2945.75420440131 185 185 187
-206.257665456286 659.326874691807 2939.52238369483 187 187 189
-200.667449499546 658.559329805986 2934.68211629715 177 177 179
-193.619617337512 658.135599544962 2931.22277435779 167 167 169
-185.101486390544 658.054140092507 2929.13400645878 162 162 164
-176.567708349811 657.969952363776 2927.03137882763 167 165 168
-169.488786856507 657.540508158151 2923.54512767387 162 160 163
-162.402020523626 657.109730242063 2920.05240127099 157 155 158
-155.307730871206 656.677370230532 2916.55316438867 160 158 161
-143.757318761396 657.266100082518 2917.12491005675 165 163 166
-129.944322449071 658.36034744349 2919.70241503196 146 144 147
-119.069001118033 658.768648237203 2919.53719445655 111 109 112
-114.893795595266 657.646430675295 2913.27914400752 103 101 104
-112.97650967228 656.01714692593 2905.01098579515 120 118 121
-114.086916179314 653.714361022814 2894.07835826334 148 146 149
-112.220202543953 652.091199228872 2885.85399320003 154 152 155
-109.618718097251 650.639104050964 2878.3152437325 158 156 159
-108.550070377373 648.85255353562 2869.46038897517 160 158 161
-102.947444324933 648.076480396797 2864.60942056475 168 166 169
-101.917052468745 646.294542880883 2855.78769364722 171 169 172
-97.8559759717625 645.185000369619 2849.62848079252 171 169 172
-93.8040230105286 644.076334967961 2843.47685443765 172 170 173
-85.9206237314942 643.802251843674 2840.61590311165 172 170 173
-79.5659484180797 643.193309225615 2836.43528443682 178 176 179
-77.068560653923 641.752717686041 2828.9866847619 184 182 185
-73.0400798866477 640.645925767522 2822.85539046102 183 181 184
-66.6916348542941 640.036946095049 2818.68048754769 177 175 178
-58.0051936019594 639.923126225898 2816.44573324063 180 180 182
-52.424397424935 639.14663932377 2811.6136882491 184 184 186
-47.6267424823185 638.205322689518 2806.13822714379 184 184 186
-39.6963598584681 637.922187426372 2803.23661232213 186 186 188
-27.035864115625 638.62228511155 2804.16874780973 192 192 194
-13.550831790603 639.481001203721 2805.70877633766 196 196 198
-2.39733848720647 639.843066833397 2805.30275372004 182 182 184
11.1617121534571 640.690976360742 2806.77869794005 187 187 189
26.3501180559125 641.859145205128 2809.48718335686 184 184 186
44.7733540627837 643.671505588309 2814.68110987158 182 182 184
56.0726627879711 644.012227278886 2814.14884209589 166 166 168
66.5990938783851 644.18670707978 2812.9642715265 164 164 166
72.3323522054735 643.386304300805 2808.0002370848 187 187 189
84.5033838238867 643.878698631132 2808.03469377345 190 190 192
95.0926954695253 644.043901749312 2806.79568247977 178 178 180
108.132355494366 644.688707086257 2807.39985646391 170 170 172
121.207946323515 645.32837413663 2807.97292122466 162 162 164
138.384303945144 646.765253521172 2811.60315792357 166 164 167
165.397428236245 650.116436772737 2822.57550315141 149 147 150
199.86930824792 654.892018709166 2838.98382542999 151 149 152
223.015688307775 657.412856527956 2846.6963776573 114 112 115
234.750712986377 657.690947205313 2845.78686505368 121 119 122
239.104743654436 656.533605738463 2839.37373251437 130 130 132
245.925739752651 655.853770616155 2834.78971175168 159 161 160
254.404399035212 655.490330400296 2831.41340622043 170 172 171
265.382239632829 655.599774028796 2829.8376887286 194 195 197
273.058584088327 655.074265876026 2825.83456762901 198 199 201
283.242523247105 655.020650493047 2823.62506431788 214 215 217
-230.987973315501 663.074838217924 2999.3101484463 205 205 207
-229.597043876753 661.270936021169 2990.17607297827 201 201 203
-226.806165094663 659.81331460646 2982.47288892987 199 199 201
-225.461083351936 658.014710692432 2973.37883248779 200 200 202
-224.141202812636 656.219059262556 2964.30628418956 199 199 201
-222.127814688302 654.59710475363 2955.95478325126 190 190 192
-215.810718580859 654.000910610802 2951.80696872741 185 185 187
-210.212971148245 653.233429400835 2946.96017311625 180 180 182
-205.340689329971 652.295514844301 2941.41969265698 183 183 185
-199.746015375119 651.527489365481 2936.57556446635 168 168 170
-191.965041064445 651.267319738808 2933.80329838223 159 159 161
-181.979310342775 651.512490516355 2933.0869141784 157 157 159
-173.435697020758 651.416168801438 2930.97584058396 158 156 159
-167.081415914674 650.811583329949 2926.79585086122 160 158 161
-159.98671071711 650.37423449345 2923.29597062584 159 157 160
-149.927497406092 650.607473129807 2922.51597374109 161 159 162
-136.138205974869 651.675568638804 2925.11419405346 157 155 158
-123.790952054796 652.402213036512 2926.3179709777 133 131 134
-115.134216835956 652.287692659304 2924.10896849695 97 95 98
-113.935697955761 650.501797708569 2915.14154548873 106 104 107
-112.012875158866 648.885624202488 2906.86881882686 122 120 123
-111.61426735151 646.939253955122 2897.27248650975 149 147 150
-108.984407151159 645.494685801127 2889.70909398128 154 152 155
-107.882852841873 643.720621549167 2880.8256369888 158 156 159
-106.04900067865 642.115060217113 2872.62964009314 162 160 163
-101.957163073926 641.007633165927 2866.44375177243 169 167 170
-98.6360462695326 639.73616678332 2859.60336146662 170 168 171
-93.8005519761087 638.795301483685 2854.09478519834 169 167 170
-88.9696752378564 637.854780803121 2848.5905244108 171 169 172
-83.3758804179245 637.078669313205 2843.74721059556 172 170 173
-77.7828312757038 636.302268984718 2838.90454495767 180 178 181
-75.2782936201526 634.871763557145 2831.44968285662 185 183 186
-68.9209787928409 634.259321447746 2827.26679909701 181 179 182
-63.3363782074174 633.483160606594 2822.43145457509 175 173 176
-56.1963196959003 633.0320307945 2818.89266980622 181 181 183
-52.9496158235938 631.767860893095 2812.116728582 184 184 186
-48.9338501437819 630.667302740584 2805.99641450951 184 184 186
-40.221501584075 630.538308345426 2803.73961925208 186 186 188
-26.7761605847223 631.375720381997 2805.31418772946 192 192 194
-10.1375727851956 632.852114589792 2809.41027280606 196 196 198
0.234707347253948 633.033131167363 2808.35926805436 181 181 183
11.423010151975 633.371165715431 2807.92323051274 186 186 188
28.2001035450556 634.827469897516 2811.89939799675 184 184 186
46.6265716671255 636.59585776003 2817.09080806408 181 181 183
59.5279836884322 637.236614248536 2817.81483279878 163 163 165
65.2602169572871 636.436738775819 2812.85168339494 163 163 165
72.5966962593332 635.955181994911 2809.14253532133 182 182 184
85.573164770322 636.584782504524 2809.80157818957 189 189 191
99.3921989503068 637.367886285327 2811.0526052739 179 179 181
110.016297062519 637.511816187923 2809.78358115023 171 171 173
124.717896202954 638.4425873286 2811.59196144384 160 160 162
142.714808288771 639.998198232081 2815.83380109589 163 161 164
172.99463046397 643.907536716017 2829.26452398892 147 145 148
204.212788946618 647.95709163442 2843.20430934229 148 146 149
225.729616135035 650.105865266949 2849.68482734503 119 117 120
234.187767012484 649.73752151902 2846.32632896066 131 129 132
241.011251920234 649.054873695135 2841.73985377083 148 148 150
248.663254491432 648.527733034628 2837.75784123601 154 156 155
258.80353318008 648.466800318568 2835.58591192735 163 165 164
266.476269606595 647.936567967575 2831.58594864909 181 182 184
274.987498843023 647.560477215115 2828.1814955439 189 190 192
285.176390502583 647.49263839977 2825.96747637768 211 212 214
-224.472910822481 659.451451117403 3017.50706250304 220 222 221
-225.863636926436 656.979487048345 3005.49491793565 200 200 202
-227.295815406414 654.512686230206 2993.51866817455 199 199 201
-227.344894543412 652.388985767499 2982.98793494331 198 198 200
-227.427090841186 650.269318293389 2972.48619492467 199 199 201
-225.393218470139 648.658880245665 2964.11718043934 197 197 199
-221.943456705538 647.387096724626 2957.16529097749 189 189 191
-214.183179723765 647.123606049 2954.41098553277 184 184 186
-207.856364782794 646.522876949191 2950.25446122036 178 178 180
-200.076605578211 646.255744508259 2947.48329343158 181 181 183
-195.918606865019 645.151572079761 2941.23972429715 163 163 165
-188.125558641496 644.881691807818 2938.457056244 155 155 157
-180.320759802017 644.609690087123 2935.66421725668 154 154 156
-171.771444465682 644.501820962414 2933.54827634898 155 153 156
-165.411025100865 643.893721710908 2929.36267363329 157 155 158
-156.836048756146 643.781460797471 2927.224835379 156 154 157
-145.289558013423 644.32775041769 2927.80025485064 160 158 161
-130.746515320913 645.529293063309 2931.06788349576 144 142 145
-119.870548436317 645.899988232776 2930.90234708126 98 96 99
-113.437481817379 645.279680075822 2926.65385749316 93 91 94
-111.483973020198 643.673507176232 2918.35446936766 107 105 108
-110.301039672905 641.905880419126 2909.40043652267 127 125 128
-110.646038970882 639.81412699702 2899.12598091406 155 153 156
-108.010999158525 638.379940238614 2891.55803175798 152 150 153
-106.90386739109 636.621653445327 2882.66963834371 159 157 160
-102.792161512138 635.517509377712 2876.46650820176 163 161 164
-100.208455521593 634.08924770083 2868.94301351954 167 165 168
-96.1188795214376 632.987343066578 2862.75873411456 167 165 168
-92.8017248106476 631.724464955197 2855.92172224548 167 165 168
-87.2007470142835 630.947835269279 2851.07218604429 169 167 170
-82.3681581050235 630.009659113441 2845.56642606402 171 169 172
-77.5405706717365 629.071775000104 2840.06468363747 184 182 185
-74.2610706467262 627.812792375523 2833.26059870803 185 183 186
-67.8996446238065 627.197161613643 2829.07417228995 176 174 177
-60.7591167171648 626.741005781437 2825.53469773534 175 173 176
-52.8331509632256 626.443403972653 2822.63700491717 182 182 184
-48.7953277057334 625.345766334445 2816.49786933709 183 183 185
-45.5486098380677 624.089769010702 2809.72186302409 184 184 186
-38.3949334019631 623.6304950073 2806.1710123722 186 186 188
-24.1589318373121 624.599048483387 2808.38301350282 191 191 193
-8.30275730506536 625.878116503731 2811.8352620882 198 198 200
2.86482854804992 626.200436207923 2811.41728250579 181 181 183
11.6835163700237 626.044881967795 2809.06817578304 183 183 185
27.6659894031166 627.305623682394 2812.41107567291 181 181 183
47.6821429668037 629.345625872788 2818.86972541684 179 179 181
58.1909043841753 629.490423976594 2817.7003466135 161 161 163
63.921294747312 628.691036235461 2812.73879136178 160 160 162
71.255664850014 628.204545660388 2809.031818891 173 173 175
85.0329412095219 628.966563797397 2810.31917561481 188 188 190
98.0437896627411 629.566921091665 2810.94860964811 181 181 183
108.664824544491 629.695094257777 2809.68234264043 171 171 173
124.983394370342 630.907377145499 2812.73393386072 156 156 158
145.417499660001 632.887589804315 2818.8307172583 164 162 165
178.143812086718 637.179375740851 2834.10859897239 154 152 155
211.00387714923 641.452310601397 2849.2706746248 148 146 149
230.079324848263 643.084701775224 2853.90047202741 118 116 119
237.728334070373 642.552851712171 2849.92076894004 120 118 121
245.384797789044 642.019900165253 2845.93492742303 128 128 130
253.048694337687 641.485827855548 2841.9426508677 134 136 135
261.546717884636 641.103790217097 2838.54968214423 145 147 146
267.569393480283 640.261686356394 2833.33506957694 183 184 186
275.253011613039 639.724576597327 2829.32540378567 187 188 190
287.9422319401 640.09980796308 2828.91180242623 164 165 167
-227.842346340249 651.281585929569 3015.18705530792 216 218 217
-226.406838328812 649.505096752875 3006.01416435152 199 199 201
-227.83666922536 647.065377705683 2994.03570436493 199 199 201
-229.307970540376 644.630884225384 2982.09315441886 199 199 201
-228.678192173099 642.699434355416 2972.29636158373 197 197 199
-225.21263096444 641.434236537354 2965.33073550029 195 195 197
-220.323209371553 640.501162392701 2959.77568352914 187 187 189
-213.99773322445 639.898547517362 2955.62033181737 182 182 184
-209.113389010283 638.965228915313 2950.06968217694 175 175 177
-199.887118191945 639.019482045705 2948.68920993596 179 179 181
-192.093726443119 638.741979909971 2945.90629352695 159 159 161
-183.560118674522 638.626314985729 2943.80401744979 150 150 152
-176.471756154766 638.180649996674 2940.31000404298 150 150 152
-170.108546688788 637.570019095848 2936.12199945148 151 149 152
-164.476480312868 636.79534099654 2931.24550501459 154 152 155
-154.424445307321 636.997537187366 2930.47193098103 154 152 155
-139.915596804934 638.171585828209 2933.76937512166 155 153 156
-126.099162692413 639.176139819594 2936.34448164713 125 123 126
-117.438613730262 639.039966021199 2934.13231397269 95 93 96
-111.742076976636 638.254240094917 2929.20001233228 101 99 102
-109.781149935884 636.660871931834 2920.89411157342 112 110 113
-109.339739156674 634.747581272206 2911.26015051268 139 137 140
-108.176330462883 632.998865222106 2902.32323335768 158 156 159
-106.285297787969 631.413869577178 2894.07754279105 154 152 155
-105.925696389989 629.510750157854 2884.51473846458 162 160 163
-103.323808816325 628.091448255409 2876.97542709118 165 163 166
-101.498426193529 626.514395509631 2868.7865863143 165 163 166
-95.1260304337733 625.896830544138 2864.59098007754 164 162 165
-91.0405728075023 624.800780463716 2858.41023227758 165 163 166
-85.4331916113362 624.02349802387 2853.55515024948 168 166 169
-82.1290358061382 622.770065867814 2846.72934378909 172 170 173
-77.2987671281311 621.834807229494 2841.22557593106 185 183 186
-73.2450684581623 620.741836452276 2835.07233480613 184 182 185
-66.105755916372 620.280895939636 2831.53426016962 175 173 176
-60.510433068595 619.503710318412 2826.68962891811 176 174 177
-54.1382354841211 618.883425023874 2822.49389656194 182 182 184
-52.4411102516011 617.320882384476 2814.41644256237 183 183 185
-46.8563653266303 616.544223015526 2809.58097616665 184 184 186
-38.9211004449841 616.236393699695 2806.67497422189 186 186 188
-20.7577349651134 617.955744547437 2812.0947425674 190 190 192
-4.10555620596398 619.354305141978 2816.17986774738 200 200 202
6.28302189096752 619.500586460012 2815.11464653654 182 182 184
10.3594376840306 618.401674050966 2808.94206967923 182 182 184
26.3376141117821 619.627781326938 2812.28891802341 180 180 182
46.3483159299716 621.619598456142 2818.75228971868 179 179 181
57.65229765501 621.903038508335 2818.21634287249 161 161 163
62.5827242850674 620.949829927465 2812.62588083336 157 157 159
69.9148760502868 620.458428002314 2808.92086290109 168 168 170
84.4924640107831 621.347361183155 2810.8369992529 186 186 188
99.9206222525162 622.383262254042 2813.33853979793 181 181 183
114.588445054542 623.259354681439 2815.17654957754 171 171 173
130.110816967436 624.281729448454 2817.59651939809 154 154 156
151.368045922175 626.363874423403 2824.30215676362 163 161 164
187.362442443042 631.172778793915 2842.03779609715 153 151 154
221.057233965595 635.5051734031 2857.79925989419 140 138 141
240.156221207241 637.090857224321 2862.4089573939 113 111 114
247.010934402978 636.398853628934 2857.79547615001 112 110 113
250.578392115821 635.102596207961 2850.74173397076 115 115 117
256.606825466213 634.259986429499 2845.52213422883 122 124 123
263.461276054216 633.567830795087 2840.90919709456 128 129 131
268.661264856156 632.575003932935 2835.08503704637 162 163 165
274.687217323079 631.732518657198 2829.86758676854 155 156 158
285.709312659735 631.787337172315 2828.2541815886 148 149 151
-238.268258985186 641.488109719572 3005.76011626139 204 206 205
-233.320813061112 640.552319421438 3000.15447460463 201 201 203
-230.507378858884 639.12524883025 2992.4318585056 201 201 203
-229.134769839142 637.372830703548 2983.31332838518 195 195 197
-229.929253230959 635.133595056557 2972.10615161361 194 194 196
-225.748605896724 634.039899032552 2965.84319973071 193 193 195
-218.704479526518 633.597683919685 2962.38718951663 182 182 184
-212.372528214607 632.991584229357 2958.22656364131 174 174 176
-207.481645709595 632.060177559073 2952.66991912699 175 175 177
-198.249659611199 632.10017886914 2951.28490111234 174 174 176
-188.271411825573 632.298508333801 2950.57530617102 146 146 148
-179.725920323328 632.170553327541 2948.46280967478 148 148 150
-174.086163107563 631.395797669956 2943.57964981314 145 145 147
-169.912017282921 630.299242074632 2937.32203603954 148 146 149
-161.339366548781 630.16618447916 2935.18634823855 160 158 161
-149.804904620455 630.671215539051 2935.7724608725 146 144 147
-133.80660540048 632.130684446679 2940.42361675227 151 149 152
-122.195319180284 632.624313708795 2940.94353240782 95 93 96
-116.493722258331 631.838445297543 2936.00684586095 104 102 105
-110.792810328856 631.05219004589 2931.07075552841 110 108 111
-108.82666090589 629.471900142484 2922.75992808288 132 130 133
-107.63050614749 627.735609890917 2913.79423270431 144 142 145
-107.210481035614 625.844235327739 2904.17898086614 153 151 154
-104.561002582257 624.430261979261 2896.59838623751 153 151 154
-103.438703724675 622.702989777805 2887.69664598571 159 157 160
-101.584516471255 621.136243145297 2879.48308792907 159 157 160
-98.9926651604964 619.72908009874 2871.95208117255 161 159 162
-91.8508765633663 619.264572278713 2868.41188356612 163 161 164
-87.754560688543 618.172719144776 2862.22169733553 163 161 164
-83.6670068430467 617.081798715593 2856.0394149396 167 165 168
-81.1231027899857 615.679857385876 2848.55024747076 175 173 176
-75.5190290686447 614.90254127929 2843.69803236813 186 184 187
-70.6872021865266 613.969655646941 2838.19258306861 181 179 182
-63.5398465685517 613.502361977966 2834.64757837748 179 177 180
-57.9361341851086 612.724136354553 2829.79568235309 182 180 183
-51.55571482979 612.1002286025 2825.59284736622 180 180 182
-49.0697152741348 610.704438489231 2818.1538279466 181 181 183
-43.4745099467548 609.926580003682 2813.30930291442 185 185 187
-37.0965747374394 609.302138445835 2809.10862448526 186 186 188
-20.5012230785684 610.670803402187 2813.24319748015 189 189 191
-7.00051747239216 611.419104608372 2814.77035690313 202 202 204
7.32992370924324 612.314222926707 2816.90066417193 183 183 185
12.9945360262207 611.525340484175 2811.99605304258 179 179 181
25.0091284744016 611.954243439516 2812.1665126089 180 180 182
40.2392608701057 612.986181173512 2814.83971495516 174 174 176
51.5278203636291 613.252953789185 2814.31724311677 160 160 162
63.6442225784104 613.667000285855 2814.39987228193 157 157 159
69.3760895498956 612.867683175418 2809.43703674299 164 164 166
83.9517736309285 613.727109327245 2811.35501446185 174 174 176
98.5715429783065 614.580239132603 2813.23482269623 179 179 181
117.276155230882 616.178281489726 2818.18625909099 169 169 171
132.804540532423 617.167388119541 2820.60123246981 145 145 147
155.690883978155 619.496524162331 2828.54009449692 161 159 162
199.018831522254 625.548375665903 2851.82140610338 147 145 148
230.28903183425 629.337595779903 2865.71808742149 129 127 130
246.954528791223 630.4303880217 2868.47007424229 111 109 112
251.366333284145 629.287843153283 2862.00677116999 113 111 114
254.946681775758 627.99817388952 2854.94181339802 115 115 117
260.163002179256 627.006134188202 2849.10380857574 123 125 124
267.027284749249 626.310057163738 2844.48205960714 126 127 129
272.237952357292 625.318718846755 2838.64894972088 148 149 151
274.951882788223 623.886693467187 2831.01260922421 137 138 140
282.64427998578 623.337861451977 2826.99541026243 175 176 178
295.352130551742 623.667346039333 2826.56595784554 196 197 199
-242.356320735522 635.289604323379 3013.31333540971 217 219 216
-241.633104186139 633.385844442697 3003.43537691173 206 208 207
-238.816064582424 631.969756508524 2995.70956471375 199 199 201
-236.725504655353 630.394383102392 2987.29118986625 198 198 200
-233.232489310082 629.143094528745 2980.30167816353 192 192 194
-230.466174574136 627.732408267337 2972.6194805159 191 191 193
-224.137212530973 627.125064276627 2968.46145361035 189 189 191
-217.80479244431 626.516693413632 2964.30012063551 179 179 181
-213.628635835957 625.42822114398 2958.04071166324 173 173 175
-208.73908863201 624.499920976832 2952.48551988497 172 172 174
-199.509773855464 624.526717819959 2951.10290276627 170 170 172
-185.177869706152 625.662471667369 2954.55364357626 145 145 147
-176.622375562569 625.522382333088 2952.43287157484 149 149 151
-170.241873549166 624.904661668117 2948.22992485275 147 147 149
-166.786898014459 623.653854794936 2941.27338049974 144 142 145
-158.204612980657 623.508668082981 2939.12910538906 154 152 155
-142.979225747064 624.778094973855 2943.12814247433 144 142 145
-127.701141198936 626.039826176029 2947.08155477116 135 133 136
-117.553652841617 626.1955713774 2946.22554889016 98 96 99
-114.807392723273 624.781409879676 2938.56107133293 103 101 104
-110.5892057275 623.681797729523 2932.26530529982 109 107 110
-110.112831946778 621.802776701137 2922.60113399372 152 150 153
-109.665867462628 619.927386893217 2912.96242925167 167 165 168
-107.746969543145 618.366635378965 2904.69242977339 160 158 161
-105.096386522832 616.963652104723 2897.11080656093 156 154 157
-102.462954319724 615.562619239922 2889.54403593952 158 156 159
-99.8465767183983 614.163613656342 2881.99203401766 160 158 161
-97.2475755162456 612.766536721786 2874.45476483501 160 158 161
-91.6217156060104 611.987813733597 2869.58367597601 161 159 162
-87.5225195633962 610.901284106219 2863.39127441686 165 163 166
-82.6674403248448 609.969069815794 2857.8656671139 173 171 174
-80.1184195309785 608.577578234798 2850.37199706726 180 178 181
-76.0481095869139 607.49410033556 2844.20461235274 185 183 186
-71.2158689365059 606.564063459737 2838.69878596536 180 178 181
-64.0686022900043 606.091571675747 2835.15389207291 178 176 179
-57.6894430008772 605.465617830359 2830.95216248944 181 179 182
-50.529495264338 604.990729573835 2827.39629296964 180 180 182
-48.8178870550158 603.453881704597 2819.30580403789 181 181 183
-43.2204271739241 602.675899253407 2814.45932570627 185 185 187
-36.8402331663793 602.048660477374 2810.25702313438 186 186 188
-20.2454783721455 603.379415784732 2814.39204359593 189 189 191
-5.95700541859845 604.250901689801 2816.55887937516 202 202 204
9.16531793016295 605.266097649437 2819.32563218467 184 184 186
19.5860307181106 605.375435573287 2818.23311358902 178 178 180
31.6176892889559 605.780361413943 2818.38893670569 178 178 180
42.8854312435178 606.03128301656 2817.88461089156 172 172 174
52.5855620771805 605.980271725497 2816.09442477152 158 158 160
64.7044640020042 606.37231053457 2816.17471444565 157 157 159
72.8461300839069 606.017812966816 2813.09043508591 163 163 165
85.8224470289248 606.550178745199 2813.75023940531 173 173 175
101.252400161268 607.520771769899 2816.2506474519 180 180 182
121.578062227734 609.369683730389 2822.44195780792 170 170 172
138.736360025939 610.619335752854 2826.08906084292 146 146 148
168.131586525647 614.065470629894 2838.96623530313 154 152 155
211.483460674022 619.988668314876 2862.22764254158 143 141 144
239.515861158306 623.104131544556 2873.64133279904 108 106 109
252.930768545758 623.574167888914 2873.92139891332 109 107 110
255.719125349435 622.143318111366 2866.22054278623 117 115 118
259.312413820511 620.860290265053 2859.14432643238 119 119 121
263.71686734233 619.724274833905 2852.68735240004 130 131 133
273.070160427387 619.459265694717 2849.87559335009 144 145 147
277.469021091195 618.323875943576 2843.42377830725 133 134 138
279.36755497795 616.756494698513 2835.17147202894 148 149 153
282.909866593177 615.480242153154 2828.13939524428 202 203 207
293.949231708695 615.500336502163 2826.51124673971 190 191 193
-245.009679646786 627.346891508984 3011.69478331257 199 201 198
-244.291023369068 625.462917088213 3001.82033364284 201 203 202
-242.186391145868 623.899871510476 2993.38968194582 201 201 203
-238.683782953566 622.656034434691 2986.39180749188 199 199 201
-233.770748352391 621.729751338118 2980.81624527153 192 192 194
-230.289555435163 620.487899997214 2973.83691933864 190 190 192
-223.958550129378 619.877533819631 2969.67682553493 188 188 190
-217.6239084902 619.266288671418 2965.51358568611 178 178 180
-212.005371476507 618.497085648241 2960.64878215514 168 168 170
-205.665418899151 617.884219229092 2956.48126514402 166 166 168
-195.702836885611 618.052567185209 2955.78512705855 165 165 167
-183.538214082387 618.685771146981 2957.1478024327 143 143 145
-174.249084232718 618.689960264095 2955.71348793872 149 149 151
-168.590183505982 617.912955894903 2950.81375027972 149 149 151
-162.199885233863 617.29086175821 2946.60234112829 143 141 144
-151.401328531744 617.598112281134 2946.50431002431 140 138 141
-133.949104965339 619.293940430984 2952.54060305559 136 134 137
-120.123091512764 620.207973962327 2955.10799339755 111 109 112
-114.395555705756 619.419301013201 2950.14884286011 108 106 109
-112.380221894303 617.86076567297 2941.7955600799 110 108 111
-109.641714705961 616.458427784951 2934.13772564849 118 116 119
-107.666847921331 614.904571426433 2925.81917126224 159 157 160
-107.958432494065 612.894098634962 2915.49820800362 174 172 175
-108.283708947946 610.887781666214 2905.20610426675 173 171 174
-106.384528047132 609.343331773521 2896.95340411521 171 169 172
-102.24293163776 608.2580166238 2890.72392925144 163 161 164
-98.8668482578925 607.021607105148 2883.83567026956 161 159 162
-95.503831906306 605.786657912083 2876.95872748783 161 159 162
-92.1538645405584 604.553106728629 2870.09308567203 168 166 169
-88.0540066058892 603.47217714956 2863.90007413879 187 185 188
-83.1985092271124 602.542870913058 2858.37408557442 190 188 191
-79.8813490380681 601.312951655147 2851.53717089578 188 186 189
-74.2706346573279 600.535130501041 2846.67920336768 179 177 180
-69.4317894980783 599.607168551531 2841.16763916952 175 173 176
-63.051555555576 598.978936275564 2836.96530842247 179 177 180
-56.6682047118965 598.34996261415 2832.75996543648 182 180 183
-49.5045210840956 597.869219173427 2829.20058031434 181 181 183
-47.0083509180319 596.494396910731 2821.7526097889 181 181 183
-42.1857027712127 595.567231109123 2816.25539447739 184 184 186
-36.5847260185794 594.788745092442 2811.40587120991 185 185 187
-21.5609113807238 595.785617413466 2814.25812379765 188 188 190
-7.27640880144786 596.627814701328 2816.42859063395 203 203 205
8.63111921801796 597.758455846207 2819.83729111593 184 184 186
24.5908579935823 598.881556657203 2823.20078752046 175 175 177
39.0159146187763 599.703507823523 2825.24956230837 174 174 176
50.3028984563656 599.932944005503 2824.72869808864 169 169 171
56.0348331928533 599.134546004712 2819.76579785948 156 156 158
68.9622994546721 599.649715768257 2820.46805425253 156 156 158
77.1157770347783 599.285632724268 2817.37359955686 159 159 161
89.2989508739355 599.646738281638 2817.39838290086 168 168 170
99.9026103161755 599.713023505292 2816.14757684656 179 179 181
118.607423888822 601.224143915193 2821.09940200637 168 168 170
139.806245992537 603.159820218259 2827.85692732258 146 146 148
178.942078094045 608.258339336787 2848.16093829838 157 155 158
222.313803801646 614.053491881825 2871.40596921259 136 134 137
244.658267195414 616.086345285721 2878.49315720518 104 102 105
255.631968427634 616.10007160151 2876.92196321354 107 105 108
259.249231310567 614.822288978219 2869.82493338601 111 109 112
264.497543981387 613.831869560913 2863.95918921622 118 118 120
268.916666196195 612.69953791794 2857.48947742937 133 134 136
276.631466912553 612.137440505346 2853.45326200551 143 144 146
278.556289764066 610.580292705164 2845.17810382352 141 142 146
281.290224159903 609.167821074201 2837.52429846265 161 162 166
285.671667055749 608.040585958849 2831.08752718314 202 203 207
298.386508987774 608.325779166348 2830.65198659438 186 187 189
-244.199179693961 622.227613045104 3024.25902218183 226 228 225
-241.334029132983 620.82802002875 3016.49108808753 197 199 196
-241.306283426267 618.805144379726 3005.89343016835 198 200 199
-240.604576677448 616.942308975423 2996.03384979605 198 198 200
-239.932025831779 615.083010780542 2986.19951697181 196 196 198
-234.309202256023 614.315146837068 2981.33098944616 188 188 190
-229.400331397947 613.391767785056 2975.75870176048 186 186 188
-222.349470659816 612.933157423007 2972.29727638213 185 185 187
-217.443447697533 612.00925586256 2966.72777596882 175 175 177
-210.383464081208 611.548466476261 2963.25814207131 166 166 168
-203.315639719891 611.086134329322 2959.78203782825 166 166 168
-193.345499454903 611.237287391645 2959.07977567075 165 165 167
-184.07712285733 611.231223941439 2957.66319969037 142 142 144
-174.060919101954 611.375125555896 2956.92105963958 147 147 149
-166.939897441673 610.903742833907 2953.39890603331 146 146 148
-157.615838567083 610.888713356103 2951.93412632204 144 142 145
-144.602172299476 611.632178748088 2953.88345158239 135 133 136
-124.924263295896 613.738184281807 2961.95810321341 132 130 133
-113.28751240773 614.163595087112 2962.45607427037 112 110 113
-112.719689565947 612.311843234973 2952.71246407101 112 110 113
-112.181186363221 610.46371052899 2942.99424280454 110 108 111
-110.183692572712 608.921112006144 2934.65631934076 128 126 129
-106.715027140238 607.682205370149 2927.68783234745 151 149 152
-106.252417360853 605.843395053599 2918.03533022963 161 159 162
-107.319920070524 603.707999843031 2907.0641162258 184 182 185
-107.672721418211 601.727188259827 2896.79570402823 185 183 186
-102.777927585465 600.797283228675 2891.23597520775 176 174 177
-98.6444154568904 599.718408867342 2885.01378105711 173 171 174
-94.5200044496852 598.640408597038 2878.79915399851 177 175 178
-94.9679908884664 596.671307839716 2868.61316625434 183 181 184
-90.1110188242038 595.745148884417 2863.08619464543 193 191 194
-83.7297754540196 595.115530803982 2858.88268245833 191 189 192
-77.3450356337935 594.485164617274 2854.67646013289 187 185 188
-72.4947001857714 593.55891904957 2849.15492576623 176 174 177
-69.1905995875533 592.338543748812 2842.32926845931 175 173 176
-62.8084213385174 591.707482271052 2838.12495533235 181 179 182
-57.1978671209643 590.929023938475 2833.26713075238 184 182 185
-49.2572402029889 590.589563498219 2830.35700182132 181 181 183
-45.9790613308608 589.371578967599 2823.55348080105 182 182 184
-40.3709688449321 588.592583810651 2818.69779337099 183 183 185
-34.7636603075689 587.813394798381 2813.84278667352 183 183 185
-21.3061095124747 588.486661396388 2815.40783614859 187 187 189
-3.08562971811099 590.02396198417 2820.779281155 201 201 203
13.6210011278104 591.262667100857 2824.81793110874 184 184 186
30.3839401892598 592.493220186436 2828.80782953348 170 170 172
42.4437051616162 592.85108539018 2828.93991228863 169 169 171
53.739727967832 593.060350307251 2828.41134438019 167 167 169
61.8741469648612 592.691378083069 2825.33344012553 153 153 155
73.2175346493662 592.893695381773 2824.7638643953 151 151 153
85.3899599980603 593.234899034384 2824.79809280718 152 152 154
95.9873930417245 593.286122997956 2823.55278099367 157 157 159
108.219555258152 593.618735074481 2823.53560450154 174 174 176
121.290723727328 594.088778993973 2824.1132859299 161 161 163
144.922999953348 596.397729118524 2832.7293283943 146 146 148
192.18210558211 602.799310621483 2859.21803311202 142 140 143
229.070139150302 607.335255687728 2877.50383923756 114 112 115
248.166365863975 608.747791090908 2882.11705139216 100 98 101
258.331321101031 608.603377505958 2879.92427499012 109 107 110
264.416897969343 607.754120131588 2874.65518998379 111 109 112
268.036092437872 606.484453696495 2867.55674890134 120 120 122
269.170445297735 604.796939508984 2858.64430337956 129 130 132
274.408949341823 603.810693373709 2852.78671814331 145 146 150
276.330961619669 602.267959638705 2844.51421809588 168 169 173
279.891583691609 601.006099153805 2837.46617771931 209 210 214
284.271176630878 599.88475022133 2831.0306562082 176 177 181
299.484924953408 600.564248204751 2832.39708216587 193 194 198
-244.043918280593 614.895111532891 3025.4952271986 229 231 228
-240.472497605108 613.65997322752 3018.43765412379 199 201 198
-240.438686936584 611.658259025939 3007.8346023575 194 196 195
-239.731306109428 609.813860749254 2997.96966907167 195 195 197
-237.63464538368 608.279017140906 2989.54574380856 193 193 195
-231.292113507221 607.662876687526 2985.37569692918 185 185 187
-226.372276828051 606.740887641769 2979.79421127777 184 184 186
-221.456989435775 605.819062109064 2974.21666759727 183 183 185
-216.546492491487 604.897320540887 2968.64295991329 175 175 177
-208.043644061014 604.733816826153 2966.56765405667 164 164 166
-198.803383980717 604.719015913641 2965.17581980427 161 161 163
-189.543131628229 604.701043522248 2963.76667808221 160 160 162
-182.439644800535 604.227598412245 2960.2594203971 138 138 140
-173.14563910104 604.204122227856 2958.82105910066 145 145 147
-163.102279950014 604.327606402357 2958.05519928504 145 145 147
-151.571346735683 604.747198219895 2958.64523954352 139 137 140
-135.605929188221 606.059733053066 2963.32584728723 136 134 137
-118.84784826924 607.513380140174 2968.64208716892 136 134 137
-113.096451556523 606.722272327051 2963.66227130481 116 114 117
-114.00468604556 604.591718253907 2952.55298243863 118 116 119
-112.72469620289 602.911449861849 2943.51426115606 132 130 133
-109.981969144425 601.53073150416 2935.85262911644 170 168 171
-106.510333759226 600.299868850354 2928.88151583314 164 162 165
-106.04405455025 598.479817770379 2919.22571172848 156 154 157
-104.857041704988 596.81081312146 2910.26750396225 175 173 176
-103.695356553345 595.144919960457 2901.33122845595 175 173 176
-101.804669793305 593.628952023921 2893.08570591775 185 183 186
-99.178998223842 592.262051405247 2885.52544053866 186 184 187
-95.0539253245819 591.189651183251 2879.31020350598 192 190 193
-92.4584404423543 589.826276875819 2871.77607916318 193 191 194
-87.5930295143146 588.901863728514 2866.24146646198 189 187 190
-81.2033163769379 588.268641932403 2862.03095208823 188 186 189
-74.810495082255 587.634560156052 2857.81743382265 183 181 184
-69.9513570780663 586.710145640188 2852.28857361175 175 173 176
-68.1797281281451 585.207823698279 2844.14583881783 176 174 177
-61.0206355612171 584.71795929347 2840.59080755009 183 181 184
-57.7277470830828 583.506976723736 2833.77449181268 185 183 186
-51.3410667407217 582.872194861335 2829.5663006678 181 181 183
-47.2872580237311 581.806539555012 2823.41310266907 183 183 185
-41.6809592428269 581.028085389888 2818.55896640199 183 183 185
-34.5098736477842 580.535056571685 2814.99324533833 182 182 184
-20.266917200364 581.323763485232 2817.20038383227 186 186 188
0.315492625864167 583.244247385905 2824.49195876036 202 202 204
20.1859468701322 585.011806264417 2831.07865678098 186 186 188
33.0096839288574 585.493725150106 2831.87103446937 170 170 172
41.1105025305347 585.12185980294 2828.82195611978 169 169 171
52.4035691241296 585.312860548857 2828.29638433221 167 167 169
62.1297582274449 585.217954474715 2826.48358149964 151 151 153
76.6708365828861 585.963556241186 2828.43229082962 150 150 152
88.8522871022812 586.281977692316 2828.45915994371 152 152 154
101.065385841409 586.595785459128 2828.45831279213 155 155 157
114.115730151974 587.044701527644 2829.05449568913 172 172 174
125.587018104044 587.209582721085 2828.37430678658 159 159 161
153.27444198453 590.15324931854 2840.08811391304 148 148 150
200.546303474125 596.414057279746 2866.56667488373 144 142 145
233.382192909844 600.151541850917 2881.75317415208 109 107 110
250.04105131941 601.104555498591 2884.51182060931 106 104 107
259.393837916646 600.808114442566 2881.70070423016 113 111 114
264.663928455848 599.820780727072 2875.81606440362 117 115 118
265.82074773112 598.146919252267 2866.88405796215 137 137 139
267.775897036961 596.613624241753 2858.58246018545 126 127 129
269.709955850301 595.083221659617 2850.29943906653 131 132 136
272.450503528182 593.692286779271 2842.63976217772 208 209 213
276.003591952946 592.440004584575 2835.59818941639 216 217 221
285.366500029073 592.141451876546 2832.77831407123 166 167 171
302.249953844866 593.06242233631 2835.34250325756 199 200 204
318.349578102064 593.840544157366 2837.26373048738 211 212 214
-235.599478576014 611.363177753501 3045.98938618476 25 27 24
-243.188567998105 607.707363958713 3027.44696289107 200 202 199
-241.017483461437 606.177499069294 3018.95849957368 199 201 200
-240.276993497657 604.348366682433 3009.06508599854 189 191 190
-238.152028783266 602.823882159061 3000.61624601113 191 191 193
-236.047875735556 601.301773424799 2992.18574436098 189 189 191
-228.988124499693 600.832152180116 2988.71636910662 181 181 183
-224.059515674816 599.911856312481 2983.12726934938 180 180 182
-217.705420343582 599.290595363956 2978.94723318904 180 180 182
-214.216198254031 598.071677077136 2971.96079947713 172 172 174
-206.424700903748 597.747449361213 2969.17982779436 164 164 166
-196.457753556697 597.866963373672 2968.48053807543 158 158 160
-185.020065819789 598.279440093158 2969.15144364687 156 156 158
-176.45155413755 598.094816743881 2967.01936194546 136 136 138
-169.322055813498 597.612029724615 2963.48961969729 145 145 147
-159.267063365974 597.717710326675 2962.71410776589 146 146 148
-146.993598707076 598.261308847376 2963.98302663695 136 136 138
-124.414384856338 600.856402456806 2974.83320276907 140 138 141
-112.039634234989 601.38522280662 2976.01442921871 141 139 142
-111.430815989974 599.566935939357 2966.23506997587 116 114 117
-113.810295571759 597.167890743256 2953.75586468698 122 120 123
-112.52673900715 595.503760428012 2944.71394742317 140 138 141
-110.524598528093 593.988263426096 2936.37182088887 175 173 176
-108.543846622057 592.475235398718 2928.04790108775 174 172 175
-106.584119596653 590.964761589726 2919.74250326785 165 163 166
-102.395934006221 589.890838625239 2913.47257406458 163 161 164
-98.9686546881958 588.673345412234 2906.53981914475 166 164 167
-97.062364064298 587.169139728522 2898.28069595718 170 168 171
-95.9335164048172 585.523628506971 2889.37274981019 175 173 176
-94.0717598567109 584.024851375913 2881.15219072971 177 175 178
-91.4713187584777 582.671866352351 2873.61338782069 179 177 180
-88.12566764946 581.463898922401 2866.75132127638 187 185 188
-81.7358669748636 580.828180061394 2862.54074721201 181 179 182
-75.3430051576869 580.191577608606 2858.32721015819 173 171 174
-71.2519448232163 579.127919999042 2852.14139638563 174 172 175
-68.7105324297996 577.781529275207 2844.65402855845 179 177 180
-61.551618491861 577.286478829696 2841.09918572055 183 181 184
-56.7090500348701 576.36633963592 2835.58434371475 181 179 182
-49.5414830372187 575.869525008064 2832.0220123909 181 181 183
-45.4811434850098 574.808597287636 2825.86280773483 183 183 185
-39.868533147787 574.0294727942 2821.00320535877 182 182 184
-34.2567023871947 573.25021374284 2816.14427954173 181 181 183
-20.0136549395022 574.009144973906 2818.35153210963 185 185 187
1.35427388803144 576.017745830944 2826.285274869 206 206 208
21.2253687259656 577.736239297574 2832.87142009631 191 191 193
32.4700382411018 577.915582298071 2832.38787133873 173 173 175
42.9491653889156 577.95196494945 2831.24488015684 169 169 171
52.6572804488188 577.846519831584 2829.44812655348 166 166 168
64.7756828119253 578.152569488649 2829.52940642756 145 145 147
77.7249613112567 578.591770578812 2830.21324964922 146 146 148
91.5111549064367 579.163407401803 2831.49411116 151 151 153
101.321901068883 579.042853245572 2829.60850139797 150 150 152
116.787965808263 579.878398274585 2832.07816981825 166 166 168
132.302259540354 580.707081168947 2834.50639641663 152 152 154
166.476965066978 584.666962788582 2851.17789177443 148 148 148
208.905999349 589.968356279408 2873.91961041786 140 138 141
239.31821942478 593.206147087669 2887.23993093713 101 99 102
251.098869008656 593.308465808732 2886.2920125948 116 114 117
260.455159985924 593.000945213871 2883.47824615205 123 121 124
264.910196134166 591.881054147747 2876.97732585294 134 132 135
265.248806039955 590.08867656581 2867.43199799741 126 126 128
264.734486801209 588.165847974958 2857.30320343049 167 168 170
269.140094123934 587.052575874086 2850.84539749293 203 204 206
273.536534713418 585.940516074236 2844.39521332399 205 206 210
277.924120875392 584.829670910315 2837.95301124761 165 166 170
285.62910471368 584.253213120829 2833.92508200759 218 219 223
301.678459299045 585.005945960351 2835.89004429014 227 228 232
318.611452030726 585.884672553459 2838.41157005872 203 205 204
-241.737580145494 602.622523163897 3040.77942110351 182 184 183
-241.633580392687 600.656129151907 3030.1149895464 208 210 209
-241.562637392773 598.693819879463 3019.47949850886 196 197 199
-241.524963334563 596.735601725558 3008.87281634839 199 200 202
-239.400707774973 595.224986524626 3000.42450113738 191 191 191
-235.879927057113 594.011938952659 2993.41067638558 188 188 188
-228.81799922491 593.536716909972 2989.9397664031 178 178 178
-223.17403424043 592.76591599178 2985.05293389025 176 176 178
-216.100878764369 592.288201529784 2981.57199314336 175 175 177
-210.453749502373 591.516106124067 2976.68242642577 163 163 165
-202.65018944643 591.182169272165 2973.89106247785 159 159 161
-193.392720958547 591.137952384702 2972.4845036963 159 159 161
-181.946201172165 591.527418915443 2973.14758780675 154 154 156
-170.467205052255 591.912054916693 2973.78287032637 131 131 133
-161.86485582866 591.711556128134 2971.62156328484 145 145 147
-153.24666782825 591.508505104366 2969.44654474466 136 136 138
-137.29983934113 592.747757404092 2974.1437391678 129 131 130
-111.029313754994 595.997812710757 2988.40721395426 159 159 159
-106.706412495019 594.913802073568 2982.02058720627 137 137 137
-109.766627045091 592.394127949736 2968.80923570234 123 123 123
-110.658393760291 590.311001772947 2957.6853662907 126 126 126
-110.104608235 588.5187807877 2947.9535369766 149 149 151
-108.093190557089 587.015786034091 2939.60297303287 169 169 171
-109.08544145541 584.945263978429 2928.56611519958 174 174 176
-107.872085159951 583.3063000133 2919.58519546662 174 172 175
-103.685277385957 582.238251787747 2913.31642239793 164 162 165
-98.0037691961297 581.454400065433 2908.39713440907 161 159 162
-95.3383673769359 580.104726000722 2900.80232176596 168 168 170
-94.2019205932558 578.474779863193 2891.88768832275 171 171 173
-92.3329445972327 576.988841987042 2883.66047317572 176 176 178
-88.9650260576231 575.786641346429 2876.77938479284 176 176 178
-85.6103285131917 574.585929512647 2869.90943036134 175 175 177
-80.7406781363209 573.66651484633 2864.37111078718 175 175 177
-75.1097214181713 572.887225235661 2859.49560801328 171 171 173
-71.0157787299424 571.828920781355 2853.30757682538 176 176 178
