ply
format ascii 1.0
comment KinectMotionCapture
element vertex 807
property float x
property float y
property float z
property uchar red
property uchar green
property uchar blue
end_header
219.129315035302 255.634340608609 3618.26224095433 25 28 21
230.051640630508 254.919414173919 3616.21666897661 19 22 15
233.314096240119 254.309800613853 3632.64683502506 21 24 17
224.900904524876 253.847813413353 3677.79360533482 25 28 21
252.850057434862 252.912444117307 3634.09403581782 27 30 23
274.932491241485 252.065720348716 3604.20155237494 29 32 25
279.008917325506 251.441827411775 3618.80326680579 26 29 22
272.082753534969 250.937301618268 3661.31602220638 21 24 17
273.060761945556 250.333200103642 3684.3733614172 19 22 15
287.60230471826 249.582403636371 3673.00460365012 16 19 12
304.229443690348 248.81685147971 3656.00703756496 17 20 13
319.66881296338 248.070177939864 3641.76509049081 18 21 14
321.124080265924 247.45339196989 3663.93669922645 18 21 14
320.91281349758 246.843261158436 3690.82804482873 20 23 16
331.00747102129 246.143894351862 3690.60511147793 21 24 17
344.566294954501 245.420867918276 3680.99586360027 22 25 18
349.751193335949 244.759420131186 3693.8890589937 20 23 16
364.601477683362 244.034401025929 3680.48749683455 19 22 15
359.59018020477 243.428457257947 3721.61846326973 18 21 14
363.942217663688 242.10593657111 3765.46720111575 16 21 15
383.76134982899 241.3634588435 3737.89421434507 13 15 10
386.876937282185 240.690484796361 3757.5018192011 36 29 19
396.641573994867 239.992289100179 3758.22406202461 126 112 101
404.110910809378 239.300411116354 3765.5690777226 126 108 94
410.953624303815 238.608033601588 3774.81825536957 121 95 78
417.505498901747 237.91363322341 3785.02849788039 117 91 74
427.590353989304 237.215186881727 3784.80158861564 112 93 78
438.916125168398 236.518742870267 3780.76161252305 106 90 77
69.2492807662113 253.901135684912 3722.65974787371 23 26 19
68.8320991202953 253.293694951743 3747.30982609492 22 25 18
120.935818700773 251.502935430529 3677.79325519661 20 23 16
135.011335425902 250.74931416833 3669.47250984664 18 21 14
146.624606837014 250.023802802572 3666.62796903074 15 18 11
146.692679554265 249.405865956744 3690.39579472604 22 25 18
155.154329054249 248.707440925521 3694.9059587806 27 30 23
178.902306151957 247.883416049485 3663.5297964724 31 34 27
218.858658459224 246.331798119151 3617.14435661345 22 25 18
223.248124258006 245.677772968152 3630.79423886147 20 23 16
232.573952158988 244.354290664055 3657.23700385653 27 30 23
258.594217698661 243.573054744454 3618.14957113941 31 34 27
275.777795103108 242.851796598631 3600.29815916032 30 33 26
276.498100350523 242.210262975127 3623.25118268153 22 25 18
270.314464141207 241.586908893857 3663.90760942112 20 23 16
277.89187059444 240.903144102749 3670.21751211234 19 22 15
295.309550640684 240.191263840372 3651.38200741209 17 20 11
314.050718056258 239.485887385589 3628.76657706388 19 22 13
317.937905049257 238.816230275764 3644.37108217501 23 26 17
314.765250845034 238.14928169561 3678.69479321161 23 26 17
322.018383273269 237.463496083103 3685.95222310413 25 28 19
332.051876824467 236.084537044943 3712.68193741471 22 25 16
335.244327277117 235.386553832871 3731.24204497488 19 22 13
377.686917341145 234.751793748045 3642.70064598668 19 22 13
367.986832666274 233.32220466157 3724.01600296448 15 18 9
376.70787909231 232.631616759857 3727.55232745317 23 24 18
374.424796048015 231.894433832461 3762.23675191838 9 6 0
386.206544838223 231.211893792451 3757.30222717749 50 37 28
394.329919492524 230.513067353525 3762.75449455189 108 88 77
401.15947899974 229.805447686519 3771.99846177383 118 95 81
408.018836019012 229.095498784499 3781.25425422608 105 78 61
415.870119036931 228.390472379253 3787.67520875867 112 86 69
426.599870988364 227.707898224801 3785.55141985305 85 69 53
69.9313998560926 244.840398329646 3696.03234959071 20 23 16
59.0794487283013 244.231454336809 3743.42973623751 23 26 19
94.307360118407 242.724025454364 3712.39140835149 25 28 21
112.166865760291 241.981511939739 3695.89264418872 21 24 17
136.751946962148 241.226164215559 3663.77609071462 17 20 13
129.169123809461 240.572484719677 3704.94529178453 14 17 10
139.266782431196 239.863887891304 3705.80245166154 22 25 18
153.295056285534 239.149789326713 3697.46227843603 28 31 24
163.337467301409 238.445649986738 3698.29703516161 30 33 26
205.301848238613 237.720606553928 3623.58823177355 28 31 24
220.910079191095 237.034386819703 3610.49326274576 21 24 17
204.522161447781 236.344439188128 3673.99055699108 20 23 16
214.048836219714 235.650717388844 3675.69548216673 24 27 20
258.463074855093 235.007037058545 3592.2679471543 26 29 22
259.446886354257 234.317307398618 3614.24921966269 28 31 24
267.268603547408 233.63643112471 3619.57921200711 28 31 24
259.488905261005 232.90698939271 3663.90569841502 25 28 21
267.806613667384 232.217482422306 3668.35777136884 21 24 17
278.695788973657 231.538396453968 3666.29850541262 20 23 16
303.389804444486 230.927950092528 3628.83040517068 19 22 13
315.567487454993 230.269194338128 3622.97720297364 21 24 15
310.461543762999 229.51163206466 3661.91338076651 25 28 19
309.469562587985 228.764630772799 3690.64727435464 24 27 18
322.063902405349 228.103567198286 3683.88398290125 23 26 17
321.268507121449 226.576773021109 3739.67564474131 21 24 15
331.80425314209 225.895405775608 3738.55210320173 20 23 14
359.159558241115 225.380235240872 3691.37222225709 22 25 16
379.415487595207 224.81583469122 3662.89567643261 17 20 11
373.417753508556 223.976321618085 3706.8656937099 17 20 11
375.369654639061 223.210510340236 3729.23951554138 14 14 6
363.743442437843 222.266470963106 3790.35148405738 17 13 4
384.211584482374 221.715977129521 3760.88194809792 101 84 76
391.359029634523 220.997442272186 3769.1758995601 133 111 100
399.183221391028 220.286505558955 3775.58592983106 115 89 76
406.051495732502 219.559583772287 3784.84571872039 111 84 67
414.875200760547 218.861284590677 3788.42366740041 107 81 64
424.334996931946 218.173797137133 3790.1012094225 94 81 64
83.9642816747641 234.491841368928 3686.68826052208 24 27 20
76.9197318035295 233.014787102582 3749.65909459392 24 27 20
106.224598111336 232.35945937811 3707.58512934842 20 23 16
121.193460359854 231.673059995662 3697.46796747261 15 18 11
120.893408136825 230.929473879778 3722.16650251366 12 15 8
125.875144556728 230.200900823056 3734.97794785691 21 24 17
176.781372969708 228.967651561824 3664.97229547803 25 28 21
183.210901969796 228.257901627971 3674.05430932358 23 26 19
195.865187508928 227.588495879134 3668.39416084379 20 23 16
204.23839158821 226.891569471348 3672.86850261386 21 24 17
227.898910394623 226.317193366005 3640.37622864902 27 30 23
251.361510079275 225.7585465898 3607.80369940748 28 31 24
258.793141589042 225.069681761614 3614.05461751194 26 29 22
261.372330262405 224.331866066878 3632.36672163417 25 28 21
259.19804403825 223.537258461291 3662.78014262567 25 28 21
264.927560658415 222.816694944391 3673.73642466005 20 23 16
279.501213063828 222.195682160609 3662.37994135778 18 21 14
298.000764061797 221.630445944748 3640.74442814944 20 23 14
302.616650941138 220.898224018378 3654.48683662848 20 23 14
299.744957247102 220.059119345087 3687.85464397349 19 22 13
314.868797139867 219.46139366477 3674.56287767055 18 21 12
308.299100554246 218.548611528547 3718.30186673659 18 21 12
330.426355388902 218.062960736595 3686.26692066289 18 21 12
312.917226808716 216.950077232855 3760.10256064864 18 21 12
328.014373538778 216.354668146135 3746.79996891375 19 22 13
339.580049932309 215.705688664418 3742.85651175108 19 22 13
361.232431563888 214.391676058789 3738.68689839997 19 22 13
364.94857647563 213.597914033907 3756.38070675028 21 18 9
355.387058668064 212.522558395069 3811.85628745223 11 4 0
383.208679115873 212.219559270369 3761.62692443623 113 95 85
390.028998895617 211.480078539587 3770.86713482949 96 72 62
398.183876155718 210.768263634213 3776.33225583523 60 33 22
405.700897177198 210.040363182618 3783.69685157187 117 89 75
413.558604309139 209.318854511402 3790.12053211388 106 83 67
31.6389182393451 226.051587331179 3752.95569880136 24 27 20
41.1627096562988 225.332077677014 3755.73846013527 29 32 25
60.5870053749267 224.694521703923 3736.63579120172 24 27 20
88.0881706219563 224.139024578972 3699.22531863428 23 26 19
87.2351252031991 223.339486013037 3724.77918288899 24 27 20
115.670955726288 222.818385507378 3684.50995008136 20 23 16
123.735823972163 222.106521243152 3689.93862744793 15 18 11
120.420846953045 220.454851745593 3745.78988312674 20 23 16
182.783668064147 219.591882186785 3649.13262351745 22 25 18
170.845337039012 218.624246785647 3701.48715935359 20 23 16
186.676292459253 218.019418613502 3688.48149573525 20 23 16
205.10942374794 217.461158679797 3668.97716751794 23 26 19
209.27265113519 216.697964212698 3683.61534027675 27 30 23
248.050377609194 216.47720442332 3614.08582401425 27 30 23
258.516553488569 215.828416456242 3612.93386707443 22 25 18
259.966152842207 215.027736267325 3634.0257666223 22 25 18
261.512199327447 214.219474529047 3655.15677439773 24 27 20
270.545817208343 213.539997605424 3657.74050726979 19 22 15
283.611322724975 212.938193914677 3650.08873015867 17 20 13
287.139453406759 212.153576939921 3666.62753541657 20 23 14
288.566848189371 211.318884967088 3688.78951043411 19 22 13
288.657995622966 210.445742765245 3714.72622959269 15 18 9
303.502055941941 209.883765130541 3702.39971970195 16 19 10
318.259529556186 209.328714846277 3690.0380989594 19 22 13
317.451867916344 208.418695539996 3718.84785785588 19 22 13
334.59250443704 207.9276157267 3699.89850658423 19 22 13
319.020286657205 206.635392194917 3769.12519223319 19 22 13
341.317662619984 206.277310960272 3736.07935191526 18 21 12
349.40960517156 205.56484835621 3741.51899601199 20 23 14
352.763861394677 204.72247837406 3760.14571199665 23 26 17
349.804246376256 203.69462718521 3796.71603292311 16 13 4
371.405181890963 203.355842589305 3764.46712789984 8 0 0
382.205252336176 202.717828834565 3762.37147269936 103 85 75
387.382142622794 201.911796327221 3776.34132972799 64 40 30
396.857442562657 201.234484888802 3778.0253292114 79 52 41
404.054880129777 200.485059901801 3786.33949916105 109 83 70
413.847631907065 199.818814622497 3787.07288339993 111 89 75
38.3916515474982 215.473199799849 3760.08576108129 31 34 27
69.8074183185442 215.08085503152 3714.54874413876 25 28 21
84.9455250186246 214.463134261499 3704.49958757929 22 25 18
102.862825890093 213.897264202677 3688.022885387 21 24 17
116.616102389444 213.27289555891 3680.64949569236 20 23 16
127.086850470193 212.597869337475 3680.57865425331 16 19 12
145.541834261097 212.067345204661 3662.1617718732 12 15 8
143.594207797652 211.172003988679 3690.50985581877 18 21 14
163.121057666665 210.673287361039 3669.29004168423 24 27 20
175.051900294096 210.038303156837 3665.49433166673 18 21 14
183.43175015382 209.335076408437 3669.97166924771 17 20 13
179.028900396454 208.362592154465 3704.87840682558 20 23 16
186.348183071179 207.626996893303 3712.16299802863 22 25 18
222.753362970207 207.539747685822 3649.22401392021 18 21 14
225.74158024313 206.720074389757 3666.62354314455 15 18 11
260.478934984025 204.861515910568 3655.88815189114 17 20 13
271.733636710369 204.241937350123 3652.89762580398 17 20 13
281.483893673896 203.586239459608 3653.61372424697 16 19 12
288.301461366823 202.852164833395 3661.77397121954 18 21 12
298.775781006665 201.284994538889 3686.52572597244 16 19 10
308.905188256758 200.638405642082 3686.31646249793 18 21 12
319.36860286315 200.004287318328 3685.16327634632 20 23 14
326.286457265212 199.262639086797 3693.36444333057 20 23 14
334.277685573648 198.55257802586 3698.76329073948 18 21 12
347.829230552779 198.023671168857 3689.14962429133 23 26 17
346.845848002345 197.014708720022 3718.96805036585 21 24 15
354.549857233773 196.28878937687 3725.32953314661 23 26 17
347.679134648176 195.047176299286 3772.18581301982 25 28 19
361.246579751702 194.517308585743 3762.57859170262 30 26 15
373.071225748116 193.931334394363 3757.66096102088 44 34 24
381.201259004104 193.210826948505 3763.11583152559 44 26 16
387.036733504888 192.400251364092 3775.19476279336 43 21 10
392.917220670695 191.586191702739 3787.29194577921 98 74 62
401.111199821665 190.860849575875 3792.77274417013 79 57 44
410.600659194469 190.18831920227 3794.46244046863 88 70 56
67.2066937699205 206.246313808728 3695.22166800539 24 27 20
93.4955279813086 205.909471939283 3660.55509825847 25 28 21
100.275658959348 205.163014161476 3668.7005384574 20 23 16
92.8011778403899 204.089885917996 3708.83772038776 20 23 16
103.776725924571 203.427255783434 3707.89210957113 20 23 16
113.921386242868 202.747326274418 3708.76808281221 16 19 12
126.053169724814 202.11807038219 3705.05394613311 13 16 9
150.47853527655 201.804666183548 3672.86937511037 18 21 14
152.963293450438 200.941419875821 3691.14419572105 23 26 19
164.170911797983 200.302461958533 3689.21356094044 18 21 14
173.397017948107 199.612559792456 3691.87556719843 17 20 13
180.292053742753 198.857810712756 3700.06733716424 19 22 15
181.04978224594 197.923704559051 3723.03798794361 21 24 17
204.489758607823 197.647350799507 3691.53296711798 13 16 9
249.022153136927 198.029891141382 3608.14575134491 9 12 5
220.96408816351 196.217059807058 3701.4508295174 11 14 7
241.400789047804 195.887674797659 3676.28263433662 7 10 3
251.250694136288 195.23221152295 3677.03907782234 15 18 11
274.946020205208 194.062637581966 3668.30098824993 12 15 8
279.978801195049 193.248213027018 3681.1337519095 15 18 9
287.598460546032 192.520163327646 3687.46109816774 14 17 8
299.910390239034 191.961318022239 3681.66149420905 17 20 11
315.743829081458 191.539597746246 3666.49783191605 19 22 13
326.509523896043 190.937012508508 3664.38798972734 18 21 12
325.622748037263 189.884755018231 3693.16679396274 16 19 10
331.166075377189 189.072029206313 3705.12745320935 14 17 8
349.597393766654 188.777667089437 3682.38345180516 23 26 17
354.448324444858 187.936772062596 3696.221594342 22 25 16
347.383859683445 186.583891820817 3743.00027275318 23 26 17
354.131728069755 185.800920243552 3752.21173496494 22 25 16
357.876985785352 184.881509471803 3769.91854049343 24 20 9
371.061296849655 184.379227942381 3761.23504718755 48 38 28
378.205419486489 183.606746678484 3769.52780505928 58 44 35
384.3861607002 182.785862405817 3780.66780237095 80 57 49
391.587312537681 182.009049625565 3788.98368379442 97 75 64
401.407205794282 181.357652806947 3789.72794487903 76 56 45
412.819767879909 180.788129178628 3785.72214778878 81 65 52
23.7006363389769 196.400136088815 3765.07089465851 19 22 15
74.8424435045385 196.826576747914 3676.80702188277 27 30 23
97.3689678019303 196.504068442823 3650.32705578535 23 26 19
87.2795605396652 195.261567959459 3695.88011972254 17 20 13
95.7935396140464 194.541308831733 3700.41163714818 17 20 13
97.0109237822168 193.600810480747 3721.41057419328 18 21 14
97.1157811441041 192.615481941946 3745.19607845992 15 18 11
133.884956038918 191.785212483536 3709.38210941286 15 18 11
144.378414926547 191.130436837342 3709.32030992505 16 19 12
157.995762736474 190.583162890877 3701.8912993086 14 17 10
163.353072919114 189.758843496413 3713.77672939997 13 16 9
177.678088912478 189.244431720975 3704.4763832531 17 20 13
196.556614626257 188.901671351809 3684.07169329068 17 20 13
220.988140775799 187.76399296237 3674.55263602136 9 12 5
228.727917918326 185.997347348463 3705.75062005531 10 13 6
241.640897677414 185.4623505247 3699.11538810923 12 15 8
273.915915317538 184.68019317207 3669.03383058026 12 15 8
276.393813950618 183.730188585864 3688.38533955887 13 16 7
276.782719474614 182.679646669189 3713.36515536052 14 17 8
298.52711686176 182.554447042767 3683.33033440576 13 16 7
310.794992944771 182.026805717948 3677.51265693429 11 14 5
319.462781327024 181.340902484021 3681.0273821092 11 14 5
341.695013229532 180.202460160922 3674.93334174373 14 17 8
353.451909415144 179.671346215106 3669.98760659048 15 18 9
355.509573055308 178.666747332755 3691.3272527157 20 23 14
353.556691484578 177.447730974125 3723.99115207499 19 22 13
365.629832896648 175.784488580776 3746.1543049998 23 20 11
370.38804773374 174.876879974009 3761.03447858898 25 18 8
373.878326538406 173.892431231968 3779.71734607319 13 3 0
383.380745829536 173.230151013672 3781.41195483104 80 63 55
391.237322726809 172.47659102558 3787.83542068927 46 28 18
402.35301350917 171.908457103176 3784.78822011768 86 72 63
426.309324361842 172.097184464141 3743.77894654391 35 27 16
59.1893268165622 186.724251190289 3709.38568116638 24 27 20
78.092127293149 186.35551225591 3691.14889030754 19 22 15
73.4685988735479 184.127547486385 3748.63230722653 13 16 9
95.9216669137943 183.901905459374 3722.1218649901 16 19 12
104.494503838541 183.174280323873 3726.67752660198 16 19 12
131.03732396947 181.021057039119 3738.51965574499 12 15 8
146.703931984187 180.57993745997 3726.5252735279 13 16 9
168.925364192153 180.420547271063 3698.84147604034 12 15 8
183.988601665138 179.980368395501 3687.6815943712 16 19 12
207.067482893498 179.894635018141 3657.10798919917 14 17 10
194.337725339363 178.264463893974 3712.38378552778 10 13 6
196.73120072343 177.273678305953 3731.7014212388 9 12 5
218.864064653179 177.169014824743 3702.90279735139 10 13 6
256.586411256941 177.808159400845 3635.09706368946 10 13 6
242.834885260568 176.070931936251 3694.27571168657 11 14 7
243.460544753261 174.985115988929 3718.27258949334 12 15 8
255.96703857129 174.46576008295 3712.551463854 11 14 7
288.806948059392 173.843757386165 3680.5397968238 13 16 7
298.223451088935 173.192647807742 3682.19953402455 10 13 4
307.082452867006 171.361826351793 3711.6935543466 12 15 6
307.019545207625 170.190053484968 3738.64922659653 14 17 8
339.285409439628 170.791399512524 3679.42334142811 16 19 10
350.014117832251 170.225310979411 3677.2985042902 16 19 10
356.91763139069 169.444193970205 3685.49390670433 19 22 13
353.125994896122 166.826849041971 3750.86953085934 16 19 10
359.898760512811 166.009349343846 3760.09133549735 14 14 4
363.353446592951 164.983755223082 3778.76010360987 31 27 16
370.211402943777 164.159765485174 3788.01619333982 24 17 7
380.066583972854 163.522372025398 3788.77489327886 49 36 28
390.560357261011 162.928726585896 3787.63369236936 40 26 17
402.001953630739 162.401413406181 3783.63933111171 51 41 32
53.8341292611664 175.755755815778 3742.90377875185 13 16 9
88.7141209001905 175.033211603938 3712.79743955076 15 18 11
98.080610821307 174.339420003242 3715.51631568565 14 17 10
110.557711983381 170.403762661611 3784.25234745355 7 10 3
155.463654470653 171.382970536523 3704.2482804599 7 10 3
161.606477077741 170.546431616884 3714.29423531047 7 10 3
194.965593727484 171.044505778008 3659.82727288702 11 14 7
204.08825669491 170.371100627681 3662.44727068903 10 13 6
192.895611454122 168.664345591501 3714.03052360752 8 11 4
196.432794886669 167.685710411991 3730.57446486528 14 17 10
218.191670932236 167.657199292873 3702.70264685775 13 16 9
257.431190902964 168.587677528035 3631.19350793243 10 13 6
240.563691246109 165.336594072888 3723.64617047478 11 14 7
246.831524840081 164.491344231082 3733.7425501897 11 14 7
241.805897406936 162.995066124071 3772.7168467324 6 9 0
308.731270360324 164.476181011268 3653.07451946495 14 17 8
320.563714273878 163.988413847406 3648.15930172221 15 18 9
315.651540459163 162.483690421751 3687.1793416193 19 22 13
313.048423045987 161.095373943661 3720.66031370331 21 24 15
322.514827169749 160.446407957554 3722.34023925635 16 19 10
351.09300876482 161.025991347361 3672.41051276344 13 16 7
362.814745801992 160.547628344865 3667.45014208188 14 17 8
364.212160616574 159.391395708973 3690.68148098291 14 17 8
348.712452351993 157.08085507865 3761.02405193118 16 19 10
368.000430977852 157.100430008125 3735.38810221078 19 22 13
369.375983971949 155.896518273387 3759.68975895328 9 12 3
371.860043553589 154.754527851655 3781.20283394349 19 19 11
376.749206092422 153.77116439153 3796.13660153215 13 8 2
382.353405502419 152.831016263878 3809.20168141924 56 49 41
400.676605417112 152.827847805909 3785.3328882973 22 19 10
30.795936061295 164.903686270378 3791.91778835374 14 17 10
72.07966461275 165.73503077234 3724.47402531563 18 21 14
77.0861457057173 163.650948361717 3761.04108650749 15 18 11
106.890733041877 162.81252451601 3741.82761418819 15 18 11
111.518010932288 161.865799347971 3755.57600345659 9 12 5
118.181879253389 161.020949636623 3764.7539236554 7 10 3
153.212911267732 161.717500244894 3707.72597911134 7 10 3
151.177912431796 159.193464837618 3761.94422768665 6 9 2
179.879694765329 159.602633862732 3718.53920126655 9 12 5
185.701713305859 158.719988734044 3729.53416520873 9 12 5
197.277436596566 158.170939297708 3726.67308389111 15 18 11
205.791073294635 157.443676131729 3731.2045157797 14 17 10
216.564493802849 156.853236836764 3730.17677497672 10 13 6
229.178834694796 156.380210871585 3724.49896468656 10 13 6
253.60530124537 156.65539616366 3689.07369644584 12 15 8
267.141290356753 156.267496550238 3680.53172811033 12 15 8
254.650706216292 154.205611791359 3738.06550984766 9 12 3
276.949126754515 154.386705465987 3707.17362195893 12 15 6
297.97774117121 154.510647289591 3679.0049706307 17 20 11
302.006392878281 153.508390375156 3694.66927481994 18 21 12
322.453164829736 153.626067871745 3667.34389521776 17 20 11
314.849156360213 151.809264947733 3713.90763260476 17 20 11
324.648464540211 151.192174158319 3714.64329890709 15 18 9
332.344907011723 150.426120637353 3721.00202216641 12 15 6
373.556821581151 149.481733167681 3690.22469086024 16 19 10
370.7084776642 147.920510945294 3725.76529933238 13 18 11
371.048783673038 146.580410978813 3752.88524859193 15 20 13
389.145719890923 146.622280741124 3730.00356689186 17 17 9
362.864902300206 143.129782871919 3833.75101634519 16 13 6
378.06822838613 142.927683383328 3819.40936933108 30 27 20
394.149515731512 142.813956852119 3802.18610834866 22 22 12
47.4863681230968 155.9226982646 3753.43067095627 17 20 13
56.5800271218351 155.200005518704 3757.11810698642 21 24 17
75.8987968978808 155.051675290847 3737.96900314724 19 22 15
69.4851919782424 153.453732160756 3776.38183078835 16 19 12
114.633403855449 153.583449603751 3722.37574911722 15 18 11
111.228411339925 152.135202867796 3754.45369375494 11 14 7
129.77729945228 151.993354366472 3736.0716292886 9 12 5
165.727857698809 151.690313834631 3701.00127726851 6 9 2
149.469434101037 148.103952405385 3789.38760191514 9 12 5
173.130891080317 148.333144354831 3757.96842512648 10 13 6
219.082183024046 150.063704573327 3671.9088116019 14 17 10
225.931641144695 149.244018281479 3680.08261969621 14 17 10
227.166580765076 148.038661709094 3702.16973774281 11 14 7
227.382779583082 146.748053464839 3727.08144545794 10 13 6
244.777551008638 146.643885642091 3709.31086706797 12 15 8
270.159677708701 147.125321309294 3671.03429388475 13 16 9
271.899857590145 145.935949869224 3692.24679360699 13 16 7
275.91611956321 144.898651996271 3707.90634688147 15 18 9
296.953821752403 145.115593211757 3679.74041299147 19 22 13
305.280929180872 144.401571233589 3684.19647735994 18 21 12
298.674311532893 142.545148488816 3727.9276698875 16 19 10
315.239969016606 142.4523420553 3710.90011115332 15 18 9
315.316892820526 139.680881746957 3764.8965295394 13 16 7
333.16709874737 139.708214667245 3744.07267496153 14 17 8
352.599829542642 139.887168727331 3718.49412632044 13 16 7
361.320700236439 139.198404843665 3722.03036583083 15 18 9
360.241422902839 137.680482281845 3752.89263070815 7 14 6
355.19429876404 134.320379034933 3824.23865278763 12 15 8
392.493783982328 133.145919637805 3804.82567701629 16 17 9
39.8316524189086 144.39177552724 3792.49507903905 13 18 11
62.9365282854395 144.535247252082 3765.16694325674 11 16 9
59.0313117378103 142.98252086792 3798.12195079222 12 17 11
74.6857278357138 142.670371534554 3787.20046273833 9 14 8
129.210787647329 144.917177303244 3687.34617776011 11 16 10
129.294543239332 143.630229558732 3711.12516703416 15 20 14
125.525322662289 142.067378533837 3744.13531511835 13 18 12
157.37418622907 142.914351469321 3694.44877251498 7 9 4
132.304261466369 138.504497691147 3803.00920424506 6 8 3
149.163402600533 138.330699942931 3788.25896237081 7 9 4
168.99156439666 138.38688600589 3766.07787592354 8 10 5
214.221862211135 140.325424207251 3681.88237684546 11 13 8
214.281142789188 138.983579279588 3706.73093783509 11 13 8
219.347559446267 138.000895085116 3719.57859570064 13 15 10
266.371872204906 138.868062802337 3653.37981770913 15 17 12
268.390584411246 137.662301246953 3673.62640928908 15 17 12
284.409622586624 137.556423187882 3658.53550085549 16 19 12
290.876259496445 136.696161010221 3667.63368027303 16 19 12
302.787461273462 136.276640446456 3662.74957651505 16 19 12
288.130172357638 133.660735687694 3726.96244558974 16 19 12
292.308056475222 132.575432142652 3742.68780239741 15 18 11
318.811931248156 133.383524491614 3699.46838593694 13 16 9
309.280085999077 131.117788250268 3751.72832195167 14 17 10
312.897455918659 129.961171219728 3769.38514457478 16 19 12
347.814338722316 130.105331915545 3729.57712798817 16 19 12
340.508785770687 124.879364138883 3834.54756103882 11 18 11
369.494283129685 126.073171820332 3781.54141650867 12 19 12
395.200317335391 127.003779696942 3736.91922326734 16 21 15
29.5258524905315 135.174884145191 3789.47126042696 20 25 18
49.5535448616382 133.826595258574 3793.27480406309 16 21 14
72.9782063926037 134.099258411202 3764.99635985551 11 16 10
86.753925350431 132.334266939818 3782.45509044775 11 16 10
133.007049952626 134.330035177661 3700.83116642762 13 18 12
143.880757927074 133.771518897212 3699.84353211617 10 15 9
135.81056772579 131.791686331177 3742.98306988041 8 10 5
133.832874945212 130.242560770284 3772.40300106387 7 9 4
146.393012213865 129.794483151117 3767.78186315172 7 9 4
162.772897575862 129.652806604428 3753.91613867817 7 9 4
172.144628729085 128.970637163428 3756.63704885808 8 10 5
185.707307828945 128.626332563885 3749.18462204178 11 13 8
218.154810846854 129.830194914551 3695.42226939382 10 12 7
217.919460397281 128.387681304832 3721.23110754862 11 13 8
227.467848543565 126.292319828151 3748.8486443901 13 15 10
243.388505098802 126.188327249317 3734.79669578627 12 14 9
294.942560220323 127.767579711692 3655.32223812006 13 16 9
277.569694169718 124.761580398316 3725.99046025879 16 19 12
280.285301180567 123.512701111535 3745.44073829374 16 19 12
293.413025385027 123.204700702243 3737.81166891398 16 19 12
304.004831467386 122.671612393648 3736.70970178299 16 19 12
317.02779353581 122.372220502605 3729.03840693158 15 18 11
336.663441408596 121.186019281948 3730.52436965584 16 19 12
333.183614272076 116.112140613532 3824.09593261163 14 17 10
334.446841003343 114.61486419351 3849.43314101245 11 18 11
353.820787589463 114.970210301476 3823.82919683063 11 18 11
394.531990031443 117.592013539011 3736.71996089019 14 19 13
395.704577652971 116.10242638264 3762.02041187398 15 20 14
64.8278945584091 125.131605634284 3757.44883879786 9 12 5
98.1179898935383 123.44208382297 3754.75716079486 15 18 11
120.747553970409 123.811000236822 3727.23486582114 14 17 10
147.967363313213 124.580095694364 3688.62136881727 10 12 7
137.492199266158 122.290520228727 3737.26286076013 9 11 6
148.423062827305 121.741508058393 3736.29829630295 9 11 6
167.113821385932 121.850613165232 3716.89322110017 8 10 5
163.248142258421 120.056106938182 3750.94487782613 8 10 5
178.536701188607 118.398420535661 3764.69984348071 10 12 7
196.633211666074 118.491796257185 3746.13283157383 12 14 9
208.148674153629 116.497855200413 3769.1517562218 11 13 8
256.731983467837 117.931597584641 3699.26416340184 10 12 7
257.806464309259 116.510901807577 3722.36675317951 8 11 4
245.160127399352 113.759310388924 3780.92150765387 9 12 5
279.787146102315 115.53525671581 3718.32724428192 11 14 7
278.173435604117 113.819055062304 3748.97462385198 13 16 9
282.406871387493 112.657977596215 3764.72304748192 14 17 10
300.501276130477 112.880678863096 3743.99658643886 15 18 11
309.332516249502 112.182983816416 3747.57758144475 13 16 9
290.968673212667 108.67667701357 3824.32197674461 12 15 8
316.956558477749 109.738120238408 3781.97078482099 12 15 8
342.650345543647 107.519854408701 3795.62751299864 9 14 8
337.11358251281 105.225623952983 3839.79520055751 10 15 9
359.468815099071 106.002970067117 3805.6853716041 12 17 10
43.0895728763905 112.080246622229 3828.58353342626 13 14 6
109.019042461625 116.14859235827 3704.20312885019 14 15 7
101.048869464663 113.98970826937 3746.3054546649 15 16 8
118.067541791289 113.96723701364 3731.61865882868 14 15 9
144.514567683238 114.791324084933 3694.84972396277 12 13 7
162.848005256563 114.930690510089 3676.37855079096 10 12 7
162.244417827632 113.383946308733 3702.03908243655 9 11 6
153.194900497058 111.0459719057 3748.02149384641 9 11 6
176.492867596258 111.655725734788 3717.53132339063 9 11 6
168.853141626349 109.405627856574 3760.84720161521 9 11 6
174.796135820364 108.40327552831 3771.89205509185 9 11 6
186.469243667307 107.942981653944 3769.06973134936 14 16 11
248.62812138851 110.852583473602 3666.90674627115 13 15 10
246.178323057072 109.055388729968 3698.29502183948 13 15 10
259.384822170688 108.806387334457 3690.69765789343 13 15 10
260.798882303587 107.367421664383 3712.8588140355 13 16 9
240.470097146628 103.667942709188 3790.9666986465 13 16 9
269.598030513655 103.421034533738 3769.31689687967 12 15 8
287.073556572258 103.631530283601 3750.49756503545 12 15 8
292.039703438215 102.509684596939 3764.38474454784 12 15 8
302.83622848093 100.331025104057 3790.35040105447 10 13 6
315.582503088296 100.053972267663 3783.64545899978 10 13 6
350.541156376869 97.1636774359809 3799.97975164096 12 15 8
356.449995193003 96.1016431761124 3812.09029358938 15 18 11
349.669729844783 89.8138628545907 3920.51788455552 14 15 7
2.38816149727872 101.653733450612 3868.2849890176 12 12 2
81.6193335676909 104.07969541327 3764.40714144017 12 12 4
108.811332680921 105.034425917518 3726.85978535138 12 12 4
138.278403280756 104.701143926536 3707.50556882844 12 12 4
147.573225063516 104.032345611315 3710.19523759867 9 11 6
155.294508685694 103.211870442376 3716.56443136547 9 11 6
140.042169294205 100.132340224363 3777.30320120873 9 11 6
161.105728841389 100.606076617911 3752.38247199942 8 10 5
188.165097189438 101.711293395652 3712.62265772007 7 9 4
166.468134633264 97.8984282861591 3790.17743641433 6 8 3
174.398231704305 97.06251507695 3796.63129428593 11 13 8
245.136579989988 99.5485702658707 3699.02435190124 18 20 15
238.034091927315 97.1388215939522 3742.55896406448 17 19 14
249.856724467997 96.7562075071834 3738.71752765145 18 21 14
275.480588581292 97.9077677620459 3699.45494473214 17 20 13
253.484596166546 93.7747350959109 3782.28563030438 15 18 11
289.249388281691 94.4016298415497 3742.81752443543 10 13 6
245.67945868435 87.622810405398 3884.9029300994 10 13 6
305.871945821677 92.8814826014577 3752.79608438325 12 15 8
290.285041695993 89.2791161162622 3822.03433388844 13 16 9
316.28650966454 90.6095815292544 3779.68660239054 13 16 9
339.929524416977 88.1235377808013 3798.98838035913 14 15 7
349.521732361524 87.5054017838984 3800.71900930658 13 14 6
357.100304483393 86.6322218966381 3808.10962782698 14 15 7
17.1819876839812 94.5945744079877 3809.59529243439 17 17 7
56.7610087368911 93.5342788470373 3794.34084370054 14 14 4
81.7387476069575 94.3565160690677 3762.37131687551 14 14 6
103.701271372723 94.9146924050714 3736.73512374548 13 13 5
110.972032841493 92.3935122120813 3768.82799118647 13 13 5
133.863903274157 93.0944961965178 3740.33057707607 10 11 6
145.98433622758 92.7079991111024 3736.60974737612 9 11 6
156.115045625606 92.1198722572944 3737.4796333757 9 11 6
161.19589420823 90.9974537541778 3750.3341937738 8 10 5
167.866760288543 90.0368889034878 3759.51556717849 7 9 4
183.741448820494 90.0728460523567 3746.52301103629 5 7 2
183.159368668769 86.5958667906926 3799.17914287929 15 17 12
201.972708316505 86.9748893272049 3778.74258862208 18 20 15
219.165757902206 87.1949402726169 3761.9666851393 19 21 16
229.225888741791 86.6143384189928 3762.80768011572 17 19 14
251.014486902776 87.4053627461549 3733.86287638386 15 18 11
254.402468492769 86.0597336928372 3751.42799672766 14 17 10
257.866304829412 84.7083135565322 3769.02413124331 13 16 9
294.469357435949 87.3458870449254 3700.75005581145 10 13 6
286.199576579699 80.9619470999429 3803.18098340276 15 18 11
314.739145098257 82.7293832270831 3754.30542729174 15 18 11
326.006043297371 82.3427870851114 3751.31807352693 15 18 11
338.228639430094 78.364923139029 3801.61035335235 15 16 8
346.482473004583 77.5709942446284 3807.11590624505 13 14 6
78.2117476081705 84.2621302612475 3768.57194366917 16 16 8
79.2565398912306 82.6839569892073 3790.58464102606 15 15 7
98.81157199972 83.0731833007717 3770.44831545897 13 13 5
111.872651936348 82.7828486772954 3764.950001898 12 12 4
150.960341807439 85.357500679505 3698.76148082029 10 12 7
151.583262794035 83.7390657979674 3721.68273601479 10 12 7
154.653294324372 82.3749011127734 3739.11926112309 10 12 7
143.849768535483 79.4227772929651 3789.79069716819 9 11 6
155.632802991833 79.0110600038076 3787.01225650861 9 11 6
155.142933964124 77.1831637639298 3813.80002835636 8 10 5
174.913645845492 77.7067274815777 3791.59239547625 6 8 3
194.165038011851 78.1970288159645 3770.25329675293 9 11 6
236.891908882289 81.5305471260974 3690.42815941119 15 17 12
235.979094869442 79.6625245891119 3718.12379611543 15 17 12
227.803625136967 76.8772022391815 3764.46349399178 12 14 9
241.892907571828 76.8070356832846 3755.06433373657 11 14 7
267.215241264234 78.1612398425336 3716.75693544019 11 14 7
244.871991442586 73.5132603204352 3800.52973024444 10 13 6
285.890904888697 76.9087752850376 3721.09139124632 10 13 6
284.327237277909 74.8699125355287 3751.76147851072 11 14 7
290.709518856034 73.8440004194834 3761.90556677581 13 16 9
304.870229732896 73.8442514477124 3751.45572827558 14 17 10
322.09921829237 74.273433517919 3732.53517478539 14 17 10
321.861578776876 72.3544735993913 3760.50457096008 13 16 9
315.969929328601 67.6776837285473 3832.59769621004 12 15 8
350.436886549347 70.5487673932166 3765.61483443331 16 17 9
335.010622753515 64.3898817052718 3866.22525498815 15 16 8
27.094701695332 74.1175826598817 3808.36953507756 13 15 4
33.4607316739284 73.0679717166555 3818.50722281559 13 14 6
45.1666023574904 72.6017284214165 3816.77701775233 20 21 13
84.8184271270129 75.2620301741172 3751.8953270735 18 19 11
90.6484173353188 74.1783391366265 3762.89504256076 16 17 9
98.5212023111863 73.3200375230065 3769.32586486835 11 12 6
117.946843962065 73.7912764093643 3749.13652838709 10 11 5
147.123285381492 75.4252730148507 3705.91440421482 12 14 9
150.118905098148 74.025399670667 3723.32107116793 11 13 8
144.605896751008 71.597065758346 3761.02602998437 11 13 8
142.769986282971 69.5742791196758 3790.50695804529 9 11 6
141.076421679255 67.5404442593332 3820.04534745594 9 11 6
165.925165447369 68.7446764905248 3785.86307972158 8 10 5
157.87958805348 65.8988124766588 3831.17702083311 6 8 3
236.223168650782 72.0763801227006 3690.22905122945 12 14 9
239.402111952665 70.6640243120136 3707.71029644595 15 17 12
228.970125752061 67.4665071847761 3759.61257717395 11 13 8
266.178248841033 68.6232358268274 3717.48816815549 10 13 6
249.25520491264 64.4701816783343 3787.26866353636 10 13 6
287.017669034564 67.6721827165135 3716.2233229903 11 14 7
305.083308154449 68.255326493469 3695.48248289392 13 16 9
319.33622750473 66.4344479702407 3710.97697864546 15 18 11
317.231391227053 64.2047484702405 3743.5872705478 14 17 10
304.523930651945 60.416108105162 3805.36181868745 12 15 8
338.193063269665 61.3158126785525 3769.35861708501 13 16 9
322.262492327188 56.932193348483 3841.7003216669 15 18 11
340.732290248819 57.6400522344247 3818.96430379117 15 18 11
360.062573404214 58.5121198064879 3793.33902121376 14 17 10
343.393850748725 53.8784779769561 3869.69923828997 17 20 11
352.728420215179 51.0597627081932 3902.63023945481 19 20 12
18.1284281491483 63.2023560680605 3826.39959499945 13 16 7
23.7221111304382 62.0341721328956 3838.38333716479 15 18 11
90.215388915295 66.217236418895 3737.96566752015 20 23 16
103.261369776837 65.9823897121631 3732.46081986718 22 25 18
100.234270129957 63.8152355071343 3763.61815440756 18 21 14
118.853357725018 64.2615459589979 3745.26031235732 14 16 11
103.338535201604 60.5193766607462 3805.89782726038 12 14 9
115.645583922838 60.1838929029297 3802.25217029792 10 12 7
138.586818203494 59.3256946446924 3798.60094932087 9 11 6
141.149161068493 57.7592535641314 3817.99132159235 9 11 6
149.92278043889 56.9834471302764 3822.62838657105 9 11 6
171.63058678991 57.9084222024259 3795.80747178339 8 10 5
193.533073800108 56.9750144147947 3793.89385573732 10 12 7
224.196863065551 59.195094636904 3743.71707715155 15 17 12
237.958536211184 57.225072684578 3761.17193199546 10 13 6
241.778253769202 55.8017272179 3777.83364010521 10 13 6
248.206346037305 54.7330770915251 3787.99660073716 11 14 7
266.548572165178 55.3657697290907 3767.36737319738 13 16 9
317.284394652274 60.7259281943203 3661.63976465998 14 17 10
326.613931289787 60.149494900657 3663.26372375776 14 17 10
318.315321955259 56.9624718994097 3711.71448157489 14 17 10
320.754463398943 55.3295411964982 3732.13428257881 13 16 9
333.008278118133 55.1634189947048 3726.30817154416 11 14 7
317.631675397051 50.7749377847271 3795.63752913608 11 14 7
323.14202089195 49.5407671686588 3808.66683684701 14 17 10
341.270249416046 50.2725380774111 3786.87140406121 16 19 12
349.147045059748 49.4123944154757 3793.30386422207 16 19 12
354.361787647699 48.1223296983625 3807.292716212 15 18 11
358.303395859014 46.6128319052599 3825.08349536633 17 20 11
36.1643962123763 53.5993933246928 3808.96063086933 14 17 10
76.0243717654765 56.655395211458 3744.159962445 13 16 9
59.4988470254272 52.7387188429017 3805.46863925444 18 21 14
86.8497236436678 54.2994697235836 3767.98101807457 21 24 17
105.556578611129 54.8044308038076 3749.65826785693 22 25 18
93.0805946153264 51.3138072966682 3802.89304351308 19 21 16
94.7279057453321 49.6060852660326 3824.07187029082 16 18 13
138.54552402569 51.5201346298105 3771.67113221986 10 12 7
134.788407701236 49.080815169725 3805.77163276552 9 11 6
140.451746502434 47.8851298727182 3817.78378653255 9 11 6
145.011958065852 46.5283951331654 3832.58693702364 9 11 6
190.215043254413 46.8437484739447 3800.17937232602 7 9 4
206.739346622215 47.1932934283753 3785.2895902132 12 14 9
239.085351995979 49.8545348554865 3730.39628720745 11 13 8
251.251869840738 49.6379227977824 3725.61402112848 12 15 8
251.319766812063 47.6442574312116 3751.55007682598 14 17 10
261.302153346436 47.1038576036901 3752.35928896265 18 21 14
293.238809137181 49.8814533702061 3696.22029590162 18 21 14
294.452512327836 48.046582286365 3719.3823951598 14 17 10
303.192185386494 45.287067699578 3749.91394751144 11 14 7
312.031743105207 44.5898792990679 3753.49830641438 11 14 7
337.549526890006 46.5507367661808 3712.02902178125 11 14 7
334.193790670519 43.9188364423743 3748.45111429001 13 16 9
339.23265507997 42.6117069004434 3762.36914102258 15 18 11
345.346473577697 41.4684226637815 3773.48422827713 15 20 14
361.957405270724 42.0635030011129 3755.39097861253 15 20 14
366.063939724595 40.5824346612 3772.16925437862 15 20 13
367.234403594563 36.3556119102693 3826.61947065423 15 20 13
83.7384222639093 44.1756071842435 3773.27137358135 15 20 14
91.238190867831 43.2360876192392 3780.63058795132 22 27 21
103.539517581473 42.9442998017301 3776.98254021168 20 25 19
91.6519720721734 39.3442668412635 3829.37759159987 17 22 16
105.994190953975 39.3196736005745 3821.15930623331 15 17 12
123.397146935902 39.7381622523698 3805.54569640554 13 15 10
139.917046715022 40.0556159241818 3791.73343992393 9 11 6
145.926090398408 38.8933898408491 3802.80624817118 9 11 6
159.639666975911 38.834222561638 3795.41250018669 9 11 6
153.117691591122 35.8387002483889 3837.02898154539 8 10 5
174.406372237475 36.8931151689969 3811.1161927487 5 7 2
187.645442733974 36.7867829125783 3804.60974347545 8 10 5
211.273824803265 38.2560640092925 3772.08896720857 11 13 8
230.258131161401 39.0656390061469 3750.63956454962 12 14 9
257.568577320391 41.1859861815356 3707.73677660527 16 19 12
270.421005882963 39.0575227671861 3726.98230197778 17 20 13
281.761152386358 38.7607501197363 3724.02392509575 16 19 12
275.890348413456 35.7164461928537 3765.90443090522 14 17 10
294.402364229828 34.4268037172996 3771.25171681309 10 13 6
308.903291032031 34.6516889688802 3759.85911852536 13 16 9
325.756280195489 35.2899977977961 3741.86354855847 13 16 9
332.828479859645 34.3052881876463 3750.12905118677 15 18 11
345.407180823385 34.2550022479349 3743.35454091764 17 20 13
358.949664643108 34.3855330559659 3733.73246453894 16 21 15
369.720457071576 34.0507593168892 3731.62265639989 15 22 15
34.763641016115 33.6854827192439 3808.54441701033 13 20 13
22.7396680752066 30.0373256321419 3859.80578652067 12 17 11
24.791459702129 28.2799445845544 3880.06995284944 11 16 9
58.4224313793871 30.9165178815578 3828.9335350203 11 14 7
123.824360391577 34.1259317949199 3752.89575386435 23 25 20
104.507728854534 29.2891222480104 3822.79109337339 23 26 19
146.994010740485 31.4015487737874 3773.0864846238 17 20 13
167.229475803856 32.3612606579109 3749.98491299264 14 17 10
190.502106633372 31.7542954671097 3744.30783711646 9 12 5
165.76747837658 25.8455880465181 3830.35861733521 8 11 4
183.570975690757 26.4688442077804 3812.74801549145 8 11 4
226.637565194759 31.102647333704 3731.97176387405 13 16 9
245.14703509465 31.9357442959464 3711.40873314462 16 19 12
244.748372625582 29.7584241011115 3738.23582519471 16 19 12
266.41362884619 31.1377635895262 3709.23662191496 16 19 12
276.645514610844 30.6826441831744 3709.0673999797 13 16 9
263.781933491863 26.399594068933 3768.62460999301 13 16 9
270.913123769362 25.3951077470556 3776.913890179 12 15 8
294.06558732741 27.0998256002574 3743.1198251829 12 15 8
299.368017871756 25.7987848647594 3756.06545645805 14 17 10
306.472774954523 24.797298966952 3764.34426851458 17 20 13
317.429036802624 24.4634323962046 3762.30954875577 18 21 14
322.138568234941 23.0335017398639 3777.17396983739 19 22 15
325.537462271111 21.354183496803 3795.82484596997 21 24 17
346.029466979317 22.740886847403 3767.42935377768 20 23 16
363.984477326845 23.7099889639938 3745.56198727138 16 21 14
45.9967265264736 25.4279423337875 3781.86745259791 11 20 15
45.7484490697573 23.3471387646243 3806.59708661942 13 18 12
26.1094146882086 18.4274001293098 3875.28370793331 12 17 10
64.1815605405394 21.8797988083737 3814.07164512761 12 15 8
81.4254751197103 22.3337556807917 3799.47243709115 16 17 12
114.520300145625 25.1785904790879 3748.11761593578 19 20 15
117.591069341747 23.5656784045654 3765.55658238369 23 26 19
108.532696680268 20.0880718246018 3811.54404643391 23 26 19
142.030428730774 20.9864474073284 3783.02362748429 20 23 16
173.982169091613 21.7351990613282 3757.11506319847 10 13 6
172.293328881717 19.3162260667207 3786.65828472482 11 14 7
175.288600685769 17.6203723352391 3805.14611963117 8 11 4
211.094725027943 16.8823056674012 3794.83497260827 11 14 7
238.177372409119 19.2047847304913 3752.91748381517 13 16 9
247.817822970598 18.6249782439661 3754.66761255634 13 16 9
255.268338274786 17.6720557438364 3762.00698620418 13 16 9
270.945947701564 15.8879250002761 3774.8416259236 15 18 11
300.808548522899 16.6275021060501 3750.24486964048 19 22 15
311.402774595373 16.2474526916109 3749.14297957983 21 24 17
311.529564149407 13.9624588543605 3776.18389680136 21 24 17
330.440846125566 15.1117615460679 3752.54447852993 20 23 16
337.200116673332 14.0338255314397 3761.76279314625 21 24 17
348.755659017437 13.8523135136475 3757.81168950269 20 23 16
364.662832560363 14.5112181521101 3741.59088288279 17 20 13
26.365226289043 12.733445246762 3823.64379358556 3 11 14
16.0002838908644 9.04304757848529 3871.26172320154 14 18 19
73.1795416625529 13.4267301170298 3791.88573997687 15 18 11
90.3661037534349 13.9401950460799 3777.26285926867 14 15 7
97.0776217232234 12.8422664338314 3786.46199074232 14 15 7
118.488903706857 14.0547681237534 3761.67645224881 18 21 14
126.743668217097 13.2109217334162 3767.18301765837 18 21 14
127.963941468721 11.2343655402338 3789.26978565232 18 21 14
134.340889561156 10.0704195882607 3799.41276068562 16 19 12
131.095761912035 7.3213706553398 3832.64410134659 13 16 9
136.072388639662 5.89339363803942 3846.53758724632 7 10 3
153.685535258495 6.5636995081369 3829.9286224982 7 10 3
151.11626822442 3.85602454756134 3862.35423536898 7 10 3
200.998267631113 7.79366596592285 3791.89494319391 11 14 7
224.506248872398 9.59475410853974 3759.32290247632 9 12 5
219.069541635476 6.36436361804554 3799.22270795623 7 10 3
242.379350847926 8.18183998425173 3766.57030456743 8 11 4
249.498340500865 7.1503749669532 3774.85484929797 10 13 6
267.470436073619 8.07657614985086 3755.15259916926 15 18 11
292.358259723785 5.64437329948428 3770.64223633093 22 25 18
304.061339777363 5.47210331152076 3766.751056837 23 26 19
315.375210709415 5.23708392291333 3763.78157308909 21 24 17
320.084656830743 3.7415013906992 3778.64620002567 17 20 13
346.817807146897 6.51111355306683 3733.34713153892 17 20 13
362.045452632731 7.0936905501891 3719.00964087055 18 21 14
367.033171067912 5.67087214406664 3732.90757862337 16 19 12
367.785778452539 -1.60088259768126 3816.34156520186 15 18 11
-10.1705518482123 -2.83668681685198 3902.83198635626 95 103 114
-10.0909619056904 -5.07044609180357 3927.69553093153 15 19 22
98.3573873511661 7.69114099543083 3733.0749373525 15 18 11
86.0592285041606 3.53944830788311 3785.30791573455 14 16 5
76.4254634660639 -0.243074412023647 3832.1435268054 14 16 5
110.661996107183 3.13155100689858 3778.01027766378 13 15 4
135.514495265639 5.02686483304188 3744.90310039373 16 19 12
149.200154912198 5.10080408094843 3737.49704013015 13 16 9
128.462979816924 -2.9247867621075 3837.05032474596 9 12 5
118.859245211962 -6.90101459576939 3886.05717944557 8 11 4
122.854040271087 -8.57113917903365 3902.7919029423 8 11 4
174.713885480724 -4.17315413204417 3828.81419023915 9 12 5
194.864417712888 -5.28444330551578 3831.58686632966 11 14 7
228.704215940353 -1.4877182332162 3772.97429302929 10 13 6
231.809029323964 -3.27847776695239 3791.5071999066 10 13 6
244.450185486501 -3.31126267934673 3785.8369100227 10 13 6
300.059907779812 2.43741301356193 3695.0262335933 16 19 12
303.431117167405 0.723576923182867 3712.58735389994 16 19 12
293.090833385003 -3.67322414967913 3766.69398527379 18 21 14
315.044561494718 -4.24472451659327 3762.64049971359 19 22 15
330.47195029135 -3.62603690436514 3748.38335276397 16 19 12
338.591644087492 -4.4578369328776 3753.8351376885 17 20 13
345.049384296578 -8.14825056167226 3792.08104435552 15 18 11
22.4872425516192 -7.66627772669931 3828.70161304858 0 6 12
67.3410802344514 -7.0569731977268 3801.54471037954 15 18 11
60.4474663674062 -10.4905091371703 3841.93522982556 15 18 9
74.1256836112736 -10.4836081788688 3835.60547246112 16 19 8
90.9229934988383 -9.92821175119762 3821.90373382929 16 19 8
114.721819907515 -8.13768596254438 3791.60715060963 16 19 12
165.756841852742 -1.54586336323703 3696.78020325212 14 17 10
144.389848671364 -9.89600815849129 3797.15948992642 12 15 8
117.37999149625 -17.1015778322914 3887.69343107952 11 14 7
131.299042113695 -17.0117285664252 3880.38174857586 11 14 7
182.307313354265 -10.1175818380106 3782.30499685599 7 10 3
179.28789646646 -13.0591492956912 3815.62918544587 10 13 6
187.277093326118 -13.9895734087934 3822.1076887708 16 19 12
191.566736454873 -15.6206553097746 3837.88243286285 14 17 10
202.932004375228 -15.9230857872794 3836.0130784931 11 14 7
224.159390641004 -14.3224311881908 3808.99252354394 12 15 8
286.835645062039 -9.43882874923416 3727.52295632986 9 12 5
307.036117875669 -7.85498724781991 3701.1655469686 9 12 5
295.947213659764 -12.5396685736405 3757.12886556399 11 14 7
320.989683744179 -12.4279224481727 3744.61076599265 14 17 10
