ply
format ascii 1.0
comment KinectMotionCapture
element vertex 762
property float x
property float y
property float z
property uchar red
property uchar green
property uchar blue
end_header
310.240354318272 797.647921922155 3370.5337030364 218 216 217
317.404456059135 797.382444024449 3375.59428292855 218 216 217
326.501360576326 796.223055532859 3376.04966142412 215 213 214
334.437396984654 795.599080331086 3379.26763600231 214 212 213
344.270720872221 794.083948569747 3377.86600841646 213 211 214
351.817433605546 793.637632170465 3382.00406735669 213 211 214
360.866797043006 792.479559449301 3382.44018683211 212 210 213
367.298317265151 792.564564752993 3389.359109368 211 209 210
374.858011384621 792.115431993706 3393.50218850036 211 209 210
380.955705637448 792.373699120686 3401.36369935473 215 214 212
386.714608118393 792.806170315053 3410.1652663142 196 195 193
391.780370663328 793.589157133648 3420.84165974264 209 208 204
397.964155481195 793.838755821307 3428.7378365358 208 207 203
405.242969775655 793.556837002349 3433.84498734733 237 236 231
38.4659082134322 839.058791892883 3473.79971474101 226 226 224
63.3737397058922 831.732476768869 3444.02152023189 227 227 227
84.9950807116791 825.682190345341 3420.45514847475 237 237 239
98.9794600715295 822.704764374706 3412.11435808356 234 234 236
110.271786859085 820.811424682749 3409.14872087972 227 227 229
119.352995159184 819.818808524587 3410.67528814257 225 225 227
128.857549272976 818.646789057328 3411.29581681616 224 224 226
138.777814146671 817.296090744177 3411.00721002997 223 223 225
150.817106554352 815.050535878373 3406.18881010466 221 221 223
160.685541785738 813.702688632479 3405.87919625253 221 221 223
173.915580025548 810.92580913994 3398.31026653249 222 222 224
185.404920546312 808.867232110931 3394.34684310647 223 223 225
197.689558949497 806.454463692708 3388.55024132933 223 223 225
206.603679721469 805.470303478004 3390.00909193997 224 224 226
217.158173250511 803.774463456264 3387.82227964418 225 225 227
231.782819732374 800.30269110792 3376.5077942366 227 227 229
244.697064162955 797.546886144207 3368.81084209738 225 223 224
255.121385293998 795.859511792362 3366.57100252423 223 221 222
263.906053849398 794.882434286726 3367.97764238945 221 219 220
273.880677011973 793.374698016624 3366.63316982494 220 218 219
284.227639877984 791.691480003733 3364.36197693346 219 217 218
294.544528197179 790.010106755892 3362.07859308785 220 218 219
304.831230317315 788.330462152923 3359.78323118761 218 216 217
312.359742148945 787.885772519247 3363.91365115447 215 213 214
319.893559694548 787.440124538873 3368.04622663141 214 212 213
327.817305302655 786.817720875193 3371.25921283968 212 210 211
335.741231923124 786.194645333112 3374.47227743123 211 209 210
343.665316214287 785.57095953805 3377.68541048809 210 208 211
351.212390722807 785.121924551373 3381.82363651468 211 209 212
359.513855278044 784.321825088397 3384.1118399691 211 209 212
367.810237301432 783.521525129894 3386.39824428857 210 208 209
375.362698901817 783.070215688811 3390.53841152376 211 209 210
382.553242347655 782.792301598604 3395.6097917382 217 216 214
387.203019674266 783.732230506514 3407.19537425884 221 220 218
392.62214477006 784.319904451838 3416.93725673344 191 190 188
399.154727843246 784.382915127221 3423.89726561627 207 206 202
406.421066089536 784.096604912927 3428.99939824971 199 198 194
24.8725287430334 832.422571663686 3479.13500538278 199 201 198
43.1840179481309 827.857890079908 3462.84847438675 232 232 232
64.9501604084399 821.878747296519 3439.33993523853 232 232 232
85.6790695877343 816.265964772517 3417.56678149939 234 234 236
100.540020541289 812.969512416372 3407.42545336686 232 232 234
110.507451383789 811.627570437392 3407.15587737725 227 227 229
118.278005690962 811.171534901504 3411.38438462952 224 224 226
128.219121034607 809.830542104223 3411.10414648599 222 222 224
140.292801639489 807.607423051296 3406.29975726773 222 222 224
152.321683871515 805.387201166326 3401.47695031882 221 221 223
160.902733854962 804.579595819078 3403.87841282839 221 221 223
171.593392741368 802.891797143658 3401.74667197158 221 221 223
183.515315319051 800.67819641244 3396.88050762854 221 221 223
194.138901603541 798.994402113266 3394.72132197094 222 222 224
203.902110703884 797.66320061479 3394.36897663232 222 222 224
215.296536094625 795.63205438982 3390.36665759685 223 223 225
230.752737734606 791.853006135888 3377.23357577264 225 225 227
243.26466529499 789.304402602181 3370.45122321755 222 220 221
256.126532862047 786.584847126372 3362.73278929548 220 218 219
265.304639298973 785.439528362123 3363.22093922936 219 217 218
275.268017126214 783.946187024113 3361.872061625 217 215 216
284.013922418044 782.97637040036 3363.26269425689 217 215 216
293.53995141055 781.659178149058 3362.81421018371 216 214 215
303.830984738461 779.995454906535 3360.52022405275 214 212 213
312.922085730427 778.853980839374 3360.97311695554 212 210 211
320.836031751151 778.232831787456 3364.18212587058 212 210 211
329.135024160434 777.438063518836 3366.46954518813 211 209 210
337.046831423374 776.815948170736 3369.67769545952 210 208 209
344.199251515191 776.538429787863 3374.73337957164 209 207 210
351.361843840031 776.259681631342 3379.79344889686 210 208 211
359.658890809289 775.462616676076 3382.08009792776 210 208 211
368.323225134339 774.493344932958 3383.43769892204 210 208 209
375.4987137749 774.211721966329 3388.50301166457 211 209 210
381.215908201894 774.615278292252 3397.28791049478 213 211 212
386.234153863139 775.35881166219 3407.94536371945 204 202 203
392.379211756251 775.58475869358 3415.82603952777 200 199 197
399.268566879548 775.465989233221 3421.85307259098 189 188 186
405.101992454639 775.857940325052 3430.6853777821 191 190 188
412.029134042857 775.734921815743 3436.72774252436 203 202 198
9.41099734300588 826.436863594347 3488.02471084212 218 220 217
32.7771922128974 819.995288085427 3461.93084505584 231 233 230
49.7004108582779 816.019603242563 3448.31443035037 229 229 229
66.9742586092512 811.875661562309 3433.76219286104 229 229 229
84.5911249187139 807.563946461842 3418.27104746697 232 232 234
99.4579499177084 804.307969932501 3408.13204812471 228 228 230
109.867514883676 802.8019385807 3406.96366749758 226 226 228
118.073981639657 802.168732014317 3410.29120738221 223 223 225
128.446964125249 800.664457863945 3409.10825867494 220 220 222
140.948572850117 798.292183232963 3403.39919971471 218 218 220
152.115993714881 796.44419224606 3400.38238802873 217 217 219
161.971811714694 795.118864036767 3400.06749486062 218 218 220
173.923150798591 792.928093016185 3395.21332523646 218 218 220
186.250227980247 790.567021457694 3389.43325754594 219 219 221
196.855160093973 788.900958779483 3387.26664177222 221 221 223
206.183993466734 787.754756781627 3387.81582667113 222 222 224
215.911030186759 786.43670264272 3387.44873573813 221 221 223
229.722250898945 783.396419210485 3377.9592457076 219 219 221
244.2787046014 780.016724997231 3366.61645159875 218 216 217
257.538577961781 777.15856854533 3357.98140982182 217 215 216
267.107909877879 775.850438690031 3357.55039010567 216 214 215
275.856821896549 774.886415821351 3358.94245345145 213 211 212
284.198344707547 774.093902316349 3361.24681871083 212 210 211
292.53502179432 773.301109777892 3363.54948131229 210 208 209
300.866951037114 772.50815541729 3365.85022277187 208 206 207
310.364469539812 771.202786175099 3365.39010538782 208 206 207
320.229629766961 769.727871993715 3364.00106327242 207 205 206
329.684547384123 768.424742193885 3363.52368011674 206 204 205
338.736891832691 767.292675001907 3363.96080946766 208 206 207
345.49421477759 767.18083941351 3369.93433107874 212 210 213
352.26686180509 767.067191965743 3375.91407103589 210 208 211
359.429806251751 766.782264386658 3380.97407254454 209 207 210
368.83727504289 765.479845287139 3380.47747230785 219 217 220
376.375253630782 765.024124130435 3384.61180891331 217 215 216
382.08161925242 765.412154336184 3393.39269814712 197 195 196
387.088743703989 766.134690765112 3404.04580762374 197 195 196
393.585500387746 766.179259605599 3410.99145043894 197 195 196
400.102461390424 766.221629934739 3417.94529050409 197 195 196
405.567983930005 766.766175669738 3427.70628587563 198 196 197
411.778135010633 766.971478065302 3435.61373116249 199 198 196
10.1067438210714 816.78496573324 3485.14289076836 228 230 227
37.0808150165931 809.051693284 3451.88863970096 231 233 230
55.7746995311954 804.439376857708 3434.67823355053 229 229 229
71.2310306291972 801.041886657024 3423.69992832374 228 228 228
85.7202645055899 797.994266354364 3414.48527386636 231 231 233
99.6985046664336 795.123548915552 3406.14118893533 227 227 229
108.35069660596 794.318371484368 3408.57169514338 224 224 226
117.870400205868 793.169839282155 3409.1981797097 221 221 223
127.808993191882 791.850565723533 3408.91675565549 218 218 220
139.45144954363 789.84752957651 3405.01464953527 217 217 219
148.912532034323 788.701968084029 3405.61737631187 216 216 218
160.062138611937 786.873794115384 3402.59345876596 217 217 219
172.86984156733 784.365537953144 3395.93055775444 217 217 219
185.622596187936 781.86098312132 3389.24512326916 218 218 220
196.229208442364 780.211046428659 3387.07906554196 221 221 223
205.143514739707 779.242831734563 3388.53787040781 221 221 223
216.526807423433 777.256079121937 3384.53096455307 220 220 222
228.691298458809 774.932750403852 3378.68503802787 219 219 221
242.437877823436 771.935068000852 3369.16905226868 217 215 216
254.49185253414 769.619180209768 3363.27832206502 216 214 215
265.689583865945 767.644618678938 3359.19619132615 215 213 214
275.245412109104 766.347840184009 3358.75961802811 212 210 211
283.587638373527 765.557930982283 3361.0642483709 211 209 210
291.925041672884 764.767770831988 3363.36718505791 209 207 208
300.257683356265 763.977449950678 3365.66819501858 208 206 207
309.366224438558 762.850823349746 3366.12803675086 205 203 204
318.84755793119 761.557077681343 3365.66127806718 205 203 204
328.308940417573 760.264200794508 3365.18617755049 206 204 205
336.984688950688 759.307349382021 3366.54856316072 205 203 204
344.509977834212 758.852185286039 3370.67775757226 209 207 210
351.662742425327 758.563127295381 3375.73392586333 208 206 209
358.825838707675 758.272658397135 3380.79403085087 209 207 210
367.862055777787 757.147667229091 3381.22457670597 216 214 217
376.142977043403 756.356183762498 3383.50465424735 210 208 209
381.478697262618 756.894246295226 3393.21314271827 197 195 196
387.579803724775 757.096830632005 3401.07645721244 197 195 196
393.706302746797 757.296870592905 3408.94981503364 197 195 196
401.297671448818 756.831892830926 3413.10609630782 197 195 196
406.03499864585 757.689154418481 3424.72749652102 197 195 196
412.237143776469 757.881462159031 3432.63179875127 197 196 194
418.816848133596 757.906009587708 3439.61117824964 210 209 204
-0.862663419940235 808.991029095489 3485.07602106973 221 223 220
17.6107523563531 804.594764930497 3468.85351921253 232 234 233
39.5839049945346 798.846389889631 3445.42730509128 226 228 227
57.3675470398161 794.637481461678 3430.00316399316 230 230 230
74.5996375037752 790.605760192224 3415.43316867351 229 229 229
86.8510023497744 788.444843270995 3410.6999938461 228 228 230
99.93994793703 785.948561903019 3404.15061799499 225 225 227
109.02633398697 784.977169056668 3405.67937805176 219 219 221
119.847787377174 783.330659744612 3403.60002477587 216 216 218
128.471778718307 782.529151220447 3406.01908495176 214 214 216
137.522512624288 781.558974485835 3407.53314326324 213 213 215
146.135217917829 780.757284164218 3409.94763517626 214 214 216
158.151305417531 778.610943051165 3405.11908773461 215 215 217
173.086511586343 775.292459322704 3393.92918386199 216 216 218
187.099440853928 772.315093941354 3384.52114452388 217 217 219
200.623751200015 769.510049234025 3375.99276883975 220 220 222
209.508571713342 768.549460828425 3377.43957731501 220 220 222
220.450286913072 766.753777699533 3374.33123974874 219 219 221
230.946305139211 765.127134171386 3372.11996949924 218 218 220
243.453562944916 762.66880387213 3365.335041947 216 214 215
254.282729160606 760.880214617157 3362.18108032344 216 214 215
264.270561245017 759.426306291264 3360.84154795683 214 212 213
272.23015983433 758.80426008458 3364.0690480742 210 208 209
280.588209146319 758.015721987001 3366.380331891 208 206 207
289.732712407514 756.895601130121 3366.85468514341 204 202 203
299.648386945746 755.44516269354 3365.4861676224 206 204 205
307.977051537517 754.657164823157 3367.78529245248 198 196 197
318.628711833969 752.878544366425 3364.5593843768 201 199 200
328.088779032081 751.596735188299 3364.08392464553 209 207 208
337.145878979054 750.480610103148 3364.52285862729 204 202 203
343.525274661462 750.516544404974 3371.4210482505 202 200 203
351.058542670905 750.057484926229 3375.55376010618 205 203 206
358.221783902942 749.761475254386 3380.61396578036 208 206 209
366.886267415385 748.808535041562 3381.97176061756 205 203 206
374.800227042026 748.183170696429 3385.18080699231 194 192 195
381.243360851305 748.211245669099 3392.10486330389 199 197 198
387.706754384102 748.237057964718 3399.03713978471 199 197 198
394.19038801999 748.260758578032 3405.97762734611 198 196 197
401.774502253806 747.793605873245 3410.13098782289 197 195 196
406.503045006829 748.626995457603 3421.74901222011 196 194 195
413.052195498091 748.643736484262 3428.71633707122 195 194 192
418.563993470171 749.145163675661 3438.49639586491 199 198 194
-11.3946868542096 801.007431201042 3484.1088744184 219 221 220
3.4936490708215 798.007877750054 3475.05519199779 230 232 231
22.3980029361841 793.505910449939 3457.9291669827 229 231 230
39.3810484974839 789.681441484744 3444.33582959725 230 232 231
57.6157696362818 785.362489900881 3428.01609596113 231 231 231
73.507972316647 781.885984268194 3416.13606282749 230 230 230
87.5395697654959 779.082412098149 3407.81307294219 226 226 228
100.182122558935 776.782836604951 3402.1605301989 224 224 226
110.580874881065 775.318190116322 3400.98745792276 216 216 218
119.64610859918 774.353195441692 3402.50760505358 213 213 215
127.834525155784 773.720313100872 3405.8278340826 212 212 214
135.161239900306 773.418255868904 3410.95427486473 211 211 213
145.928146008224 771.790707966989 3408.85294928424 213 213 215
156.239338739327 770.330099519659 3407.64439414169 215 215 217
170.338455720969 767.384730226005 3398.27100907784 217 217 219
182.682912179316 765.104050034592 3392.49762601544 218 218 220
197.907303164684 761.673489954838 3380.34685239464 220 220 222
208.469800192863 760.059034057812 3378.16240656302 220 220 222
221.483462868398 757.460274640388 3370.50451780565 218 218 220
230.738113064322 756.342963836151 3371.02344747352 217 217 219
242.020156621632 754.406584370838 3366.97516474883 216 214 215
251.232641851095 753.291508359961 3367.47700518085 215 213 214
262.850634354894 751.195686479902 3362.48688896877 214 212 213
271.21662080978 750.409717558866 3364.80136700493 209 207 208
280.772841802749 749.13406868748 3364.36479257173 207 205 206
289.517635076878 748.185351466923 3365.75481502779 202 200 201
300.218782131058 746.423044477911 3362.5488201387 203 201 202
308.149785123941 745.800842914574 3365.76474327888 197 195 196
318.021963012419 744.366229703268 3364.37823709456 200 198 199
326.326382648687 743.581821032173 3366.66777533501 209 207 208
335.392186476407 742.473135904838 3367.11017706368 206 204 205
341.778929624245 742.497519165895 3374.01142917741 202 200 201
349.320127703848 742.035051813776 3378.14737769317 205 203 204
356.115536745066 741.89428579481 3384.13653938007 208 206 207
364.791158556642 740.945908154744 3385.49855222621 200 198 201
371.974858960384 740.641696755799 3390.56736106774 191 189 192
378.800920100558 740.496744247424 3396.56870807863 200 198 201
386.738233366594 739.868393891262 3399.78723280995 200 198 201
394.675520001438 739.239507660114 3403.00575082028 199 197 200
402.612738081907 738.609939435219 3406.22424624275 199 197 200
407.329866083267 739.419600220651 3417.83808597213 197 195 198
413.5134331404 739.586032300132 3425.73506220228 196 194 195
419.369510257611 739.909448734014 3434.57705831663 194 193 191
426.306434163 739.751707777658 3440.62338981006 184 183 178
-23.7899175929663 793.668579277794 3486.69793110797 212 214 213
-7.00926198578422 790.042715644146 3474.09969300403 233 235 234
6.027505487195 787.742931058099 3468.60676658137 231 233 232
25.3732884992788 783.139869061377 3450.58143123274 230 232 231
40.985411143851 779.862111087493 3439.66529736372 232 234 233
59.2121680281785 775.603770401726 3423.34213686976 231 231 231
73.7558209217915 772.666823329949 3414.14842018812 229 229 229
86.8971784613959 770.226757911034 3407.62009669083 221 221 223
98.2175115943427 768.445521125341 3404.6649493487 220 220 222
110.381309272601 766.339273204731 3399.89590481825 210 210 212
119.881438244103 765.216321856945 3400.51426986005 208 208 210
128.499176224337 764.420389743578 3402.93075582666 207 207 209
136.68116381716 763.787269556224 3406.24838361653 208 208 210
146.150495316102 762.66514427969 3406.8542727181 211 211 213
157.310725674191 760.89321478696 3403.83423034798 213 213 215
171.402965974099 757.986527473467 3394.45776776547 217 217 219
183.318481338384 755.895825944144 3389.58807764458 218 218 220
196.864032903896 753.160082456833 3381.06777709563 218 218 220
207.846939665549 751.399721272024 3377.97584997076 217 217 219
220.863444425069 748.833523873974 3370.31886514186 213 213 215
232.174943744484 746.917107170166 3366.28235753464 212 212 214
243.03780418828 745.164553411187 3363.1417653265 214 212 213
253.459550634267 743.575146862866 3360.90014071233 215 213 214
263.044266220514 742.309201052785 3360.47477276532 213 211 212
270.603778923824 741.847554159263 3364.61813052384 208 206 207
279.762806002887 740.743049804337 3365.09824599857 205 203 204
287.323103771756 740.280270155663 3369.241672984 200 198 199
298.036255678757 738.536050733391 3366.04040167609 199 197 198
305.587026595857 738.072800469221 3370.17997487376 196 194 195
315.08491546186 736.810380901718 3369.71968190037 197 195 196
323.791057938443 735.867858742829 3371.09426519152 204 202 203
333.637267705799 734.447826030615 3369.6971341824 206 204 205
341.554418202066 733.824450482715 3372.90745744315 202 200 201
349.093500979327 733.359346659179 3377.04231224513 205 203 204
357.389112435191 732.575964612273 3379.3282763341 205 203 204
363.813936961035 732.58459844724 3386.24506670483 193 191 194
371.370914546032 732.11642759483 3390.3874474617 192 190 193
378.565002072713 731.805271607043 3395.46025738738 200 198 201
387.597023686353 730.703536972558 3395.88892825365 200 198 201
396.250716385802 729.76008934247 3397.24228201579 200 198 201
403.452312161834 729.44660498318 3402.31814962696 199 197 200
407.80016445954 730.389810924771 3414.86026814305 198 196 199
413.264872933822 730.85719043188 3424.62151880428 196 194 195
419.117796129812 731.164448204823 3433.46236039648 191 190 188
425.351287348916 731.312070524991 3441.37969313958 215 214 209
-17.5283583829748 782.060962817712 3473.13776643347 231 233 232
-4.45725769774863 779.786074635083 3467.65855257769 232 234 233
9.02113834818352 777.352362471851 3461.26664543205 226 228 227
26.9886934395347 773.302084215697 3445.91576705215 228 230 229
40.7843232858898 770.715911805117 3438.57439586592 224 226 225
59.9120494138796 766.194116364611 3420.46015484872 230 230 230
73.557690290446 763.618482336668 3413.0579743113 228 228 228
87.1434911319378 761.046991561518 3405.63153356216 219 219 221
97.5770635134394 759.607167602298 3404.47262876035 218 218 220
107.546988309503 758.329496558872 3404.20357539873 207 207 209
117.060793435249 757.213501560839 3404.82742509143 206 206 208
127.428517050294 755.777166582955 3403.6415749177 206 206 208
136.908328206241 754.662818781636 3404.25164820714 206 206 208
146.80273924875 753.388948723616 3403.95199105032 210 210 212
157.104172853306 751.95622193619 3402.73927317106 212 212 214
171.621078723026 748.927979683415 3392.45686788434 217 217 219
184.376702049817 746.543043241426 3385.77194546966 217 217 219
196.658284135617 744.321142961181 3379.97265948277 217 217 219
207.22409055954 742.739002842933 3377.78930865729 215 215 217
220.243442770388 740.205247486806 3370.13323083946 211 211 213
231.145662644374 738.469152027596 3367.00845023683 210 210 212
242.421703521236 736.576765146209 3362.95740361748 212 210 211
252.43885830621 735.161898700815 3361.62944787814 212 210 211
263.238575285599 733.432190846842 3358.4631161621 210 208 209
271.997118171236 732.494309602835 3359.85862360487 204 202 203
282.340673457042 730.925683362653 3357.58518243386 200 198 199
289.088651948964 730.776630292502 3363.55520264039 198 196 197
299.001162440272 729.367239727558 3362.18509288748 192 190 191
305.759872105786 729.216200700685 3368.1594731233 193 191 192
314.08836440135 728.4356586058 3370.45847167911 189 187 188
321.253829511242 728.125210725805 3375.51994444995 188 186 187
329.58012473724 727.343850980958 3377.81831685194 200 198 199
339.044426260178 726.093238219414 3377.34433510851 202 200 201
347.353391413774 725.312061395638 3379.63543207371 203 201 202
356.033182203243 724.374825053025 3380.99930568807 196 194 195
363.209580978132 724.060706856387 3386.06497601599 182 180 183
371.137773204545 723.434155112948 3389.27979406988 194 192 195
379.065998571168 722.807092646998 3392.49462941314 198 196 199
386.994220002706 722.17943273179 3395.70946769162 198 196 199
396.01210485628 721.08643957941 3396.13234842566 199 197 200
402.850550959988 720.922477924636 3402.1391113314 199 197 200
407.913266157007 721.529336787721 3412.81560591211 198 196 199
412.305201122189 722.441015150001 3425.37581215896 195 193 194
418.160020517601 722.731654374309 3434.21754747296 196 195 193
424.7462329688 722.711571415059 3441.19990033876 187 186 182
428.916326495683 723.765228651568 3454.74801653839 200 199 194
-31.3163331150788 775.183182540631 3478.39609778931 217 219 218
-15.4202422768288 771.972500788984 3467.59443221414 232 233 235
-3.28122432173106 770.04518658067 3463.89306365022 228 229 231
13.8465642713903 766.365868699544 3450.3569742625 227 228 230
29.5155030334719 763.171270945849 3439.46321450585 224 225 227
44.6523166997315 760.141556114152 3429.43181666356 226 227 229
61.9618167540943 756.322482364018 3414.89155212938 231 231 233
76.9360840304103 753.304246453689 3404.79399616973 228 228 230
87.3905265202626 751.876756602947 3403.64344803801 216 216 218
96.9366989800073 750.767253281275 3404.2803538302 214 214 216
105.589729366051 749.974627593196 3406.71084715398 205 205 207
115.985832490121 748.550175794335 3405.53665479805 202 202 204
125.923107728712 747.284745354746 3405.25428908107 202 202 204
136.704514767042 745.705309493933 3403.15821292204 207 207 209
147.026960402247 744.284965346849 3401.95390880836 207 207 209
159.031672370565 742.237373562061 3397.12026422807 210 210 212
172.688430623054 739.564879469247 3388.64451106702 218 218 220
187.123365644582 736.583396232311 3378.32830471644 218 218 220
198.129663079277 734.859856986799 3375.2455692094 216 216 218
209.517643725139 732.982123223758 3371.23973514421 214 214 216
221.279806586147 730.950764758962 3366.30750387505 209 209 211
232.173740376255 729.234394367426 3363.17921878502 208 208 210
242.623698797346 727.675958262276 3360.94878225253 211 209 210
253.04370872076 726.11938682359 3358.70620565148 208 206 207
263.43375007101 724.564591977758 3356.451481521 206 204 205
273.392318384409 723.166795244099 3355.09993237645 201 199 200
282.129311651464 722.23537353615 3356.48666556953 197 195 196
288.478316668964 722.232978219369 3363.37284075551 194 192 193
297.210822512594 721.300860545798 3364.75801952436 196 194 195
304.368393604827 720.986500524188 3369.8160684897 187 185 186
313.09129090085 720.054127924087 3371.19735875785 193 191 192
320.645695795053 719.583805159059 3375.33845693478 170 168 169
329.356437846619 718.651205488111 3376.71457012501 180 178 179
338.819493658211 717.4117201129 3376.23999965931 190 190 190
346.747933624412 716.786762696276 3379.45490593673 195 195 195
355.052559091229 716.008106111528 3381.74448391726 196 196 196
362.605139835736 715.535267833889 3385.88486257578 181 181 181
370.533845069043 714.908675445875 3389.09988865061 184 184 184
379.199504083182 713.976354519859 3390.45800315156 192 192 192
386.757240331159 713.501434050467 3394.60048501941 195 195 195
395.046805885886 712.721191045548 3396.88397737269 197 197 197
401.887719553289 712.548784788147 3402.89180338529 198 198 198
407.310353536489 712.981808945538 3412.63627878683 199 199 199
412.41256311689 713.563098230041 3423.32870094794 194 194 194
417.908423014692 713.989185089514 3433.10287758726 191 191 191
424.141034898202 714.109529510783 3441.02006105263 200 200 200
430.398868103072 714.227313235028 3448.9472186355 191 191 189
-28.2643410813685 764.766739861983 3471.07980197486 223 224 226
-15.621502232783 762.701233646597 3466.50440901536 221 222 224
-3.48305848022257 760.79557399242 3462.80264382527 219 220 222
15.0183641877371 756.697525586333 3446.58922136628 221 222 224
32.4998647699652 752.920685324782 3432.11827851107 221 222 224
46.2631344534263 750.402172925153 3424.7632920793 227 228 230
61.7655130760797 747.263063011817 3413.80167271744 225 225 227
76.293366318074 744.441624323265 3404.60094057309 218 218 220
86.3045725906328 743.183307880723 3404.34845508675 205 205 207
96.7386318154748 741.770260345874 3403.18928721982 202 202 204
103.631236728517 741.602007790147 3409.21801116829 194 194 196
113.162287617975 740.500756102271 3409.84873179848 194 194 196
121.809833192363 739.710173506343 3412.27724610127 202 202 204
134.3411164987 737.525904813108 3406.57877713547 205 205 207
146.393043676174 735.499623856821 3401.76383090263 205 205 207
158.399960618266 733.476365578223 3396.93089465928 210 210 212
170.786486441455 731.301802354026 3391.1737408475 217 217 219
183.966766160627 728.822515240589 3383.58240858525 217 217 219
196.667464656534 726.501258171987 3376.8747648227 214 214 216
208.0626696277 724.644715954566 3372.87143798305 211 211 213
219.417753422486 722.790809063854 3368.85210361432 205 205 207
229.909414115395 721.245925826847 3366.63844930972 204 204 206
242.008012954295 719.090707503989 3360.76456926921 206 204 205
251.61626076266 717.856037715062 3360.34874951534 201 199 200
261.608896335151 716.46968435859 3359.01064999883 199 197 198
272.379792349169 714.779829216265 3355.83234680505 194 192 193
280.721038928933 714.005832886375 3358.13671709176 192 190 191
288.661029793404 713.383726208205 3361.35627863838 191 189 190
296.207357515361 712.912967412546 3365.49410973038 181 179 180
304.150486398135 712.289506257166 3368.71495210498 187 185 186
313.260755966084 711.211131466734 3369.17512795331 180 178 179
320.037509425017 711.040969137513 3375.1569589429 182 180 181
328.749143452192 710.113738422359 3376.53339259252 156 154 155
336.688078970036 709.488457559724 3379.7525508962 181 181 181
346.142414194041 708.260004366099 3379.27436590534 200 200 200
354.07147395217 707.634459859598 3382.4895275821 176 176 176
362.00062117917 707.008340550125 3385.70472903125 183 183 183
368.073704499459 707.132058824525 3393.55729493671 181 181 181
377.121664146135 706.054197300763 3393.99223804816 186 186 186
384.323729982552 705.725402905217 3399.06841202936 189 189 189
392.99025515249 704.797436786904 3400.42684422241 189 189 189
399.841232450078 704.616013992817 3406.4388132706 190 190 190
407.065932821464 704.283752574612 3411.52417809401 193 193 193
412.876542444272 704.545645248905 3420.34823107476 191 191 191
419.070867146892 704.655932125251 3428.24998856482 192 192 194
425.29044970203 704.763685298329 3436.16173475896 190 190 190
430.838307930088 705.165358440673 3445.95715020377 183 183 181
437.113123226461 705.267654243366 3453.89155833615 133 134 126
-28.9298084666929 755.629724662737 3470.87961502117 225 226 228
-18.5976278888538 754.360533508615 3470.75717218838 214 215 217
-6.90457198935746 752.629657358058 3467.95255593857 214 215 217
13.4467883862299 747.973812565716 3448.1768983186 217 218 220
32.7577101445988 743.635277528712 3430.13518562609 216 217 219
48.7809486365316 740.381247982553 3418.30652165775 226 226 228
62.0194865376178 738.054230873307 3411.81668892617 221 221 223
72.9663738761628 736.49728098766 3409.78744413283 213 213 215
83.4388227508256 735.095293659089 3408.64399335681 201 201 203
93.8869447439503 733.69467124474 3407.49042522628 198 198 200
102.111461907523 733.058988496597 3410.82529236208 191 191 193
112.085847101349 731.812675286727 3410.55780730013 191 191 193
121.171340506189 730.872053605709 3412.08571546763 202 202 204
133.705070877818 728.714759274779 3406.38803284294 204 204 206
146.188842039849 726.560915021513 3400.67009593696 205 205 207
156.914112917167 725.017249401364 3398.55101951468 212 212 214
168.88340761104 723.020912192129 3393.70264623474 216 216 218
181.230026073659 720.876116533007 3387.92885135832 216 216 218
194.365514658477 718.432532266503 3380.31937009124 212 212 214
204.938791679503 716.898667230849 3378.13867814572 210 210 212
215.896660902387 715.215906493291 3375.03602530824 204 204 206
227.231633001939 713.384789056894 3371.00811789195 202 202 204
239.345314131047 711.255633695308 3365.14014701393 202 200 201
251.001850222419 709.280010988954 3360.16498297745 197 195 196
259.782868735647 708.356996687716 3361.56947795551 194 192 193
270.563205327336 706.685492050945 3358.39485809303 191 189 190
278.51346030317 706.06302048724 3361.61857827148 188 186 187
286.860789695152 705.290634391137 3363.92539924071 187 185 186
292.83817032513 705.412914232768 3371.73896948008 182 180 181
301.582836612589 704.490114599698 3373.12900129844 185 183 184
311.096043908572 703.270033686527 3372.674332507 180 178 179
319.042691640737 702.645217769456 3375.89660990756 182 180 181
327.373596844499 701.871472894428 3378.19679113831 168 166 167
334.936573153616 701.393835884857 3382.3414152605 146 146 146
344.020788390778 700.323532828546 3382.790980713 200 200 200
351.960481472575 699.697115975689 3386.01045435947 176 176 176
360.274180495559 698.922582374416 3388.30367490764 174 174 174
366.354401518588 699.032076302526 3396.15923863513 175 175 175
375.411041223258 697.961746288168 3396.59763915389 181 181 181
382.987134330187 697.479872037793 3400.74760629187 184 184 184
391.659694084595 696.556813073883 3402.10818742406 185 185 185
399.238153868239 696.07372970843 3406.25937920402 185 185 185
406.104174665463 695.882387735062 3412.27751444349 188 188 188
413.341547290115 695.543114819655 3417.36806331787 189 189 189
419.174171748288 695.786346662726 3426.20117139377 185 185 187
424.334721416835 696.318026840098 3436.91784829404 195 195 195
428.489898463591 697.282633854264 3450.46059989277 185 185 183
433.392670737753 697.951578367314 3462.15067226627 167 168 162
-35.1786114211805 748.314184386871 3481.35169532582 217 218 220
-24.3520963589841 746.901515429714 3480.35142718239 193 194 196
-9.86802534841558 744.278095574752 3472.21027513679 203 204 206
10.0438904527558 739.843099107196 3453.3338236898 213 214 216
31.6508293439857 734.812810828663 3430.83295468041 203 204 206
46.775127873705 731.906484532135 3420.79529706984 213 213 215
58.2234329346154 730.21152762419 3417.89131067835 205 205 207
68.7420441480853 728.819875962053 3416.76621513876 198 198 200
81.0163387319021 726.828246040834 3412.04129847727 193 193 195
93.2460573959812 724.839525551079 3407.29805406188 190 190 192
101.910966961895 724.053604625026 3409.73356358785 186 186 188
111.88415769334 722.818121274587 3409.46525558261 191 191 193
120.098051030203 722.182024934164 3412.79582434102 203 203 205
131.339460500995 720.499753857665 3409.80797123316 203 203 205
142.116207025689 718.968891253512 3407.70989711963 207 207 209
155.000131536539 716.694781995131 3401.07582568062 213 213 215
166.979334493065 714.722143500866 3396.2310273298 212 212 214
179.335838460502 712.603847008662 3390.46129139446 212 212 214
191.642312257192 710.488976328189 3384.67127263008 209 209 211
203.898708263653 708.377445568095 3378.86095240692 206 206 208
214.446193245916 706.861429352537 3376.66993938467 200 200 202
225.788258879186 705.051508410162 3372.64474342637 199 199 201
236.68057874048 703.391843968436 3369.51537505234 195 193 194
248.759150927408 701.292249916567 3363.63296474526 188 186 187
258.360192026806 700.079252065956 3363.21406277852 185 183 184
268.343468672049 698.720270453525 3361.87196642819 183 181 182
276.703777859063 697.950083902138 3364.18402615269 182 180 181
285.059376315764 697.179672812057 3366.49418023773 179 177 178
292.227087260703 696.84839976923 3371.55646295381 186 184 185
300.580782602227 696.07712326565 3373.86585304058 176 174 175
309.319056830281 695.159707229812 3375.25299872654 182 180 181
317.273789307307 694.534161109405 3378.47855511785 171 169 170
324.460147204538 694.199343013982 3383.54867195011 192 190 191
332.802049139844 693.426878828225 3385.85329597242 164 164 164
342.27673894664 692.218606782582 3385.38294221402 168 168 168
350.60116297978 691.446481256455 3387.6804869904 174 174 174
357.798195142377 691.108725295398 3392.75494802544 177 177 177
364.262270639754 691.058747238053 3399.68807509911 155 155 155
372.96107980336 690.140213842006 3401.05925012887 168 168 168
380.550058853005 689.654623323947 3405.21472008877 173 173 173
388.872197598054 688.879994346261 3407.51110131709 176 176 176
395.743287902928 688.680569496099 3413.53135043036 176 176 176
403.70629944151 688.048569159195 3416.76030787636 179 179 179
411.312816320892 687.559382849927 3420.92264880806 182 182 182
418.216513706779 687.355760647079 3426.95613211261 183 183 185
422.675955547559 688.151504776041 3439.54455016585 180 180 180
425.790653159228 689.513970973031 3455.89994221899 196 196 194
430.36117659047 690.299838345932 3468.53341128573 185 186 181
-36.7769775732147 739.439841498898 3482.92940956146 220 221 223
-26.8699853639853 738.338094975238 3483.71234992401 199 200 202
-14.2146636406353 736.344252204008 3479.1417252294 196 197 199
5.26491924204331 732.124130880769 3461.16740468965 206 207 209
25.5347382109996 727.616027280098 3441.35761169285 191 192 194
42.0511781326314 724.30327713628 3428.65027843808 201 202 204
55.7756530072915 721.885213648023 3421.27882288723 197 197 199
67.6490806108552 720.062628209316 3417.46912485276 191 191 193
78.5924298541023 718.53790896725 3415.43820321016 192 192 194
89.063547897348 717.162453529346 3414.29375525887 189 189 191
98.6296452314346 716.082957853559 3414.93875826854 185 185 187
111.682855274738 713.827566074966 3408.373087471 193 193 195
121.635144129467 712.604074592847 3408.09648277515 201 201 203
131.567921559228 711.381590979433 3407.81197040195 201 201 203
140.621067454387 710.452976755213 3409.32669027829 207 207 209
153.085021810585 708.354590706962 3403.6003093297 211 211 213
166.774044845025 705.821329251679 3395.13656460525 209 209 211
178.285429922096 704.022077802567 3391.18010124697 208 208 210
190.17694451101 702.079669485335 3386.29956935976 206 206 208
202.858176052634 699.849379796753 3379.58335405715 204 204 206
212.165286090322 698.785148315965 3380.12312201714 201 201 203
222.28246653153 697.431308759833 3378.83520339142 197 197 199
232.784570700646 695.934046637062 3376.62541662142 192 190 191
246.51489862322 693.281149765857 3367.10049461449 184 182 183
257.34154190877 691.644741139161 3363.94435798668 181 179 180
266.524338514743 690.587609077838 3364.43373850568 179 177 178
274.493274268622 689.963448254743 3367.66503520317 179 177 178
282.859666267854 689.194871937141 3369.97954561018 178 176 177
291.221411569536 688.426101309672 3372.29191884848 178 176 177
299.186260056901 687.800740022422 3375.52156973985 174 172 173
307.151373707265 687.174819741879 3378.75133223087 175 173 174
314.729650987261 686.691511731437 3382.90245181914 169 167 168
321.928855598713 686.350062275238 3387.97756323249 171 169 170
329.520192279154 685.864643623127 3392.13398647773 184 184 184
338.634421616896 684.808341258037 3392.59559830587 131 131 131
346.979887617255 684.037273842935 3394.90139757922 168 168 168
354.571591892609 683.550271888296 3399.05798166205 167 167 167
361.424891097226 683.346069767026 3405.07106349506 144 144 144
370.878334638305 682.148327886401 3404.59202745815 161 161 161
379.211227435492 681.376129157 3406.89300173206 167 167 167
387.53902717731 680.603825843957 3409.19191465659 172 172 172
394.053466067255 680.536886175118 3416.14556207612 172 172 172
401.665470814646 680.045143020706 3420.31014438695 175 175 175
409.282339374073 679.552441228635 3424.47696051364 178 178 178
416.196082694063 679.33983377918 3430.51457945159 173 173 175
421.718795506752 679.686622183883 3440.3002297069 184 184 184
425.53191392225 680.730523123026 3454.78269130203 182 182 180
430.098470230037 681.48926757252 3467.4147596929 187 188 183
439.18627625545 680.427730690382 3467.86596981151 185 186 180
-39.3073954940415 730.846120897148 3486.28548910053 210 211 213
-28.4630991414374 729.458996770051 3485.29248407953 217 218 220
-17.6429389635742 728.073192559783 3484.28943926091 177 178 180
0.0244754075924281 724.500522785479 3469.89222402739 200 201 203
18.5027594161125 720.643765265668 3453.66786119624 160 161 163
34.6056626792135 717.522528434084 3441.87018917121 183 184 186
50.6233531459637 714.407469565692 3430.03822548686 172 172 174
65.2119548213566 711.733826282953 3420.86096970468 175 175 177
76.1670197889335 710.224378149854 3418.83467592516 186 186 188
86.6495728750578 708.861490832134 3417.69501990549 181 181 183
96.6673655282111 707.644531136952 3417.44463049865 187 187 189
109.292819537061 705.562669952324 3411.7835143633 193 193 195
118.821152576435 704.493105712716 3412.41289437299 198 198 200
129.200552446785 703.13641841955 3411.23142535127 197 197 199
139.555455969304 701.781049691001 3410.03977071065 204 204 206
152.879754903506 699.422362314055 3402.50609392345 210 210 212
164.868431700218 697.497929853344 3397.66476607493 203 203 205
177.657428784435 695.290245452343 3390.99201293646 205 205 207
189.971256531862 693.229248161745 3385.20456338912 202 202 204
203.905475685788 690.600611429869 3375.76175438801 202 202 204
211.543124544739 690.115349221234 3379.936927921 201 201 203
221.661729263134 688.774995885667 3378.64948375317 193 193 195
231.755391647218 687.436105173652 3377.35218675083 187 185 186
243.861568924246 685.388869715998 3371.48055668563 180 178 179
255.107717524049 683.628540812589 3367.41614870469 177 175 176
263.899216401809 682.720262432508 3368.82503264051 175 173 174
271.881270565523 682.094972598236 3372.06164944696 174 172 173
280.658393641097 681.186792518191 3373.46445475051 173 171 172
290.215247868372 679.996991736495 3373.02748600428 171 169 170
299.359895646349 678.948949409741 3373.50135143491 164 162 163
306.540993764103 678.604481177445 3378.56915453852 163 161 162
313.345207964073 678.399027224257 3384.56237168884 166 164 165
320.934111817242 677.911470052483 3388.71782610892 168 166 167
328.528357290644 677.423076655402 3392.87519242506 144 144 144
336.886949076228 676.654161916463 3395.18654714587 161 161 161
343.7323859325 676.443379693936 3401.19649544502 126 126 126
350.593122947197 676.230936947762 3407.21265125642 167 167 167
357.841186600657 675.877576595422 3412.30763563168 150 150 150
367.316066294249 674.689040093392 3411.83746639362 153 153 153
376.403783067029 673.640397446688 3412.28828541313 162 162 162
385.111910061854 672.731018761343 3413.66316377664 166 166 166
392.362375305792 672.375400445974 3418.7593948802 172 172 172
399.982267946603 671.880252759773 3422.92719674871 173 173 173
407.963872113112 671.246271266934 3426.16369723488 175 175 175
415.591027324928 670.749556461177 3430.33470877193 175 175 175
421.816339732351 670.802160534779 3438.24919295788 180 180 180
427.368402191351 671.12695728421 3448.04689336816 182 182 182
431.56908807261 671.99709362856 3461.60904446061 184 185 180
438.234087056779 671.903580220478 3468.6238540192 185 186 181
448.676353504919 670.303692324596 3465.31180911114 110 111 105
-41.3733367631346 722.085519158222 3488.75208872112 208 209 211
-29.1299848309789 720.280370220668 3485.09203826718 196 197 199
-19.6909690868192 719.337921560324 3486.76309897768 185 186 188
-2.92831270030613 716.105191358565 3474.1548504989 178 179 181
13.2885351755956 713.021965287773 3462.40328295709 164 165 167
29.8737247318617 709.802015678107 3449.72282531388 167 168 170
46.3685783088212 706.588649931817 3437.00599859417 165 165 167
60.9807187158922 703.951284287014 3427.83774127683 169 169 171
71.9574973376387 702.456399395822 3425.82038604347 181 181 183
81.1324382605001 701.53119665829 3427.38439400702 177 177 179
91.6197980006246 700.180965122756 3426.24633101363 185 185 187
104.710987172091 697.982544234164 3419.69586309921 194 194 196
116.440656611721 696.21220545157 3415.82756238545 198 198 200
127.697609732166 694.585639618715 3412.84558056084 197 197 199
138.919971630839 692.961192148419 3409.84931971202 203 203 205
150.107428673886 691.339116165772 3406.83916538533 208 208 210
162.536343965026 689.297334577502 3401.09816832073 203 203 205
175.33807839666 687.118588847818 3394.43035309691 204 204 206
188.925402819367 684.663233158994 3385.92484081932 201 201 203
201.194061763175 682.632504537926 3380.11887331458 200 200 202
208.844734770206 682.143316723438 3384.29909276149 199 199 201
219.802824297171 680.536155301583 3381.19595610137 190 190 192
231.136101748148 678.791842064038 3377.16696180824 184 182 183
243.244693179129 676.771703128397 3371.29610383266 176 174 175
252.062031734152 675.867211103108 3372.71516414498 173 171 172
260.869668728534 674.963009505464 3374.13029416263 171 169 170
269.267423018291 674.197776582385 3376.45747759726 171 169 170
279.250539577149 672.878643011812 3375.11527161834 169 167 168
288.418740839793 671.837402121514 3375.5986221353 168 166 167
297.179598187745 670.934904288134 3376.99479849089 164 162 163
303.980915858583 670.72187904011 3382.9869002454 162 160 161
310.797684420489 670.507121550074 3388.98527108635 157 155 156
318.014699055297 670.153226934176 3394.06794520967 156 154 155
325.624427779992 669.660767463235 3398.23161140449 160 160 160
333.998888089073 668.893285415547 3400.54938031883 153 153 153
340.859513918684 668.673056110921 3406.56529290562 141 141 141
348.85950660325 668.041234184479 3409.80922240378 153 153 153
356.11516800043 667.681767061719 3414.90758656594 156 156 156
365.59889781879 666.503498295747 3414.44092285416 149 149 149
374.328186053702 665.59845054334 3415.82433642684 158 158 158
383.776407147048 664.42197887335 3415.34328186193 165 165 165
391.032030676605 664.060482363278 3420.44164607396 171 171 171
399.016757591424 663.426791445867 3423.67940873636 172 172 172
406.644424836972 662.927799882756 3427.85038762289 171 171 171
414.27701676256 662.427969825705 3432.02336683309 172 172 172
421.562546189389 662.062071539952 3437.13387309569 179 179 179
427.809976841553 662.098726402076 3445.05743369319 181 181 181
431.654610512957 663.073833334638 3459.55343425891 185 185 183
436.248440331019 663.77524361219 3472.1969800786 187 187 185
441.23440988298 664.338039461722 3483.92154301942 188 189 184
-42.5082006402633 713.025119012064 3489.44033109632 200 201 203
-30.7237880604196 711.382024372252 3486.67178193381 198 199 201
-20.8180538057072 710.303714668125 3487.45429254131 170 171 173
-5.42430468751554 707.540813133747 3477.5246464478 171 172 174
10.3504542062316 704.642988453917 3466.67148305508 141 142 144
25.5917708036659 701.891022702529 3456.68029244824 148 149 151
41.660054212306 698.864643711468 3444.86788409241 150 150 152
55.84966824059 696.403084249438 3436.60628163951 157 157 159
69.974229575249 693.946075615395 3428.31856254354 173 173 175
80.4875233163642 692.607717209512 3427.19091004865 170 170 172
90.0947005389652 691.54894248233 3427.85213172896 182 182 184
102.317039713729 689.657614054091 3423.10516120526 191 191 193
114.930306603191 687.630606588722 3417.43869481522 194 194 196
126.627265696215 685.883990237902 3413.55697010389 193 193 195
137.853827970015 684.278303030616 3410.56252498612 199 199 201
149.045633217953 682.674831572419 3407.55399019961 203 203 205
161.053890399628 680.797774534611 3402.72023121769 198 198 200
174.709437049506 678.372998940456 3394.24210984863 199 199 201
188.299739674066 675.952914299317 3385.73753607899 197 197 199
200.988743877966 673.812001719966 3379.02379041825 196 196 198
209.052551799745 673.182924613298 3382.29353744965 195 195 197
219.594463922646 671.73197330599 3380.09951761525 187 187 189
229.696126128176 670.419562659687 3378.80500174581 184 182 183
240.180744163192 668.972134461828 3376.58775723621 174 172 173
249.014034415141 668.07181282487 3378.01350189393 170 168 169
259.04608697635 666.763363041544 3376.69077154954 168 166 167
267.852307889416 665.864199751873 3378.10554724344 168 166 167
277.046543697386 664.829593616296 3378.59938867405 166 164 165
285.435485094616 664.066642988897 3380.92298653163 165 163 164
294.212388399923 663.16828360169 3382.32562841358 161 159 160
301.02877860702 662.945725418536 3388.32390518847 158 156 157
308.248279919108 662.586558233096 3393.40736888792 154 152 153
316.248171232671 661.956657173375 3396.65124278203 150 148 149
325.013226262978 661.057258477427 3398.04935248545 154 154 154
331.48849235413 660.964042441511 3404.98733828349 139 139 139
338.361581728246 660.734541269412 3411.00862477608 148 148 148
345.999831713383 660.235578009169 3415.1838883245 164 164 164
354.015563361967 659.601911353079 3418.43420440043 155 155 155
362.40114334171 658.834265627959 3420.75647683141 143 143 143
371.883582741787 657.666589805442 3420.28921034677 153 153 153
381.345715384057 656.499984864361 3419.81371368252 163 163 163
389.700897413589 655.733288411314 3422.12341377666 171 171 171
397.691155127117 655.099129411037 3425.36341936828 172 172 172
405.324076692249 654.597026219438 3429.53680650349 167 167 167
412.962017197851 654.094052591743 3433.71197514333 169 169 169
419.900623697275 653.854369316026 3439.75986623418 177 177 177
425.456018473077 654.14064534648 3449.55920785252 180 180 180
430.005577365846 654.818663880227 3462.18500599069 185 185 183
434.2611022936 655.623668547179 3475.76959747904 188 188 186
440.965769853245 655.504656009784 3482.80066183974 189 190 185
-51.2466584683424 704.338188271411 3484.88897051895 209 209 207
-43.6431044397463 703.957793414931 3490.12835257372 198 199 201
-32.3182731059364 702.471383363655 3488.25159995844 187 188 190
-21.4840027705676 701.124625359134 3487.25422950976 194 195 197
-8.83918320246502 699.228576906616 3482.67835408594 164 165 167
5.12970088222597 696.922955641321 3475.40500581431 159 160 162
21.7605190757786 693.7976574592 3462.74256267817 143 144 146
39.2035050088959 690.404582639546 3448.25311667649 148 148 150
54.3033687949916 687.703490787422 3438.2040099899 156 156 158
67.9900681316059 685.417925110857 3430.81625509355 172 172 174
78.9556493264525 683.95584780968 3428.79411742864 169 169 171
88.1279358728537 683.040897758683 3430.35697294138 181 181 183
101.675403334504 680.764838871987 3422.91277198466 187 187 189
114.726942921135 678.628917015721 3416.34577650813 190 190 192
126.856819047588 676.76825682962 3411.56113589318 190 190 192
137.218315089437 675.452948347919 3410.37210409781 198 198 200
147.983634676862 674.003664343225 3408.2685277281 201 201 203
159.570835464199 672.285893897842 3404.34188678438 195 195 197
172.387857515071 670.165892389802 3397.67981614428 196 196 198
184.308388050452 668.319307666186 3392.81030629187 196 196 198
197.020228678038 666.206593403371 3386.10559320202 195 195 197
207.182966986219 664.903893878979 3384.83599023349 196 196 198
218.147281743228 663.334351923293 3381.73483175315 188 188 190
227.434081411824 662.3030169708 3382.26638406816 185 183 184
