ply
format ascii 1.0
comment KinectMotionCapture
element vertex 761
property float x
property float y
property float z
property uchar red
property uchar green
property uchar blue
end_header
222.218928781513 723.019813032231 2966.48097446024 192 192 194
232.539635794881 721.2629301761 2963.12090097574 200 200 202
243.289436079257 719.334676857192 2958.85705512 182 182 184
252.155049600865 718.103019124873 2958.14026793839 203 203 205
261.001123613388 716.872455736494 2957.41581827946 209 209 211
269.371712321451 715.816041723208 2957.5763361221 215 215 217
276.367046073792 715.279239275427 2960.41276610204 216 216 218
282.460964296444 715.087341992741 2965.03947853525 214 214 216
285.874603801094 715.929318185576 2975.04623467895 210 210 212
293.343423796482 715.216731461509 2976.99690014358 210 210 212
298.147088827949 715.536849874326 2984.33374167546 212 212 214
305.622306956286 714.822889484687 2986.28700811088 212 212 214
310.901103173084 714.967571504346 2992.7387485161 211 213 212
315.328954963722 715.453309398421 3001.00123594404 212 214 211
319.787805647748 715.936172875555 3009.27629639198 205 207 204
327.293404781234 715.218042060791 3011.24189549221 188 191 184
-102.357084853445 771.908122718511 3088.23031596655 213 214 216
-72.7163753047477 764.095921802167 3056.05636616554 217 218 220
-49.1608722827939 758.238678310579 3033.27165971712 215 216 218
-34.2677151570954 755.211031247301 3024.22039953503 212 213 215
-24.738869546806 753.947987620077 3023.77238823212 202 203 205
-14.7022736921336 752.510444628875 3022.452733153 207 208 210
-4.68957685094074 751.074441869072 3021.12313263125 218 218 220
9.47443200774845 748.236976646978 3012.85401208944 218 219 221
21.4962786358521 746.104998308487 3008.02794483879 219 220 222
33.4739200231251 743.976079361573 3003.18369878285 220 221 223
44.8928520527407 742.025058696647 2999.19095220879 214 215 217
54.22517473749 740.775283832512 2998.66326958958 213 214 216
65.5756624999668 738.8289386773 2994.64277497672 215 216 218
77.3936852541048 736.711081948791 2989.73381661649 210 211 213
91.1845553506756 733.900041566046 2981.31341453574 208 209 211
102.401972459406 731.962984051157 2977.23897015851 193 194 196
112.082391346877 730.549571044411 2975.77466141907 191 192 194
122.235296301387 728.964248785973 2973.42415382851 182 183 185
132.358750111161 727.380865927893 2971.06196420415 188 188 190
143.928111488423 725.280050137631 2966.05219544535 196 196 198
153.496399690242 723.873966856269 2964.54243022698 185 185 187
161.580405694649 722.987490103602 2965.66469005154 183 183 185
169.655386442543 722.101375162446 2966.78303564458 181 181 183
178.684227401177 720.871006524715 2966.1325855534 173 173 175
187.69386622227 719.641710915581 2965.47435251927 160 160 162
195.731195016457 718.757413434142 2966.57743932669 173 173 175
203.759209426965 717.873489843277 2967.67700919859 165 165 167
211.778109645489 716.98984544596 2968.77262945586 150 150 152
220.725661016401 715.763854954357 2968.08923260036 204 204 206
231.519608121681 713.854256425615 2963.84286285542 173 173 175
242.737762664084 711.776359040209 2958.69097644428 187 187 189
251.143057844505 710.726221489685 2958.86549911826 207 207 209
260.451759710435 709.335444450126 2957.25051321121 207 207 209
268.823248361673 708.287058797952 2957.41133458169 213 213 215
276.27272177963 707.579770761427 2959.35412659134 216 216 218
281.461669612329 707.722365780329 2965.76950384016 210 210 212
285.325302456276 708.37242638868 2974.88110562889 208 208 210
291.902250188098 708.00162757856 2978.62594117567 213 213 215
298.928709798454 707.460416364049 2981.47500721264 214 214 216
305.073578564719 707.257254870828 2986.12217731372 211 211 213
309.913308943015 707.559865334668 2993.47401138149 213 215 214
314.343015397877 708.028843944578 3001.73711955412 209 211 210
318.369984961637 708.663716672939 3010.91522757209 207 209 206
326.743368261427 707.610787367758 3011.07685051202 197 200 193
341.958088055971 703.866559185727 2996.76666509981 169 172 165
-105.664901319523 764.54716596265 3092.34109646211 205 206 208
-74.9287804238741 756.497464657304 3058.45485486988 209 210 212
-48.6857913906933 749.852815551505 3031.36970565067 210 211 213
-33.7947563415169 746.863324329672 3022.31729704394 209 210 212
-22.6809694016021 745.091487895749 3019.27844935689 199 200 202
-13.7100475840983 744.0143201975 3019.68219513713 205 206 208
-3.70393157351745 742.59228303372 3018.35008145474 215 215 217
7.32261612939289 740.826377509306 3015.27560903638 216 217 219
18.8344599168324 738.890411658486 3011.32036766459 216 217 219
29.7899482341792 737.129502972953 3008.21734315543 218 219 221
41.2258901756126 735.198808895815 3004.23107247783 213 214 216
50.062205636918 734.130363083534 3004.58025098689 212 213 215
63.9797625859284 731.345594107372 2996.21120161319 213 214 216
75.8048985121844 729.251562465492 2991.30494273838 208 209 211
92.1262519003463 725.618511706872 2978.5207908907 206 207 209
102.835958124377 723.874625055706 2975.31812192781 190 191 193
112.013043584957 722.645871242908 2974.72768274712 188 189 191
120.177190628795 721.75983506753 2975.88213054576 181 182 184
131.298537091908 719.850802588917 2971.76857542141 181 181 183
143.364323156757 717.603648054141 2965.88210657216 195 195 197
151.465833742817 716.721378925857 2967.01116475884 184 184 186
158.097588926307 716.349495621669 2970.77819967536 177 177 179
166.188364115791 715.467389613552 2971.90290993948 174 174 176
175.233470863199 714.246521854411 2971.25897373707 169 169 171
186.17651225587 712.348991417779 2967.07287974182 156 156 158
193.266055143848 711.80798275436 2969.94748621647 151 151 153
201.779204554443 710.759372388645 2970.16566672983 153 153 155
208.862995407665 710.218102134926 2973.03794622908 147 147 149
218.762536992051 708.664504307485 2970.58487036581 176 176 178
229.56602274306 706.775818886969 2966.34220423541 164 164 166
240.793971169811 704.72156950241 2961.19384682683 193 193 195
250.592435614947 703.174545200796 2958.69979571918 208 208 210
258.525314108031 702.300824500897 2959.76051116926 206 206 208
266.905328186563 701.259803280918 2959.92472860458 213 213 215
275.724952036585 700.051988132839 2959.18939703645 215 215 217
283.170716376756 699.34708612319 2961.1306691813 208 208 210
287.918608004785 699.644634447832 2968.44509953168 209 209 211
293.585282628676 699.60599836298 2973.97647051862 214 214 216
299.267836594202 699.565715642986 2979.51428341973 215 215 217
305.407545855642 699.357248895877 2984.15966191272 210 210 212
309.802940941109 699.812806383531 2992.40897938298 212 213 215
315.101732124143 699.933243682577 2998.86925660354 208 210 209
317.818985692629 701.047153408588 3010.74986333799 208 210 207
324.468492252317 700.665141799104 3014.52390520444 198 201 194
334.553115152048 698.958047018232 3011.06786555192 177 180 173
-106.274693899352 756.301514540728 3092.156695549 191 192 194
-77.6795727574433 749.052795420397 3061.71299687167 194 195 197
-53.5592649508412 743.185853465564 3038.07824125443 203 204 206
-36.5152377477329 739.549643988098 3025.58671886573 207 208 210
-22.7404335925636 736.943238090417 3018.23732609528 199 200 202
-12.7164702405314 735.533391392572 3016.91208904827 206 207 209
-2.19172373645571 733.955012471688 3014.71208484277 212 212 214
8.30385600760186 732.378585721915 3012.50025642549 210 211 213
20.3296742093775 730.294950470728 3007.67543080951 207 208 210
28.6902476078759 729.401331913152 3008.90946772237 214 215 217
38.5860428259124 728.000080143694 3007.53252838368 216 217 219
48.4578797401545 726.600313526992 3006.14562001361 207 208 210
62.893158020991 723.681212654612 2996.90814517493 208 209 211
75.2300039496128 721.442351054052 2991.13136368935 204 205 207
89.0316212326201 718.701054769221 2982.71478442714 204 205 207
100.760017322928 716.638119875501 2977.76912057205 183 184 186
111.944225045991 714.746523055616 2973.68088536974 180 181 183
121.597936138442 713.361617206776 2972.2055467565 181 182 184
130.238128852029 712.314059793397 2972.47515822367 168 168 170
140.340366064558 710.764283739392 2970.10386619218 188 188 190
147.965519404972 710.05371705818 2972.11781461121 184 184 186
154.125469549488 709.844961738103 2976.77139068192 162 162 164
162.234602873202 708.966691434514 2977.90350495116 158 158 160
171.298526495047 707.75497299597 2977.26711821877 151 151 153
181.781576870255 706.044376433238 2973.97242557586 152 152 154
189.368655360223 705.335038481952 2975.97069121724 150 150 152
198.37476482447 704.126734916748 2975.31087005751 138 138 140
205.47401859323 703.584000460802 2978.18942148015 141 141 143
215.859714699628 701.879353699284 2974.85526568444 149 149 151
226.210813676787 700.17702957075 2971.50708415085 151 151 153
237.920362317715 697.980275993491 2965.47599526254 202 202 204
248.194819652097 696.283037732969 2962.09674352033 201 201 203
257.51630504972 694.918326452702 2960.4867360035 209 209 211
266.35649132277 693.720060313602 2959.75965763615 215 215 217
276.085684970828 692.193354094859 2957.23714804059 208 208 210
282.171936894068 691.985087785524 2961.86088051614 203 203 205
288.718269018135 691.611130940987 2965.59308673035 212 212 214
294.823676146051 691.400540023302 2970.22459263271 217 217 219
301.384097480989 691.024689827659 2973.96251781984 214 214 216
307.067105819135 690.975554133418 2979.50058179635 210 210 212
310.570971653642 691.742685426883 2989.54443724684 208 209 211
315.861808094571 691.852664498175 2996.00157291909 208 210 209
319.437827981276 692.61333196004 3006.07469202911 210 212 209
324.34912618886 692.881400381276 3013.45576522408 201 204 197
329.715271238338 692.984192896529 3019.94319006493 191 194 187
-110.125307361909 749.066146568553 3097.12581482067 187 188 190
-79.3564943648215 741.248506220643 3063.25105107031 191 192 194
-53.0841647731572 734.792427501532 3036.17635232361 199 200 202
-38.704600492778 732.045182331839 3027.99382480419 205 206 208
-26.5098314890622 729.973870563436 3023.23705553787 198 199 201
-14.8869076231757 728.073308474186 3019.32652135339 204 205 207
-3.82829623755065 726.342994343874 3016.26501874688 209 209 211
7.19624345589298 724.614991105204 3013.18970323725 208 209 211
17.1466294750184 723.223407230911 3011.83453682127 204 205 207
27.0728040118302 721.833437292497 3010.4698123407 212 213 215
38.0048876073926 720.111713095372 3007.35701441748 215 216 218
47.3654367258596 718.891741894874 3006.84053457801 205 206 208
60.7863043994146 716.342817451849 2999.34739973552 206 207 209
72.1182197021981 714.462387810548 2995.3186284169 203 204 206
85.9352683387005 711.755226493281 2986.90803846684 203 204 206
97.6781525480102 709.715526969 2981.96832185745 180 181 183
109.876638291936 707.51339088683 2976.13524094218 178 179 181
119.539174591411 706.14126534455 2974.66337872161 181 182 184
129.177279056616 704.77077119622 2973.18186908516 165 165 167
138.791312940887 703.401741208104 2971.69034511624 186 186 188
146.911822703527 702.528457516703 2972.82702782798 185 185 185
152.099634058325 702.642922842148 2979.2424153669 160 160 160
159.247586794833 702.097914124987 2982.14070189545 154 154 156
167.360920868534 701.224212644276 2983.27448238822 142 142 144
177.383702227176 699.694958441104 2980.87086369338 149 149 149
185.468500640317 698.822824948141 2981.99333564063 150 150 152
194.493493112927 697.623730653942 2981.34083304713 129 129 131
201.610798932697 697.079326863419 2984.22670627066 127 127 127
212.015847252418 695.392185551038 2980.90025336273 141 141 143
223.320365920684 693.381299072766 2975.78282725096 147 147 149
235.973890801107 690.884926072789 2967.97834518619 204 204 206
247.181665453143 688.880693661818 2962.82144044388 198 198 200
257.425824142532 687.204266945797 2959.42976324875 210 210 212
265.807761119244 686.179083485686 2959.59463920604 216 216 218
275.992832094933 684.506471424982 2956.17900889947 206 206 208
282.980282648006 683.969038250146 2959.01225180851 202 202 204
290.867176545752 683.107777798703 2960.05425397587 214 214 216
296.510628816895 683.054094828305 2965.5763364477 218 218 220
301.725750041873 683.160035702952 2972.00258894637 214 214 216
306.078256801579 683.586138769835 2980.23502171987 210 210 212
310.461845086656 684.009360873001 2988.48006102011 206 207 209
316.623124188406 683.787080527066 2993.13427769221 208 210 209
321.926940091955 683.88446999795 2999.59650685627 211 213 212
327.683190595662 683.819578743102 3005.16434549047 202 204 199
332.59713666775 684.073096528307 3012.54634385037 196 199 192
-120.462511621187 743.787125045237 3112.40020018113 153 154 156
-83.723261720521 734.260447759838 3069.08811688574 179 180 182
-56.3555144784147 727.566957816465 3040.30112822421 193 194 196
-40.3621586819414 724.358074344821 3029.53883091228 202 203 205
-30.2815893031487 722.970821432121 3028.23634199044 196 197 199
-18.6418297341857 721.090564430869 3024.33247055604 200 201 203
-8.09167701850799 719.542451718945 3022.14252373633 204 204 206
6.61125744163971 716.680272315449 3013.01298954251 200 200 202
17.6031910980519 714.973353095781 3009.92431226796 196 196 198
27.525678003905 713.596951030239 3008.55773462436 202 202 204
36.9087257184091 712.386190697081 3008.050551718 211 211 213
45.2474297670546 711.504108087957 3009.27564644643 206 206 208
58.1683523602223 709.15045905121 3002.65741538567 199 199 201
69.5120835154934 707.290726797288 2998.63352856816 193 193 193
84.3522807313011 704.291541437052 2988.4815441912 195 195 195
96.6049271611045 702.112671088624 2982.67021620669 189 189 189
108.808179033195 699.937206081548 2976.83886290353 174 174 174
119.469478742024 698.253015355876 2973.61614200613 177 177 177
129.106461370075 696.895945573487 2972.13381916617 175 175 173
137.734190840992 695.864857610077 2972.39825952058 170 170 168
145.857790420199 694.996584001372 2973.53641252869 186 186 184
152.02264006731 694.77593901708 2978.19180526722 162 162 160
158.683355785317 694.392525816147 2981.97065349282 152 152 150
165.350197544887 694.00830390583 2985.75173101258 147 147 145
172.982715678934 693.300829956141 2987.7686379424 136 136 134
181.565842061487 692.271183648227 2988.01500789443 136 136 134
191.084370306481 690.9205398675 2986.48467500516 133 133 133
199.633971903285 689.892712800086 2986.71745721918 127 127 125
210.518058845705 688.063270245098 2982.50723412293 129 129 129
220.428159989741 686.557080532431 2980.05781718355 150 150 150
233.097039396107 684.09218855035 2972.25931344021 202 202 202
245.243847264601 681.791382965712 2965.32724826319 200 200 200
256.876251871599 679.654121425429 2959.26447336769 200 200 200
265.259110031991 678.63687497943 2959.42966214533 214 214 214
273.627613797854 677.620317484434 2959.58903370808 195 195 195
280.173508422219 677.240955676829 2963.32110374991 202 202 202
289.422281397205 675.907225366912 2961.68167788663 218 218 218
295.517523023829 675.686052495266 2966.30914805773 219 219 219
301.17928922189 675.622166761683 2971.83846581667 214 214 214
305.972920111746 675.873316034848 2979.1720245894 209 209 209
309.913759714658 676.43832535271 2988.31553151441 210 211 213
315.638186545277 676.368363862783 2993.87052339945 209 211 210
321.378460971209 676.296698476812 2999.43194477882 206 208 207
328.429985117396 675.75075174538 3002.291195163 205 207 204
335.482097486009 675.204310089416 3005.15068746569 192 194 191
-118.914186069538 734.820430681061 3108.77958154552 141 142 144
-87.016449184985 726.907388055166 3073.2047607031 168 169 171
-58.0219552482839 719.825026994181 3041.84269615379 192 193 195
-39.8880992922626 716.008696164046 3027.63618670357 202 203 205
-31.4030756994466 715.122248426148 3028.92081549366 195 196 198
-19.7589064310792 713.263136975587 3025.01831201131 198 199 201
-10.7812653794017 712.216759602852 3025.42454497967 201 201 203
2.36587851264614 709.876958475218 3018.89780435956 199 199 201
13.377069143419 708.187372921984 3015.81679271328 192 192 194
24.872075761829 706.33873438629 3011.85381494703 197 197 199
36.8430918314069 704.331680425498 3007.00621986998 207 207 209
45.692734755503 703.293860037779 3007.36056244211 205 205 207
58.6111825466555 700.970151100048 3000.74084518718 197 197 199
68.9359087628085 699.453611708772 2998.45964268147 193 193 193
84.2846127621852 696.33441815311 2987.4356505909 191 191 191
97.5425800043781 693.86209685739 2979.8757206583 194 194 194
109.240302272697 691.874220157939 2974.91706826896 178 178 178
119.898190248507 690.209159097897 2971.69282098735 170 170 170
128.540877605553 689.185135151386 2971.96326414075 178 178 176
136.676737361542 688.321419481358 2973.1063466598 160 160 158
144.803599405014 687.458063440584 2974.24552611624 176 176 174
151.946085823654 686.913308481234 2977.14159744793 169 169 167
158.604445635058 686.527038767097 2980.91925620866 151 151 149
164.303640981144 686.457492253674 2986.46402889864 147 147 145
171.459169002724 685.910717726872 2989.3653959909 138 138 136
180.048199930777 684.888583722602 2989.61409971042 132 132 130
189.098026059402 683.709005999352 2988.97176138488 139 139 137
196.71111215494 683.004446464016 2990.98077832927 127 127 125
206.199980801057 681.668765315398 2989.43832306551 119 119 117
216.599229213732 680.019473471054 2986.10923492758 147 147 147
230.21822121992 677.270938796263 2976.53995870398 195 195 195
243.767270848583 674.527437428077 2966.94232515527 189 189 189
254.947263279964 672.573735129452 2961.77378858382 203 203 203
263.338644766486 671.563823394068 2961.94237280083 215 215 215
272.170407151415 670.3980255505 2961.21163755992 198 198 198
280.078264025124 669.546103044668 2962.26205670891 203 203 203
288.876196539203 668.382118724869 2961.51761024653 217 217 217
294.971410788732 668.155269292497 2966.14511235962 217 217 217
300.632919189014 668.083035329364 2971.67438901537 211 211 211
304.54162142276 668.631576616102 2980.80526579662 207 207 207
309.805349124627 668.710622803077 2987.25140256843 209 210 212
315.527025425974 668.632510578044 2992.80534256396 208 210 209
322.133693939685 668.242625151281 2996.56209928994 207 209 208
329.178000623198 667.697041029529 2999.41842462605 206 208 207
337.08191772825 666.841694657762 3000.46727454254 196 198 195
-118.986281735257 726.35559120987 3107.73574355247 168 169 171
-92.4644837554234 720.166971751676 3080.76002552356 161 162 164
-63.9748541708607 713.351349627823 3050.27033130356 191 192 194
-42.0791718215283 708.468295092775 3030.04287277346 203 204 206
-31.463089603891 706.947716214293 3027.87941164388 196 197 199
-21.4043808172286 705.588670674882 3026.56811494524 198 199 201
-12.4209538006814 704.549695448507 3026.97663450361 200 200 202
1.7799664893825 701.920913206636 3018.72087737922 199 199 201
14.3546089492019 699.773438566093 3013.03968533913 190 190 192
23.7712624570365 698.581594882012 3012.54596579777 194 194 196
33.68462304094 697.232426579423 3011.17548654646 204 204 206
42.5476858186771 696.201463295468 3011.53521074744 205 205 207
56.5021414901827 693.590235371982 3003.17952878511 197 197 199
66.8360202781455 692.089056025208 3000.90165843949 192 192 192
81.690121088879 689.170268411338 2990.75495136334 188 188 188
94.4577545664849 686.88704588409 2984.07412081005 198 198 198
106.670662017983 684.765008334673 2978.24601479059 184 184 184
117.340234470861 683.117910783884 2975.0263623126 164 164 164
125.993896569538 682.101027326932 2975.30119493831 180 180 178
133.154807590385 681.555171277499 2978.20473460709 156 156 154
141.297374599852 680.695825844776 2979.35049972043 164 164 162
150.40653157313 679.524100431487 2978.73212451591 179 179 177
158.526026117821 678.66584119959 2979.86828229179 156 156 154
163.256772177187 678.900005002246 2987.17650818662 145 145 143
170.895396339282 678.196924449746 2989.19559687672 145 145 143
177.574329060764 677.805163809905 2992.98188430951 135 135 133
187.585840116111 676.324533749787 2990.57333379083 134 134 132
194.259163265257 675.932475758534 2994.35709497474 126 126 124
203.289221792256 674.764387018367 2993.70666580374 116 116 114
212.767632977035 673.442595473262 2992.15987110842 144 144 144
225.477160074811 671.039902581269 2984.37761110227 197 197 197
240.902461080369 667.714617516443 2971.2283212019 188 188 188
252.55719726756 665.629953052372 2965.17418953379 202 202 202
262.33216443127 664.164985452139 2962.6697453491 212 212 212
271.167577455545 663.009687961804 2961.94040863644 198 198 198
279.078751341387 662.162762952361 2962.99213294051 201 201 201
286.530506644939 661.469730055132 2964.93574081943 216 216 216
293.083268982074 661.083099319955 2968.67064664607 215 215 215
299.641705070803 660.69571476959 2972.40811267487 208 208 208
305.763754639117 660.460288820083 2977.04628799987 205 205 205
311.456686120129 660.376384219416 2982.58863332557 208 209 211
316.290934730385 660.595772337659 2989.93887866693 208 210 209
321.585944567891 660.660474543263 2996.39779007769 207 209 208
326.901842551683 660.723073499417 3002.86517489321 206 208 207
335.675951465541 659.568448691655 3002.11101148104 199 201 198
347.847591493808 657.201114201495 2994.11043957091 158 160 155
-90.9159734574876 711.329050363781 3077.13850562636 169 170 172
-64.0362591848131 705.091801046675 3049.22926583082 188 189 191
-41.6040248398433 700.124898018553 3028.14062358791 202 203 205
-30.460804883703 698.463796160279 3025.11285378308 195 196 198
-19.8801137868732 696.961826619171 3022.93517921182 195 196 198
-9.85422554370352 695.618388106226 3021.61021818368 195 195 197
1.71756226540554 693.807476810052 3017.67829984289 195 195 197
12.2085669120573 692.311691842669 3015.4640077583 187 187 189
21.6337909284172 691.129809279552 3014.97368285265 187 187 189
32.0716424271403 689.637548111272 3012.73784272495 195 195 197
44.5333900612181 687.524990632818 3007.01067570576 204 204 206
56.9458278707298 685.415861670521 3001.26351750011 198 198 200
67.7842541194733 683.775889353215 2998.11217872257 189 189 189
80.1056917717296 681.673168599398 2992.32786939781 184 184 184
92.8807657451778 679.419184850883 2985.64982982669 196 196 196
104.099481757096 677.63292919773 2981.57476832916 194 194 194
112.788291489784 676.621510161793 2981.86379056448 160 160 160
121.46300522971 675.610909044428 2982.14709923243 170 170 168
129.630537040981 674.755120400726 2983.30268823142 169 169 167
139.260575937884 673.438226899296 2981.81750662512 153 153 151
148.866567595518 672.122735932658 2980.32232060432 186 186 184
157.47717033782 671.115809471057 2980.57964332984 176 176 174
162.692685982676 671.18256033528 2987.00660980247 151 151 149
170.812256210559 670.328897867058 2988.14276337972 149 149 147
178.444662150095 669.628456498404 2990.15957157774 143 143 141
186.073083384092 668.927977587856 2992.17450945467 120 120 118
191.332858712213 668.989996430225 2998.61943222748 119 119 117
198.495280180239 668.440822689396 3001.52360861284 111 111 109
208.465515102498 666.978526437832 2999.09820671451 116 116 116
223.059229346831 663.998950402549 2987.76746634885 182 182 182
238.498531913471 660.721662088694 2974.62348177925 181 181 181
251.086054424972 658.36019717365 2966.79151048214 192 192 192
260.40996027676 657.06224336042 2965.18197698668 202 202 202
269.709205537671 655.765819512893 2963.56270422221 194 194 194
278.078790798626 654.772787893656 2963.72233535496 194 194 194
286.433943235395 653.78051121536 2963.87611701701 209 209 209
292.984312012141 653.391170976504 2967.61007424528 208 208 208
299.095339178281 653.151352600247 2972.24407719753 200 200 200
304.77471635186 653.060452108082 2977.78098750696 202 202 202
311.789981637877 652.518005747259 2980.62553040324 207 208 210
317.493501580279 652.424415379435 2986.17223633755 207 209 208
323.647902423514 652.179581935286 2990.82358177121 208 210 209
327.650960648479 652.680453558564 2999.99276672251 205 207 206
333.839389913236 652.432201379154 3004.65817316301 202 204 201
342.175299791304 651.437683358244 3004.8041806379 166 168 163
-90.9815396455851 702.976162311646 3076.09646281138 179 180 182
-66.2415166134596 697.454969218701 3051.63093945412 187 188 190
-44.329761086576 692.717780112849 3031.40888321975 202 203 205
-31.0503357967131 690.457736019081 3024.93484063898 196 197 199
-20.9968103384768 689.12567162274 3023.62124073761 196 197 199
-10.9672835638812 687.795304794735 3022.2976538453 195 195 197
1.65594200394326 685.698377259111 3016.63574962877 193 193 195
11.6246812017176 684.37216356578 3015.28777602344 187 187 189
22.0879821432798 682.894324514102 3013.06213087944 184 184 186
31.4901309486519 681.724551646374 3012.56237119587 190 190 192
42.9271981246537 679.944553638206 3008.57541388266 203 203 205
55.3468576801568 677.861960973108 3002.83097857299 199 199 201
66.1919511966638 676.240289893041 2999.68220060663 186 186 186
78.0146542709728 674.316364573536 2994.77366732772 183 183 183
90.2963975308804 672.243473347933 2988.97331715108 190 190 190
101.026194674672 670.629801237422 2985.77779586879 195 195 195
108.731788335442 669.928702087629 2987.82424224334 161 161 161
116.929210581066 669.076104458393 2988.99190948079 161 161 159
127.090733175343 667.618558285326 2986.64392260374 178 178 176
137.713719826725 666.011854167363 2983.40510169298 158 158 156
147.325834738649 664.709411940067 2981.9125532552 175 175 173
154.485263501615 664.16217892458 2984.81550320527 182 182 180
161.645688279576 663.614538228125 2987.71885952489 166 166 164
168.807058186873 663.066553658383 2990.62260112716 145 145 143
175.969447450833 662.518099782255 2993.52675901694 144 144 142
183.132805185795 661.969240407419 2996.43131210736 125 125 123
188.40480228782 662.019118224305 3002.8810181891 117 117 115
196.991821836684 661.019858496884 3003.12873413463 111 111 109
206.032512593406 659.872088125459 3002.48245587055 108 108 108
219.243370553408 657.382568850861 2993.82477393535 169 169 169
233.778276306603 654.450720784139 2982.46986066254 173 173 173
247.772605264953 651.673516112934 2971.97396488375 187 187 187
258.944554303041 649.79331814654 2966.80161445644 197 197 197
269.161001333873 648.213084894865 2963.39798788652 190 190 190
277.98442510395 647.079694228656 2962.66337353531 190 190 190
284.987006630082 646.539627628719 2965.50276282898 206 206 206
291.54247653897 646.146918905666 2969.23906822832 205 205 205
298.549093718023 645.605755479176 2972.08009984296 198 198 198
305.999196734477 644.916684574104 2974.02275146515 202 202 202
313.885006595855 644.080341565553 2975.06438307297 207 208 210
319.573124910909 643.979483233205 2980.60490808647 207 209 208
324.406888444683 644.170760652723 2987.95491286868 208 210 209
327.103551312316 645.092926048963 2999.82863594372 203 205 204
332.431773259909 645.13188804365 3006.30144703331 202 204 201
339.063578352988 644.730058371709 3010.06847191662 194 196 193
-88.8908634503776 694.019397064381 3071.61629748578 190 191 193
-64.1569387573722 688.585900465332 3047.14764023862 180 181 183
-45.4551259412956 684.832667836491 3032.09180609375 203 204 206
-30.5770246117381 682.147624826598 3023.03185308096 196 197 199
-20.5273753900945 680.829203022102 3021.71632308513 197 198 200
-11.5542446492998 679.814625222892 3022.12048882842 193 193 195
-0.50014052314884 678.197256483836 3019.05630516915 195 195 197
8.95615103673175 677.034431894467 3018.57841483792 185 185 187
20.9870267919914 675.120195376639 3013.75409576681 178 178 180
32.4574130465702 673.359460088013 3009.78074033326 183 183 185
45.42971308149 671.151036743451 3003.18195363761 202 202 204
55.7918207574037 669.696243320413 3000.91541860298 200 200 202
64.5989832670841 668.692633045327 3001.25230185241 182 182 182
76.4287719695169 666.792534994711 2996.34645689001 182 182 182
89.2213394117893 664.596762045895 2989.67505907871 178 178 178
100.456404298678 662.852434638283 2985.60604209381 196 196 196
108.162360961632 662.153727660668 2987.65261731336 171 171 171
115.36843595749 661.603785257273 2990.57447452967 149 149 147
125.042945025566 660.310512232153 2989.10686231785 181 181 179
134.202223578062 659.167214427779 2988.50856551276 178 178 176
143.830763738297 657.876920481965 2987.02257546119 151 151 149
150.033891260173 657.624131851358 2991.69371028057 168 168 166
157.698151662315 656.926845443099 2993.72339221148 191 191 189
165.35831033933 656.229525350217 2995.75141363821 149 149 147
173.971118409861 655.237338302231 2996.0095175648 146 146 144
180.666583561025 654.83485850676 2999.80232288317 139 139 137
186.421421564945 654.725695405328 3005.36992517473 126 126 124
194.075343378865 654.027524485107 3007.39542778874 108 108 106
202.193455043351 653.182615222976 3008.53092445707 106 106 106
215.89054189591 650.580411966057 2998.9921591322 151 151 151
230.444079805452 647.690754151572 2987.64447009712 168 168 168
245.838881525254 644.514695596354 2974.48170015538 176 176 176
258.852804916249 642.074636826779 2965.74416313535 187 187 187
269.068576014281 640.513351790435 2962.33986203616 191 191 191
277.437465392787 639.536335524095 2962.49909001901 178 178 178
284.890826506424 638.850737078541 2964.44329172796 212 212 212
290.99595726153 638.600387060973 2969.07498709205 205 205 205
297.557480815627 638.203886559225 2972.81351508362 193 193 193
304.567703449508 637.661809830228 2975.65601344401 202 202 202
312.899779322715 636.685737617523 2975.80032874325 209 210 212
320.779429189866 635.854724518091 2976.83942581371 207 209 208
326.473149878431 635.744670535108 2982.38203166261 203 205 204
329.585775936402 636.496625292458 2993.34665729848 205 207 206
333.174824104505 637.100807378825 3003.42649481053 202 204 201
341.082420910732 636.265971554989 3004.47667914764 177 179 174
-92.7277466019281 686.731414264827 3076.59137486932 193 194 196
-67.972096611387 681.383469521193 3052.13086558175 179 180 182
-48.7168706089183 677.536977330895 3036.22100326083 203 204 206
-33.2916899626421 674.739904201001 3026.30434258213 197 198 200
-23.2307470802968 673.43391769185 3024.9932910535 198 199 201
-14.2469598300738 672.426380628964 3025.40197540178 194 194 196
-3.70508459196595 670.975103475404 3023.20794310281 190 190 192
7.8505504266293 669.229856211184 3019.26872966936 186 186 188
20.4048655136824 667.191738495498 3013.57847832412 177 177 179
33.9425504106414 664.862023107538 3006.13098040434 177 177 179
45.3655363400589 663.126149636075 3002.13798724202 196 196 198
56.7492442222339 661.39308379619 2998.12932662162 198 198 200
65.0408217838103 660.544921862196 2999.33508305925 182 182 182
74.8422632512227 659.256710161013 2997.91908374132 181 181 181
86.1310662613017 657.530063012333 2993.87169093091 175 175 175
97.3804535041667 655.806234406527 2989.80857481789 191 191 191
107.09450960995 654.523845639828 2988.35689242223 179 179 179
114.303292550782 653.973419698566 2991.27984973139 153 153 151
122.994169287743 652.984970249521 2991.56953477892 171 171 169
132.162130625905 651.851654558654 2990.97467791064 182 182 180
140.822275026366 650.864952549845 2991.25190640735 149 149 147
147.037730213671 650.605622629885 2995.92833941901 157 157 155
154.231530137046 650.054829586342 2998.8452329929 182 182 180
162.388472612754 649.213807747791 2999.99642251646 153 153 151
169.579198572319 648.66263059956 3002.91207437555 142 142 140
176.770918445717 648.111016048782 3005.82813197872 140 140 138
183.01659031035 647.847737939442 3010.51682943553 124 124 122
191.628118832791 646.862526519468 3010.7743624088 108 108 106
199.28852494801 646.165963911857 3012.80247827997 102 102 102
209.274293846965 644.750616471255 3010.38301011976 139 139 139
224.790973889132 641.614605554434 2997.26928429862 158 158 158
242.521547959672 637.768366858748 2979.66303390179 171 171 171
257.845085457381 634.646517103791 2966.47125591914 184 184 184
269.432260523763 632.675011582006 2960.3889115171 183 183 183
277.343809767599 631.84906813377 2961.44062876646 181 181 181
284.344484683501 631.308674382165 2964.27924856685 213 213 213
289.553273147022 631.337378168001 2970.70352241127 201 201 201
297.011234128379 630.653178678581 2972.64957597042 190 190 190
304.908073693539 629.826816583893 2973.69534054814 207 207 207
313.676580729413 628.717348127283 2972.93856670236 209 210 212
321.549397646766 627.892136686699 2973.97485318478 206 208 207
327.670762070599 627.632914354906 2978.61293146971 203 205 204
331.204803926752 628.219695986868 2988.67062920577 205 207 206
333.488711238301 629.225800075286 3001.45540238626 202 204 201
340.536067816026 628.678300585255 3004.31297712094 179 181 176
-67.4954717135772 672.976049286633 3050.22995729863 178 179 181
-50.3775215421107 669.774293803819 3037.76507275418 200 201 203
-35.4759593095726 667.163307681052 3028.71405756407 201 202 204
-24.877164678895 665.724168555321 3026.54297952166 202 203 205
-14.3074775179204 664.287036679343 3024.36010085622 194 194 196
-5.33920997850834 663.288296305026 3024.7621774803 192 192 194
6.22316439295445 661.564029077529 3020.82579096675 192 192 194
18.2655566751844 659.697507986444 3016.00577318604 184 184 186
31.2968456024933 657.54430130349 3009.43070937504 177 177 179
43.2457306838574 655.684471299435 3004.57278047338 193 193 195
53.6157504727335 654.261186083718 3002.30895294716 203 203 205
63.956635247912 652.839910300014 3000.033313629 184 184 184
73.7618254227279 651.564761554736 2998.61873312254 180 180 180
86.0628037456139 649.571582094787 2992.82556689341 169 169 169
97.311587680905 647.86929621082 2988.7617859909 174 174 174
107.024264568688 646.600401150024 2987.30970010757 198 198 198
113.734351337228 646.193176345049 2991.10846158129 180 180 178
121.93214132799 645.35566752008 2992.27642057368 145 145 143
130.612288367878 644.375689617924 2992.56169703073 176 176 174
139.767289984603 643.253687605141 2991.96124988175 167 167 165
146.957754983494 642.703128893362 2994.87679139213 149 149 147
153.665443698726 642.294594265116 2998.67484906568 153 153 151
160.860523710566 641.743102041535 3001.59226623793 174 174 172
167.099196612594 641.475153451864 3006.2779080387 158 158 156
175.25359334958 640.638960541412 3007.42828743524 140 140 138
182.451633862416 640.086247457191 3010.3469125472 124 124 122
190.592924858267 639.250291326629 3011.49172650057 112 112 110
196.381923512139 639.12087745477 3017.07331369302 107 107 107
205.915632776691 637.861648567564 3015.54869181779 114 114 114
221.451327386918 634.773237230567 3002.44230406894 134 134 134
241.046056042939 630.425729823146 2981.27914636006 158 158 158
255.920074482558 627.492709495022 2968.98273815773 172 172 172
266.605253122117 625.828023422137 2964.69047246061 176 176 176
275.436943895677 624.726251458252 2963.95922292605 197 197 197
284.24918673691 623.625601884874 2963.22009055383 206 206 206
289.454958301827 623.643366562717 2969.64322579279 187 187 187
296.910917704178 622.961806362913 2971.58844892166 185 185 185
304.362667846709 622.280166636128 2973.53171112724 213 213 213
313.132314816114 621.181337675165 2972.77531818801 210 211 213
320.567616909293 620.500248481245 2974.7121737484 204 206 205
327.127167011707 620.09640243148 2978.44995838059 203 205 204
332.392828998302 620.107210387665 2984.89739555779 204 206 205
335.095316138595 620.945730476746 2996.77436807482 202 204 201
343.842984684962 619.846615851524 2996.00882116624 186 188 183
-67.5545617226338 664.722120987924 3049.18952932825 178 179 181
-53.1075849361209 662.28667696488 3041.03193328811 198 199 201
-37.6611781947389 659.569361657286 3031.1235195892 203 204 206
-27.0534348461497 658.145533536945 3028.95594876614 204 205 207
-15.4211372174864 656.43790335496 3025.04774758066 195 195 197
-6.4496749498395 655.446740537773 3025.45106029178 191 191 193
5.11714086734849 653.74367612187 3021.51605415013 188 188 190
17.6833273490902 651.758685342774 3015.83020676094 182 182 184
29.6834149040568 649.919456305091 3010.99285322902 177 177 179
40.6107524098884 648.3672446145 3007.87684878904 188 188 190
51.5039948818701 646.817405440972 3004.74702152796 198 198 200
63.3815419935981 644.986749306974 2999.85998725693 186 186 186
74.2013080521218 643.442103882887 2996.70037054848 180 180 180
84.9869431281478 641.8997142718 2993.52691734814 167 167 167
93.2300330242302 641.064743470772 2994.71319871429 167 167 167
103.460735225896 639.666991831282 2992.39276894474 199 199 199
111.675883673686 638.833582655672 2993.56746795284 193 193 191
120.870018129021 637.719832266984 2992.98306009495 139 139 137
129.553552705104 636.747416646145 2993.26965082141 160 160 158
138.711969360957 635.635808686583 2992.67076484009 180 180 178
145.905277923632 635.084725804062 2995.5874616624 159 159 157
153.583634941288 634.393590757833 2997.62254736104 144 144 142
159.81349012571 634.120895740079 3002.3049121335 177 177 175
166.533459758918 633.707717301371 3006.10772023615 172 172 170
174.212189703139 633.015680541408 3008.1432209914 138 138 136
182.360759615115 632.184736781572 3009.29094413403 125 125 123
190.028807149586 631.492829055678 3011.32211867909 112 112 110
194.879824691636 631.631864595046 3018.67976269298 111 111 111
201.62229658258 631.215319277911 3022.49170732066 109 109 109
215.326960770222 628.726568486989 3012.95515006642 127 127 127
234.957698928044 624.450001713084 2991.8060346395 159 159 159
252.617881585289 620.734481268251 2974.17029244854 173 173 173
263.776287353937 618.952641916942 2968.99171291573 178 178 178
273.529033246556 617.585913496212 2966.47752686933 200 200 200
281.447850255401 616.769526285993 2967.53211435166 196 196 196
288.908629190811 616.090513272654 2969.4792695684 185 185 185
297.70326873514 615.001211096604 2968.73292373558 191 191 191
304.704316410454 614.459233633298 2971.57170646772 216 216 216
313.029088504754 613.507770078613 2971.71287799161 210 211 213
319.147028633435 613.237814830429 2976.34990838278 203 205 204
326.14767970861 612.694733043057 2979.18853890481 203 205 204
331.415445878394 612.694166269485 2985.63691426825 203 205 204
335.842310076723 612.962785939294 2993.900647524 201 203 200
345.011834206416 611.739589304025 2992.22803932206 188 190 185
370.336532274786 605.381903154107 2956.13792588428 162 164 159
-69.2245273254304 656.895552063614 3050.73056883819 180 181 183
-52.0966151192492 653.790830899618 3038.26898235746 195 196 198
-37.1866331058277 651.255063455839 3029.22080614 204 205 207
-27.1122833739794 649.987969657849 3027.91514538032 205 206 208
-15.4806420397153 648.301916283802 3024.006257693 196 196 198
-5.98642843614883 647.178707563253 3023.54342145157 194 194 196
4.53299994043355 645.777029714662 3021.33992462791 190 190 192
15.0232720628136 644.377452645083 3019.12460671979 188 188 190
25.484398125559 642.979820692593 3016.89773026134 180 180 182
35.4021299586182 641.723437232216 3015.52831761409 179 179 181
46.8315121440266 640.051490222176 3011.53768693198 190 190 192
60.768836470783 637.688076454677 3003.17319024557 193 193 193
72.6141875011874 635.88391148501 2998.27291921311 184 184 184
83.9109019981985 634.221375043331 2994.22824376613 167 167 167
92.6589217667744 633.253020599357 2994.54117053492 162 162 162
102.39177735272 632.009311926132 2993.09680673127 181 181 181
111.1067896792 631.042950364822 2993.39609668814 196 196 194
119.807786543737 630.077370453727 2993.68970595888 160 160 158
127.019405330316 629.525135766999 2996.61382519173 142 142 140
137.167437206532 628.148668751773 2994.25976146042 179 179 177
144.366013204497 627.596869659713 2997.17859645871 180 180 178
152.533899861442 626.770875763556 2998.33436052269 161 161 159
157.321317779831 626.90231295014 3005.66605386565 155 155 153
164.530519913882 626.348805215745 3008.58920426233 176 176 174
172.693851763682 625.522245658828 3009.74312840467 139 139 137
180.374138275493 624.832153264448 3011.77898743883 126 126 124
187.107155004821 624.413990492017 3015.58737322486 111 111 109
191.970224355422 624.538088995109 3022.94975292292 110 110 110
199.191845544102 623.981983367518 3025.87795139831 106 106 106
210.590002247117 622.207121715694 3020.79639243419 120 120 120
229.787610875636 618.137388124193 3000.54940355486 161 161 161
248.85467667678 614.077345073067 2980.24922812974 176 176 176
261.401929893157 611.914095568002 2972.3991924345 179 179 179
271.620105364231 610.428052065392 2968.99555176519 199 199 199
280.901156727652 609.213085413768 2967.36803777041 188 188 188
289.708742780561 608.133935641324 2966.62685693489 187 187 187
298.050686557484 607.189898693514 2966.77492485998 200 200 200
305.490706911456 606.514233962602 2968.71364969484 219 219 219
313.808770502991 605.571311907786 2968.85204025117 210 211 213
319.480445493764 605.429644084811 2974.38621680378 202 204 203
325.168006129662 605.286418791434 2979.92683714696 202 204 203
330.437839368969 605.274540004655 2986.37613519421 202 204 203
337.021744354407 604.862188991854 2990.12384541159 201 203 200
347.896381781471 603.122761990674 2984.83030583665 190 192 187
365.541905149273 599.267498667561 2965.03181390264 162 164 159
-82.7164182346685 652.098562791908 3071.19735352519 181 182 184
-51.6189437214711 645.448364152622 3036.36800546505 195 196 198
-36.7110900880612 642.950663385547 3027.31867894654 204 205 207
-27.1703416358047 641.834831789138 3026.87437119311 205 206 208
-18.1758365297746 640.857743774388 3027.28690710337 197 197 199
-7.09631379817544 639.332329200393 3024.23231827018 194 194 196
5.51578402411557 637.398097205343 3018.56467532034 192 192 194
15.4800713651855 636.151917769245 3017.21429255186 190 190 192
24.9032411842696 635.044021443228 3016.72257512076 179 179 181
33.2781416779131 634.210448617926 3017.96195784284 174 174 176
46.2533030521584 632.150336776183 3011.36346274903 187 187 189
59.6838765415457 629.958020203844 3003.87129750574 195 195 195
72.0407423504113 628.041917599236 2998.10017550288 186 186 186
81.8255355692097 626.8080517247 2996.67676627373 168 168 168
89.5779177793019 626.11801030322 2998.74207318643 162 162 162
98.3254865031593 625.157288573696 2999.05450224996 174 174 174
107.555979050101 624.062206886599 2998.48467402255 194 194 192
117.261910297265 622.833363688158 2997.0292960683 173 173 171
124.975759145829 622.145209558684 2999.07898679028 145 145 143
133.664545469958 621.187919638407 2999.3675892637 173 173 171
140.878525093145 620.634601265478 3002.29267259663 185 185 183
149.062227432185 619.81252495536 3003.45481062421 176 176 174
155.30959096514 619.526851634005 3008.14410554862 145 145 143
162.526622125958 618.972424739979 3011.07043282985 161 161 159
170.221449724578 618.283984345405 3013.11242415206 154 154 152
177.437968513064 617.7289703966 3016.03854842707 135 135 133
183.711988475588 617.440014088317 3020.73891846199 112 112 110
189.527978851455 617.28288295491 3026.33138727452 107 107 107
195.826583222857 616.991410997015 3031.04173043066 105 105 105
205.849549407136 615.637555123983 3028.63685709889 111 111 111
223.69054119326 612.034016415881 3011.07347445446 157 157 157
246.007041204528 607.116444029947 2984.54330034195 170 170 170
259.939245911515 604.588466278689 2974.02036182104 184 184 184
269.710162349866 603.25269688737 2971.5132982391 201 201 201
279.000041021474 602.050540263887 2969.88926126245 186 186 186
288.714327465113 600.718480471571 2967.3592404784 194 194 194
297.506109921552 599.650864278128 2966.61157345706 205 205 205
305.390520549523 598.846642231241 2967.65239505703 213 213 213
312.824279179006 598.173601070643 2969.58830745144 211 212 214
318.937025497382 597.89266997074 2974.22331809951 201 203 202
325.06061060642 597.6104915891 2978.86272675132 202 204 203
330.327442820284 597.587702324779 2985.31089240304 201 203 202
336.908977587 597.172580182878 2989.05766394003 201 203 200
346.068350130613 595.977290887375 2987.3809911292 191 193 188
365.431415351303 591.670631410294 2963.96585140421 162 164 159
-105.893428005052 649.609252817166 3107.14530044125 186 187 189
-57.0254909742076 638.604446250444 3043.94085272094 197 198 200
-38.3643626225243 635.19675024185 3028.86566942424 201 202 204
-28.2878674154325 633.956086827604 3027.56067701721 206 207 209
-19.2900616075167 632.986508197788 3027.97449243923 195 195 197
-9.25631601187993 631.748729072229 3026.65191192818 192 194 193
3.36549955407528 629.840686180904 3020.98800511776 196 198 197
13.8585474593615 628.472929182325 3018.77356991704 191 193 192
22.7703975520714 627.509114580918 3019.15253878811 178 180 179
31.1532547446343 626.680046692139 3020.39536620167 168 170 169
43.6261046709197 624.782520883028 3014.67106454064 177 179 178
57.5790176236342 622.48837797111 3006.31235452444 195 197 196
69.4384446713232 620.731695756515 3001.41742286549 191 193 192
81.2535875084033 618.97822321641 2996.5045365144 170 172 171
91.0153542596508 617.759207462168 2995.07194869806 164 166 165
101.252780562136 616.409162399696 2992.75387986654 160 162 161
108.9749904482 615.723304757979 2994.80693850672 185 185 185
115.70396501265 615.301940862603 2998.61345468587 189 189 189
122.931212207605 614.747840317293 3001.54391589344 155 155 155
131.138766853986 613.929648041458 3002.7154248851 155 155 155
139.33720622814 613.111903545123 3003.883497 177 177 177
147.042045173888 612.425987543983 3005.92952271165 183 183 183
153.296878663565 612.133924109991 3010.62189060402 141 141 141
160.521764293982 611.578546152495 3013.55140531324 141 141 141
166.793657939621 611.284587675426 3018.25095233256 158 158 158
173.551179961302 610.858780190771 3022.06906085645 143 143 143
180.314740650115 610.432195393323 3025.88962028578 113 113 113
186.614856841927 610.135074367226 3030.60061838571 113 113 111
192.925978024514 609.836902108028 3035.31608029663 101 101 99
202.963054159471 608.498097765846 3032.9168058976 102 102 100
220.821571430928 604.955965342332 3015.36005375534 157 157 157
241.779631848795 600.515725641878 2991.51292066379 161 161 161
257.562469471451 597.50943394302 2977.42716878495 197 197 197
269.161868422331 595.672442482668 2971.34875416737 200 200 200
280.259787261249 593.967873922018 2966.14509821296 189 189 189
289.516218265758 592.781452847039 2964.50765646784 192 192 194
296.961677995697 592.110742427784 2966.44828888868 205 205 207
304.846773083174 591.311696561444 2967.48934838743 210 210 212
312.281056712627 590.641184178501 2969.42545418316 207 209 208
319.271853570174 590.098584241808 2972.26009114987 198 200 199
325.390288119162 589.811135199625 2976.89745432651 202 204 203
330.651620272601 589.777543787465 2983.34347491999 202 204 203
336.365255294935 589.614678495113 2988.89480146367 201 203 200
345.097083441282 588.559971807311 2988.12276151565 193 195 190
372.569911802444 581.919502131805 2947.50999909328 172 174 169
-119.407467733938 644.499745494701 3127.60548602945 185 186 188
-76.3509938621183 635.158324488832 3073.90307122402 196 197 199
-43.7472324632762 628.357860562568 3036.44806538423 204 205 207
-30.4657335289782 626.335286660363 3029.97331967465 209 210 212
-20.4042654450067 625.108820533236 3028.66187805363 198 198 200
-10.3669770970283 623.884025602889 3027.34089078784 190 192 191
1.73693402086372 622.134274858863 3022.54489646121 189 191 190
14.8369701445656 620.124768254734 3015.99632146987 190 192 191
24.2595321424999 619.038050937571 3015.50419740517 182 184 183
31.6028611924126 618.476875496114 3018.48171296064 165 167 166
39.9723652058872 617.653647642907 3019.71908950054 165 167 166
54.4533737538315 615.262607607087 3010.49587073986 196 198 197
66.8348129411234 613.398685360808 3004.73430281125 198 200 199
79.671874547693 611.407975933309 2998.07936604681 167 169 168
89.4400368710897 610.201759066707 2996.64901351378 170 172 171
101.183567859632 608.477596233806 2991.70716709863 154 156 155
108.406280801331 607.92400436914 2994.63578856346 159 159 159
114.14548224667 607.758605400139 3000.19748597558 199 199 199
120.393345649905 607.462371880914 3004.88706333735 189 189 189
128.121781664376 606.777605021436 3006.94263462506 156 156 156
136.820856085197 605.834982005154 3007.23529150494 149 149 149
145.990568604563 604.76444191963 3006.64066785557 174 174 174
152.729948911829 604.337860053202 3010.4514367972 172 172 172
159.475395430222 603.910498691723 3014.26466781317 147 147 147
165.272503900772 603.738688686517 3019.84985996417 140 140 140
