ply
format ascii 1.0
comment KinectMotionCapture
element vertex 754
property float x
property float y
property float z
property uchar red
property uchar green
property uchar blue
end_header
-41.6101620832885 586.240562067402 3056.66782165124 188 188 190
-35.6164785270465 585.41757369607 3051.47821365776 194 194 196
-26.6759909807353 585.136346436441 3049.02466861304 180 180 182
-16.9810793227518 584.987802501261 3047.23932264127 169 169 171
-10.2301869835877 584.296306228887 3042.7158233781 168 168 170
-2.73282913289163 583.738609471262 3038.86804498545 175 175 177
2.5367982368083 582.776310665105 3032.98364437773 198 198 200
13.0311102063798 582.753067799498 3031.82787833985 204 204 206
22.0511825344767 582.458547631656 3029.30544044248 202 202 204
34.0914767381641 582.695677225818 3029.45486606962 185 185 187
48.4234627949029 583.327747085876 3031.5855389002 189 190 192
65.8211009920073 584.485362996034 3036.34936978972 192 193 195
81.0072525750196 585.2360994423 3039.06251407856 184 185 187
93.203987170865 585.45015478569 3039.07649671635 181 182 186
101.62540706246 584.998724982727 3035.75037279741 187 188 193
116.166160711287 585.600224462635 3037.70029734869 184 185 190
126.923447379795 585.537426504785 3036.31717351755 184 185 190
135.401629255836 585.077244585423 3032.94190866034 182 183 187
152.357075604173 586.056071613354 3036.76658529106 184 185 189
210.268088309096 593.954988167438 3075.18694801689 185 186 188
280.058072265677 603.772192414216 3123.14912395507 179 180 182
-238.076433660669 593.349550958906 3160.73835840219 203 205 204
-238.964659533296 591.145007498105 3148.28894592994 189 191 190
-235.125715606336 589.928098303749 3140.99938271198 189 191 190
-231.982532490421 588.572290068695 3132.99049959493 188 190 189
-227.485457767018 587.497940280934 3126.45284784305 176 176 178
-221.622028557507 586.703332856392 3121.37595206458 170 170 172
-215.06931694632 586.047560947777 3117.02430717995 159 159 161
-207.129916841816 585.66874085102 3114.11549662377 141 141 143
-199.178647698076 585.287761160472 3111.19609722605 133 133 135
-191.91075583027 584.766356688978 3107.54697007391 148 148 148
-179.751450952942 585.210377773391 3108.91548059534 165 165 165
-162.657602197217 586.61401591442 3115.26428335521 124 124 124
-132.165061292014 590.622438251658 3135.12661308634 128 128 128
-105.048136486451 593.924363068193 3151.30266887434 154 154 154
-90.5139814701741 594.742543579 3154.5804849841 166 166 166
-90.0894408235247 592.818731092035 3143.63826869609 155 155 155
-86.1484345498047 591.58133981289 3136.26037709802 151 151 151
-84.3563934722167 589.936584133767 3126.77761248142 179 179 179
-79.0189841735702 588.974379503252 3120.83446222923 160 160 160
-77.2669871833607 587.334238101657 3111.38637536189 164 164 164
-76.2583061884863 585.561751703326 3101.26014391267 183 183 185
-75.9993350970887 583.657669359478 3090.46098934486 183 183 185
-72.8844418379548 582.296957524205 3082.476657839 177 177 179
-65.4404479416413 581.745129875181 3078.67509387179 175 175 177
-57.9890600923378 581.191775242078 3074.8668156818 167 167 169
-49.0731281518975 580.904909686619 3072.43427488677 161 161 163
-45.9853688196779 579.546145262394 3064.47344871141 168 168 170
-39.2519095791615 578.856180522151 3059.96536492995 190 190 192
-33.9844022151525 577.899175461991 3054.08245199091 193 193 195
-25.0383576001965 577.606398115827 3051.62384976705 175 175 177
-17.5539381962038 577.046072107837 3047.78730262883 166 166 168
-11.5436548508265 576.219800209813 3042.58332827877 171 171 173
-2.56288814392835 575.921149063622 3040.09466923212 181 181 183
2.70931133235308 574.96149817657 3034.20802212859 204 204 206
12.4579402757945 574.790538908855 3032.37626270658 204 204 206
22.9753846730145 574.747644434579 3031.20088981793 198 198 200
37.271700194387 575.355255958371 3033.36295358714 184 184 186
50.8590909609214 575.825808882131 3034.81677968158 190 192 191
66.7519914429859 576.681296680013 3038.23994137654 192 193 195
78.1543120980341 576.749257678048 3037.6201569546 183 184 186
89.5844856370633 576.813048482904 3036.97625845991 181 182 186
100.281239129105 576.743161588706 3035.64564684514 189 190 195
118.634690174085 577.961177578122 3040.90390986119 184 185 190
129.39904347328 577.881206540196 3039.51445689637 183 184 189
138.652590925432 577.540601755595 3036.78995634629 181 182 186
155.615822639104 578.48041248375 3040.60813794762 186 187 189
225.096543863516 588.116818425221 3088.83953458962 182 183 185
280.988152955529 595.407528670568 3125.04371456342 173 175 174
-239.325198873571 585.425455080567 3160.54879556513 198 200 199
-237.497334455166 583.800009145198 3151.03485644376 188 190 189
-234.332238377851 582.452688117314 3143.0069255781 184 185 187
-231.183780388819 581.107248448892 3134.99340335034 180 180 182
-225.31152758127 580.311961769528 3129.90886424388 169 169 171
-219.439516127903 579.516318333581 3124.82453663955 163 163 165
-214.257121970818 578.583591238363 3119.0152370545 157 157 159
-207.696324151627 577.923586323881 3114.65661099272 169 169 171
-200.438595093926 577.398557744335 3111.01600028486 158 158 160
-191.782100348936 577.143457020941 3108.80811719559 138 138 138
-178.924756876125 577.698283209707 3110.89415542788 169 169 169
-161.829601178481 579.058088323721 3117.24210945331 180 180 180
-132.74255009216 582.701423188065 3135.67847176193 159 159 159
-102.113022972607 586.595032788245 3155.42313011942 168 168 168
-86.1593465837966 587.648075055448 3160.11559586566 155 155 155
-87.1340150217215 585.475953447127 3147.74089617749 146 146 146
-86.0208925999286 583.710302037929 3137.52409729856 182 182 182
-84.9370091808979 581.94828885856 3127.33261733848 174 174 174
-79.5990538136553 580.988885224403 3121.38897563849 172 172 172
-77.1296341690335 579.498020360444 3112.64136632553 181 181 181
-77.5532589323382 577.479047028251 3101.11132574498 182 182 184
-74.4140786351144 576.12659250891 3093.10589028261 178 178 180
-69.8476505327386 575.040140286609 3086.50852140121 174 174 176
-60.945265358427 574.745157990113 3084.08777467201 172 172 174
-54.9318610315326 573.921609808807 3078.88107760533 165 165 167
-48.1908913613598 573.228934618048 3074.36618631546 165 165 167
-45.0979324660725 571.880668674916 3066.40078546148 176 176 178
-38.3603771386341 571.187584949364 3061.8888561525 191 191 193
-33.08810836459 570.232865339043 3056.00211703132 189 189 191
-23.4020103165253 570.059038658137 3054.22457396489 165 165 167
-15.9114957013569 569.492651758823 3050.38278316278 160 160 162
-10.6352573634187 568.5361998379 3044.4926147033 182 182 184
-2.39341514516678 568.097066626495 3041.32205752648 197 197 199
2.13653578836315 567.011073066144 3034.75598623349 209 209 211
12.6313103766602 566.95545156305 3033.60034455455 203 203 205
21.6523106675983 566.639404864955 3031.07692633805 183 183 185
38.9479803542763 567.730236070648 3035.92956976732 190 190 192
51.7868976500768 568.045281669542 3036.7095560288 196 198 197
67.6816589231337 568.865215973669 3040.13133529685 188 189 191
77.5731764713861 568.659345701424 3038.17627092201 184 185 187
89.0022396372703 568.704391954737 3037.53345629279 184 185 189
101.981334668093 568.998725331697 3038.19239520126 192 193 197
120.337881903818 570.172734965715 3043.44794428694 191 192 196
134.933490957225 570.706803351968 3045.35107615532 181 182 187
145.73723366678 570.605081182203 3043.92793943343 181 182 186
165.795374459439 572.006679345078 3050.35401869795 183 184 188
288.877371099711 588.156021917869 3132.80996721206 169 171 170
-258.617541203954 575.858377593923 3152.18830737152 203 205 204
-237.190273320993 578.182934599143 3164.03866956406 196 198 197
-236.710053224302 576.302197548505 3153.04791476542 185 187 186
-233.539848402263 574.965185377046 3145.01517365259 181 182 184
-229.020323181673 573.899392374837 3138.45832331248 175 175 177
-223.139490316236 573.103040035369 3133.36635446694 169 169 171
-217.258916570074 572.306243502512 3128.27461308778 171 171 173
-212.75672658204 571.241325597351 3121.73246663334 161 161 163
-205.498567895649 570.711410575948 3118.09183072796 160 160 162
-198.232660998139 570.179860975816 3114.44417424877 170 170 172
-190.958691675166 569.646858533344 3110.78985470292 148 148 148
-177.401665558553 570.306848721455 3113.59203224479 157 157 157
-157.505950629953 572.152211973535 3122.80285349223 187 187 187
-126.306582817773 576.100680438466 3143.37651582402 168 168 168
-99.1802382191227 579.237308452932 3159.54547826616 157 157 157
-85.3349787722872 579.856228345163 3162.09841526968 150 150 150
-87.0108516527326 577.579454857579 3149.00857643818 170 170 170
-88.0226931520678 575.439527723567 3136.66588735751 176 176 176
-84.0947128001042 574.220119817522 3129.29916926134 171 171 171
-77.324637452616 573.524026207385 3124.75938869903 174 174 174
-74.129808583784 572.175964815894 3116.70569215181 180 180 180
-75.2587802052136 570.050224788878 3104.46443202534 178 178 180
-72.1104453678492 568.707534272579 3096.45068321014 176 176 178
-66.8132237954189 567.754903872817 3090.54230306354 173 173 175
-58.6249217628918 567.318788967113 3087.41813153147 170 170 172
-53.32894935965 566.36548838845 3081.51083842748 166 166 168
-48.0378884975141 565.412318025194 3075.60748597607 168 168 170
-43.4814715319076 564.331316220572 3069.01875878791 180 180 182
-38.2020109101426 563.378929558985 3063.12545560339 191 191 193
-32.1930172564473 562.554508158496 3057.9225870842 186 186 188
-24.7121341350218 561.984597510177 3054.0891670779 164 164 166
-17.2237503857877 561.413257537775 3050.24925526992 163 163 165
-11.9492225258435 560.459978138211 3044.36023327234 192 192 194
-4.45211136115464 559.886654368263 3040.51276995475 204 204 206
3.79687634722492 559.438204741952 3037.33607989539 212 212 214
15.0434311359557 559.491720294029 3036.85139695557 195 195 197
25.569363247389 559.415344233734 3035.66888442143 176 176 178
41.3733783629646 560.213244569807 3039.16945942667 195 195 197
56.4770029894381 560.878386625008 3041.95437193608 197 199 198
71.6292108667513 561.536558950911 3044.69753627255 182 183 185
80.7754411764661 561.191071240885 3042.06576747592 180 181 183
91.4549025514506 561.091743488133 3040.75033433805 184 185 189
107.484112812986 561.856831177466 3044.05593724251 189 190 194
125.091549097106 562.86183962666 3048.63891748906 188 189 193
138.169476565674 563.117449156277 3049.21213018989 180 181 185
148.982510739555 562.998366310781 3047.7810527195 183 184 188
172.893050413344 564.964542882601 3057.48139630491 186 187 189
267.066776186242 578.073505641873 3126.63547910593 182 183 185
-250.418242226556 569.854102365869 3162.32424146912 199 201 200
-243.174999566789 569.323980319958 3158.69653516169 191 193 192
-235.923855828707 568.792262994635 3155.06167553029 178 179 181
-232.067659029061 567.597853148015 3147.75701283109 174 175 177
-225.493190464985 566.932563718788 3143.38657208712 175 175 177
-219.599677896263 566.134563670689 3138.28362396417 157 157 159
-213.01968211434 565.467489620967 3133.90808863335 151 151 153
-208.50235710329 564.406132816439 3127.35280103443 174 174 176
-201.920716365821 563.737991085374 3122.97616239296 166 166 168
-196.028312166624 562.938313774837 3117.87418580242 141 141 143
-188.051386368688 562.529056045725 3114.93273210267 171 171 171
-174.485755398482 563.157876686885 3117.72796900092 151 151 151
-151.08787936846 565.596428432032 3130.51611733516 163 163 163
-122.67937305489 568.926672432993 3148.21936675284 150 150 150
-98.3591578692118 571.463660719978 3161.53102910148 163 163 163
-88.7433009488028 571.278984359382 3159.81475236422 178 178 178
-90.4248514912389 569.033277894001 3146.72963325137 166 166 166
-90.73325814943 567.050020585371 3135.09949755694 162 162 162
-84.6761630922983 566.223882246843 3129.8549489482 167 167 167
-78.6195491122643 565.397359549407 3124.61081979693 177 177 177
-76.1411531797926 563.933095215665 3115.85557355339 175 175 175
-75.1191287061395 562.216781645093 3105.71741283017 170 170 172
-70.5282337802022 561.138690045377 3099.09846798345 171 171 173
-63.7808362044625 560.441428509926 3094.57835062925 169 169 171
-57.7538255502721 559.616826464194 3089.3598672987 164 164 166
-51.0016983146295 558.917977545839 3084.8353453517 168 168 170
-46.4297270949725 557.840817503608 3078.23279632491 176 176 178
-40.4067285817957 557.015528112449 3073.0177949152 190 190 192
-37.3122389871696 555.688944423482 3065.05092684754 188 188 190
-30.5648359486832 554.989114793262 3060.53050588705 174 174 176
-24.550068129066 554.163796004779 3055.3226385058 164 164 166
-17.0597380147468 553.586923929339 3051.48107556141 176 176 178
-11.782502123769 552.636326283612 3045.59000455101 201 201 203
-4.28357614651276 552.057495873292 3041.74068844045 210 210 212
5.45577684232379 551.847953761927 3039.91753435235 208 208 210
15.9611258680532 551.75859959373 3038.75294601691 182 182 184
24.9934536459193 551.419648042554 3036.21985828434 173 173 175
40.0446655640416 552.059809494532 3039.05036064696 202 202 204
58.9068807865134 553.305209710664 3045.19105839754 198 200 199
75.5741182783378 554.174182839577 3049.26624785974 176 178 177
84.7321694504997 553.816473400665 3046.62431269384 180 182 181
92.3886066232189 553.213159176978 3042.63895013707 186 187 189
108.419637218925 553.942758707109 3045.94320525663 186 187 191
122.977460693831 554.422696056793 3047.8791225017 185 186 190
139.109059714507 555.137763763324 3051.09630551903 183 184 188
151.458810341679 555.242999875621 3050.9783688137 183 184 186
188.444018514273 559.188900039529 3071.83092649225 189 190 192
264.907842227599 569.225989182521 3125.91719963986 191 193 192
218.844249778534 560.194983722913 3075.9126425328 203 205 204
-255.709217934705 561.170758589419 3157.70293145087 198 200 199
-237.659677163755 562.718474373927 3165.86898970666 189 191 190
-232.425015965145 561.78948016186 3160.01467972167 176 177 179
-228.555543308829 560.601546727254 3152.69846839299 172 173 175
-223.333607779958 559.673308121614 3146.85518330703 168 168 170
-218.800646040778 558.616253315652 3140.28631491672 160 160 162
-210.843145071862 558.203465478729 3137.36203580254 155 155 157
-206.31687673266 557.146353904309 3130.79896919044 177 177 179
-200.417661857603 556.346328308393 3125.69109179922 181 181 183
-192.440490729231 555.92945419325 3122.74979032999 145 145 147
-182.366887063957 555.893183443677 3121.95906723548 147 147 147
-168.087781142126 556.617046361548 3125.45855474337 157 157 157
-147.469622022052 558.476924754831 3135.36637445573 157 157 157
-120.456745572826 561.465404333868 3151.63464382709 165 165 165
-98.2422017469529 563.551439543251 3162.80419128878 183 183 183
-90.7401874934348 562.974461158335 3158.95250196986 178 178 178
-88.8876108012417 561.388715398081 3149.41688657441 160 160 160
-88.4784252589998 559.554763933949 3138.48739680565 161 161 161
-83.8352960056814 558.476973914463 3131.82317663561 168 168 168
-79.2009187353284 557.399913391461 3125.16653739664 175 175 175
-76.7211990844174 555.94930449622 3116.41005535117 174 174 174
-73.5452051655767 554.62563808858 3108.37252565201 170 170 172
-67.5084574051446 553.80077274004 3103.14560452769 171 171 173
-61.4723006077384 552.975567774181 3097.919197813 168 168 170
-58.3309683072857 551.655371575634 3089.91168809735 163 163 165
-53.755583430938 550.583830257526 3083.30614392213 170 170 172
-47.7336239238526 549.759339538776 3078.09203788094 179 179 181
-40.9826807345581 549.057326395203 3073.56856269372 193 193 195
-35.6918028072548 548.109383018706 3067.66565044034 183 183 185
-29.6719010182702 547.284001635614 3062.45333366891 169 169 171
-25.1245395313937 546.214317912219 3055.87206633538 170 170 172
-19.1102128867531 545.388848935837 3050.66458230956 185 185 187
-13.8365442430839 544.441755948366 3044.77658045035 215 215 217
-4.11555593679802 544.221691737292 3042.9694118762 217 217 219
7.11320830137741 544.240234198554 3042.50037527252 181 181 183
17.6236290780598 544.133975603749 3041.33118509648 167 167 169
26.6618125597895 543.783597914317 3038.7934115694 191 191 193
42.4674625341313 544.510642341964 3042.29302873183 203 203 205
62.8390995681753 545.948472686833 3049.77041562211 187 189 188
78.7619204644554 546.658659578267 3053.16858577209 181 183 182
88.6862061777767 546.408132860328 3051.18540942563 188 190 189
96.3548172303281 545.797999007995 3047.18953952098 190 191 193
110.114464900321 546.135163278319 3048.49492872728 180 181 185
125.439032052959 546.70305895413 3051.08897256654 182 183 187
140.047482015921 547.146017924419 3052.98156514833 184 185 189
153.933356571686 547.464805647337 3054.17766805605 193 194 196
184.769625273878 550.361749124 3069.77918083195 186 187 189
245.793886122623 557.810312415036 3110.79745678873 187 189 188
-237.405896261122 556.991886951603 3178.91969236493 194 195 197
-236.880627837472 555.171377166774 3167.8895022879 185 186 188
-231.641311287818 554.244540718531 3162.03114336046 173 174 176
-225.726116934792 553.444638816694 3156.90941517977 169 170 172
-221.175747515314 552.39122830929 3150.32543531209 177 177 179
-216.633824682888 551.338506170241 3143.74877194437 166 166 168
-210.041040327806 550.664462077732 3139.36251297641 152 152 154
-206.886858729311 549.360928245804 3131.34344282689 152 152 154
-203.058653426921 548.184652991338 3124.06323936474 174 174 176
-193.702898946394 548.010788809214 3122.57201718537 133 133 135
-180.853811173325 548.458093290069 3124.66590767272 135 135 135
-163.783964436528 549.646948211167 3131.03690564574 132 132 132
-143.853883742623 551.323715035574 3140.21903335818 155 155 155
-117.535037989108 554.105151657952 3155.76692485157 160 160 160
-98.8286259514903 555.508771342818 3163.3645829159 166 166 166
-90.6218282355122 555.049954012524 3160.22452762243 152 152 152
-87.3517248894271 553.726698874618 3152.10542723492 161 161 161
-84.8074730040085 552.282460698021 3143.2929714998 169 169 169
-84.4176188748924 550.472739278784 3132.37976443752 173 173 173
-81.9216237608034 549.03425133736 3123.60909731902 176 176 176
-79.4469319341555 547.598160998764 3114.8565634761 173 173 173
-74.1243550350754 546.651697746319 3108.92616699324 171 171 173
-68.8066516835963 545.70541947881 3102.99967787771 171 171 173
-62.77223911317 544.880659012235 3097.77478006687 167 167 169
-58.908344196476 543.692750359904 3090.46371851786 164 164 166
-52.8813313563181 542.868177962869 3085.24523310053 174 174 176
-48.3099976107169 541.802482142856 3078.64316230697 184 184 186
-40.8293117300906 541.218075660616 3074.81000718973 190 190 192
-37.7307453023992 539.913288226714 3066.83914883118 178 178 180
-30.9808816706005 539.208178869219 3062.31694491164 166 166 168
-25.6992776874672 538.263678020355 3056.42173289851 181 181 183
-19.6846356102527 537.438495938135 3051.21397361686 197 197 199
-13.6707659970643 536.612968738526 3046.00688609391 222 222 224
-3.20662141359707 536.497753337775 3044.87817871109 216 216 218
8.76919751070027 536.61510233065 3045.08457907453 174 174 176
15.5553147507455 535.902752887454 3040.53068425269 177 177 179
27.5805843930739 536.012551731117 3040.69395731365 203 203 205
43.3880749299971 536.704075332286 3044.19220937017 196 196 196
66.0168624630471 538.441120709331 3053.68171751176 180 182 181
78.9311562679957 538.648063659719 3054.39738826408 184 186 185
89.6129188607397 538.500427231872 3053.08027361949 189 191 190
98.0435000397359 538.000670936735 3049.74620692749 187 188 190
110.287136993199 538.078419186773 3049.72073639225 178 179 183
125.611866633764 538.61385687182 3052.31516523882 180 181 185
140.220336729714 539.026967620465 3054.207618275 185 186 190
155.639452798568 539.548765906919 3056.72032739513 194 195 197
181.096665247748 541.555297722976 3067.72637433281 185 186 188
200.491232426924 542.63178784315 3073.40644253613 172 174 173
-240.676937952056 548.661900082313 3176.51544129586 193 194 196
-234.074922280733 547.986111508326 3172.12087700574 184 185 187
-229.502708713748 546.936219176822 3165.51825674521 171 172 174
-224.939053057919 545.887008009062 3158.92273400708 168 169 171
-221.06586530666 544.714653694109 3151.603201719 164 164 166
-215.836909159597 543.790679708146 3145.75380397606 168 168 168
-209.9261796071 542.990091535051 3140.63595004553 165 165 167
-205.392255144357 541.943177556099 3134.06618151529 138 138 140
-202.247375724424 540.651518511803 3126.05541246222 159 159 161
-192.887992687057 540.463653588438 3124.5614515202 161 161 163
-181.425335302849 540.63900968283 3125.21193603551 123 123 123
-161.572504044203 542.272012763112 3134.46130220034 125 125 125
-140.93921180295 544.015103504822 3144.35707779235 173 173 173
-109.711472703145 547.56576004193 3164.90872754056 160 160 160
-95.9020291324459 548.070068089149 3167.49313462609 156 156 158
-91.2087237113757 546.997977093041 3160.78538803808 159 159 159
-89.3510308694188 545.444779158462 3151.24512738101 166 166 166
-86.1008200255551 544.134952541713 3143.14318152304 172 172 172
-83.5783686709166 542.707124664174 3134.34951475242 174 174 174
-81.7899857054147 541.162122958134 3124.86927434482 177 177 177
-78.5968598802049 539.858816286764 3116.81676387501 175 175 175
-76.1378248585114 538.438338805471 3108.07769917602 172 172 174
-70.8235347874449 537.495536714974 3102.15446146044 170 170 172
-66.2352124934586 536.434439931224 3095.53763627948 167 167 169
-60.2092722809608 535.610670734466 3090.32007534234 167 167 169
-56.359685131977 534.432691481045 3083.0210349943 182 182 184
-50.3412252860414 533.609091270153 3077.80995646471 192 192 194
-42.8647323942206 533.020009424027 3073.98046585805 186 184 187
-37.5748496076449 532.078218624891 3068.07837626006 173 171 174
-31.5563965641279 531.253451549742 3062.86731118767 167 167 169
-27.0097198433841 530.195358189805 3056.28656225971 202 202 204
-20.9968332003396 529.370622116159 3051.08032158581 214 213 218
-14.2451936143644 528.661628278047 3046.55628804163 217 216 221
-3.04036146660236 528.646024738946 3046.10821550787 197 197 199
8.9362348846973 528.741680069652 3046.31408262287 176 176 178
15.7244815564228 528.026588519634 3041.75835991497 203 203 205
28.4984499331906 528.229552789899 3042.59568154178 208 208 210
46.5573271744115 529.229279794001 3048.11067677995 185 185 185
66.9366035189087 530.562590290391 3055.58243520933 183 183 183
81.3613491535552 530.972895850894 3057.63414701771 188 189 191
92.8063279475015 530.921867262206 3056.97816030895 186 187 189
103.521106270874 530.753196086462 3055.63256604957 184 185 187
111.979325492558 530.241475639451 3052.27493751338 184 185 189
125.783811032711 530.518075166706 3053.54185658698 181 182 186
138.864147984632 530.676217090764 3054.11392800734 189 190 192
155.811490160916 531.390690063711 3057.94734183614 182 183 185
172.8152121678 532.097061247211 3061.731941739 185 187 186
-237.883608331067 541.452422537369 3180.75801508853 188 189 191
-231.27118677973 540.772507766983 3176.35445838602 181 182 184
-227.365829514369 539.604983719224 3169.00701232349 166 167 169
-224.15275975628 538.317346279901 3160.93711419316 164 165 169
-220.274531246682 537.152607353186 3153.61316355073 163 165 164
-214.357051426209 536.351619143762 3148.48946151255 159 161 158
-208.439824167108 535.550275687044 3143.36598068041 159 161 158
-203.210858232443 534.628276626636 3137.51656165664 149 151 150
-199.366569215596 533.466401626805 3130.22200903419 149 151 150
-192.07423532016 532.904434114918 3126.55164443482 169 171 170
-181.302871600864 532.938193555282 3126.47895469552 158 159 161
-160.059031116376 534.755034686271 3137.16832914695 124 125 127
-135.233623019983 537.153651881503 3151.36628016115 169 170 172
-105.39483601075 540.367026699965 3170.4774484613 173 174 176
-95.787467852857 540.129663611772 3168.7685551381 168 169 173
-93.9092794295804 538.590713179049 3159.21043789983 166 166 168
-94.1757032687107 536.701474767246 3147.54362045511 161 160 158
-89.5196192413539 535.639277155471 3140.86807087757 169 168 166
-86.2934789954348 534.343471673429 3132.78689701475 176 174 175
-83.7971197773739 532.93260985519 3124.01541978343 176 174 175
-79.177386029877 531.874191950069 3117.37166732029 174 172 173
-76.7170453321877 530.467432223252 3108.63138205359 174 172 175
-70.6834388801916 529.643558838098 3103.40717718626 170 168 171
-66.0921781964987 528.587807663159 3096.78808607049 168 166 169
-60.0638803796163 527.763930565857 3091.56848241208 165 163 168
-55.4863619476715 526.709199420614 3084.9609800772 194 192 197
-48.7364635706577 526.000230472143 3080.43845554013 188 186 189
-42.7122093303889 525.17570020598 3075.22236082747 188 184 185
-39.6133736377124 523.893326077856 3067.25143936135 173 168 172
-32.8655307928312 523.183496113741 3062.73070200726 166 164 167
-27.584810626319 522.245155046849 3056.83653162708 215 214 219
-20.0968985207637 521.64776822055 3052.99719739389 218 219 224
-11.8621860898287 521.162285112731 3049.8331202085 207 208 213
-0.650260652481638 521.12683222243 3049.37902828998 175 176 180
9.10258743039449 520.861732613542 3047.54422201993 192 193 195
15.8930105485267 520.143922568243 3042.98663052362 208 208 210
30.1627722440529 520.546736201444 3045.17303654359 207 207 207
48.2249264292296 521.502484647721 3050.68547651879 171 171 171
65.6000192070394 522.337393698867 3055.47062396924 183 183 185
79.2671358967492 522.607131103083 3056.85665002991 188 187 192
91.4628531336277 522.648993250372 3056.87294577833 188 187 192
102.932449444336 522.575395979298 3056.19576842854 187 186 191
111.390362729033 522.055841701704 3052.83845582236 184 183 188
126.716910422377 522.525946024483 3055.4314167462 184 183 188
139.799869958658 522.659480861602 3056.00137453296 190 190 192
155.216885188105 523.116555631889 3058.51632393612 183 183 185
161.465022909801 522.254778127608 3053.10642272574 189 189 189
-203.441999002475 541.725383130221 3231.62905793192 200 202 201
-231.051822434383 534.931591394347 3189.43573196603 187 188 190
-225.767561190009 534.007505443387 3183.53840003287 180 181 183
-223.875489220094 532.488723403645 3173.968118734 165 166 168
-223.367572088461 530.735534586122 3162.95221589105 164 165 169
-218.80250700133 529.69687542965 3156.3557186837 164 166 165
-212.878537263815 528.895103042548 3151.22639668264 159 161 158
-206.95481106645 528.092944250164 3146.0972882705 155 157 156
-201.031365448431 527.290433983709 3140.96842532412 154 156 155
-194.418372998302 526.604753143208 3136.56441116738 142 144 143
-185.725680290717 526.269231179884 3134.32567513445 157 159 158
-176.322762048175 526.047805950235 3132.79419813687 122 123 125
-156.458720400287 527.569887274753 3142.03456663013 146 147 149
-131.625993947616 529.893679246175 3156.2266594312 146 147 149
-102.481583688808 532.897280750996 3174.61745197139 168 169 173
-94.2689723574754 532.413845795998 3171.47251733135 162 163 167
-95.2002369656881 530.429131604429 3159.0589835791 157 158 160
-95.4667755263046 528.564709263718 3147.39178924601 165 163 164
-92.228720979528 527.278827352828 3139.3002245254 174 172 173
-87.5868327754033 526.22381149713 3132.63693244016 175 173 174
-83.6659615069131 525.055388132269 3125.27636117391 175 173 174
-78.3291184470327 524.11617396495 3119.33323720959 174 172 175
-76.5799423795741 522.608940559268 3109.88673409028 174 172 175
-70.5439761372255 521.784988922267 3104.6604844149 167 165 168
-66.6706183928367 520.621497064291 3097.34106287156 171 169 174
-61.3649217110694 519.684920386316 3091.4249175017 174 172 177
-58.2383261383028 518.41108445839 3083.42988022193 192 190 195
-51.4944593495481 517.700442516899 3078.91259432025 192 190 195
-45.4761050176047 516.876946344992 3073.70160656924 164 159 163
-39.4584157270774 516.053180418188 3068.49119698156 183 178 184
-34.1744001906519 515.117779127552 3062.594151336 210 208 213
-27.4251511774226 514.404915199464 3058.07221486542 220 221 226
-19.9353107492257 513.802058586103 3054.23124473005 219 222 229
-9.48124642910342 513.640082170685 3053.11157728634 161 164 171
-0.485949088857129 513.253896822777 3050.61089124127 166 169 174
10.0116745917544 513.085245739139 3049.45351258611 216 217 221
19.7875879865599 512.80323612726 3047.59882435838 207 207 209
37.8047062755802 513.721991468274 3053.15053827982 184 184 184
52.8887894818983 514.194887847042 3055.9539493101 176 176 178
66.5181894972626 514.443085209465 3057.37280534815 186 185 190
77.1735694604927 514.25109283284 3056.07884490452 184 183 189
88.6081325892896 514.163798535515 3055.43212082982 182 181 187
100.828089852617 514.18039582 3055.42725508011 181 180 185
108.521953724685 513.545871029119 3051.40965570298 183 183 185
126.887352737002 514.414429139371 3056.65982748204 185 185 187
139.970689795592 514.523577152482 3057.22930057103 188 188 188
156.153427301099 515.055063812367 3060.40334963516 195 195 195
147.816215599752 512.16739446974 3042.5046887295 193 193 191
-241.617618354775 527.167229415804 3190.70360407407 197 199 198
-231.630249311672 527.065169136186 3189.98804994406 183 184 186
-226.345473156953 526.143768605371 3184.09025431801 178 179 181
-223.774562386491 524.757540910327 3175.25400094677 165 166 168
-221.903768585926 523.25776375708 3165.70203904997 163 164 168
-217.331828512938 522.223658320584 3159.09955353704 162 164 163
-212.08501291408 521.305700928673 3153.23432186476 160 162 159
-205.471158347569 520.618159540387 3148.82988805001 156 158 157
-200.916577430525 519.585142024338 3142.24212577891 156 158 157
-193.611589039513 519.011162144586 3138.56118642665 137 139 138
-182.839978298845 519.007130086949 3138.48852747489 162 164 163
-167.877017782001 519.68288397584 3142.71886624422 112 113 115
-148.685723763558 521.033443157067 3151.22017988522 134 135 137
-126.625034514852 522.826843801413 3162.52497491845 155 156 158
-100.970397758979 525.172895481074 3177.32780514515 179 180 184
-94.1560235885928 524.454794333788 3172.74945629728 148 149 153
-94.3787043726094 522.609729818194 3161.04443892642 147 148 150
-94.639037547612 520.769294606996 3149.37171072538 168 166 167
-92.1040954719143 519.381742594745 3140.56664129637 177 175 176
-88.1696386631652 518.220240772006 3133.19393458945 175 173 174
-84.2478505436008 517.06010794055 3125.83251493256 175 173 174
-79.6248487711311 516.012516272138 3119.18554428757 175 173 176
-75.0105902377554 514.965772695003 3112.54614622653 173 171 174
-69.6865774826696 514.030494446283 3106.61443275656 169 167 170
-65.8083796230846 512.874742573008 3099.29045044326 170 168 173
-61.9431208634103 511.720343967754 3091.97767414374 180 178 183
-57.3661086303554 510.677201334844 3085.37085096862 193 191 196
-51.3446936591064 509.853921786821 3080.15720904779 186 184 189
-45.3239549364635 509.030373993188 3074.94415499418 172 170 173
-40.7655931494664 507.98861295306 3068.35317236544 196 194 199
-34.0175752301462 507.273788859154 3063.83231563014 216 215 220
-28.0010394480885 506.449729130791 3058.62290773355 222 223 228
-19.7743875775762 505.949791089268 3055.46591059393 210 213 220
-11.536191747155 505.44799897436 3052.29891990376 166 169 176
-3.28648311507562 504.944237209854 3049.12196341795 184 187 194
9.43339418975597 505.082263283442 3050.00658852223 211 214 219
25.1699185426824 505.643000764462 3053.56719701859 193 194 198
43.2005751893252 506.516335741395 3059.10747108394 175 175 177
52.3048985835661 506.103220967924 3056.51246274233 186 186 188
62.175967969345 505.793754385962 3054.57547731873 190 189 194
72.8201772548025 505.587186944291 3053.29129334983 190 189 195
84.998917026152 505.588217428892 3053.32256866807 189 188 193
98.7243836393503 505.795211084367 3054.65842733374 189 188 193
110.970799204862 505.786266964298 3054.63079473144 191 191 193
130.864716240831 506.820174550743 3061.20191078578 193 193 195
145.486079975754 507.112495184193 3063.08397116457 192 192 192
158.620349525059 507.190043306608 3063.60981951403 197 197 197
145.688992925058 503.729720281194 3041.75626816566 187 187 185
-231.535790865865 519.311651858891 3191.27968327099 181 182 184
-228.273780968617 518.05128920717 3183.16719022163 175 176 178
-225.70551053914 516.679213107125 3174.33344913898 164 165 167
-221.120470586607 515.649279967343 3167.71926694015 161 162 166
-215.862478016414 514.733043462794 3161.84465214651 162 163 165
-211.975557140565 513.591597423122 3154.51301657932 156 158 157
-206.730539129637 512.676277561963 3148.64932584984 151 153 152
-202.177136001718 511.649040214406 3142.06286246812 165 167 166
-193.49538012085 511.293671652937 3139.83373438248 158 160 159
-179.95659850943 511.716723884743 3142.65326045664 147 149 148
-162.904767643346 512.689779820684 3149.04127181519 143 144 146
-142.30907212335 514.208629618203 3158.97108692381 136 137 139
-122.325270788393 515.604661656522 3168.10847219409 166 167 169
-101.559922793454 517.099683723324 3177.89108229604 157 158 160
-96.149013749578 516.158631751076 3171.88409010299 149 150 152
-94.2622050484494 514.668285821194 3162.31818640166 150 151 153
-92.4005223115283 513.181024212023 3152.77404029018 169 167 170
-91.2719539326261 511.587411716672 3142.54273902857 176 174 177
-88.7526776831038 510.215503719711 3133.75114636061 171 169 172
-86.2542918279399 508.846131829665 3124.97795922714 173 171 174
-80.9203810370449 507.913233540151 3119.03765135155 173 171 174
-76.3075046920432 506.872305404553 3112.39941359865 170 168 173
-70.9850462620878 505.940200844647 3106.46902675255 175 173 178
-68.548726950489 504.577758027985 3097.74927450994 172 170 175
-63.2439430576253 503.647255204466 3091.83419644115 190 188 193
-57.9438858580721 502.717119444105 3085.92321278877 187 185 190
-51.9221732193422 501.894039353439 3080.70931157635 171 169 174
-45.172668250864 501.177278297396 3076.18717851365 203 201 206
-39.150302022422 500.353391552755 3070.97271603867 219 218 223
-34.5940123429127 499.317299321927 3064.38349264595 218 219 224
-29.3118229105058 498.38783314179 3058.48799129071 183 184 189
-23.297804096805 497.564022548101 3053.28076332667 158 161 168
-11.3742218182669 497.581068112508 3053.53277352449 201 204 211
-2.38179971132446 497.174032582455 3051.03503017003 214 217 224
14.0551212390019 497.810164315528 3055.31135207543 187 190 195
29.0588200003494 498.229628326736 3058.18478143662 176 177 181
43.3638065740141 498.538176091957 3060.3409521209 176 177 181
48.7244600692542 497.595567932522 3054.37752830239 194 195 199
60.0889098195019 497.480855971156 3053.79175168022 201 202 206
72.2342988555291 497.465185891188 3053.85172598677 206 207 211
82.1461002627704 497.136212755874 3051.87987857187 197 198 202
95.1063109365222 497.214602366563 3052.55626903953 194 195 197
107.34342326858 497.185434188157 3052.53714644932 193 194 196
128.748472371275 498.376051277667 3060.44401628713 193 194 196
144.127309763352 498.741162087587 3062.99265172297 186 188 187
155.727090885523 498.592032873925 3062.20312796652 185 187 184
-224.66162275336 514.477745286801 3211.82002903279 195 197 196
-232.787455655734 511.328808876406 3191.09301428421 179 180 182
-229.526400235254 510.079563878022 3182.9812764715 173 174 176
-224.928128850658 509.053777572288 3176.35559924331 163 164 166
-218.980163044202 508.249791663238 3171.20549333045 160 161 165
-213.713428532245 507.335222461338 3165.3232907775 161 162 164
-209.817376889711 506.200870945385 3157.98369527392 154 156 155
-203.878324183717 505.39688765361 3152.84131464864 152 154 153
-199.314104424896 504.373710888111 3146.24513427861 159 161 160
-192.001063927393 503.787897051188 3142.55729256055 163 165 164
-179.149309802326 504.071413087808 3144.64993337798 142 143 145
-162.096240191769 505.000555351728 3151.03715563385 157 158 160
-137.327608026118 507.111759479363 3165.28617883185 119 120 122
-115.238420993727 508.775411608107 3176.56711458523 160 161 163
-100.750451315261 509.240734482609 3179.88724771365 160 161 163
-99.544775012633 507.657188874283 3169.58904900926 146 147 149
-96.2574062628985 506.398748723148 3161.45424856023 136 137 139
-93.6924662298262 505.035385424314 3152.62333759269 169 169 171
-91.8565183675795 503.567818722138 3143.10136919863 175 175 177
-90.0457568774233 502.103284589721 3133.60121108744 170 170 172
-88.2601661802331 500.641840815172 3124.12284938168 174 174 176
-82.2159517565821 499.81815576508 3118.8894489836 172 172 174
-76.1723015096418 498.994187376488 3113.6565394138 169 168 173
-70.8473111525771 498.06464631746 3107.72394144391 173 172 177
-68.4074993248478 496.71567889009 3099.00139030402 180 179 184
-63.100344307025 495.787828855379 3093.08392439301 195 194 199
-57.7977754087731 494.860289263172 3087.17074693786 175 174 179
-51.0474640116794 494.141263701988 3082.64792958854 171 170 175
-45.0220461651534 493.317624739217 3077.43082056084 217 216 221
-37.536495787899 492.700793533775 3073.59365932253 227 226 231
-32.9733556617504 491.669497872343 3066.99846731959 202 203 207
-29.153616805357 490.536171101094 3059.72500821042 173 174 178
-23.1372674509363 489.712346080823 3054.51576037645 172 173 178
-11.9515194506397 489.605231456953 3054.08482175339 219 220 225
0.743601099209457 489.698233476495 3054.99119618407 218 219 224
17.1883030429365 490.295289612396 3059.26102723364 182 185 190
32.944862273856 490.782663283509 3062.80474618042 183 184 189
39.0453765778571 489.945647170967 3057.52263503798 186 187 192
45.8940733338653 489.209531443543 3052.91496981922 210 211 215
55.749342936068 488.875513352816 3050.99183773034 211 212 216
70.1422595605568 489.141220605069 3053.0723893994 218 219 221
80.0490746000917 488.799542178343 3051.10463066638 221 222 224
96.0320393534397 489.253940199487 3054.45232949184 223 225 224
112.067355907064 489.700868721373 3057.75470153279 223 225 224
131.199585991182 490.53760104485 3063.66370036249 224 226 225
146.584524243455 490.869401994558 3066.20726381223 224 226 223
152.834633288269 490.009185537452 3060.79564386962 224 226 223
-230.609590419725 505.679416032191 3206.44564179669 195 197 196
-234.038832114073 503.350298754413 3190.90606731308 176 177 179
-229.429416020633 502.32891036181 3184.27070206657 174 175 177
-223.474798963418 501.524447921972 3179.11483436353 162 163 165
-216.841580723979 500.827479521306 3174.69336293186 162 163 167
-211.566128254775 499.914520965913 3168.80359377497 165 166 168
-208.343834793209 498.679988057327 3160.72535701062 147 148 150
-201.028420233065 498.089191126698 3157.03517438486 150 151 153
-195.079061961604 497.283520537989 3151.88387248929 144 145 147
-187.062671596922 496.796807415928 3148.90903085673 131 132 134
-174.887255771807 496.944917142444 3150.26549495359 151 152 154
-159.902344626595 497.511117521407 3154.47751823379 160 161 163
-135.825778803638 499.442382130464 3168.00428534749 118 120 119
-115.826676455264 500.726941522479 3177.12913102498 177 179 178
-102.739629616146 500.949725540454 3179.01822873463 153 155 154
-102.939318874382 499.176370296088 3167.29250359125 153 155 154
-98.9554445307261 498.034533311709 3159.87683750189 143 145 144
-95.6899147100434 496.78986589294 3151.76119190285 169 169 171
-93.1488463518448 495.443221760355 3142.95086303337 173 173 175
-89.919432982482 494.202677367807 3134.86617863073 173 173 175
-88.1301530320577 492.757377365394 3125.38483021738 173 173 175
-82.0835900252437 491.933615572746 3120.14939471515 160 160 162
-78.1850813332068 490.801119007491 3112.80765757832 166 166 168
-72.1458800631565 489.97760005391 3107.57860118436 185 185 187
-70.4268995686603 488.540397749802 3098.15781585021 195 195 197
-64.4012308248652 487.718012551008 3092.94048123641 195 195 197
-58.376274137212 486.895333985774 3087.72376568829 157 157 159
-50.1736209177115 486.376619710748 3084.58769071258 220 220 222
-44.1438505870657 485.552604193963 3079.36681167053 226 226 226
-38.8449052165849 484.627498888298 3073.4567590829 201 201 203
-35.7477365850762 483.401081094881 3065.48660440733 203 204 208
-28.9959350037079 482.678044330136 3060.96283696728 208 209 213
-20.031870706898 482.254174806278 3058.48946591802 220 221 225
-7.36006374991227 482.326332090834 3059.41618215203 227 228 232
6.08829270127353 482.492642851943 3060.9924857819 213 214 218
20.3193604149274 482.752247331875 3063.21304175283 178 181 186
30.8719972799043 482.511211043265 3062.00845025129 186 187 192
37.7152497865318 481.773680345239 3057.40519741536 200 201 206
47.5565001619618 481.428547199418 3055.49460383292 223 224 228
59.669382385017 481.374496134479 3055.58300167245 230 231 233
70.3087656703985 481.120280420051 3054.30330933329 234 235 237
79.4621703287035 480.667618404141 3051.66601676303 235 237 236
95.4428311704776 481.08708368449 3055.0159388365 235 237 236
113.752607250465 481.789792095096 3060.31539572054 235 237 236
131.365900410091 482.386643853283 3064.89562895525 236 238 237
145.22488218758 482.493305587436 3066.11673089508 185 187 184
146.117607783832 480.961375285078 3056.08912783547 173 175 172
-233.202571778898 497.454480820012 3204.77627160022 194 196 195
-235.290090741211 495.376002485309 3190.7186753947 175 176 178
-230.681874235446 494.360367253756 3184.08462810616 174 175 177
-225.405688000355 493.450880854508 3178.19388495549 163 164 166
-217.419188000259 492.961964951158 3175.2449646504 162 163 167
-210.781808664427 492.261404171392 3170.82022543847 153 154 156
-205.506250614943 491.350804647415 3164.93003397193 151 152 154
-196.126106748663 491.066032713013 3163.4187068331 155 156 158
-187.412635298988 490.674144264502 3161.16232637374 138 139 141
-179.371872085266 490.175974351591 3158.16643415714 120 121 123
-167.173279135508 490.296409449308 3159.50298913926 139 140 142
-154.245044994581 490.514620357907 3161.52976515676 146 147 149
-130.154845907072 492.372814353382 3175.04518932943 110 111 113
-113.626654773484 493.087711826662 3180.56515455447 160 162 161
-106.126480791178 492.463820913634 3176.7153642591 168 170 169
-104.228571483429 491.022254489429 3167.13952317059 162 164 163
-100.245878219107 489.888960626827 3159.7248254055 166 168 167
-96.9813059543405 488.655560991498 3151.60993673908 167 167 169
-93.7336559910511 487.424140877222 3143.50970241227 174 174 176
-89.0841747169353 486.396428610531 3136.8396522124 166 166 168
-87.2894513241964 484.967051633539 3127.35316707749 172 172 174
-83.3792496687522 483.841783626473 3120.00124838774 173 173 175
-80.1974864624775 482.617859199381 3111.95807190927 177 177 179
-74.8797380226391 481.695252094374 3106.03170583716 153 153 153
-71.7259244376303 480.474492823298 3098.01273378979 201 201 201
-67.1456953399194 479.454070722017 3091.40265969999 171 171 173
-60.4027832972363 478.731400464766 3086.88627925483 207 207 209
-51.4785739155741 478.303997419771 3084.44779030325 216 216 216
-43.2668511934939 477.775625537206 3081.30360153235 137 137 135
-39.4232318557686 476.65674141981 3074.00966627573 135 135 133
-33.3966615773389 475.832767598778 3068.79156056377 150 150 148
-27.3708326046851 475.00856423657 3063.5740988556 162 162 160
-16.1926339696885 474.865067382904 3063.14993929656 174 173 171
-7.93932125019436 474.329439896525 3059.97006550931 140 138 139
4.02676535793489 474.27545546839 3060.18569595299 127 127 127
15.2825669779535 474.120339923111 3059.69435038683 151 152 154
25.0776424296415 473.768819184906 3057.8238196623 202 203 205
34.1458716008618 473.318405410113 3055.26033717963 211 212 216
46.2234747042083 473.247935675841 3055.3794190937 171 172 174
61.335212322831 473.554007804475 3058.15994207611 144 146 145
71.9797830552067 473.282954165447 3056.87586270034 142 144 143
84.9119255580035 473.292623801997 3057.57734168066 126 128 125
100.149924154407 473.580442310636 3060.2482325063 124 126 123
120.747273708763 474.520606008289 3067.5335266472 126 128 125
139.139282214941 475.168253660674 3072.76206652673 127 129 126
153.781624621768 475.338605526071 3074.62673429716 114 116 113
-231.10311678401 489.969197721453 3208.29846231429 192 194 193
-230.490583924897 488.3350992454 3197.19142906443 174 175 177
-227.888326514391 487.013848522376 3188.32758538112 174 175 177
-223.954002332229 485.900363327281 3180.95468247748 163 164 166
-217.318380550863 485.197763565506 3176.53147981384 160 161 165
-209.998597787045 484.596287542354 3172.83758030973 156 157 159
-204.718269306305 483.68794231023 3166.94355504393 157 158 160
-194.650172381049 483.490630668796 3166.15864838792 140 141 143
-185.244441514367 483.188347390323 3164.62494203723 141 142 144
-173.063484206968 483.286963493278 3165.97692385212 117 118 120
-160.845825939461 483.380217819272 3167.29713037014 110 111 113
-145.127488529524 483.970263821031 3172.19657309586 91 93 92
-122.403180470109 485.553773306376 3184.25080682439 63 65 64
-107.246781409176 486.024895970192 3188.31481146993 164 166 165
-106.716035516816 484.396961088638 3177.27862598371 167 169 168
-103.414497065374 483.17047056617 3169.13165262334 150 152 151
-100.130023397766 481.945836783931 3160.99914237994 171 173 172
-96.862293464393 480.723180671621 3152.88144723034 169 169 169
-95.7331760932303 479.207016891924 3142.64916826781 171 171 171
-91.0871101580777 478.185483703489 3135.9820382244 169 169 169
-87.8723412749651 476.968941870933 3127.91020670004 174 174 174
-84.6745619364668 475.754388615165 3119.85308773865 175 175 175
-82.9247439930381 474.347048730736 3110.40538096985 169 169 169
-79.7651283973964 473.136976296002 3102.38131086035 185 185 183
-76.622580796696 471.928903003081 3094.37202124107 175 175 173
-72.0539999503114 470.915828604978 3087.77199549609 142 142 142
-64.5995830288721 470.288607906268 3083.96188606719 219 219 219
-54.9606623415237 469.947883977081 3082.22631481339 190 190 188
-44.5740638505483 469.699834159988 3081.16568018662 136 135 131
-41.4615820884809 468.494163009268 3073.18243414445 167 166 162
-34.7070007996804 467.766118465105 3068.65597436974 153 152 147
-29.4168272500532 466.847614172349 3062.75348185982 137 136 131
-18.243865419914 466.685898536848 3062.33397928593 138 134 131
-9.99498506911944 466.142962989595 3059.15799454837 141 137 134
-0.994561872491584 465.692128903481 3056.65328466477 134 133 129
11.7321599953102 465.70745467927 3057.53277244128 149 149 147
20.0298720123051 465.156894889732 3054.31451294867 161 161 161
34.3087807323887 465.349691287954 3056.49403631774 168 169 171
46.3872479864964 465.257508466003 3056.61282545547 173 174 176
62.9994720825433 465.716214227505 3060.73835554799 225 230 226
72.896796515344 465.336079440204 3058.77907186314 207 212 208
86.5858767187313 465.41307970671 3060.14731029849 157 162 156
104.09746959269 465.943132834994 3064.81643919599 85 90 84
121.669611371751 466.464522718269 3069.43314431907 76 81 75
140.823300098973 467.15969874327 3075.32446145981 35 40 34
-225.655311022968 482.964981711116 3215.53233512372 192 194 193
-225.022379206648 481.350114301685 3204.40749674663 172 173 175
-223.748602021598 479.839539075393 3194.04948419685 173 174 176
-221.151236426639 478.532413782905 3185.19010440561 163 164 166
-214.505409746882 477.825692694434 3180.75776798318 159 160 164
-207.175296540518 477.217487839402 3177.05527382904 151 152 156
-201.20191636811 476.409570306825 3171.88316584871 158 159 163
-192.491241907933 475.996709112904 3169.6293455446 143 144 148
-181.705021328371 475.87689585686 3169.54477398538 134 135 137
-168.136161688363 476.145994601037 3172.33954348631 103 104 106
-152.450826525046 476.702607061617 3177.26780709561 115 116 118
-135.322939457394 477.446566379464 3183.59138236224 85 87 86
-107.709557947409 479.642847396627 3200.66756675105 16 18 17
-106.444879247343 478.129447414178 3190.31777400258 186 188 187
-107.305794402347 476.329020863987 3177.84207166205 185 187 186
-103.302368297108 475.210122209647 3170.40931071719 133 135 132
-100.014603222409 473.99623613646 3162.27419356038 150 152 149
-98.1537200600324 472.592234156613 3152.73020094442 179 181 178
-96.3180344769361 471.191266255816 3143.20802831524 162 164 161
-93.0893339988512 469.984376322364 3135.1240592322 166 168 165
-89.1665091357683 468.8746555463 3127.76109880822 168 170 167
-87.3961663613869 467.481499338463 3118.2955105201 166 168 163
-84.2204876187962 466.280821686594 3110.25745702533 177 179 174
-82.4965147133194 464.89337120353 3100.83202219609 203 205 200
