ply
format ascii 1.0
comment KinectMotionCapture
element vertex 789
property float x
property float y
property float z
property uchar red
property uchar green
property uchar blue
end_header
-261.928360727774 455.410836835258 3707.67827051847 118 104 103
-252.266559584176 454.923125089844 3705.92382043552 90 74 75
-243.766642710183 454.270176921159 3702.53096620443 10 0 0
-232.284887392713 454.019228713833 3703.16797582985 21 10 8
-208.853796867115 455.374046980361 3719.90445671597 17 14 7
-191.883119921863 455.830405231287 3727.68941618071 20 21 13
-217.434724794166 450.598690647905 3678.40867690732 13 19 9
-209.404709955047 448.086481481046 3659.55475920134 17 22 15
-204.507302819585 446.952274310206 3651.34725196338 21 24 17
-206.310883333032 444.951691194725 3634.39652959102 24 25 20
-209.391847293174 442.801269164007 3615.90709506979 23 24 19
-196.007636855977 442.774132988972 3618.86351076875 25 26 20
-188.720413749558 441.960081139619 3613.87626402745 26 27 21
-182.044955895923 441.067330276111 3608.09618980702 25 26 20
-175.987492306479 440.096749211912 3601.5286813856 25 26 20
-167.451666405766 439.435297092317 3598.10475861613 25 26 20
-168.240725851118 437.617527575874 3582.92036698788 23 24 18
-170.952572791327 435.575974890591 3565.43356087375 24 25 19
-139.887433328906 437.668106041569 3590.10569098222 26 27 21
-128.779544042725 437.302333341202 3589.74391141606 28 29 23
-111.33500624286 437.690863661249 3597.11859817205 27 28 22
-99.5152947150588 437.389536628916 3597.46301545833 25 26 20
-99.0899450232141 435.728043518044 3583.87156084864 23 24 18
-95.5209166725175 434.446837706161 3574.16952254928 22 23 17
-91.9720357627183 433.168112861157 3564.48524619725 24 25 19
-75.6229116107785 433.381205195545 3570.16366692156 24 25 19
-54.0669620475303 434.179241031292 3581.9123879716 21 22 16
-49.8352481295945 432.968424478205 3572.95909653194 19 20 14
-41.7365330423403 432.201390995272 3568.59145671403 13 16 9
-14.1515226695512 433.633842213993 3587.02044189545 8 11 4
-7.92832225185292 432.63639699688 3580.30977300086 20 23 16
-10.2031748490732 430.692603496948 3563.76715108507 23 26 19
-15.81288847908 428.393618515635 3543.50033936004 39 42 35
-11.6381723997474 427.188681362454 3534.59641189721 20 25 18
-4.84170178496912 426.273585024189 3528.71159636617 29 30 24
37.9529091247504 427.58522037877 3549.83904946589 31 31 23
242.152718166506 444.14231827252 3735.34411120691 151 147 138
-275.537865127746 452.020899588829 3751.25655356784 157 157 147
-274.590333493344 450.323697653892 3737.212736493 82 75 67
-271.933158812964 448.869963278728 3725.65563079109 89 80 75
-270.47450164139 447.261308464175 3712.49148992554 104 90 87
-263.178224025732 446.4462994929 3707.49608600495 121 106 103
-253.519222863727 445.944898800141 3705.74446698426 155 135 136
-236.149707538091 446.458993358845 3714.50662562802 21 5 5
-235.91783641762 444.69858852112 3699.76024592901 17 3 2
-188.67881378538 449.090516079192 3748.77639229917 20 15 9
-186.580651333907 447.552370713921 3736.38077318989 28 28 18
-195.574027816619 441.044415577271 3679.3733121366 16 22 12
-221.525582120332 436.013343795056 3630.43792324108 18 20 15
-214.262921358284 435.20031689396 3625.471643412 22 23 18
-200.285702060699 435.221153887949 3629.23734253381 24 25 20
-191.766848019844 434.554561509077 3625.82816319433 18 19 13
-193.674602270002 432.605271798487 3608.96739956153 22 23 15
-187.01337152744 431.714212348382 3603.19964552924 22 23 15
-177.260648719802 431.196724368307 3601.36658332268 22 23 15
-173.689323792555 429.931041419117 3591.66276942217 23 24 16
-168.271257799468 428.890490350819 3584.32664241567 27 28 20
-157.865882256861 428.442407205526 3583.25102926426 28 29 21
-156.205551240872 426.959078143919 3571.23453918676 30 31 23
-131.951946446497 428.122512637507 3587.25967307566 31 32 24
-119.563171470723 427.880700491688 3588.43373783099 31 32 24
-128.013090491959 425.229331050784 3564.01398228243 31 32 24
-116.886683855738 424.840875204751 3563.63661556358 34 35 29
-112.735333533764 423.652866319205 3554.75251483408 26 27 21
-100.295893284643 423.403123110284 3555.88271756934 23 24 18
-77.5657620265866 424.296116928946 3569.25995506596 16 17 11
-69.5192225624837 423.531042409268 3564.93720952908 19 20 14
-39.5357664745637 425.185276540567 3586.57961295336 25 26 20
-50.8125387994984 422.280362994414 3559.3185922569 15 18 11
-34.9436663686276 422.357662284406 3564.09088348053 17 20 13
-23.5749022914185 421.934374725031 3563.50336705366 33 36 29
10.0311700060467 423.88995659794 3588.620901441 30 33 26
-23.684111224199 418.631742522429 3535.82905210902 32 35 28
-9.6715713162987 418.483727191094 3538.24165537062 25 30 24
4.59963125175467 416.719947492587 3527.206981341 31 32 26
71.783017872951 422.05502225886 3589.36772758089 36 33 26
216.619656065012 433.526973500791 3723.13633033957 65 61 52
-276.041439703093 444.901585315077 3767.61954560343 164 161 146
-269.257948474625 443.998222949512 3761.74590373661 156 150 134
-268.864732185409 442.247462642812 3746.85930237072 121 105 90
-272.014017728657 440.041998382607 3727.10618042428 119 101 89
-267.625735511867 438.839470707332 3718.01713190009 143 126 119
-259.14280008832 438.172041328163 3714.63908994109 150 131 127
-250.057526209729 437.578539727194 3712.06176141056 152 131 130
-238.58975026308 437.285053574999 3712.7111631061 32 14 12
-221.155157552632 437.740453968288 3721.41729718092 22 8 5
-194.119579489113 439.387054524237 3742.9679446579 13 10 3
-242.818507989264 431.513377882584 3662.15598260764 18 18 8
-233.081617454937 429.285701612483 3645.79090873256 18 21 12
-206.500732390246 430.837442745521 3666.41300879469 18 21 14
-216.123268164773 427.947843420079 3639.04136345473 18 21 14
-213.0941113086 426.61497400148 3628.48432509448 23 24 19
-203.3813613927 426.089896128678 3626.68627352553 25 26 20
-194.871185042989 425.415983522747 3623.28466288813 20 21 15
-192.486962134797 424.01388968889 3611.96379966632 23 24 16
-183.355628811148 423.411086083465 3609.34661003639 22 23 15
-174.207311668737 422.805755696816 3606.71471629387 19 20 12
-173.722817683303 421.192845052181 3593.07168438342 21 22 14
-166.435747808484 420.371769988331 3588.08430045122 24 25 17
-158.519825108983 419.621059197707 3583.87498759471 24 25 17
-144.332949517875 419.578553193659 3587.45938053513 26 27 19
-138.892420337326 418.539483408381 3580.10377427787 27 28 20
-141.654229186956 416.585864817772 3562.65970213136 27 28 20
-133.094098771572 415.902664688487 3559.21485469306 28 29 21
-132.769271102688 414.309295275862 3545.71008469063 28 29 23
-120.391404682057 414.043261033987 3546.89376124258 26 27 21
-76.6859433298479 417.16792705755 3585.74722881333 25 26 20
-76.9454504944256 415.497165030084 3571.42584793587 15 16 10
-65.6814516255144 415.069751020345 3570.92916202028 17 18 12
-49.8750434269897 415.117486883751 3575.75610032391 23 24 18
-21.7215685539145 416.453028365678 3595.01658125217 15 18 11
-22.6311918210973 414.713410437604 3579.93586468483 11 14 7
-5.36408584138703 414.874268623578 3586.14255242607 20 23 16
4.47628534579581 412.618942524259 3569.68796732118 44 47 40
-1.13562292698699 410.424305322142 3549.42238159572 27 30 23
28.1098688444033 411.766503604259 3569.05990547483 31 34 27
43.6096363659142 411.698042036097 3572.82979685261 29 30 22
104.709531256146 414.495458617248 3613.81234210069 51 47 38
211.227695731816 423.290435312383 3718.61229655132 63 59 50
221.958197111935 422.620599938834 3715.9330612379 116 112 103
-268.637570437177 436.966266150135 3779.78068130827 168 165 146
-265.297768855265 435.611264287375 3768.95453941702 144 137 119
-265.466400785934 433.813528965464 3753.23227113871 116 99 83
-267.43209807783 431.799947017789 3735.09856905327 125 103 89
-263.024392172083 430.605418348905 3725.99263348593 147 119 107
-255.697436758224 429.780034818785 3720.97070724234 153 125 114
-248.365545254338 428.953746993276 3715.94450857196 148 121 114
-240.437498512489 428.199531996682 3711.7247100795 33 18 11
-239.024982343416 426.644820339512 3698.60021172633 18 9 0
-222.76898593719 426.903893318389 3705.68262804451 21 23 12
-242.795341650227 421.074633670314 3648.96999157191 23 24 18
-192.84503452061 425.33705905427 3700.93036839075 21 22 16
-215.610169495489 420.935918171208 3655.84573323384 23 22 17
-211.330269220397 419.756160918242 3646.85047568136 28 27 22
-199.776006819756 419.426901123685 3647.42483275976 29 30 22
-188.7977985241 419.022524330025 3647.1757025249 27 28 20
-188.187834249282 417.421042571127 3633.4238469452 23 26 19
-180.254126440719 416.663475113198 3629.19916352676 25 28 21
-180.932149688433 414.929826630056 3613.91767221564 25 28 21
-183.512256623692 412.994444033735 3596.3163098319 23 26 19
-184.91395315174 411.205124474168 3580.33915204284 23 26 19
-173.308503372714 410.867339299832 3580.86919842515 26 29 22
-161.66954893939 410.524854598265 3581.37055108517 26 29 22
-149.371369174814 410.245829729534 3582.62306359298 27 30 23
-138.291703429234 409.825655802387 3582.28641441808 28 31 24
-137.265314449043 408.318258384311 3569.49627978125 29 32 25
-134.378981683954 407.017753345037 3559.06282247251 30 33 26
-136.591030049233 405.183178231682 3542.46505813356 25 31 21
-82.2281284578614 409.306735455086 3594.57187872182 27 33 23
-99.0544562089246 405.930967703505 3560.21329843636 30 36 26
-78.8874686841998 406.421291957591 3570.52135504536 32 35 26
-70.1987335977474 405.711130769265 3566.96521602433 36 37 29
-48.6064567210893 406.314135755656 3578.68371469082 33 34 26
-7.52108460901235 408.86850679263 3613.19486792354 16 17 9
-9.67815032128216 407.024693328815 3596.54919249479 14 15 7
-14.4954388817369 404.928640251581 3576.91781885974 14 20 10
-10.2478018632439 403.747329152224 3567.95053510041 16 22 12
12.9737316136365 404.434767773132 3580.90287312068 33 36 27
5.03224733437868 400.470384942701 3544.1409683907 24 25 17
71.3580757059384 405.268593024814 3605.7252092275 27 28 20
216.553919782354 412.409697164419 3711.41985242788 115 115 107
-278.697108272732 425.024818114716 3751.52288118262 152 145 127
-269.03808741359 424.481928623866 3749.77151393816 131 114 98
-266.932165549976 423.009144304967 3737.3690614391 132 111 94
-260.765395600713 422.037541749888 3730.70681988595 140 112 98
-255.188421138951 420.99544972915 3723.233286696 138 110 98
-246.674795044158 420.306460314939 3719.82878373863 144 119 112
-241.693260257168 419.194325058405 3711.54821701461 28 13 6
-236.130343218795 418.15343025589 3704.08654462795 17 8 0
-238.904589710772 416.138231582874 3685.33039080151 23 25 14
-217.862305873807 416.906452026023 3698.84777847659 22 23 15
-217.089757208911 415.311805172496 3684.95496087163 23 24 18
-193.513913654566 416.337689734409 3701.56842611608 21 22 16
-208.427317436189 412.960625970892 3666.87543065019 19 18 13
-203.51448978432 411.856111709894 3658.65436548559 21 20 15
-197.398677421964 410.888968496892 3652.03657732085 24 25 17
-194.942584657323 409.515702649265 3640.65323510505 24 25 17
-177.229045569685 409.832209509878 3649.1184963617 19 22 15
-177.231830451436 408.19045070115 3634.5747326252 22 25 18
-181.588194512791 406.086109753567 3614.54359735181 23 26 19
-192.193904842993 403.325172835917 3586.70001013134 21 24 17
-184.32480036607 402.569755816774 3582.53099129484 21 24 17
-170.229725202217 402.473722954573 3586.19529782066 23 26 19
-155.461085374212 402.436561116188 3590.59868102745 23 26 19
-154.406765194559 400.950464524131 3577.78419938618 24 27 20
-148.365891963914 399.991003058831 3571.23131388264 25 28 21
-136.029329558502 399.681484516477 3572.45107188859 26 29 22
-123.02342869237 399.4313911756 3574.41356598686 27 30 23
-137.240504878136 396.405544275485 3543.08486059954 24 30 20
-130.601273627841 395.514303506235 3537.33617549292 24 27 18
-95.2440303452824 397.496699552352 3566.22877677426 30 33 24
-79.5482800225478 397.482683579332 3571.15202638983 23 24 16
-66.3639495978741 397.207408051362 3572.96003235733 30 30 22
-51.2051911319111 397.115432671943 3577.02564091107 22 22 14
-10.7829762324378 399.463566300632 3610.78933637546 16 17 9
-12.9451133323926 397.65884504112 3594.14811869509 15 16 8
-17.7668249972389 395.612793721695 3574.52025471097 16 19 10
-10.2635950377152 394.753071179738 3569.3457675002 18 21 12
7.71810656740834 394.878927613164 3576.25657721138 27 33 23
-4.43835996699571 392.171915287448 3548.43316031673 25 26 18
1.73110618843308 391.191438047538 3541.76895488579 26 27 19
8.55720982221131 390.272066526509 3535.85848305534 26 27 19
185.783076005568 403.257682627169 3707.71214540828 29 30 22
-281.098458433001 415.870610135223 3749.69375456149 108 101 82
-269.125030370257 415.589866464609 3751.22775218021 118 101 83
-262.355761293389 414.686727633342 3745.36643571488 109 88 71
-260.261572561493 413.236872853235 3732.97400415885 144 116 102
-257.612853383937 411.859119936502 3721.42373478342 127 99 87
-251.460445635976 410.891367918271 3714.7739165148 145 120 113
-240.585686558516 410.463710756693 3714.614915806 20 5 0
-240.94333498069 408.755007488883 3699.05558247222 17 8 0
-222.911253334024 409.127405516813 3708.56796565187 22 24 13
-223.899039164908 407.35612374171 3692.23193969844 16 19 10
-217.15391962359 406.454575323624 3686.3915441977 17 20 13
-204.99965120848 406.147651081239 3687.76897063356 20 21 15
-201.249530736936 404.913868064908 3677.90998149572 24 23 18
-215.671111479825 401.715863818472 3644.11280588575 23 22 17
-222.343329979163 399.385473711831 3620.79732621197 24 25 17
-212.048854462336 398.886982602016 3619.81784523118 24 27 18
-194.394198459378 399.16170606782 3628.33472884414 21 24 17
-171.758706196572 399.941834127473 3643.11798560472 25 28 21
-185.320741999347 396.920760202217 3611.22150224332 25 28 21
-189.13961616063 394.940049652429 3592.04728041057 24 27 20
-180.019462598142 394.304586581377 3589.43999231564 24 27 20
-164.667254914526 394.300148509296 3594.66062510715 23 26 19
-165.469759233114 392.647701600836 3579.48649982635 24 27 20
-150.680513064212 392.571638342302 3583.87227485898 26 29 22
-154.667821136971 390.612368403842 3564.84390181589 26 29 22
-139.202809240745 390.591870468493 3569.96686720995 26 29 22
-131.89305280446 389.757761377248 3564.96021999313 26 29 22
-135.35454460503 387.873981193922 3546.7988747833 23 29 19
-117.260517712961 388.087026445203 3554.93502401719 24 27 18
-99.0919600633826 388.289877065023 3563.00695633887 28 31 22
-79.5690929629047 388.604232791405 3572.5508591677 14 15 7
-67.6687764078636 388.180146021163 3572.82589315287 29 29 21
-48.0054935978131 388.475142605457 3582.24821808676 17 17 9
-20.5051639170275 389.479260967363 3600.75369018817 18 18 10
-11.6726442238937 388.732339155892 3597.07316609001 18 18 10
-19.736077307285 386.436963035488 3573.63969882641 18 19 11
-18.108303064174 385.042120825553 3561.65116899005 20 23 14
-11.2779383654606 384.122939009159 3555.73700271216 27 30 21
-11.6691239656945 382.558302305048 3541.52906457326 25 26 18
-22.6423764616692 380.065507568809 3515.32556266309 25 26 18
45.5470882245668 384.559184652007 3579.26627890309 22 23 15
33.9358597722459 382.004807151358 3552.29287187182 26 27 19
-275.982546855039 407.595257189466 3758.54678986029 139 132 113
-270.372464255475 406.559448788345 3751.04420442639 122 105 87
-260.111573499524 406.051279820046 3750.09421079065 126 105 88
-258.005523016012 404.621349453398 3737.69105360459 128 100 86
-255.931315907323 403.195535048896 3725.31578505738 135 107 95
-252.123994957031 401.968893302982 3715.40685642012 143 118 111
-244.2029503239 401.197999784926 3711.1932349842 20 5 0
-229.755222695411 401.135051836056 3715.87493142401 20 11 2
-233.090560699238 399.138374316664 3696.28171488945 20 22 11
-220.385899225425 398.87694300065 3698.50537746732 11 14 5
-195.665645776045 399.882943625743 3716.77359211302 14 17 10
-215.877092809326 396.118208880034 3674.7648188995 17 20 13
-221.202851924335 393.955730854483 3652.92774814913 24 23 18
-213.908083733701 393.123505509043 3647.93407957684 25 24 19
-221.781516809556 390.726388998293 3623.01301537256 23 26 17
-220.618440962141 389.276474504344 3610.10403682397 23 26 17
-203.604978244262 389.443516932846 3617.85410260824 22 25 18
-201.235040518899 388.11923765724 3606.54511662758 23 26 19
-199.508573628757 386.737102704197 3594.47064847039 23 26 19
-196.580048650388 385.481459504719 3584.00033094798 22 25 18
-188.721607573188 384.716077451275 3579.84093454983 22 25 18
-174.641353098665 384.555656692367 3583.51850393498 24 27 20
-173.602027543399 383.120865768349 3570.71668621164 24 27 20
-163.21788027951 382.591950542473 3569.65999616634 26 29 22
-147.788848446948 382.537851174435 3574.81436451298 27 30 23
-135.449420043112 382.178166283513 3576.03196353427 27 30 23
-126.230650396685 381.516966111697 3573.33936811173 26 29 22
-115.09410256143 381.03022651245 3572.95353301948 24 27 18
-102.021258842629 380.715423736756 3574.85842465985 29 30 22
-86.3559171056059 380.628512034947 3579.80818734298 29 30 22
-77.0309835063614 379.952146253683 3577.02367408004 23 23 15
-63.1959856145143 379.678437370738 3579.59128939882 62 59 52
-56.3990222987578 378.764831720152 3573.70603716644 37 34 27
-14.7176342720368 380.946003493959 3609.02628119502 23 20 13
-12.345593252642 379.61766813575 3597.71549849734 21 21 13
-14.5530854375 377.895664299214 3581.11305568837 21 21 13
-31.8182858432703 374.881986530705 3547.13283126857 23 24 16
-33.5340460325573 373.237562382674 3531.42694481771 26 29 20
32.9829797542902 374.382150397875 3566.40171749938 27 28 20
45.1894211974184 373.892478626006 3566.41184703296 28 29 23
-263.35710165004 400.092745755644 3778.0896877939 135 128 109
-260.599365222548 398.738571359585 3766.44446094713 110 93 75
-256.705153593973 397.514248504152 3756.46052152212 118 97 78
-256.335210337071 395.915162314507 3741.59342439066 124 97 80
-252.492694800936 394.697345078423 3731.65393415774 123 95 83
-248.081547495799 393.544273271275 3722.54474716435 122 97 90
-237.783341249259 393.013517349616 3721.56255721564 15 0 0
-238.121524800872 391.367408759259 3705.98594736383 26 17 8
-224.243119732621 391.203359929582 3709.83849039478 23 25 14
-216.875365415774 390.359037503995 3704.78132499999 10 13 4
-219.078617893614 388.538840704942 3686.85226739245 17 20 13
-229.750147090058 385.877315295456 3657.74182268804 17 20 13
-215.833904415439 385.707400044207 3661.56129300721 23 22 17
-206.704841394709 385.049702105139 3658.94642684707 25 26 20
-202.412251619322 383.910800034532 3649.93990610597 25 28 19
-212.74580317276 381.344296848203 3621.85916915562 24 27 18
-206.090950658535 380.453003441113 3616.09694487915 25 28 21
-193.91971264111 380.092546285304 3617.46001004533 24 27 20
-197.699072470294 378.199667220785 3598.25097057041 22 25 18
-207.717766812711 375.731299921126 3571.21996050697 19 22 15
-194.94221715208 375.430423814645 3573.38243734851 21 24 17
-179.019422578241 375.413319511672 3579.43218043519 20 23 16
-165.52720107812 375.157125056524 3582.29646336685 21 24 17
-157.616175426155 374.378373310902 3578.09157666356 24 27 20
-138.405521308634 374.625737484375 3587.90651981401 24 27 20
-117.224145609525 375.032227858185 3599.98243472034 23 26 19
-119.940864536709 373.277602163041 3582.49799203839 22 25 18
-110.683291332309 372.59979788481 3579.7718717724 23 24 16
-99.5022569193407 372.087521601108 3579.3479595554 28 28 20
-80.0038272971055 372.295172433736 3588.91373467538 25 25 17
-70.6569014788712 371.604765985341 3586.11025094962 30 27 20
-61.9349032443144 370.856738657869 3582.52552693602 69 66 59
-50.6253940340269 370.326299875864 3581.9900631748 33 30 23
-4.41350468536994 372.739792557139 3622.64551054579 23 20 13
-0.709111985606192 371.534355595553 3612.82597162828 23 20 13
-36.6704710930912 367.035023244293 3556.68260215312 19 19 11
-33.7846871545948 365.797786999017 3546.24921054876 23 24 16
-19.1507477173802 365.526389857075 3549.44760040451 26 27 19
-22.8381687958246 363.75828387644 3531.48132664903 26 27 19
-27.2495611704593 361.945895383162 3512.81957091849 27 28 22
63.0585888596888 366.205291946582 3588.02795431582 30 31 25
-258.251324005454 391.671961583618 3786.95244893499 155 148 129
-257.790726126542 390.090872147404 3772.00634605183 108 91 73
-257.955994231452 388.455125054743 3756.28011253707 121 100 83
-256.4180646896 387.006095811076 3743.04622908111 121 93 79
-249.642544692394 386.100543146914 3737.17951036014 121 93 81
-239.926198692818 385.492645244285 3735.37856309922 115 90 83
-222.517445254395 385.652880338347 3744.10932119122 12 0 0
-199.112882840476 386.393365666115 3760.87277583802 27 18 9
-223.720415347725 382.357861391096 3712.08928451106 14 16 5
-224.403315962618 377.60964036119 3666.3946619593 19 22 15
-217.697500817751 376.711992772079 3660.58830771428 23 24 18
-204.946473967797 376.387994416305 3662.77218919004 25 26 20
-195.7927294022 375.71550437441 3660.136026501 26 29 20
-206.704519403957 373.164733995702 3631.23279126442 22 25 16
-212.239316276198 371.138771428508 3609.57601642844 23 26 19
-189.060005498487 371.769263153037 3625.21215665411 22 25 18
-187.899497117129 370.36803753573 3612.3050879155 22 25 18
-196.644004497603 368.079688082534 3586.81536494894 23 26 19
-198.064783963265 366.470441063945 3570.85358015329 22 25 18
-160.572655977016 366.841985198539 3589.96635773949 21 24 17
-150.768447438116 366.219005890149 3588.08935458544 22 25 18
-135.299343117239 366.082263963308 3593.20984170475 20 23 16
-107.818753463047 366.965136564802 3613.05646974441 22 25 18
-119.967359080301 364.439606085506 3583.90148711848 20 23 16
-121.473528746503 362.840473566024 3568.01396304959 21 22 14
-100.161836187473 363.16547051154 3579.97745572868 25 25 17
-81.3047584664988 363.265559243493 3588.77623421477 25 25 17
-71.9603983152748 362.564411629297 3585.97535936069 29 26 19
-57.4676504073448 362.280192238454 3589.29589256559 31 28 21
-33.2720401825006 362.771332104509 3604.05207253348 26 23 16
-8.31937403132033 363.299162127307 3619.47542354977 20 17 10
-8.51011506726174 361.799074489521 3605.09365013539 21 18 11
-17.8422194747179 359.586391964238 3580.11241279662 21 21 13
-7.07190549827752 358.969614238311 3578.72158753213 24 24 16
-7.39218874995284 357.486291301793 3564.45166886395 26 27 19
13.2311804093583 357.624421559394 3574.36644533167 25 26 20
25.6964567284328 355.668138681509 3560.92818179156 27 28 22
72.9715183127419 357.769116454389 3600.66448018787 28 29 23
64.710517882443 355.688344691676 3577.40086100372 24 25 20
-250.83922484188 383.429171403024 3799.10844391155 159 152 133
-250.927079823547 381.815734507198 3783.31465357681 114 97 81
-258.042949056173 379.516233507502 3757.73666452119 124 102 88
-256.501070313684 378.090986204729 3744.49920404352 94 66 54
-250.309115312991 377.127572168651 3737.81539615206 125 97 86
-240.005759968896 376.562571582545 3736.8289652017 130 107 99
-214.340615003407 377.46553184345 3756.92539785497 20 7 0
-192.094507813282 378.012681484923 3772.04765836029 16 9 0
-220.822325559273 373.725064496255 3717.57354291797 22 25 14
-250.988049195608 369.358632484069 3661.69938566201 8 14 4
-262.269196235088 366.801969412646 3631.79306275911 13 18 11
-207.419431200795 367.32116986667 3661.00424523308 26 27 21
-196.453626682841 366.8015207867 3660.76661276549 26 29 20
-206.14265595907 364.437589102626 3633.44919339412 21 24 15
-202.512972166575 363.272897740225 3623.69382782658 21 24 17
-217.277417783707 360.50361274309 3590.19136292868 21 24 17
-186.710044764243 361.697152023789 3615.30043249013 22 25 18
-183.11144388895 360.536144837612 3605.57229924348 24 27 20
-199.948371492904 357.637075904796 3569.89655633921 23 26 19
-175.974549446943 358.221586168499 3586.16793943626 16 19 12
-163.094840043209 357.85095862924 3588.24058927549 22 25 18
-150.798285896611 357.42265408253 3589.49579361371 22 25 18
-127.807375611494 357.866984746464 3603.97317277449 21 24 17
-116.658875812632 357.320830430979 3603.57736349462 21 24 17
-113.684112743475 356.10643504056 3593.06670247009 20 23 16
-102.50402929818 355.555667990652 3592.64354839922 19 20 12
-95.1054844744461 354.697587230415 3587.55978491971 23 23 15
-88.3396552858828 353.788473890646 3581.70148864419 24 24 16
-97.5541367004293 351.629650656734 3556.61826973284 27 24 17
-61.9815350775741 352.963626424236 3585.32841397923 30 27 20
-29.4400904427876 354.025377227587 3610.05091509206 24 21 14
-23.8405541256621 353.000458350642 3602.5577154487 20 17 10
-22.134041386046 351.683187470977 3590.5001219502 20 17 10
-12.0164137215308 351.001897380376 3588.35216054243 21 21 13
-8.39403848823572 349.834447386955 3578.60314744184 22 23 15
39.0016351940332 351.888326106 3619.55847307263 26 27 19
9.28046966235163 348.271447615586 3571.23434046069 25 26 20
28.0026886795746 348.199476464167 3578.82817542584 26 27 21
72.5316188784135 349.958487117765 3615.65318604384 25 26 20
53.4088305622507 345.729675687843 3566.08722054396 8 9 4
-243.432465882763 375.109652604277 3811.26956463862 116 109 91
-251.021005994741 372.806269966416 3784.7780207051 114 97 81
-257.548512487686 370.626325724058 3760.01256265588 127 105 91
-260.085075725512 368.841643893236 3741.04890645476 85 57 45
-255.074273950298 367.773071912876 3732.74269068894 118 90 79
-245.961683257688 367.084924420463 3730.14229900154 90 71 64
-243.318040985592 365.801651934693 3718.59581772701 15 2 0
-205.79112971292 367.684593057585 3754.8723068871 20 13 3
-228.02049572399 364.152470433039 3709.3176702513 20 23 12
-259.387928867481 359.851255245147 3651.83781795646 5 11 1
-200.352171032283 360.579943675288 3686.68294964919 21 22 16
-214.723460988632 357.854495610955 3652.83912303102 23 24 18
-200.108096634218 356.161601840591 3642.82926865277 17 23 13
-211.710025670237 353.729060154913 3613.20017472697 19 22 15
-218.536673128548 351.719639439963 3590.01614878032 21 24 17
-209.480596409792 351.037006753802 3587.46470404934 26 29 22
-202.873069360764 350.150739299764 3581.74346588635 26 29 22
-189.46202066794 349.814486696588 3584.67893849946 25 28 21
-182.21038319151 348.974453471835 3579.7223879499 20 23 16
-171.218756750691 348.430456583653 3579.46253246801 23 26 19
-144.582377848781 349.112183437076 3598.71891086883 23 26 19
-135.98751237756 348.35742760308 3595.24442099184 20 23 16
-120.463870778685 348.135826155613 3600.31787307096 20 23 16
-107.4053833938 347.712811127795 3602.23590908006 21 24 17
-97.4695290410481 347.043589314693 3600.24541893262 19 22 13
-76.084500625254 347.23200584177 3612.14623383314 23 24 16
-81.3571407989762 345.411001866336 3591.58417109876 23 24 16
-81.5954484202961 343.978374044537 3577.24318821241 22 22 14
-57.5176790518266 344.336895954056 3592.10236445392 25 22 15
-41.6894048261867 344.073101390042 3596.91205389798 19 16 9
-39.3524687627647 342.826387513773 3585.63116901824 16 16 8
1.59724899048674 342.912872742822 3605.71907458971 20 21 13
-5.15600119930593 341.02332617898 3583.79391667681 21 24 15
19.3693737450236 341.320535332727 3598.26553438492 24 27 18
26.3076311431765 340.386464126425 3592.25795010988 22 23 17
55.6028572279139 340.974195930416 3611.8572564335 29 30 24
67.6343229676854 338.953612931807 3597.4721479099 30 31 26
-237.185206620202 366.607808120125 3821.79032516121 55 48 32
-244.744173950445 364.368683424234 3795.27241752888 108 90 76
-251.823512343415 362.195301190619 3769.66194862869 111 89 76
-254.33416845719 360.450675140852 3750.67557822948 79 51 40
-254.568275160545 358.921439078094 3735.00800389539 101 72 64
-251.326216456781 357.707135224339 3724.2659830562 108 89 82
-243.98193076763 356.853988634197 3719.22921594541 10 0 0
-228.351500943748 356.712386771334 3725.53285330425 29 22 12
-218.000657363141 356.106803354382 3724.50552557011 20 23 12
-216.558606634197 354.742699116295 3711.35450892432 12 18 8
-246.829887575722 350.730254346853 3655.56954813283 13 18 11
-262.362056055088 347.996254100733 3620.08511481916 13 18 11
-214.857505811878 350.480560585205 3668.88348029668 22 23 17
-215.984233373693 348.93944837526 3652.66638863114 24 27 20
-212.316461101345 347.796920441955 3642.87818230231 20 26 16
-221.43585096628 345.634640764799 3616.38899013979 18 24 14
-212.361082823198 344.938561649942 3613.82143201269 21 24 17
-204.493320711891 344.143785303819 3609.65414721498 23 26 19
-206.443012985454 342.582045313466 3592.82690592982 27 30 23
-194.893445091683 342.0744701079 3593.40680290721 26 29 22
-183.92881325166 341.514967505769 3593.17044509355 24 27 20
-172.314599346759 340.998387153853 3593.69405389015 21 24 17
-152.57616869193 341.084890569673 3604.37617291167 22 25 18
-136.497544712662 340.880728905796 3610.29174967496 22 25 18
-129.753786322129 339.97514930661 3604.45256005468 20 23 16
-128.666483869695 338.656080023169 3591.60840915095 20 23 16
-103.653312800004 339.076171363247 3608.30327740098 22 25 18
-98.7652375158681 338.02831917692 3600.10329883155 21 27 17
-87.5419596279388 337.43280130825 3599.64331208391 25 28 19
-59.7337825295052 337.998319069414 3619.20806477792 24 27 18
-70.1190771689397 335.873243976994 3592.4922603143 20 21 13
-49.8526761907074 335.887334821503 3602.71723771413 22 22 14
-24.9991790174802 336.19745703319 3618.22763728739 15 15 7
-12.9300514329347 335.617800951371 3618.35768029131 16 16 8
1.11321728300329 335.163791076543 3620.74563264271 18 18 10
18.4475828091468 334.919249661874 3626.89665111695 20 21 13
6.54491920782441 332.73636111888 3598.84985776219 21 24 15
18.6926065069351 332.145384450727 3598.91156808254 23 26 17
38.7370331062162 332.057663947534 3608.00633752335 22 23 17
30.597488606682 330.150868756304 3584.63632074581 25 26 21
48.0801773035058 329.885461889812 3590.65860189241 19 20 15
78.1968605245034 330.399292324333 3610.86966154391 25 26 21
-238.442835412963 357.389036790253 3821.61651872374 34 27 11
-247.156633357863 355.118110314024 3793.45322862716 102 84 72
-250.169923014064 353.357131617131 3773.57935387958 104 82 71
-251.502839288709 351.753036835648 3756.21812063935 97 68 60
-249.38154611146 350.450325499796 3743.80092768024 95 66 58
-245.53052165182 349.297903116143 3733.85395421005 106 87 80
-235.806745683771 348.632352289999 3732.04694072076 26 13 5
-218.374384021935 348.589919705218 3740.75855000855 16 9 0
-208.581138780624 347.914803745463 3738.89138698539 5 8 0
-211.270195558497 346.236849362231 3720.05952633307 12 18 8
-212.646898000179 343.236047452864 3688.18816319023 12 17 10
-222.735912457524 341.020467735868 3659.89288764325 24 25 19
-219.05539196047 339.889809655082 3650.09355505289 26 29 22
-222.663192351596 338.206858487431 3630.73445850838 22 28 18
-217.224010310608 337.222436596639 3623.37966574568 23 29 19
-208.133511618994 336.512972938988 3620.79856011891 21 24 17
-190.459658497485 336.436775696335 3629.30107887412 21 24 17
-190.515270435436 335.041631219805 3614.80118866622 22 25 18
-176.447778362869 334.684009787767 3618.49109754916 24 27 20
-170.364939145814 333.740014060956 3611.90173839838 23 26 19
-160.565239060576 333.062179832064 3610.02899834442 21 24 17
-150.122221310327 332.425386408252 3608.92198218592 19 22 15
-135.284551989265 332.091302466795 3613.26745911247 20 23 16
-129.786996238453 331.097761430165 3605.86244636239 19 22 15
-116.293982444976 329.285016048649 3594.1793129421 25 28 21
-105.75237742457 328.634189925783 3592.98662307227 23 29 19
-89.4749939701152 328.361153298024 3598.73068967842 21 27 17
-71.2260127868309 328.2059009956 3606.73492103566 18 24 14
-28.7385961501871 328.238731032588 3629.46049352907 20 21 13
-9.60517242514847 328.091769910168 3638.02166940235 14 15 7
-32.3053290027371 325.270277317513 3596.84057710175 17 18 10
-40.9638021184451 323.369587944715 3572.59703397057 19 20 12
-15.3285201143833 323.624693276831 3588.75344991287 21 24 15
26.0498117361423 324.827190558665 3623.01944458557 21 24 15
25.1993105552364 323.408355448942 3607.88572161313 20 26 16
41.9867922155905 323.065096288089 3613.18780729988 27 28 22
43.7217025871717 321.809014721053 3601.10551955759 16 17 11
45.4236646242459 320.557220640586 3589.05176153811 28 29 24
-242.043319113296 346.495587700678 3802.31076479628 90 72 60
-242.709282511164 344.9649233811 3785.69424456527 93 71 60
-242.261884318011 343.534278727253 3770.75892295113 100 72 61
-241.273816472979 342.155684251981 3756.6779071012 94 65 57
-233.869010156755 341.288271382249 3751.58877703338 105 82 76
-224.692034064786 340.557220577907 3748.93285822058 53 38 31
-204.857720279992 340.641673431746 3760.85514604668 17 8 1
-205.985583604569 337.676094075496 3728.76819236644 15 21 11
-220.064192668044 335.1994474059 3694.66907645889 11 16 9
-212.710010572599 334.338066170479 3689.62378513774 10 15 8
-215.574550749308 332.726832762813 3670.94327438844 22 25 18
-225.745389503192 330.598746828231 3642.71866745137 25 28 21
-220.89331301176 329.573686047915 3634.54974264065 20 26 16
-215.445423670556 328.593301628783 3627.18737678496 22 28 18
-200.251156039585 328.301180561924 3632.54708160301 20 23 16
-190.50391426134 327.616936583874 3630.71985058465 20 23 16
-180.121678953559 326.972129613995 3629.66556868181 20 23 16
-172.793205302408 326.113147594069 3624.64254424644 23 26 19
-157.42799467059 325.79754125713 3629.85423880631 23 26 19
-151.303366987133 324.850298550244 3623.22836561729 20 23 16
-142.694403568696 324.068611704619 3619.74183105633 18 21 14
-134.69662706988 323.244041973485 3615.46205117753 20 23 16
-125.438143486163 322.499678871361 3612.7355731559 18 21 14
-119.303336580548 321.55052607718 3606.10120515941 19 22 15
-113.802594777682 320.56155672596 3598.69308580601 25 28 21
-113.367625291303 319.254132645716 3585.09099899848 21 27 17
-66.0349689721076 320.88567002253 3628.75020256959 18 24 14
-73.8021326315947 319.056709975544 3605.05692555923 16 22 12
-49.742462580757 319.194802699003 3619.93353302937 15 18 9
-9.55959622755298 320.288073698524 3653.91281202319 19 20 12
-32.3309869078958 316.227979180417 3598.24467091967 18 19 11
-52.6223848356664 313.70858809788 3560.26722229138 20 23 14
-33.5148276009272 313.512335765982 3568.85113698982 19 25 15
-8.47190445246104 313.642246481755 3584.19883754934 19 25 15
46.7166107499795 315.465403159017 3634.28139941246 21 24 17
19.6934195640024 312.601313889529 3588.90731636587 16 19 12
54.8665832571884 313.242563388215 3615.32163496281 37 38 33
67.1515255334967 312.5886516134 3615.26510479475 17 18 13
-241.562396196665 337.463226547743 3804.59929880015 91 74 64
-242.802150510956 335.922835572398 3787.15690593796 102 82 71
-242.933202890042 334.477567546853 3771.39946660181 103 75 63
-239.019409391593 333.343491284244 3761.39765455331 81 54 43
-230.430831132018 332.558111975311 3757.92881246952 37 16 11
-211.818553300087 332.501785795127 3768.26435777614 62 47 44
-197.259567186446 332.135158235686 3772.85159033917 26 15 11
-201.62104738786 330.402927238948 3751.49953276726 20 17 10
-218.555297272726 327.79537503776 3713.25973180219 12 13 5
-200.425947322454 327.681371184476 3722.6906454303 10 16 6
-203.187196379148 326.100056597504 3703.92041467982 11 19 8
-215.632343850157 323.865878098352 3672.37436133818 14 24 13
-220.366352722186 322.182992926297 3651.34455248046 16 24 13
-217.308943365528 321.040656813717 3640.76179200195 17 25 14
-208.809337311257 320.266054316918 3637.36999549256 19 25 15
-198.468496546355 319.610308400836 3636.35166261259 16 22 12
-186.879544336831 319.030955859877 3636.89757339394 15 21 11
-184.459886830074 317.851717333732 3625.54455362393 17 23 13
-175.297124935089 317.109637877918 3622.90102623251 20 26 16
-163.029103700868 316.560837237635 3624.18174188918 19 25 15
-142.047781968816 316.550842023116 3636.43374959659 21 24 15
-141.489263671356 315.254806166139 3622.72450479762 20 23 14
-129.11895768911 314.69187885301 3623.91665812778 19 22 13
-115.459520309118 314.199843153244 3626.637537303 19 22 13
-111.801142343596 313.09753632013 3616.85721272383 20 23 14
-112.573012169751 311.735476524952 3601.65465371157 21 24 15
-100.12085637924 311.16103979931 3602.77593945212 18 21 14
-93.97251336949 310.212227726001 3596.1295215069 20 23 16
-67.4705829093871 310.436414725858 3614.18213520248 16 19 12
-61.2640405484237 309.479540284828 3607.48532603195 13 16 9
-51.859726432478 308.703478126209 3604.63297236975 13 16 9
-23.1687371815474 308.999462885426 3624.75756749154 11 14 7
-43.9561079768791 306.540127714512 3585.8863463392 18 21 14
-33.8905572581392 305.796929667553 3583.78360754446 20 23 16
-14.7249473641167 305.540541239546 3592.31759559983 24 27 20
3.21779705932768 305.204082809915 3599.2651667125 23 26 19
2.95697400259609 303.89407237495 3584.9429041996 17 20 13
24.2557463052098 303.716986638737 3595.59758796554 23 26 19
29.2262923496542 302.680717363796 3587.32605396621 22 24 19
-246.287409113204 328.044698730757 3799.49221249801 104 90 79
-244.056206305281 326.792132252064 3786.97943197142 90 72 60
-239.526825424552 325.708153657126 3777.76731996247 84 60 48
-235.01296294501 324.626160147927 3768.56864544623 94 72 61
-228.168329498267 323.708365448659 3762.64210294298 41 22 16
-205.429201612147 323.877748893591 3778.66275349611 35 21 18
-167.219859959786 325.071990751492 3815.67547937694 24 15 10
-205.258150973549 321.112520145294 3748.09520786234 18 18 10
-228.737502820536 318.180910426824 3700.97356579797 17 18 10
-240.986214035774 314.696314133285 3654.70822518665 11 19 8
-224.705304644339 314.419756523432 3661.77220391178 15 23 12
-209.563757120539 314.057497163118 3667.1780576396 16 22 12
-208.281296153295 312.811728805343 3654.16428084436 16 22 12
-205.820846086822 311.646317459683 3642.77581509609 16 22 12
-197.90576996069 310.822225634668 3638.56739599324 17 23 13
-193.037999374592 309.810643908346 3630.3850967148 18 24 14
-183.888859930767 309.05926766645 3627.75343663487 18 24 14
-169.184238944103 308.635688210522 3632.21481126837 18 24 14
-148.251206476824 308.568829128829 3644.50904149658 18 24 14
-142.710479772764 307.58572606505 3637.06622777839 19 22 13
-150.230083431821 305.850520166601 3613.157774088 19 22 13
-144.124380374821 304.910676587148 3606.54857111928 20 23 14
-120.503666763201 304.959726109335 3621.80589940271 20 23 14
-111.209158570317 304.188009289637 3619.0483748102 20 23 14
-106.936047638758 303.135922936009 3610.05817451519 19 22 13
-88.7785510036938 302.844308603143 3618.14258244811 16 19 12
-90.1974089734727 301.482446844824 3602.1778446731 17 20 13
-73.8627835972729 301.077415357879 3607.87283746526 14 17 10
-54.9139257887403 300.798490579965 3616.59483838029 15 18 11
-52.5286551398039 299.641339802979 3605.27147980681 15 18 11
-57.8777004539881 298.09083083933 3584.7738873396 19 22 15
-49.1324093574073 297.272601600391 3581.16942947537 17 20 13
-24.8645155792939 297.23343889778 3595.8663950633 15 18 11
6.64626514383793 297.534005788434 3618.84062038167 15 18 11
-3.96083814230508 295.734564832164 3592.31495532765 16 19 12
48.6071428381623 297.025304355244 3639.37923498299 17 20 13
25.5423080082049 294.631531397216 3598.51145079804 22 25 18
-249.371052525506 317.395906459985 3781.06017000512 43 33 23
-240.781236643451 316.593233033454 3777.59036729576 60 43 33
-231.009638364623 315.864918959961 3775.74231119818 54 40 31
-226.494046978044 314.793172696287 3766.54207177366 77 64 58
-223.759369817719 313.6107653829 3754.91603368046 18 9 4
-212.195115995254 312.991171821134 3755.48361220447 28 21 15
-207.707766171571 311.922929460554 3746.30782805226 13 13 5
-219.290666644155 309.865107741589 3715.33655231975 19 20 12
-244.034094882747 305.727793183047 3652.1143747966 11 17 7
-215.147930564624 306.162345488048 3676.039320393 17 23 13
-212.031081877344 305.044500324911 3665.40488300815 19 22 13
-193.815787110333 304.813447372847 3674.76237916826 19 20 12
-195.551257985553 303.414388811708 3657.74841031734 18 21 12
-199.170550981467 301.918512730452 3638.39806257528 19 25 15
-194.915338382187 300.880574461934 3629.42328372826 20 26 16
-183.931678234928 300.221314032237 3629.17107982996 20 26 16
-165.536438907915 299.965593499605 3638.37277141842 15 21 11
-152.000494664572 299.429688802206 3641.20097080628 18 24 14
-161.332620154843 297.651280866432 3614.89367675848 18 21 12
-163.314986415748 296.28472324232 3598.09380591885 19 22 13
-148.522466742153 295.812932973854 3602.47930800817 20 23 14
-144.308941861667 294.779882733592 3593.54062973094 20 23 14
-121.913305102835 294.685748094274 3607.21386673745 17 20 11
-67.9350175999014 296.179047277992 3659.67109031857 17 20 11
-62.9158483928904 295.154038498581 3651.35733990822 16 19 12
-80.0881722028581 293.028922385712 3615.96759723067 15 18 11
-68.171796902877 292.359797104901 3616.23030038003 13 16 9
-61.9624738602855 291.407817907866 3609.53136488432 15 18 11
-47.4387434278922 290.854616888126 3612.82678742927 14 17 10
-59.8266227080004 289.019226462191 3583.87503527564 17 20 13
-28.5460561186826 289.246422526629 3607.04927090351 15 18 11
-19.0748223190487 288.438808795723 3604.13880448818 13 16 9
-19.9568122345615 287.156271076373 3589.03117521055 13 16 9
9.67011615465818 287.255418605862 3609.66941013434 14 17 10
8.13407211389139 285.94393048326 3593.805599804 14 17 10
92.2566549114929 288.399791010846 3677.03376087486 20 23 16
-237.960397939236 307.73304664257 3783.14305548373 71 61 51
-227.009053915597 307.059790648219 3782.91895182297 38 28 18
-219.545319860301 306.171858308987 3777.77887993224 59 50 43
-211.488187056043 305.317997954689 3773.44784361395 16 9 3
-267.765267744884 300.696170873661 3680.65583661939 18 18 10
-234.044732314056 298.786521322004 3681.87861971583 9 15 5
-238.700663773823 297.249049966428 3660.78019607329 12 18 8
-227.218230226087 296.617680830082 3661.41908298926 17 23 13
-211.483899239636 296.212001787604 3667.63437670252 20 23 14
-218.665443333862 294.558152722993 3643.43238744158 19 20 12
-214.412673920069 293.531442765207 3634.45965343151 19 20 12
-194.955443956617 293.308550964905 3645.3875040886 16 22 12
-185.18525081532 292.565170121165 3643.54076350727 18 24 14
-193.16848356345 290.904812952217 3618.7104079196 15 21 11
-170.500976120523 290.819668445898 3633.47152296059 14 20 10
-161.300818756566 290.038739656068 3630.7958353167 16 19 10
-152.083687965403 289.255450171432 3628.10545149072 18 21 12
-147.818736866674 288.226478368695 3619.12217383326 18 21 12
-152.294847989138 286.777676079852 3599.19057973515 19 22 13
-137.461228674298 286.264314356768 3603.54072867216 19 20 12
-135.120193021093 285.151956955855 3592.25541989729 16 17 9
-93.785754204788 285.860286260866 3629.2094977183 15 16 8
-66.1163035695074 285.899380132292 3648.89790086431 17 20 13
-46.5957050884622 284.299275727435 3643.8993596049 12 15 8
-67.7317974840737 282.127675725631 3604.00494708217 13 16 9
-49.3886391264828 281.711429655106 3611.92955845624 10 13 6
-18.7782748436502 281.810305786882 3634.3619376447 6 9 2
-16.3422753920921 280.684425862135 3622.99440795866 8 11 4
-41.0608280865508 278.424542241176 3579.58899475369 12 15 8
-15.4437746279932 278.283073130705 3595.76409535671 14 17 10
25.2421657053894 278.73573050381 3629.31180875423 15 18 11
10.7196799055167 276.927514849949 3598.23992257648 12 15 8
16.3380735264678 275.942890276231 3590.72980200913 13 16 9
-233.332422902266 295.04272817162 3744.80674997112 16 15 10
-201.14644932357 295.496897318348 3773.81138589892 10 11 5
-231.551638208618 292.58190038339 3716.81211557395 13 14 8
-208.466295721357 291.258666915711 3717.98554555092 13 16 9
-224.396142896572 289.176545092389 3681.51830959682 16 19 12
-229.674591042057 287.663430492815 3659.63602483741 20 23 16
-229.612610691135 286.43279663061 3645.0334626459 20 21 15
-230.199754037713 285.178166708999 3629.67009840561 19 18 13
-213.245678237835 284.789161730037 3637.47492465455 17 18 12
-183.440199169573 285.006920584915 3661.92773281168 14 20 10
-178.515047392382 284.011532290104 3653.69527874569 15 21 11
-161.347263330879 283.593570980971 3661.31506400037 15 21 11
-183.454661020261 281.340802611466 3618.29326004566 16 19 10
-136.652111532684 281.051835290093 3649.19081592099 16 19 10
-129.228141286521 280.164796483335 3644.08520296282 16 19 10
-136.128626307531 278.646557114064 3620.9623073313 18 19 11
-136.868739022588 277.411726830921 3605.73139883894 18 19 11
-102.003244244648 276.503367723906 3620.51213225873 16 17 9
-103.402188193246 275.245698733957 3604.52914360118 16 19 12
-58.6233112265075 275.89521272623 3645.1151195792 13 16 9
-57.4369949763924 274.734491530648 3632.18412375845 12 15 8
-9.83273731612133 273.001055615726 3646.51609353222 5 8 1
38.979611799935 272.43958778434 3675.67344963823 8 11 4
8.96523322843068 268.912794135763 3611.72247903877 16 19 12
28.9469964789872 268.448392376495 3620.87368644741 15 18 11
-203.431366400598 287.549419819131 3787.75359989952 14 15 9
-228.957563077412 285.018698026105 3737.10975954432 15 16 10
-204.98453496765 284.940502857373 3754.70938599421 11 14 7
-221.284346563551 282.903967445383 3717.23925522856 13 16 9
-216.082641795326 280.687577732389 3694.21819873268 15 18 11
-224.92731822808 279.05803281958 3667.48745042949 20 21 15
-230.867083935347 277.579972708078 3644.85454983276 20 19 14
-238.100991931163 276.059003901748 3620.69708518014 17 16 11
-213.292451427992 275.976473695212 3638.89583196978 14 15 9
-193.83537717495 275.637562178332 3649.82456939733 16 19 10
-146.210205781623 276.498998166629 3697.20532804467 18 21 12
-163.827580780304 273.337819243928 3645.00438755374 15 18 9
-149.669199354709 272.735184059356 3648.61679154981 15 18 9
-113.187834969783 273.034540955339 3680.51639644326 17 18 10
-119.340314757238 271.584491079889 3658.06768127872 16 17 9
-126.201352630672 270.121240935663 3634.91023905494 17 18 10
-116.906147031412 269.30479253996 3632.15239985698 19 20 12
-81.8900885863685 269.475583186395 3661.35277306169 20 21 13
-61.7840902362308 269.048707679724 3671.71931914499 19 20 12
-93.9675993857523 266.652752524166 3617.58128038265 18 21 14
-69.4269977620929 266.388503168563 3633.36691523053 12 14 9
-53.028013542495 265.809260285899 3639.00725479395 11 13 8
-70.9766303679316 263.993035266818 3602.96477516951 12 14 9
-73.1036201272759 262.760164723005 3586.28938841879 9 11 6
46.0014936945572 264.526051071667 3700.07582076471 6 8 3
38.0400543427633 259.519703429612 3632.90075512318 17 19 14
-232.107396689531 278.345818675773 3765.02692362668 17 18 12
-199.407413977419 278.599431627948 3794.91060984394 16 17 11
-233.161868732401 275.846308700621 3732.87302343053 14 17 10
-224.000920612577 275.037565683311 3730.23150008478 12 15 8
-233.230823210094 273.425453673233 3702.51126730764 11 14 7
-249.125559731586 271.546902521849 3666.0122805449 13 16 9
-216.145949363362 271.762696390405 3695.65416400296 14 17 10
-200.984234443041 271.203723806492 3701.04349711705 18 19 13
-223.692321121773 269.078633100936 3655.89466728945 19 18 13
-233.3112176044 267.518551911057 3628.51125233374 18 17 12
-215.157736618186 267.085578136952 3637.9236331715 16 17 11
-190.235234823615 266.904892987163 3656.02424166006 16 19 10
-160.916932022166 266.872873776586 3679.57734518213 17 20 11
-173.083327203632 265.232389530731 3649.10910093005 17 20 11
-160.187380822396 264.554971806571 3651.16966560529 14 17 8
-131.222482876014 264.464618443159 3673.7061949529 14 17 8
-152.206712066956 262.530050822587 3632.35536028419 17 18 10
-120.00848098603 262.53323169926 3658.70545735241 17 18 10
-120.639011759942 261.349353691891 3643.37955559361 18 19 11
-110.074603448176 260.562422967243 3642.16829876556 19 20 12
-65.0154340349007 260.949766693859 3683.83597943427 20 21 13
-53.0299900806561 260.183007469222 3684.03976648157 19 20 12
-54.8899085628567 258.952800617078 3667.13256668156 17 19 14
-52.3766997501109 257.874324175335 3655.69780969116 12 14 9
-60.0513291263742 256.474746314316 3631.92154748417 12 14 9
-36.6066068869468 256.069193183281 3646.01109878024 12 14 9
6.11764992258568 256.241651702233 3683.08730471823 9 11 6
63.958206373206 255.648544966164 3722.94702380673 8 10 5
60.1809795225852 254.358701887038 3703.73222791442 10 12 7
78.9896434137303 253.730682861795 3711.25442569134 14 16 11
-207.722675314259 269.10282033639 3784.97563062224 16 19 12
-198.456555345279 268.268602666542 3782.24311613086 16 19 12
-232.948068704511 265.700886483634 3719.51990259059 12 15 8
