ply
format ascii 1.0
comment KinectMotionCapture
element vertex 801
property float x
property float y
property float z
property uchar red
property uchar green
property uchar blue
end_header
73.4550505876541 241.825193166733 2780.99989891052 13 16 9
80.9257924556732 241.474106907845 2776.99995040894 11 14 7
87.6732692122459 239.209741353989 2750.99992752075 15 18 11
95.973826944828 241.205796599388 2773.9999294281 12 15 8
103.130400180817 240.24510383606 2763.00001144409 9 12 5
110.547006130219 239.979773759842 2759.99999046326 11 14 7
119.059093296528 241.974771022797 2782.99999237061 14 17 10
126.92254781723 242.491289973259 2789.00003433228 17 20 11
134.335905313492 242.138043045998 2785.00008583069 20 23 12
141.72688126564 241.784498095512 2780.99989891052 15 23 10
149.149209260941 241.517633199692 2778.00011634827 14 22 11
157.11872279644 242.119804024696 2785.00008583069 15 23 10
165.421530604362 243.156313896179 2796.99993133545 15 23 10
173.417940735817 243.670910596848 2802.99997329712 11 15 1
184.223935008049 247.923105955124 2851.99999809265 27 23 11
192.536249756813 248.610749840736 2859.99989509583 17 9 0
199.210360646248 247.211918234825 2844.00010108948 59 43 30
206.960812211037 247.203543782234 2844.00010108948 110 91 77
214.936956763268 247.455656528473 2846.99988365173 121 97 85
223.006889224052 247.79437482357 2851.0000705719 132 100 85
231.340602040291 248.39349091053 2858.00004005432 123 94 76
239.878937602043 249.166116118431 2867.00010299683 136 118 94
250.452429056168 251.937180757523 2898.9999294281 120 105 84
-177.069038152695 244.878605008125 2907.99999237061 108 96 84
-167.279437184334 242.190822958946 2875.99992752075 101 84 66
-158.606141805649 240.934237837791 2861.00006103516 114 96 76
-150.804683566093 240.940511226654 2861.00006103516 109 86 68
-143.152579665184 241.199135780334 2864.00008201599 43 20 4
-134.821966290474 240.278363227844 2852.9999256134 86 60 47
-126.55083835125 239.357262849808 2842.00000762939 97 81 68
-118.339233100414 238.435834646225 2831.00008964539 99 90 75
-110.343411564827 237.850874662399 2823.99988174438 23 20 5
-102.96692699194 238.613307476044 2832.99994468689 26 24 12
-94.3643003702164 236.427426338196 2806.99992179871 17 20 9
-86.6753906011581 236.346900463104 2805.99999427795 21 29 18
-79.0760815143585 236.518785357475 2808.00008773804 14 21 13
-71.4909806847572 236.774578690529 2811.00010871887 17 22 15
-63.3216127753258 234.924241900444 2789.00003433228 20 21 15
-55.9911653399467 236.105933785439 2802.99997329712 18 19 13
-48.4116226434708 236.445024609566 2806.99992179871 14 13 8
-40.6213402748108 235.688775777817 2798.00009727478 15 16 10
-32.7385291457176 233.921334147453 2776.99995040894 17 20 13
-25.0426847487688 232.827469706535 2763.99993896484 16 19 12
-17.5316538661718 233.249515295029 2769.00005340576 14 17 10
-10.0977374240756 236.114114522934 2802.99997329712 16 19 12
-2.43278848938644 234.598129987717 2785.00008583069 18 21 14
5.11722918599844 232.323691248894 2757.99989700317 20 23 16
12.4419303610921 228.616937994957 2713.99998664856 29 32 25
20.031051710248 230.722159147263 2739.00008201599 28 31 24
27.9875043779612 234.764471650124 2786.99994087219 10 13 6
34.9031798541546 230.214491486549 2733.00004005432 16 19 12
42.3609875142574 230.21288216114 2733.00004005432 17 20 13
50.0373616814613 231.221780180931 2744.99988555908 17 20 13
58.261051774025 234.167739748955 2779.99997138977 14 17 10
66.5097087621689 236.523672938347 2808.00008773804 13 16 9
73.8014951348305 235.341563820839 2793.99991035461 14 17 10
79.5886144042015 230.031877756119 2730.99994659424 12 15 8
88.3143246173859 233.397603034973 2770.99990844727 12 15 8
95.0782373547554 231.456622481346 2747.99990653992 11 14 7
102.313488721848 230.862990021706 2740.9999370575 15 18 11
110.31124740839 231.953546404839 2753.99994850159 17 20 13
118.251159787178 232.791140675545 2763.99993896484 17 20 13
125.972077250481 233.123034238815 2767.99988746643 19 20 12
134.052008390427 234.044179320335 2779.00004386902 21 24 13
141.987532377243 234.628081321716 2786.00001335144 17 23 13
149.584859609604 234.622180461884 2786.00001335144 16 22 12
158.197119832039 236.13178730011 2803.99990081787 17 23 13
166.611209511757 237.219989299774 2816.99991226196 18 21 10
174.909919500351 238.055199384689 2826.99990272522 27 27 17
182.939499616623 238.469034433365 2832.00001716614 25 17 6
191.870838403702 239.977151155472 2849.99990463257 32 20 8
199.07833635807 239.2957508564 2842.00000762939 110 88 77
207.187503576279 239.708632230759 2846.99988365173 120 93 82
215.247631072998 240.037009119987 2851.0000705719 131 103 91
223.641648888588 240.701839327812 2858.99996757507 64 32 17
231.916517019272 241.197928786278 2865.00000953674 107 78 60
240.557909011841 242.030471563339 2875 109 91 69
251.499205827713 245.051383972168 2911.00001335144 117 102 83
-177.624106407166 237.688213586807 2917.00005531311 90 80 70
-168.10043156147 235.494896769524 2890.00010490417 98 82 66
-159.111425280571 233.871579170227 2869.99988555908 105 88 68
-150.810718536377 233.144268393517 2861.00006103516 108 87 70
-143.008351325989 233.15005004406 2861.00006103516 40 17 3
-134.732857346535 232.340559363365 2851.0000705719 53 26 15
-126.644983887672 231.775268912315 2844.00010108948 99 83 70
-118.511185050011 231.046631932259 2835.00003814697 96 87 72
-110.152490437031 229.747176170349 2819.00000572205 16 12 0
-102.389521896839 229.588389396667 2816.99991226196 20 18 6
-94.6370586752892 229.429349303246 2815.00005722046 20 23 14
-87.1731415390968 230.003476142883 2822.00002670288 14 20 10
-71.9008073210716 230.41732609272 2826.99990272522 14 19 12
-63.6874586343765 228.626906871796 2805.0000667572 18 19 13
-55.6937903165817 227.243632078171 2788.00010681152 16 17 11
-48.3790971338749 228.631377220154 2805.0000667572 12 13 7
-40.9569144248962 229.93728518486 2821.00009918213 15 16 10
-32.5748063623905 225.211217999458 2763.00001144409 15 18 11
-24.835305288434 223.419144749641 2740.9999370575 15 18 11
-17.5007078796625 225.294709205627 2763.99993896484 14 17 10
-9.96845308691263 225.539818406105 2766.99995994568 15 18 11
-2.41803633980453 225.621566176414 2767.99988746643 16 19 12
5.09146088734269 223.665252327919 2743.99995803833 23 26 19
12.4882813543081 222.034692764282 2723.99997711182 32 35 28
20.1123133301735 224.15329515934 2750 29 32 25
28.1392801553011 228.390857577324 2802.00004577637 11 14 7
35.2111123502254 224.721655249596 2756.99996948242 20 23 16
42.4557104706764 223.252952098846 2739.00008201599 18 21 14
50.1123182475567 224.066197872162 2749.00007247925 18 21 14
57.9071268439293 225.205138325691 2763.00001144409 14 17 10
66.1570951342583 227.647855877876 2792.99998283386 13 16 9
80.3787037730217 224.789306521416 2757.99989700317 13 16 9
87.4573513865471 223.644927144051 2743.99995803833 10 13 6
95.0474739074707 223.885804414749 2746.99997901917 11 14 7
111.477337777615 226.811647415161 2782.99999237061 18 21 14
117.956414818764 224.688142538071 2756.99996948242 14 17 10
126.068159937859 225.742757320404 2769.99998092651 19 20 12
134.057387709618 226.471111178398 2779.00004386902 21 23 12
142.706751823425 228.176966309547 2799.99995231628 19 22 13
151.255324482918 229.556530714035 2816.99991226196 17 20 11
158.654794096947 229.143023490906 2812.00003623962 19 22 13
168.983742594719 232.803493738174 2857.00011253357 19 20 12
176.15433037281 231.981873512268 2846.99988365173 24 21 12
182.042360305786 229.611963033676 2818.00007820129 29 19 10
191.205158829689 231.397196650505 2839.99991416931 25 8 0
199.226275086403 231.715530157089 2844.00010108948 116 92 82
207.705080509186 232.522398233414 2854.00009155273 113 85 74
216.237589716911 233.32890868187 2864.00008201599 134 104 93
224.432662129402 233.727753162384 2868.99995803833 79 47 32
232.249364256859 233.718991279602 2868.99995803833 103 74 56
241.152986884117 234.768941998482 2881.99996948242 110 92 70
-177.265554666519 229.266479611397 2911.00001335144 94 90 79
-168.863102793694 228.642970323563 2903.00011634827 114 102 86
-159.94918346405 227.231487631798 2884.99999046326 103 87 71
-151.290968060493 226.055964827538 2869.99988555908 121 99 85
-143.163874745369 225.588992238045 2864.00008201599 109 86 72
-135.116189718246 225.200459361076 2858.99996757507 24 0 0
-127.22884118557 225.047960877419 2857.00011253357 102 88 77
-119.226478040218 224.658787250519 2851.99999809265 51 43 30
-110.313102602959 222.378805279732 2822.99995422363 15 11 0
-101.70291364193 220.413535833359 2798.00009727478 24 21 12
-94.3045616149902 220.968723297119 2805.0000667572 21 24 15
-86.1262455582619 219.632983207703 2788.00010681152 20 26 16
-79.2231932282448 221.605628728867 2812.99996376038 14 21 13
-71.7764496803284 222.317546606064 2822.00002670288 13 18 11
-63.8943091034889 221.689939498901 2813.99989128113 10 13 6
-55.5960983037949 219.250038266182 2782.99999237061 11 12 6
-48.4844893217087 221.457943320274 2811.00010871887 12 13 5
-41.1037169396877 223.035350441933 2831.00008964539 10 13 6
-32.6586179435253 218.230962753296 2769.99998092651 9 12 5
-25.0356271862984 217.680588364601 2763.00001144409 11 14 7
-17.4254160374403 216.814815998077 2752.00009346008 16 19 12
-9.96164139360189 217.839553952217 2765.00010490417 16 19 12
-2.41813180036843 218.076109886169 2767.99988746643 14 17 10
5.10836159810424 216.894313693047 2753.00002098084 17 20 13
12.4612646177411 214.136496186256 2717.99993515015 22 25 18
20.354462787509 219.256862998009 2782.99999237061 28 31 24
27.7989264577627 218.074157834053 2767.99988746643 15 18 11
35.2508127689362 217.442661523819 2759.99999046326 19 22 15
42.6123924553394 216.574549674988 2749.00007247925 20 23 16
50.3877364099026 217.7544683218 2763.99993896484 21 24 17
58.0141916871071 218.067497014999 2767.99988746643 15 18 11
65.3306245803833 217.27728843689 2757.99989700317 14 17 10
73.1469765305519 218.141213059425 2769.00005340576 15 18 11
81.2562182545662 219.63506937027 2788.00010681152 14 17 10
88.002622127533 217.504754662514 2760.99991798401 12 15 8
95.8124399185181 218.131452798843 2769.00005340576 13 16 9
104.524075984955 220.569610595703 2799.99995231628 14 17 10
112.082563340664 220.407918095589 2798.00009727478 14 17 10
119.715236127377 220.403462648392 2798.00009727478 14 17 10
126.892328262329 219.611048698425 2788.00010681152 17 17 9
134.882688522339 220.23618221283 2796.0000038147 20 20 12
143.221974372864 221.333622932434 2809.99994277954 17 18 10
151.31488442421 221.958130598068 2818.00007820129 16 19 10
160.748571157455 224.393859505653 2848.99997711182 17 20 11
168.753653764725 224.702626466751 2852.9999256134 19 19 11
176.161110401154 224.223539233208 2846.99988365173 20 16 7
182.759970426559 222.799137234688 2828.9999961853 28 15 7
190.943166613579 223.343342542648 2835.99996566772 41 22 15
199.023738503456 223.72978925705 2841.00008010864 106 79 70
207.713022828102 224.745899438858 2854.00009155273 106 76 66
216.623336076736 225.919127464294 2868.99995803833 114 82 71
224.754065275192 226.225838065147 2872.99990653992 95 66 50
232.662931084633 226.296067237854 2874.00007247925 91 64 45
241.580471396446 227.310866117477 2887.00008392334 123 105 85
-169.916480779648 222.099483013153 2921.0000038147 98 90 79
-160.509631037712 220.128610730171 2894.99998092651 93 80 63
-151.718392968178 218.841701745987 2878.00002098084 107 88 73
-143.16925406456 217.782571911812 2864.00008201599 108 85 71
-135.026752948761 217.255443334579 2857.00011253357 64 37 28
-127.634435892105 217.944711446762 2865.9999370575 18 6 0
-119.565434753895 217.493012547493 2859.99989509583 13 5 0
-110.708057880402 215.444028377533 2832.99994468689 23 19 8
-102.070271968842 213.546767830849 2808.00008773804 21 18 9
-93.635693192482 211.801245808601 2785.00008583069 20 23 14
-85.9132558107376 211.500376462936 2780.99989891052 16 21 14
-78.1841278076172 211.123198270798 2776.00002288818 17 22 15
-70.9652528166771 212.190732359886 2789.99996185303 16 21 14
-63.1701275706291 211.584821343422 2782.00006484985 15 18 11
-55.718082934618 212.119430303574 2789.00003433228 13 16 9
-48.2793487608433 212.881922721863 2799.00002479553 13 14 6
-41.0617291927338 215.089276432991 2828.00006866455 13 16 9
-25.471530854702 213.79879117012 2811.00010871887 11 14 7
-17.5717212259769 211.061522364616 2775.00009536743 14 17 10
-9.93319787085056 209.69295501709 2756.99996948242 17 20 13
-2.41298275068402 210.073500871658 2762.00008392334 18 21 14
5.12154633179307 209.921330213547 2759.99999046326 10 13 6
12.590117752552 208.856180310249 2746.00005149841 9 12 5
20.1504472643137 209.540113806725 2755.00011444092 20 23 16
27.7698617428541 210.299775004387 2765.00010490417 19 22 15
35.3160202503204 210.29856801033 2765.00010490417 17 20 13
42.5830148160458 208.928093314171 2746.99997901917 18 21 14
50.553735345602 210.903808474541 2773.00000190735 19 22 15
57.9116083681583 210.141211748123 2763.00001144409 18 21 14
65.3094351291656 209.682583808899 2756.99996948242 18 21 14
72.5949853658676 208.995506167412 2747.99990653992 13 16 9
80.6763768196106 210.513710975647 2767.99988746643 8 11 4
88.1972163915634 210.434511303902 2766.99995994568 9 12 5
96.8541651964188 212.864682078362 2799.00002479553 10 13 6
105.573326349258 215.066343545914 2828.00006866455 11 14 7
112.727753818035 213.997602462769 2813.99989128113 11 14 7
119.719758629799 212.7765417099 2798.00009727478 11 14 7
127.488806843758 213.00008893013 2801.00011825562 17 17 9
135.514929890633 213.603585958481 2809.00001525879 20 20 12
143.125414848328 213.522374629974 2808.00008773804 17 18 10
151.6964584589 214.809611439705 2825.00004768372 15 16 10
160.811007022858 216.704800724983 2849.99990463257 15 16 10
168.405026197433 216.470614075661 2846.99988365173 19 19 11
175.858289003372 216.084167361259 2842.00000762939 20 17 8
183.929637074471 216.457694768906 2846.99988365173 21 8 0
191.354259848595 216.070726513863 2842.00000762939 95 78 70
199.661582708359 216.671794652939 2849.99990463257 93 66 59
208.230137825012 217.500671744347 2861.00006103516 99 69 61
217.084363102913 218.557253479958 2875 46 16 6
224.840581417084 218.473255634308 2874.00007247925 99 72 55
232.914328575134 218.693047761917 2877.00009346008 114 88 71
242.509767413139 220.28075158596 2898.00000190735 105 88 70
-170.038968324661 214.284032583237 2923.00009727478 106 102 91
-160.903558135033 212.750405073166 2901.99995040894 91 82 67
-151.776611804962 211.069762706757 2878.99994850159 101 83 69
-143.174439668655 209.975317120552 2864.00008201599 100 78 65
-134.937137365341 209.320485591888 2855.00001907349 92 68 58
-126.792907714844 208.738595247269 2846.99988365173 20 7 0
-118.984498083591 208.669692277908 2845.99995613098 17 10 0
-111.68909817934 209.553718566895 2858.00004005432 23 19 10
-102.801024913788 207.357883453369 2828.00006866455 17 14 7
-94.4124609231949 205.894961953163 2808.00008773804 21 22 16
-86.3489359617233 204.945012927055 2795.00007629395 18 21 14
-78.8911432027817 205.387949943542 2801.00011825562 20 23 16
-70.5100074410439 203.264161944389 2772.0000743866 19 22 15
-63.0362033843994 203.55986058712 2776.00002288818 17 20 11
-55.8400116860867 204.955294728279 2795.00007629395 15 18 9
-48.4708771109581 206.057101488113 2809.99994277954 14 17 8
-40.8018790185452 206.058740615845 2809.99994277954 13 16 9
-33.2270413637161 206.646740436554 2818.00007820129 12 15 8
-25.1553095877171 203.567862510681 2776.00002288818 10 13 6
-17.6293607801199 204.155296087265 2783.99991989136 12 15 8
-9.95158031582832 202.54248380661 2762.00008392334 15 18 11
-2.41481908597052 202.68939435482 2763.99993896484 15 18 11
12.6547729596496 202.395677566528 2759.99999046326 16 19 12
20.2974788844585 203.49508523941 2775.00009536743 21 24 17
27.6403203606606 201.807588338852 2752.00009346008 15 18 11
35.1129584014416 201.586455106735 2749.00007247925 15 18 11
42.8171157836914 202.538326382637 2762.00008392334 17 20 13
50.4462048411369 202.903255820274 2766.99995994568 18 21 14
57.7670224010944 202.094689011574 2756.00004196167 16 19 12
65.1460066437721 201.652526855469 2750 15 18 11
72.5976601243019 201.503366231918 2747.99990653992 11 14 7
82.1949914097786 206.780090928078 2819.9999332428 6 9 2
89.2523527145386 205.310478806496 2799.99995231628 9 12 5
96.3732451200485 204.207271337509 2785.00008583069 10 13 6
104.905195534229 206.0367166996 2809.99994277954 11 14 7
120.152033865452 205.881997942925 2808.00008773804 12 15 8
126.94725394249 204.484492540359 2789.00003433228 16 16 8
134.554952383041 204.479828476906 2789.00003433228 20 20 12
143.232569098473 206.014484167099 2809.99994277954 17 18 10
151.755645871162 207.182228565216 2825.99997520447 14 15 9
160.026848316193 207.909807562828 2835.99996566772 15 16 10
170.422345399857 211.202874779701 2881.00004196167 17 18 10
178.216084837914 211.123377084732 2880.00011444092 18 15 8
184.323891997337 209.137707948685 2852.9999256134 38 28 19
191.563129425049 208.54464173317 2845.00002861023 92 75 67
199.878916144371 209.124162793159 2852.9999256134 99 74 67
208.237558603287 209.703370928764 2861.00006103516 63 34 26
216.865554451942 210.502207279205 2871.99997901917 31 3 0
224.770307540894 210.567772388458 2872.99990653992 107 80 63
233.570232987404 211.439251899719 2884.99999046326 112 89 73
244.945198297501 214.509025216103 2927.00004577637 98 81 65
-161.020070314407 204.980313777924 2904.00004386902 93 84 69
-152.045547962189 203.573986887932 2884.0000629425 86 68 54
-143.37944984436 202.449649572372 2868.00003051758 98 78 67
-135.036423802376 201.677963137627 2857.00011253357 70 50 43
-126.797392964363 200.976580381393 2846.99988365173 18 8 0
-118.946880102158 200.839623808861 2845.00002861023 17 10 0
-110.872335731983 200.278863310814 2836.99989318848 22 18 9
-103.713467717171 201.412126421928 2852.9999256134 17 14 7
-95.0882881879807 199.650675058365 2828.00006866455 22 21 16
-87.2479453682899 199.371427297592 2823.99988174438 18 19 13
-78.8939446210861 197.750568389893 2801.00011825562 18 21 14
-70.919506251812 196.835368871689 2788.00010681152 18 21 14
-63.6288747191429 197.826132178307 2802.00004577637 16 19 10
-56.2216006219387 198.675468564034 2813.99989128113 15 18 9
-48.6278533935547 199.030295014381 2819.00000572205 14 17 8
-40.8468954265118 198.608249425888 2812.99996376038 13 16 9
-33.1338942050934 198.397725820541 2809.99994277954 12 15 8
-25.0202752649784 194.939136505127 2760.99991798401 10 13 6
-17.5729971379042 195.928350090981 2775.00009536743 11 14 7
-10.1068718358874 198.046967387199 2805.0000667572 13 16 9
-2.43325275368989 196.635097265244 2785.00008583069 13 16 9
5.07737975567579 193.17539036274 2736.00006103516 13 16 9
20.2762596309185 195.716291666031 2772.0000743866 22 25 18
27.7417451143265 195.009410381317 2762.00008392334 14 17 10
35.4463197290897 195.926159620285 2775.00009536743 13 16 9
43.1286990642548 196.419015526772 2782.00006484985 13 16 9
50.7397167384624 196.487963199615 2782.99999237061 14 17 10
58.0415762960911 195.497646927834 2769.00005340576 11 14 7
65.6458213925362 195.636674761772 2770.99990844727 10 13 6
73.2343047857285 195.704847574234 2772.0000743866 8 11 4
81.1777338385582 196.619957685471 2785.00008583069 5 8 1
89.2555266618729 197.675973176956 2799.99995231628 8 11 4
93.8850566744804 191.530764102936 2713.00005912781 9 12 5
103.452868759632 195.62192261219 2770.99990844727 12 15 8
113.096423447132 199.289172887802 2822.99995422363 13 16 9
119.899518787861 197.802647948265 2802.00004577637 13 16 9
126.951724290848 196.880653500557 2789.00003433228 16 16 8
134.36670601368 196.593776345253 2785.00008583069 18 18 10
141.861289739609 196.44783437252 2782.99999237061 14 15 9
151.277631521225 198.842734098434 2816.99991226196 11 14 7
158.960282802582 198.837429285049 2816.99991226196 13 16 9
178.160414099693 203.202024102211 2878.99994850159 15 15 7
184.330299496651 201.360747218132 2852.9999256134 26 19 11
191.973775625229 201.213166117668 2851.0000705719 57 47 37
200.796633958817 202.265128493309 2865.9999370575 35 15 6
209.118202328682 202.752187848091 2872.99990653992 25 3 0
217.25058555603 203.027278184891 2877.00009346008 54 30 18
225.325688719749 203.231498599052 2880.00011444092 111 88 74
234.63074862957 204.493910074234 2898.00000190735 111 92 78
-161.746367812157 197.944968938828 2917.00005531311 121 113 100
-152.630627155304 196.457237005234 2894.99998092651 88 76 62
-143.984258174896 195.444256067276 2880.00011444092 81 61 50
-135.70274412632 194.838121533394 2871.00005149841 96 73 65
-127.737015485764 194.638907909393 2868.00003051758 42 32 23
-118.031106889248 191.589027643204 2822.99995422363 16 12 3
-112.204909324646 194.850534200668 2871.00005149841 21 16 10
-103.862442076206 193.903997540474 2857.00011253357 20 17 12
-96.1339175701141 194.043099880219 2858.99996757507 19 18 13
-86.6330042481422 190.313190221786 2803.99990081787 17 18 12
-78.6149650812149 189.433619379997 2790.99988937378 19 21 16
-71.1254477500916 189.775541424751 2796.0000038147 17 20 13
-63.7900158762932 190.660178661346 2809.00001525879 16 19 10
-56.3434101641178 191.408812999725 2819.9999332428 16 19 10
-48.7675257027149 191.885709762573 2826.99990272522 15 18 9
-41.0370714962482 191.819325089455 2825.99997520447 14 17 10
-33.3826579153538 192.159995436668 2831.00008964539 12 15 8
-25.8548725396395 193.654298782349 2852.9999256134 9 12 5
-18.0928930640221 193.926557898521 2857.00011253357 10 13 6
-10.1756816729903 191.687047481537 2823.99988174438 11 14 7
-2.38440791144967 185.238867998123 2729.00009155273 10 13 6
5.09054539725184 186.189115047455 2743.00003051758 12 15 8
20.3866809606552 189.174875617027 2786.99994087219 22 25 18
28.2348766922951 190.80314040184 2811.00010871887 15 18 11
35.4858636856079 188.562110066414 2778.00011634827 13 16 9
43.2697087526321 189.443171024323 2790.99988937378 11 14 7
51.124345511198 190.323978662491 2803.99990081787 13 16 9
58.4208779036999 189.168244600296 2786.99994087219 10 13 6
66.8800100684166 191.609621047974 2822.99995422363 8 11 4
74.7691839933395 192.082360386848 2829.99992370605 8 11 4
82.3464691638947 191.740348935127 2825.00004768372 6 9 2
90.5974581837654 192.891284823418 2842.00000762939 8 11 4
96.1377173662186 188.544392585754 2778.00011634827 10 13 6
102.037668228149 185.486942529678 2733.00004005432 13 16 9
111.577838659286 189.012512564659 2785.00008583069 14 17 10
120.331510901451 190.841048955917 2812.00003623962 14 17 10
128.139555454254 191.040515899658 2815.00005722046 16 15 10
134.757250547409 189.54311311245 2792.99998283386 18 17 12
141.815111041069 188.792034983635 2782.00006484985 14 15 9
150.262385606766 189.872980117798 2798.00009727478 12 15 8
157.32915699482 189.189255237579 2788.00010681152 12 17 10
166.174665093422 190.60891866684 2809.00001525879 13 16 9
174.762725830078 191.621124744415 2823.99988174438 8 9 1
184.207275509834 193.447276949883 2851.0000705719 8 4 0
192.384213209152 193.848207592964 2857.00011253357 21 13 2
200.803309679031 194.452375173569 2865.9999370575 26 9 0
209.343507885933 195.12414932251 2875.99992752075 23 5 0
217.484325170517 195.388585329056 2880.00011444092 73 54 40
225.959077477455 195.92410326004 2888.00001144409 109 87 73
236.500695347786 198.155298829079 2921.0000038147 110 92 80
-153.320997953415 189.410030841827 2907.99999237061 103 91 79
-144.738867878914 188.568025827408 2894.99998092651 81 61 50
-136.510729789734 188.116580247879 2888.00001144409 79 56 48
-128.364741802216 187.729999423027 2881.99996948242 67 57 48
-120.46005576849 187.668845057487 2881.00004196167 35 28 20
-110.488921403885 184.154942631721 2826.99990272522 22 17 11
-103.320509195328 185.135528445244 2842.00000762939 22 19 14
-95.5318138003349 185.073614120483 2841.00008010864 18 17 13
-87.0066359639168 183.447942137718 2815.99998474121 18 19 14
-78.5893872380257 181.756839156151 2789.99996185303 20 21 16
-70.6190168857574 180.847197771072 2776.00002288818 18 21 14
-63.4060502052307 181.891724467278 2792.00005531311 18 21 12
-55.9856221079826 182.545125484467 2802.00004577637 18 21 12
-48.7691424787045 184.175550937653 2826.99990272522 18 21 12
-41.4740853011608 186.066314578056 2855.99994659424 16 19 12
-33.2186706364155 183.526709675789 2816.99991226196 14 17 10
-25.5747865885496 183.853402733803 2822.00002670288 10 13 6
-18.042828887701 185.613170266151 2848.99997711182 10 13 6
-10.2192601189017 184.766680002213 2835.99996566772 10 13 6
-2.42293230257928 180.662393569946 2773.00000190735 9 12 5
27.9545597732067 181.312263011932 2782.99999237061 15 18 11
35.5253592133522 181.18092417717 2780.99989891052 11 14 7
43.3486625552177 182.156875729561 2796.0000038147 6 9 2
67.5929710268974 185.864925384521 2852.9999256134 5 8 1
75.4586011171341 186.058074235916 2855.99994659424 9 12 5
82.9904899001122 185.469195246696 2846.99988365173 10 13 6
90.2497693896294 184.424087405205 2831.00008964539 12 15 8
97.4213629961014 183.378756046295 2815.00005722046 13 16 9
104.430548846722 182.20292031765 2796.99993133545 15 18 11
111.54143512249 181.352600455284 2783.99991989136 15 18 11
120.378255844116 183.237940073013 2812.99996376038 15 18 11
128.098234534264 183.299094438553 2813.99989128113 17 16 11
136.643379926682 184.467330574989 2832.00001716614 18 17 12
143.65491271019 183.55093896389 2818.00007820129 14 17 10
149.783924221992 181.657373905182 2789.00003433228 15 18 11
166.653320193291 183.470964431763 2816.99991226196 14 19 12
184.277832508087 185.73933839798 2851.99999809265 18 18 8
193.06381046772 186.710223555565 2867.00010299683 34 32 20
201.930850744247 187.68085539341 2881.99996948242 29 19 7
209.859758615494 187.739476561546 2882.99989700317 28 16 4
218.397468328476 188.318833708763 2891.99995994568 89 75 62
227.452889084816 189.288601279259 2907.00006484985 93 75 61
-153.905764222145 182.166337966919 2918.99991035461 122 112 102
-145.293384790421 181.359618902206 2905.99989891052 87 70 62
-137.12951540947 181.051924824715 2901.00002288818 54 35 28
-129.036918282509 180.806413292885 2897.0000743866 86 75 69
-120.380237698555 179.686814546585 2878.99994850159 42 38 29
-112.524814903736 179.690420627594 2878.99994850159 22 17 11
-103.432834148407 177.571639418602 2845.00002861023 23 20 13
-94.2569896578789 174.953237175941 2802.99997329712 16 15 10
-86.113341152668 173.957377672195 2786.99994087219 20 19 14
-78.2820284366608 173.460587859154 2779.00004386902 18 19 13
-70.8756446838379 173.899829387665 2786.00001335144 17 20 13
-62.9992708563805 173.15286397934 2773.9999294281 17 20 11
-55.7276494801044 174.091026186943 2789.00003433228 17 20 11
-48.7706959247589 176.464632153511 2826.99990272522 17 20 11
-41.3011386990547 177.527204155922 2844.00010108948 16 19 12
-33.7268076837063 178.527116775513 2859.99989509583 14 17 10
-25.1587070524693 173.284575343132 2776.00002288818 10 13 6
-17.8154055029154 175.594881176949 2812.99996376038 10 13 6
-10.2520165964961 177.592843770981 2845.00002861023 10 13 6
-2.47106794267893 176.531866192818 2828.00006866455 9 12 5
5.1855300553143 174.409434199333 2793.99991035461 10 13 6
28.4677483141422 176.904782652855 2834.00011062622 14 17 10
36.0374785959721 176.092281937599 2821.00009918213 9 12 5
43.3655455708504 174.592927098274 2796.99993133545 4 7 0
59.91305783391 178.397387266159 2858.00004005432 5 8 1
75.0118270516396 177.207216620445 2838.99998664856 9 12 5
82.7890634536743 177.267178893089 2839.99991416931 10 13 6
89.6469056606293 175.516828894615 2812.00003623962 14 17 10
97.2513929009438 175.3890812397 2809.99994277954 14 17 10
104.50853407383 174.699395895004 2799.00002479553 15 18 11
111.985683441162 174.446389079094 2795.00007629395 16 19 12
119.954086840153 174.94210600853 2802.99997329712 16 19 12
128.921672701836 176.748216152191 2832.00001716614 16 17 11
137.371420860291 177.680268883705 2846.99988365173 17 18 12
142.079055309296 173.931449651718 2786.99994087219 14 17 10
152.742505073547 177.484169602394 2844.00010108948 14 19 12
161.515325307846 178.602650761604 2861.99998855591 16 21 14
169.143304228783 178.41038107872 2858.99996757507 15 21 11
175.145134329796 176.595464348793 2829.99992370605 19 25 15
182.991206645966 176.714822649956 2832.00001716614 22 22 10
194.618657231331 180.328205227852 2890.00010490417 19 15 4
201.937079429626 179.823026061058 2881.99996948242 18 8 0
210.303023457527 180.253565311432 2888.99993896484 73 61 49
218.781799077988 180.746242403984 2897.0000743866 92 78 67
229.65070605278 183.110296726227 2934.99994277954 79 65 54
-153.488576412201 173.728048801422 2911.00001335144 125 120 116
-145.847752690315 174.090549349785 2917.00005531311 61 56 52
-137.464538216591 173.557564616203 2907.99999237061 67 59 56
-129.218980669975 173.143729567528 2901.00002288818 30 25 19
-121.052898466587 172.789305448532 2894.99998092651 27 23 14
-113.349035382271 173.091217875481 2900.00009536743 21 18 9
-103.835910558701 170.46819627285 2855.99994659424 22 19 10
-95.4368412494659 169.39677298069 2838.00005912781 18 18 8
-87.1047228574753 168.265357613564 2819.00000572205 16 16 6
-78.5942673683167 166.536822915077 2789.99996185303 19 21 10
-71.3611841201782 167.434424161911 2805.0000667572 18 21 10
-64.4547194242477 169.406279921532 2838.00005912781 16 22 10
-55.969126522541 167.199447751045 2801.00011825562 15 21 9
-48.4788939356804 167.738243937492 2809.99994277954 15 21 11
-41.1426462233067 169.112533330917 2832.99994468689 16 19 12
-32.7018573880196 165.532007813454 2773.00000190735 13 16 9
-25.2682343125343 166.428282856941 2788.00010681152 11 14 7
-17.7906174212694 167.682513594627 2809.00001525879 9 12 5
5.2506485953927 168.876975774765 2828.9999961853 12 14 9
20.1033167541027 164.040923118591 2747.99990653992 23 25 20
28.3279791474342 168.33820939064 2819.9999332428 21 23 18
36.3707281649113 169.948980212212 2846.99988365173 4 6 1
44.2196317017078 170.24627327919 2851.99999809265 5 8 1
51.5121445059776 168.633103370667 2825.00004768372 5 8 1
60.1454935967922 171.257928013802 2868.99995803833 7 10 3
67.6208734512329 170.360639691353 2854.00009155273 8 11 4
74.010044336319 167.19488799572 2801.00011825562 11 14 7
81.1299160122871 166.118130087852 2782.99999237061 12 15 8
89.2351642251015 167.070642113686 2799.00002479553 13 16 9
97.2543507814407 167.724460363388 2809.99994277954 13 16 9
104.847744107246 167.602077126503 2808.00008773804 14 17 10
112.469881772995 167.539164423943 2806.99992179871 14 17 10
120.471276342869 168.013215065002 2815.00005722046 14 17 10
128.88003885746 168.964490294456 2831.00008964539 16 17 12
137.327328324318 169.855803251266 2845.99995613098 16 17 12
144.530430436134 169.195160269737 2835.00003814697 15 18 11
151.941448450089 168.832704424858 2828.9999961853 15 20 13
161.689460277557 170.976534485817 2865.00000953674 16 21 14
168.970867991447 170.434609055519 2855.99994659424 15 21 11
175.150349736214 168.878018856049 2829.99992370605 17 19 8
185.83981692791 171.617731451988 2875.99992752075 25 21 10
193.681597709656 171.612218022346 2875.99992752075 22 13 4
202.713832259178 172.620862722397 2892.99988746643 61 47 38
210.746005177498 172.734215855598 2894.99998092651 83 64 57
219.845563173294 173.682659864426 2911.00001335144 86 69 61
-146.751955151558 167.159393429756 2934.99994277954 31 28 23
-137.563049793243 165.739551186562 2910.00008583069 52 47 43
-128.821805119514 164.718091487885 2891.99995994568 23 18 12
-121.432743966579 165.405124425888 2904.00004386902 23 20 13
-113.274142146111 165.066689252853 2898.00000190735 24 21 14
-104.238867759705 163.304030895233 2867.00010299683 22 22 14
-96.01129591465 162.623330950737 2855.00001907349 18 18 10
-87.5707641243935 161.429762840271 2834.00011062622 17 17 9
-78.9064392447472 159.552380442619 2801.00011825562 19 20 12
-71.5922266244888 160.295039415359 2813.99989128113 18 21 12
-64.1613453626633 160.923585295677 2825.00004768372 16 22 12
-56.1506003141403 160.070821642876 2809.99994277954 16 22 12
-48.1352582573891 158.933013677597 2789.99996185303 16 22 12
-32.4551537632942 156.770631670952 2752.00009346008 13 16 9
-25.0514484941959 157.455042004585 2763.99993896484 12 15 8
-17.6201295107603 158.481046557426 2782.00006484985 10 13 6
-10.0003685802221 158.08267891407 2775.00009536743 8 11 4
-2.44587403722107 159.45003926754 2799.00002479553 7 10 3
28.2986704260111 160.473972558975 2816.99991226196 20 22 17
36.3845676183701 162.239000201225 2848.00004959106 3 5 0
44.3449653685093 162.921443581581 2859.99989509583 6 9 2
58.8264763355255 159.842371940613 2805.99999427795 9 12 5
67.1015828847885 161.321669816971 2832.00001716614 10 13 6
74.0914568305016 159.72463786602 2803.99990081787 12 15 8
80.9865146875381 158.241435885429 2778.00011634827 12 15 8
88.6638760566711 158.409893512726 2780.99989891052 12 15 8
105.336204171181 160.682827234268 2821.00009918213 13 16 9
112.433068454266 159.825339913368 2805.99999427795 14 17 10
120.217971503735 159.992948174477 2809.00001525879 14 17 10
128.610610961914 160.900741815567 2825.00004768372 16 17 12
135.883659124374 160.384386777878 2815.99998474121 16 17 12
144.687533378601 161.633431911469 2838.00005912781 16 19 12
152.590334415436 161.800116300583 2841.00008010864 16 21 14
159.436598420143 160.884529352188 2825.00004768372 17 23 13
167.496576905251 161.221638321877 2831.00008964539 17 23 13
174.103200435638 160.19181907177 2812.99996376038 17 19 8
182.678759098053 160.984084010124 2826.99990272522 26 22 11
193.283036351204 163.427457213402 2869.99988555908 20 11 2
202.439278364182 164.503887295723 2888.99993896484 86 71 64
211.261540651321 165.238380432129 2901.99995040894 87 68 61
220.682501792908 166.371181607246 2921.99993133545 82 68 59
-148.506060242653 161.051258444786 2970.00002861023 6 5 0
-137.472301721573 157.693058252335 2907.99999237061 18 17 12
-129.092633724213 157.154366374016 2898.00000190735 27 24 17
-121.687009930611 157.808497548103 2910.00008583069 23 20 13
-114.019945263863 158.191278576851 2917.00005531311 16 16 8
-104.641705751419 156.079217791557 2878.00002098084 19 19 11
-96.8547239899635 156.190410256386 2880.00011444092 20 21 13
-88.8401418924332 155.921772122383 2875 19 20 12
-78.7677690386772 151.63953602314 2796.0000038147 18 19 11
-71.7468783259392 152.943208813667 2819.9999332428 16 19 10
-63.9587119221687 152.728110551834 2815.99998474121 15 21 11
-55.8923855423927 151.699244976044 2796.99993133545 15 21 11
-47.8777997195721 150.507479906082 2775.00009536743 16 22 12
-40.0702655315399 149.640887975693 2759.0000629425 19 22 15
-32.538615167141 149.64185655117 2759.0000629425 19 22 15
-25.1790396869183 150.673165917397 2778.00011634827 18 21 14
-17.7726317197084 152.192413806915 2805.99999427795 16 19 12
-10.1808393374085 153.223320841789 2825.00004768372 12 15 8
-2.46604136191309 153.060793876648 2822.00002670288 11 14 7
5.2676540799439 153.928562998772 2838.00005912781 12 14 9
28.2291378825903 152.408495545387 2809.99994277954 20 22 17
36.9732715189457 156.963601708412 2894.00005340576 3 5 0
44.6253046393394 156.094700098038 2878.00002098084 8 11 4
51.9162602722645 154.412031173706 2846.99988365173 9 12 5
59.7505792975426 154.57321703434 2849.99990463257 12 15 8
68.0275410413742 155.710428953171 2871.00005149841 13 16 9
74.5691657066345 153.050974011421 2822.00002670288 12 15 8
81.7467570304871 152.072623372078 2803.99990081787 12 15 8
89.2721191048622 151.853367686272 2799.99995231628 13 16 9
97.1214175224304 152.17624604702 2805.99999427795 13 16 9
104.666985571384 152.010813355446 2802.99997329712 14 17 10
112.836882472038 152.712881565094 2815.99998474121 14 17 10
119.87891048193 151.896297931671 2801.00011825562 15 18 11
127.885714173317 152.326792478561 2809.00001525879 16 17 12
133.57113301754 150.099948048592 2767.99988746643 16 17 12
143.977716565132 153.132885694504 2823.99988174438 17 20 13
152.863085269928 154.321864247322 2845.99995613098 17 22 15
160.061791539192 153.775453567505 2835.99996566772 18 24 14
167.678669095039 153.662621974945 2834.00011062622 19 22 13
173.48900437355 151.977241039276 2802.99997329712 22 22 12
193.692356348038 155.925378203392 2875.99992752075 25 18 8
203.215599060059 157.221302390099 2900.00009536743 82 69 61
212.213650345802 158.029019832611 2914.99996185303 83 66 58
-148.109927773476 152.53709256649 2961.99989318848 8 7 2
-137.90138065815 150.223314762115 2917.00005531311 17 16 11
-129.764229059219 150.020748376846 2913.00010681152 25 22 15
-122.233845293522 150.538995862007 2923.00009727478 22 19 12
-113.436602056026 149.460449814796 2901.99995040894 20 20 12
-105.335310101509 149.205774068832 2897.0000743866 23 23 15
-96.7227518558502 148.126780986786 2875.99992752075 19 20 12
-88.1626382470131 146.944537758827 2852.9999256134 15 16 8
-79.2487934231758 144.8864787817 2812.99996376038 17 18 10
-71.4180245995522 144.579395651817 2806.99992179871 15 18 9
-63.7105703353882 144.478127360344 2805.0000667572 13 19 9
-55.9338368475437 144.170626997948 2799.00002479553 14 20 10
-48.0516031384468 143.450856208801 2785.00008583069 16 22 12
-40.2456149458885 142.730891704559 2770.99990844727 20 23 16
-32.7517688274384 143.040880560875 2776.99995040894 20 23 16
-25.3700539469719 144.174844026566 2799.00002479553 19 22 15
-18.039133399725 146.699368953705 2848.00004959106 18 21 14
-9.9468557164073 142.166882753372 2759.99999046326 15 18 11
5.25851314887404 145.927205681801 2832.99994468689 13 15 10
20.2366933226585 142.47539639473 2766.00003242493 26 28 23
28.5212323069572 146.234974265099 2838.99998664856 19 21 16
36.8464924395084 148.552030324936 2884.0000629425 3 5 0
44.0527647733688 146.336108446121 2841.00008010864 10 13 6
52.0088225603104 146.901458501816 2851.99999809265 11 14 7
59.7940981388092 146.899998188019 2851.99999809265 12 15 8
67.9345652461052 147.670969367027 2867.00010299683 12 15 8
75.4960104823112 147.154048085213 2857.00011253357 12 15 8
83.1191763281822 146.842956542969 2851.0000705719 12 15 8
90.7092466950417 146.53168618679 2845.00002861023 12 15 8
97.2970500588417 144.778102636337 2811.00010871887 12 15 8
104.557722806931 144.208967685699 2799.99995231628 13 16 9
112.960062921047 145.184710621834 2819.00000572205 14 17 10
122.15044349432 146.98426425457 2854.00009155273 14 17 10
129.391521215439 146.363034844398 2842.00000762939 16 17 11
134.298488497734 143.321186304092 2782.99999237061 16 17 11
143.62458884716 145.068570971489 2816.99991226196 18 21 14
152.329936623573 146.043241024017 2835.99996566772 18 23 16
160.686790943146 146.60570025444 2846.99988365173 20 23 14
168.807208538055 146.910488605499 2852.9999256134 18 21 12
176.897779107094 147.163584828377 2858.00004005432 16 18 7
186.953574419022 148.961156606674 2892.99988746643 22 19 10
195.246398448944 149.265259504318 2898.9999294281 18 14 5
204.412117600441 150.187015533447 2917.00005531311 56 47 38
213.383972644806 150.902569293976 2930.99999427795 61 48 40
-129.321992397308 141.585394740105 2903.00011634827 21 21 13
-120.355047285557 140.369102358818 2878.00002098084 22 22 14
-111.954033374786 139.689102768898 2864.00008201599 22 22 14
-105.228871107101 141.155004501343 2894.00005340576 19 20 12
-95.6489741802216 138.71867954731 2844.00010108948 20 21 13
-87.3922929167748 137.940481305122 2828.00006866455 22 23 15
-79.5888602733612 137.796208262444 2825.00004768372 16 19 10
-71.52159512043 137.11516559124 2811.00010871887 15 18 9
-63.8938769698143 137.214377522469 2812.99996376038 15 18 9
-56.2949627637863 137.410968542099 2816.99991226196 17 20 11
-48.5014282166958 137.119591236115 2811.00010871887 17 23 13
-40.5952110886574 136.34018599987 2795.00007629395 18 21 14
-32.6700359582901 135.12159883976 2769.99998092651 17 20 13
-25.4794657230377 137.122303247452 2811.00010871887 17 20 13
-17.9572440683842 138.293594121933 2835.00003814697 16 19 12
-10.109287686646 136.830508708954 2805.0000667572 16 19 12
20.5005966126919 136.683642864227 2802.00004577637 25 27 22
28.2306037843227 137.073293328285 2809.99994277954 18 20 15
37.1157266199589 141.706615686417 2904.99997138977 2 4 0
44.6276180446148 140.388563275337 2878.00002098084 12 15 8
51.6454018652439 138.143494725227 2832.00001716614 11 14 7
59.2924170196056 137.947022914886 2828.00006866455 11 14 7
67.2490894794464 138.433262705803 2838.00005912781 11 14 7
75.0750973820686 138.577848672867 2841.00008010864 12 15 8
82.9463303089142 138.771012425423 2845.00002861023 13 16 9
91.6680619120598 140.23220539093 2875 12 15 8
98.1994420289993 138.376384973526 2836.99989318848 13 16 9
104.933775961399 137.056976556778 2809.99994277954 14 17 10
112.64231801033 137.103095650673 2811.00010871887 14 17 10
121.554285287857 138.514667749405 2839.99991416931 14 17 10
129.485800862312 138.706713914871 2844.00010108948 15 18 11
138.452008366585 139.922723174095 2868.99995803833 15 18 11
146.075502038002 139.72419500351 2865.00000953674 18 21 14
153.408005833626 139.281660318375 2855.99994659424 19 22 15
160.80367565155 138.93648982048 2848.99997711182 18 21 12
169.462263584137 139.664024114609 2864.00008201599 17 20 11
179.687529802322 141.561642289162 2903.00011634827 17 18 10
187.152057886124 141.215890645981 2895.99990844727 23 20 11
196.530893445015 142.284050583839 2917.99998283386 16 12 3
205.468282103539 142.961889505386 2931.99992179871 48 41 33
-149.7672945261 137.893944978714 2994.99988555908 7 10 3
-134.409546852112 130.898833274841 2842.99993515015 22 25 18
-128.166779875755 132.467299699783 2877.00009346008 22 23 15
-119.856044650078 131.963670253754 2865.9999370575 22 23 15
-111.331216990948 131.137520074844 2848.00004959106 21 22 14
-103.740513324738 131.37024641037 2852.9999256134 21 22 14
-96.222996711731 131.740927696228 2861.00006103516 18 21 12
-88.5996073484421 132.019340991974 2867.00010299683 18 21 12
-79.759806394577 130.363568663597 2831.00008964539 16 19 10
-71.9558522105217 130.22717833519 2828.00006866455 15 18 9
-64.0089809894562 129.768252372742 2818.00007820129 14 17 8
-56.6160567104816 130.460396409035 2832.99994468689 15 18 9
-48.9512048661709 130.645826458931 2836.99989318848 17 20 11
-32.6944105327129 127.654418349266 2772.0000743866 15 18 11
-25.4256892949343 129.174783825874 2805.0000667572 15 18 11
-17.7993178367615 129.405543208122 2809.99994277954 15 18 11
-10.0843021646142 128.853261470795 2798.00009727478 13 16 9
5.10099017992616 126.550748944283 2747.99990653992 5 7 2
29.4268354773521 134.884938597679 2928.99990081787 5 7 2
43.5587093234062 129.35708463192 2809.00001525879 10 13 6
51.0995388031006 129.033654928207 2802.00004577637 11 14 7
59.1051355004311 129.815220832825 2819.00000572205 13 16 9
66.8478533625603 129.905849695206 2821.00009918213 12 15 8
74.7333616018295 130.226567387581 2828.00006866455 13 16 9
82.9774662852287 131.053596735001 2845.99995613098 13 16 9
90.6180292367935 130.867406725883 2842.00000762939 12 15 8
98.2017740607262 130.634978413582 2836.99989318848 13 16 9
111.923672258854 128.604099154472 2792.99998283386 17 20 13
120.743937790394 129.890695214272 2821.00009918213 17 20 13
129.124611616135 130.578458309174 2835.99996566772 15 18 11
135.897547006607 129.654571413994 2815.99998474121 15 18 11
145.722046494484 131.585091352463 2858.00004005432 17 20 13
152.498468756676 130.706921219826 2838.99998664856 18 21 14
159.622147679329 130.196914076805 2828.00006866455 19 22 15
168.105289340019 130.791679024696 2841.00008010864 20 23 16
177.091971039772 131.708472967148 2861.00006103516 22 23 15
187.738060951233 133.729875087738 2904.99997138977 20 20 12
196.602806448936 134.369999170303 2918.99991035461 19 16 9
206.734493374825 135.792449116707 2950.00004768372 35 32 25
-128.258749842644 124.703422188759 2878.99994850159 20 23 16
-119.984187185764 124.27294999361 2868.99995803833 20 23 16
-110.942803323269 122.932657599449 2838.00005912781 20 23 16
-102.106526494026 121.635459363461 2808.00008773804 19 22 15
-94.7789251804352 122.070789337158 2818.00007820129 18 21 14
-88.6016041040421 124.195404350758 2867.00010299683 17 20 11
-80.8885619044304 124.370515346527 2871.00005149841 16 19 10
-72.0338076353073 122.639395296574 2831.00008964539 15 18 9
-63.9195665717125 121.904425323009 2813.99989128113 14 17 8
-56.0377687215805 121.472522616386 2803.99990081787 15 18 9
-48.3656413853168 121.430344879627 2802.99997329712 17 20 11
-40.8149734139442 121.734589338303 2809.99994277954 18 21 14
-32.8720659017563 120.738975703716 2786.99994087219 14 17 10
-25.118064135313 120.046459138393 2770.99990844727 15 18 11
-17.8757328540087 122.256375849247 2822.00002670288 14 17 10
-10.0484872236848 120.783716440201 2788.00010681152 12 15 8
-2.41384725086391 119.657456874847 2762.00008392334 14 17 10
5.13637531548738 119.8740452528 2766.99995994568 8 10 5
12.7872629091144 120.783619582653 2788.00010681152 15 17 12
20.1796144247055 119.483582675457 2757.99989700317 22 24 19
28.6538898944855 123.555354773998 2851.99999809265 5 7 2
36.6063751280308 124.117843806744 2865.00000953674 1 3 0
43.97838935256 122.860625386238 2835.99996566772 10 13 6
51.9213564693928 123.336099088192 2846.99988365173 11 14 7
59.2742003500462 122.468456625938 2826.99990272522 13 16 9
66.8730586767197 122.250474989414 2822.00002670288 12 15 8
75.8713856339455 124.371603131294 2871.00005149841 13 16 9
83.270899951458 123.720079660416 2855.99994659424 13 16 9
90.141773223877 122.461929917336 2826.99990272522 12 15 8
97.4424481391907 121.940076351166 2815.00005722046 13 16 9
104.229055345058 120.898254215717 2790.99988937378 15 18 11
112.767726182938 121.892184019089 2813.99989128113 15 18 11
120.061784982681 121.499821543694 2805.0000667572 15 18 11
128.945380449295 122.666627168655 2832.00001716614 15 18 11
136.334925889969 122.360557317734 2825.00004768372 15 18 11
143.634751439095 122.011035680771 2816.99991226196 17 20 13
151.427507400513 122.094474732876 2819.00000572205 17 20 13
158.891886472702 121.917895972729 2815.00005722046 19 22 15
166.09713435173 121.56792730093 2806.99992179871 19 22 15
174.929365515709 122.387126088142 2825.99997520447 23 24 16
210.943892598152 130.34300506115 3009.99999046326 18 15 8
-140.608966350555 120.699808001518 2973.99997711182 17 22 15
-111.02332174778 115.268900990486 2839.99991416931 20 23 16
-102.217771112919 114.094033837318 2811.00010871887 18 21 14
-95.8908572793007 115.719608962536 2851.0000705719 17 20 13
-81.3410803675652 117.184460163116 2887.00008392334 16 19 12
-64.6478161215782 115.523226559162 2845.99995613098 15 18 11
-56.2188252806664 114.184930920601 2812.99996376038 16 19 12
-48.6945174634457 114.551343023777 2822.00002670288 17 20 13
-40.8594161272049 114.186927676201 2812.99996376038 19 22 15
-33.5214920341969 115.364886820316 2842.00000762939 16 19 12
-25.6443582475185 114.837780594826 2828.9999961853 16 19 12
-17.774760723114 113.90458792448 2805.99999427795 14 17 10
-10.1892668753862 114.75732922554 2826.99990272522 10 13 6
-2.48818541876972 115.569323301315 2846.99988365173 12 15 8
5.21816359832883 114.107936620712 2811.00010871887 13 15 10
12.6591082662344 112.037487328053 2759.99999046326 15 17 12
20.4873513430357 113.660886883736 2799.99995231628 11 13 8
28.4535530954599 114.959359169006 2832.00001716614 6 8 3
36.223828792572 115.08047580719 2835.00003814697 5 7 2
44.1033840179443 115.444988012314 2844.00010108948 10 13 6
52.2142648696899 116.215243935585 2862.99991607666 11 14 7
59.841588139534 115.848772227764 2854.00009155273 13 16 9
67.2536343336105 115.198001265526 2838.00005912781 12 15 8
75.3444507718086 115.724228322506 2851.0000705719 13 16 9
82.1063742041588 114.301942288876 2815.99998474121 13 16 9
90.4306620359421 115.111969411373 2835.99996566772 14 17 10
97.8252813220024 114.704169332981 2825.99997520447 15 18 11
105.090200901031 114.215023815632 2813.99989128113 16 19 12
112.649887800217 114.09106105566 2811.00010871887 16 19 12
122.247286140919 115.915060043335 2855.99994659424 15 18 11
129.221275448799 115.181967616081 2838.00005912781 16 19 12
136.482566595078 114.773415029049 2828.00006866455 16 19 12
143.535777926445 114.242978394032 2815.00005722046 16 19 12
151.538103818893 114.483498036861 2821.00009918213 17 20 13
159.403204917908 114.602103829384 2823.99988174438 17 20 13
166.988208889961 114.517658948898 2822.00002670288 17 20 13
