ply
format ascii 1.0
comment KinectMotionCapture
element vertex 774
property float x
property float y
property float z
property uchar red
property uchar green
property uchar blue
end_header
291.727552179838 1159.65481527107 3715.2476886493 18 21 12
299.05587076294 1160.02634956818 3722.52754668753 21 24 15
308.521298618835 1158.7995102665 3724.21171430535 22 25 16
355.810531785057 1128.86490419483 3624.90804505056 18 21 12
369.504016142158 1124.20688891547 3614.30459545204 16 19 10
315.104229442957 1138.25993851656 3678.4828131697 20 23 14
327.629312772287 1134.6781387097 3671.7136186385 18 21 12
314.511993571588 1150.30667878702 3733.17478375843 17 20 11
325.048139277936 1160.287894103 3786.99391551802 22 26 12
326.545745319052 1120.13709086092 3646.57071913439 19 22 13
313.909030557666 1135.09438762287 3706.07394914739 18 21 12
340.032837674288 1133.01753399306 3716.66703587969 20 23 12
354.951136124196 1117.85423119013 3701.24457689058 16 20 6
360.482354768136 1104.00032783231 3684.16904707157 16 20 6
346.591149187683 1120.08950990762 3749.62912655538 17 20 9
356.397045228387 1097.2894989143 3693.35465349854 17 21 7
373.223681303799 1090.56503768998 3674.32541299905 17 20 9
378.415309381449 1092.39287897361 3687.20246506634 17 20 9
366.179624495193 1107.27172978607 3749.02653735186 19 22 11
391.284500565908 1094.27818853398 3706.42435420098 25 28 19
383.600635459555 1067.86670377007 3617.20257850644 18 22 8
398.775972373092 1067.76323279185 3628.74204732464 17 20 9
378.973996492834 1087.95080226613 3711.19792299771 19 22 11
375.951105294019 1095.94357174002 3747.67425000079 25 28 19
344.4484033252 1075.46497994201 3668.18351594215 18 19 11
340.563493254297 1083.6539697244 3705.38839567382 17 19 8
367.138364395948 1070.15641428877 3660.14854176437 17 21 7
387.985566625951 1060.61606187846 3629.82181712702 17 20 9
378.478397372468 1072.97107857526 3683.05973109986 17 20 9
355.779403533128 1095.13029599452 3774.03746787947 18 21 10
354.206089122916 1053.75601375885 3614.03886936346 19 22 13
372.094373073634 1046.49682714552 3592.20685399638 17 20 11
346.497842700573 1069.71730865833 3687.39790980312 14 20 8
378.199190922683 1052.71098899133 3628.07691740048 14 20 6
362.744458525994 1069.07058165783 3697.21763332215 17 20 9
352.392247328185 1081.9969609542 3753.34574667208 17 20 9
326.724812246671 1068.38693339373 3711.76859283453 12 23 9
373.257886363597 1041.41939067663 3613.21533596701 13 24 10
349.661202926836 1063.14587759003 3703.83288455655 10 21 7
352.178550975598 1066.78580251891 3724.24438405355 11 17 5
223.022703896307 1066.34819805787 3665.4803058264 27 29 16
282.705716137795 1052.36501972057 3642.28036458944 23 24 16
265.757825807688 1068.46835543164 3710.81845378169 23 24 16
302.784597670967 1059.21170910032 3693.51367813546 18 26 13
318.218288495925 1053.98217519663 3679.30366798384 17 25 12
310.661444505935 1064.27773597852 3725.79469352021 12 20 7
333.760520606089 1053.80109760422 3690.99227830937 13 21 8
327.837261393665 1063.12226783542 3733.83662658367 12 23 9
360.725723944132 1045.75437109626 3671.76260460247 6 14 1
218.219871408854 1064.42943302081 3700.23226577599 25 27 16
263.305613004997 1055.25472655418 3689.42682778119 23 24 16
303.057357213477 1034.41805661358 3613.97458407607 17 20 11
302.13892494012 1039.90307433574 3641.61221194576 15 18 9
300.271936342508 1046.08684945665 3672.09716133433 18 21 10
301.768787271673 1050.13036967047 3694.25028313592 16 22 10
336.782811725326 1036.94836172342 3654.58286446829 12 20 7
339.333956620713 1045.48132371005 3700.86415620998 13 21 8
367.639318231839 1036.57090672169 3677.86815984818 21 21 9
370.797701575786 1039.6450604683 3696.38562488062 19 12 2
363.581982342998 1049.99154592212 3744.09344879349 67 58 49
369.992410235521 1050.93351956491 3754.23401726465 29 25 13
217.548611424488 1055.00762519599 3700.03189209038 25 27 16
292.064346280176 1027.14395870553 3614.97302531691 21 22 14
298.028112777973 1028.11133247031 3624.93280844879 16 19 10
309.468173341433 1025.56321348569 3620.9528852846 15 18 9
320.147349992664 1023.48545400431 3618.81919392203 17 20 9
279.650566150406 1054.83169684898 3749.99225573266 15 21 9
299.86396178715 1046.6570221425 3723.7140456236 15 21 9
322.031011011682 1037.09457430433 3691.76426889059 13 21 8
334.203699137184 1034.07396544468 3685.92694650259 13 21 8
357.099710651699 1023.83608147964 3651.04050218381 17 21 7
367.02245674287 1022.22462255238 3650.7548765194 16 18 5
355.347820607347 1035.2624907766 3709.58338596561 18 16 4
359.949560125781 1037.35723524369 3724.37744678709 27 17 8
366.298923233922 1038.28563589524 3734.4933934385 105 92 83
372.683434455296 1039.21059429053 3744.62359740374 21 13 2
182.965658129421 1061.63999748186 3757.18570930142 23 25 12
221.414236993432 1042.7927404925 3688.7429154137 22 24 13
248.26224295928 1035.60892281515 3672.69593036271 19 20 12
267.334307402836 1028.42708316526 3650.26356770637 18 19 11
282.953102394685 1023.34195342877 3636.12715315206 17 18 10
282.031100457861 1028.68630191838 3663.76440192469 17 18 10
293.216608234678 1026.38287302495 3660.7586228232 15 18 9
307.610146374233 1022.00055009672 3649.35746500744 16 19 8
325.143340623383 1015.54486443582 3629.53345952666 15 18 7
314.834831711262 1027.10175702673 3682.45296630211 16 19 8
317.494888120681 1030.33458914031 3701.84652491424 16 22 10
323.393227135124 1031.48619016672 3712.85697144526 17 23 11
356.913489916749 1029.62411395459 3730.75894983933 41 24 14
363.95519783324 1030.07335861519 3739.00098036565 135 117 107
367.335810552794 1033.04107284224 3757.60948850971 85 69 56
378.446112514414 1030.73469572528 3754.57328145225 45 33 21
211.28820413167 1039.14766048793 3711.64284643175 24 26 15
224.622258150269 1035.69735154876 3704.12113637653 15 17 6
252.451103513892 1023.30045465771 3660.4597304394 18 19 11
244.065431765943 1033.16536092822 3706.61843372202 18 19 11
268.310482535602 1022.85023533545 3671.19998318402 17 18 10
271.136556309812 1025.82739383247 3689.58389084594 17 18 10
279.853198743093 1025.13816544058 3693.1184218844 17 18 10
300.829270164168 1016.67918641031 3664.99355246906 15 18 7
305.879435705331 1018.2782942291 3677.81506109309 15 18 7
313.113215008511 1018.5040527687 3685.05774578598 15 18 7
315.778300192691 1021.69015998224 3704.45369467544 16 19 8
330.444782655643 1017.12695992606 3692.08561294182 17 20 9
345.373129203292 1012.34228140716 3678.74617150054 25 23 11
346.840618701176 1021.41458495954 3728.90035780031 32 22 10
354.555364313195 1021.39767489331 3735.26081356862 22 4 0
360.595917586745 1022.51247874068 3746.32937778652 146 126 115
366.341476789083 1023.84966319849 3758.3553663237 117 99 85
372.132157756681 1025.1825500162 3770.39991414601 51 37 24
255.529935881999 1007.20073933991 3626.22511834634 18 19 11
246.189453374578 1017.41090114678 3674.15222484905 18 19 11
247.105500997385 1021.48340443775 3697.14902918559 17 18 10
260.597026839008 1022.58881202972 3714.47093515258 17 18 10
281.371321701666 1014.4363997365 3687.34085228685 17 18 10
298.731784735646 1008.32861615957 3668.52308029909 16 19 8
301.641411071992 1011.25336644899 3686.94121504244 15 18 7
305.343340978929 1013.72015216411 3703.52574563145 15 18 7
322.183530133235 1007.84846772953 3685.57433700557 16 19 8
339.501043207703 1006.47111355399 3692.59651554517 21 19 6
336.755036516595 1013.19254821756 3727.0369712117 22 16 2
342.752331198942 1014.29040112497 3738.08789158891 30 20 8
352.195116826668 1013.14258644935 3739.76229254356 58 38 27
359.599581369035 1013.33868236962 3747.07431131724 133 111 98
364.34012090846 1015.3226038796 3761.92541129339 135 116 101
373.136453103312 1014.61803562576 3765.4923244247 64 46 32
394.158076605242 1005.64799291203 3734.15283356483 140 133 115
262.711596429695 997.769661167809 3631.36202320002 16 17 9
243.035087820885 1018.78307252069 3731.12465645483 17 18 10
262.857453896321 1011.38031517919 3706.84014383201 17 18 10
262.536448376883 1016.26913241484 3733.64511923642 18 19 11
285.082030172535 1007.09333358675 3701.8456769703 17 19 8
304.567971729365 999.714959037385 3677.42476362425 17 19 8
310.378015955269 1000.80959506446 3688.399891999 16 18 7
314.461552198758 1003.01277219659 3704.06212223266 17 19 8
322.956515492454 1012.24876196348 3762.45474021913 32 25 9
339.68989059964 1006.44549563671 3744.45956475038 24 10 0
349.832923371046 1004.8586064089 3744.26294537325 70 48 34
356.573521185871 1005.48533535163 3753.4607786364 121 98 82
365.022575088261 1005.00357855673 3757.96420053641 118 95 79
371.810632120899 1005.62499321591 3767.18128998203 96 77 60
384.249057104115 1002.49204369114 3760.37360593659 146 138 119
246.514125464185 1002.2578924681 3694.8974360407 16 17 9
249.007782107358 1009.92732644 3740.08344558573 17 18 10
253.501529692239 1011.87366027372 3754.83464892265 18 19 11
274.668704573213 1003.67779823282 3726.78516159164 17 19 8
303.553470568636 990.650975915 3678.16150994352 16 18 7
312.569939368255 989.744010665601 3680.74028079989 16 18 7
304.256882735232 999.605153834139 3729.08603023908 17 19 8
325.058041192017 1001.01585316209 3754.75979589853 22 15 0
339.715567799152 996.590190160784 3742.38704550884 47 33 20
348.150469559879 996.108359091484 3746.88473786975 70 47 33
354.898203995876 996.718203737043 3756.08558867872 118 92 77
362.347749154978 996.888072861603 3763.41605906725 130 104 87
368.150549319765 998.146534667754 3775.46607798809 106 85 66
378.629770866035 996.349135232288 3774.32810930834 142 134 115
234.332124695627 999.641421977654 3723.43048692736 16 17 9
248.330368896227 995.88891323415 3714.02211985831 16 17 9
238.441770079278 1006.31485111431 3764.96260130319 16 17 9
254.282126610609 1001.46974269909 3750.9140761531 16 17 9
259.186152801467 1003.16107555036 3764.75452309052 15 17 6
277.062887164276 997.019074964165 3745.06723692481 16 16 6
311.558336110709 980.675374516174 3681.47823572834 17 17 7
292.704373148821 1001.63482141951 3784.81074536438 20 20 10
341.803786131898 985.446690170962 3734.68577820856 106 90 75
347.490059766002 986.692027893301 3746.6887158382 95 69 54
354.575885637008 987.069686776049 3754.94940923952 84 57 40
362.694947767246 986.797655745345 3760.39643828405 125 100 80
368.489130574912 988.032172534213 3772.44314959464 123 102 83
376.314432811279 987.970876716609 3778.84870539015 143 132 114
240.915346759102 981.5778305516 3679.84055274341 17 18 10
244.065558065043 984.126229255605 3697.2801431385 16 17 9
252.426843992197 988.126251917979 3727.60751099361 15 16 8
264.165711225929 985.70718698347 3723.74759434246 17 17 7
289.316820915077 979.802792167946 3711.31934011352 18 16 4
288.08847559149 985.115598236023 3740.99040798515 20 16 5
308.592154120119 977.341788581681 3713.74788477484 22 18 6
312.763747126099 979.430750813232 3729.44663428669 23 19 8
326.420804989751 975.737607081331 3719.8999305387 26 20 6
335.157911105628 975.04155686929 3723.44279888506 92 75 57
342.175655900057 975.412475139271 3731.67597783196 127 109 89
347.512050042901 976.847355791116 3744.6146231897 119 92 73
354.253882867986 977.424856343805 3753.813072411 117 90 71
360.353218758495 978.42525402996 3764.90630446229 126 104 83
368.161260043787 978.357913528415 3771.30491723785 122 104 84
240.250019098922 972.218437179951 3679.64210792937 28 29 21
257.156214067673 966.844124009433 3662.79272002231 29 29 19
265.457030904408 966.37285646124 3667.23604227717 31 28 19
278.53113948457 963.136338876033 3659.60746167214 18 14 3
270.41778869773 972.22457793723 3705.88231271171 23 15 2
290.751577821357 964.7400983253 3679.64787480993 24 15 0
289.731046032361 969.77712225975 3708.32636712199 31 18 2
294.553707919657 971.413511394756 3722.13428668672 33 17 1
306.160400833172 969.023802218401 3718.22088830598 48 31 13
316.320100281358 967.482277657274 3718.0306732966 75 58 40
325.412255058821 966.575239197854 3720.6398321985 104 82 61
332.073295858158 967.145147729298 3729.80588407195 138 104 77
340.484604992101 966.657773622856 3734.29406595984 137 103 76
346.510273763994 967.643624165704 3745.35758097918 134 106 82
354.270966028927 967.573459666992 3751.73704387638 133 107 84
359.69158446648 968.9727955282 3764.71006047521 121 103 81
368.835326161242 968.057360640643 3767.34042742427 110 95 74
377.310964658446 967.56112394485 3771.85472299241 124 117 99
241.986262600729 965.744786553748 3698.73545094818 21 17 6
257.037389094995 961.480902044777 3686.52058290574 24 16 5
262.094018901962 962.890779141543 3699.34640040912 25 15 3
277.4058876137 958.423970455055 3686.15983501305 26 14 0
281.045325634288 960.668020109818 3702.72075135785 36 23 6
292.661986500821 958.300833871302 3698.81121821307 30 13 0
298.885310578548 959.072743912831 3708.8773187086 34 16 0
307.624235807073 958.378880843912 3712.42090702285 89 67 46
317.77019376047 956.849384022465 3712.22503701243 106 84 61
325.450918279224 956.780354697459 3718.57211293045 123 99 75
332.106431588989 957.334322509387 3727.73604758878 142 108 83
339.82479929217 957.260762020734 3734.09814208439 135 103 78
348.583075401875 956.561599923296 3737.64960559877 139 111 87
355.306194894744 957.10799970825 3746.84097088609 133 109 85
361.049536238034 958.273737277895 3758.86761817505 114 98 75
364.499486165994 960.886208070671 3777.50689311281 106 91 70
224.940068155013 965.469967131579 3739.30655268279 30 14 0
231.233649686312 966.221067900545 3749.40125765301 27 10 0
254.452437897126 957.437320622523 3716.7923548895 32 15 0
266.17004711238 955.085449115621 3712.9235789357 45 24 3
279.657740228074 951.702102475753 3704.38476056494 113 91 70
292.360411809052 948.736392359792 3697.68280046899 139 112 91
301.079864798725 948.044789353094 3701.21848748079 128 102 79
308.735740660837 947.970919678837 3707.55528181545 136 108 84
317.110511319438 947.483207123792 3712.02892932499 138 108 84
323.742965688786 948.023460065634 3721.18363153639 148 118 94
330.75258081549 948.354858306872 3729.41356116282 144 116 94
340.197961754134 947.245812028628 3731.08871908663 144 118 95
350.316845821532 945.726475632164 3730.88155281144 139 117 94
364.147817153786 941.953312417219 3720.32706377939 131 110 89
365.104007446034 945.967180502456 3745.49818232457 103 88 67
222.028786834957 957.169059962657 3744.66407739242 78 60 46
247.941113330595 947.051594519801 3705.60370699431 110 93 77
255.252646163966 947.175909685149 3712.8786424548 158 139 122
266.597541266169 945.050777704867 3709.93604671214 166 143 125
279.356173580384 942.111358841715 3703.25654544078 160 135 115
292.778674728899 938.767966931019 3694.69102845761 156 129 108
302.56292631506 937.465831915693 3695.42579090006 144 117 96
308.784815701585 938.198941382224 3705.49160459705 148 120 98
317.155095185482 937.708900143881 3709.96319408594 139 108 87
323.432378839607 938.436186199951 3720.05148066999 133 105 83
333.216089046867 937.131284600231 3720.7860448819 148 123 101
344.362721125733 935.016062345713 3717.76309873024 152 127 107
358.552231786306 931.080650728664 3706.27594416526 142 121 102
365.869919398423 931.196642178996 3713.55369197018 125 107 87
382.306528379823 925.85432959609 3695.43486409218 101 88 69
234.019657222405 940.747133985398 3712.96152059098 121 105 92
248.75296665064 936.820224987914 3701.69448185362 168 152 139
258.627139551736 935.522084030459 3702.46562252667 168 150 136
268.851140937171 934.022867396849 3702.30112223437 163 144 129
279.779897101441 932.121698695985 3700.26714534158 161 140 123
291.758137102947 929.618743135111 3695.42597675587 165 139 122
301.546163713516 928.324558133857 3696.16220742007 155 129 112
310.609066373422 927.432265280284 3698.75966780532 149 122 103
318.257332787999 927.342016661139 3705.09376250297 156 129 110
324.871194651023 927.850930985969 3714.24091705168 160 135 115
333.599019959448 927.155735627113 3717.78002118518 141 120 101
345.084816488591 924.860188030089 3713.81695899432 146 125 106
358.241171774136 921.56836816968 3705.1432905314 142 125 107
385.939289084199 909.700293745288 3656.03039022969 114 99 80
207.032129880602 937.274524264717 3726.87517095131 110 109 104
221.157582574791 933.780809940879 3717.51634811052 231 226 222
235.21219069121 930.292045549051 3708.12906050862 232 227 223
250.306840197811 926.21037195457 3695.93069074357 233 225 222
263.109084412004 923.329072602132 3689.26814986548 232 224 221
274.759926760997 921.048065293622 3685.37180334841 230 221 216
284.556882803111 919.76267723058 3686.1115827979 231 220 216
294.338616309102 918.477837683413 3686.84519459256 231 218 212
303.032225285293 917.788282249463 3690.37040202603 230 217 211
313.856299714334 915.909693774833 3688.29386908701 227 214 208
323.944723211097 914.428511407763 3688.0743375716 226 211 206
330.162454318499 915.122378546933 3698.13876505693 216 202 191
338.15288101618 914.825445074158 3703.53415650482 238 224 213
346.843204468977 914.132623156006 3707.05805841217 207 193 182
357.930333673891 912.059714371297 3704.01069924309 128 116 104
200.908886365821 926.674535283126 3714.76621301363 117 116 111
214.294078367507 923.612843996388 3707.26226275024 219 219 217
226.11645705314 921.343053268081 3703.43528506411 220 220 220
238.271499650782 918.878812491528 3698.66540915168 221 219 220
251.862919612766 915.631427727887 3690.16755849346 220 218 219
265.020663544451 912.584767920288 3682.57140218058 219 217 218
278.848443379517 909.150019698004 3673.09186398391 219 215 214
290.0652147208 907.091646692463 3670.09688582174 217 213 212
298.724108325732 906.40549922944 3673.60801141542 216 210 210
305.951696829274 906.500778813358 3680.84917849223 215 210 207
318.173378228361 903.859154246597 3675.02882053659 214 206 204
330.344315338615 901.220832741497 3669.18789154097 212 203 204
341.413819672322 899.170720187084 3666.13322339698 214 203 197
346.189318092287 900.627692016372 3679.9234067416 215 205 196
353.436323188598 900.718020608209 3687.17273021322 228 218 209
361.73130228161 900.222946475792 3691.61386925435 188 179 170
167.486726837252 926.171210104505 3743.31423636855 177 176 174
186.783807756457 920.208677766632 3722.04254741822 209 207 208
203.659563331738 915.424025408699 3706.25517349121 224 222 223
216.646630307864 912.591021717477 3699.66735720092 219 223 226
229.202440018122 909.955980975707 3693.98223553185 218 223 227
241.707731057423 907.324165644213 3688.27663476245 218 221 226
255.274463203244 904.114124302804 3679.7685051291 217 220 225
268.407330770556 901.102312259442 3672.16201241566 217 220 225
281.113796908416 898.287893704433 3665.46044196017 218 221 226
291.949272775381 896.443311159255 3663.38826762706 217 220 225
301.672722740608 895.179587512141 3664.09812077549 218 219 224
312.096954017682 893.53060526027 3662.93676196286 217 218 223
323.206674908902 891.497749850526 3659.89824641413 214 215 220
335.339675360326 888.88981145086 3654.04172683799 213 214 219
345.319411262464 887.438460714674 3653.77796236855 219 217 218
353.887218570492 886.756122610374 3657.25217889089 205 201 200
362.45480598431 886.073024838544 3660.72631213769 222 218 217
368.27966506897 886.922182180172 3671.70929960549 208 204 201
378.908663782384 885.087796080311 3669.55370407344 201 197 194
390.182638885647 882.872637885141 3665.50401032899 217 213 210
162.516439883249 914.95651400084 3728.44008004401 222 221 219
183.401195240319 908.295981445325 3703.50128732292 228 226 227
194.158029384561 906.641389999347 3702.47463957512 231 229 232
204.889642134731 904.988133846046 3701.43802696862 213 211 214
215.596201353693 903.336150737803 3700.39100348864 221 222 226
228.908993440684 900.344933079888 3692.85720484092 219 223 226
242.907860918021 896.975355031705 3683.44644484848 220 221 225
256.465086190912 893.801514130952 3674.93419156004 220 221 225
268.483274503352 891.39593694511 3670.10845966138 220 221 225
280.090057630051 889.183875198716 3666.19375128823 220 221 225
292.746124534533 886.402979075264 3659.47152044869 220 221 225
303.54284815003 884.577068361154 3657.38351407563 218 219 224
316.458337194046 881.612426638236 3649.68864879729 217 218 223
327.178958984355 879.791230254836 3647.56979360009 215 216 221
337.162781746497 878.351212064429 3647.30759797376 214 215 220
347.476787412297 876.722733259413 3646.10171140666 208 207 212
358.113414759271 874.90609943473 3643.94881287043 213 211 214
368.719468324531 873.091349928542 3641.78352094358 214 212 215
375.521840530437 873.356078855129 3649.93004471228 211 209 210
384.05160442309 872.67472247183 3653.38885028361 213 211 212
393.932860246881 871.238765692719 3653.08509524493 213 211 212
403.122671672259 870.180393744294 3654.65639078265 218 217 215
414.965178012032 867.617587806636 3648.68191010339 221 220 218
425.765664580249 865.621671296044 3645.51765055092 238 237 233
158.001701995366 903.61007511106 3712.67256274559 228 227 225
173.106960325131 899.877439251863 3701.55465095053 215 213 216
186.586444107968 896.908695842691 3694.08843146945 237 235 238
199.621818792397 894.133320069886 3687.51948059815 220 217 224
208.408718957194 893.442649840709 3691.08246942396 222 219 226
217.195779476357 892.751309369826 3694.64552825637 222 220 221
227.863493570338 891.11531011225 3693.58291273332 222 221 219
242.241874637758 887.594793324813 3683.24789381404 223 222 220
257.28642583672 883.702813276601 3671.02780177316 224 223 221
269.665346003145 881.134210803956 3665.27055519483 224 223 221
280.529737266981 879.320811963621 3663.20985213743 222 220 221
293.180950906514 876.570188406632 3656.48542678743 225 223 224
305.415544851481 874.010988242507 3650.6696722758 224 222 225
319.39142660329 870.518176394242 3640.17147423431 222 222 224
330.088518589173 868.715282661401 3638.0429532566 220 220 222
341.1084122887 866.727203036426 3634.96772792499 221 219 222
350.338696398879 865.67512891338 3636.55536283076 213 214 219
359.906995174137 864.43660924244 3637.20220532037 215 215 223
369.114197125104 863.384994439214 3638.78023371505 203 204 209
377.281426028619 862.892091493201 3643.16963115093 214 215 220
386.13475045994 862.026206410715 3645.6820346299 207 206 212
396.335253981187 860.417001657546 3644.43004575514 200 199 204
406.51018752133 858.809110866792 3643.16743658983 212 211 216
416.992549681829 857.017311941372 3640.95188892883 209 207 210
424.79974670982 856.708593926686 3646.27318130292 201 199 200
434.584771035388 855.288689819299 3645.9303411363 209 208 206
438.815923975366 857.01051071792 3661.65598887542 214 213 211
445.696101382632 857.250126259662 3669.8342057725 230 229 224
109.41116758896 909.720245848803 3774.9476206885 122 123 117
135.431611589764 900.949658343754 3739.15749899276 224 224 222
158.885699407086 893.319011917224 3708.79300069909 218 216 217
173.98458204746 889.63057752306 3697.67217239743 227 225 228
187.070492428899 886.882036956751 3691.12373689545 212 211 216
198.565459765625 884.88370100697 3688.24068603331 222 221 227
209.643651197784 883.074040297609 3686.26677804456 217 214 221
218.418690687743 882.383532678133 3689.82496333447 220 218 219
230.204358525782 880.203809453259 3685.98218177211 221 220 218
243.444604969477 877.283250884308 3678.4187315564 225 221 220
256.995465670239 874.181047798952 3669.90335830261 226 222 221
267.530920569478 872.567069391283 3668.78676782839 223 222 220
279.505765443426 870.213344868063 3663.94309344896 221 220 218
293.61682117697 866.752139505363 3653.49964405471 224 220 221
308.37414994267 862.926611883304 3641.16275399063 221 219 220
321.969671337892 859.66126491141 3631.58763475241 220 218 219
333.001779075789 857.692003481078 3628.51721216177 218 216 217
344.705296466778 855.356363073952 3623.56379935727 218 216 217
353.906291937659 854.312114250327 3625.13925895993 217 218 223
361.703106096838 854.003501537642 3630.45634658571 208 208 216
369.855798865531 853.509598322647 3634.83986602517 211 212 217
379.043517174315 852.464428812298 3636.40995677736 213 212 218
387.879930092143 851.602633298055 3638.91548190631 210 209 215
398.740980118033 849.64238146582 3635.77573096754 212 211 216
407.887319504449 848.598517718543 3637.32905778937 208 207 212
417.356435382497 847.372160002047 3637.93564964105 209 207 210
424.82554243626 847.24099227652 3644.19751413624 206 204 207
433.294077860372 846.561378552678 3647.63151552479 205 203 204
440.785168974452 846.427153996997 3653.90230438047 197 195 196
446.998418075031 847.018441788225 3663.96569465642 201 200 196
455.811493699135 846.153294723083 3666.46179608403 227 226 221
471.616809937453 841.296706293939 3648.08368058233 102 102 94
104.826136645702 898.27279535484 3759.15240786951 230 232 231
118.631816937536 895.346771197513 3751.81793924771 214 216 215
139.078937025413 889.284259102546 3728.85503455593 223 224 226
160.162938084996 882.863488936713 3703.99484045058 222 223 227
174.085416529631 879.772311695603 3695.62984902022 222 221 226
186.39573881238 877.422368772302 3690.9222356341 221 222 226
196.740405319823 875.994713652647 3690.80579215301 221 222 226
210.117362236833 873.098233013142 3683.29751253696 223 222 227
221.159638950698 871.307084512489 3681.30866538873 222 222 224
234.054097588467 868.600790883537 3674.68239220946 222 222 222
246.519029552105 866.081384065692 3668.95959830987 223 223 223
258.561999111072 863.748264756063 3664.14335095171 224 222 223
269.083853418225 862.148992849241 3663.02114222268 223 223 223
281.412211073325 859.638374170385 3657.24298373974 223 223 223
295.509054465782 856.219301231319 3646.79346051681 225 223 226
309.891273834119 852.623512386597 3635.3817580967 220 220 222
322.039743490184 850.125053733141 3629.53067206549 219 219 221
333.425052997369 847.993488576681 3625.52542322136 218 218 220
345.123332913458 845.683010431414 3620.56969907722 216 216 218
354.668877164982 844.463389524127 3621.20718517363 216 215 220
363.153117512702 843.787791825667 3624.6475149343 214 213 218
370.598801093651 843.654355346898 3630.89991262754 214 213 218
379.77737847809 842.615349680203 3632.46625556385 214 212 217
388.945577955371 841.576568474613 3634.02839485759 211 209 214
398.78033861935 840.177291828586 3633.70553623211 211 209 212
408.258568396646 838.959178450348 3634.31575574731 210 208 211
416.720888697227 838.281372213356 3637.74722697604 209 207 210
424.520955555418 837.96239963406 3643.06571012161 205 203 206
433.644375696149 836.923938301826 3644.60971615412 208 206 209
441.453735719243 836.602914368233 3649.93197758514 207 205 208
448.302827775565 836.817734841211 3658.09779618334 202 200 201
455.176660559956 837.029991977677 3666.2739087833 200 199 197
465.258115190177 835.452700473616 3664.97321873422 221 220 216
483.522864874164 829.235801886634 3638.97024162084 104 103 98
111.720021676228 885.090521702348 3741.54471311988 228 230 229
127.4653479067 881.289711118019 3729.60766889354 226 228 227
144.702581894666 876.766811810149 3713.96467100261 224 225 227
161.050115347449 872.615152827143 3700.1162420435 222 223 227
174.965609472622 869.560155497814 3691.74814847772 221 222 226
187.655057972087 867.053745348569 3686.11616122444 221 222 226
198.756975285696 865.275565361399 3684.15136383546 221 222 226
210.973885999854 862.956096837257 3679.4056977782 221 222 226
223.524774601394 860.458518003292 3673.71728443668 221 221 223
237.531810847087 857.241857566877 3664.30867284697 221 221 223
250.719705503255 854.390961340544 3656.72349774117 221 221 223
260.50233834676 853.166125523819 3657.45701885931 222 222 224
271.008057811497 851.581880453953 3656.32816334736 222 222 224
284.05430920341 848.74017397047 3648.68556822985 222 222 224
297.767955129524 845.543236923078 3639.15775825021 221 221 223
309.964607398117 843.068995843732 3633.32599745544 218 218 220
322.469488547737 840.418912776542 3626.54156104567 217 217 219
333.849357045427 838.309716530776 3622.53393962503 217 217 219
345.18849526013 836.203024541785 3618.51006504583 216 216 218
354.027390558974 835.349161903122 3621.01653514426 216 214 217
363.209942412251 834.316715598527 3622.58443759672 215 213 216
372.035804544205 833.462690031192 3625.08563189301 212 210 213
380.856444820907 832.608366282401 3627.58445693062 212 210 213
389.671665151828 831.753868770756 3630.08134601414 211 209 212
398.481532835912 830.899078026054 3632.57607007144 210 208 211
407.622259446037 829.866717547531 3634.1270371282 210 208 211
416.418797105964 829.011727617501 3636.61636546276 208 206 209
425.209887233727 828.156571524206 3639.10348938955 212 210 213
434.324163766441 827.12433402435 3640.64374606489 211 209 212
443.101786150075 826.268989657022 3643.12541842439 206 204 207
449.932823660091 826.471731158642 3651.28401841978 199 197 200
456.467619428134 826.848044441315 3660.4004219721 200 198 201
464.62463091518 826.341425409088 3664.78578641251 192 191 189
473.733861884287 825.306473888466 3666.32427797291 218 217 213
93.1814622202973 880.084204699348 3757.81210776385 157 159 154
117.82187964399 872.36923929819 3725.7707115393 218 220 219
135.51374132602 867.720468484753 3709.23393511476 224 226 225
153.883929721847 862.720921044452 3690.81633643066 233 234 236
164.291268010505 861.312325136374 3690.72538107348 222 223 227
176.236810621454 859.188971317607 3686.94716163781 221 222 226
188.916147060918 856.710739782984 3681.31086649674 220 221 225
201.160635634891 854.414257469929 3676.57593506413 220 221 225
211.83196899184 852.833867534978 3675.51410622501 220 221 225
223.616319446265 850.720475191819 3671.67054571988 220 220 222
237.621614040831 847.54220944892 3662.26093792664 220 220 222
248.561338760819 845.790448852267 3660.23026965178 220 220 222
257.239837518001 845.105497810505 3663.7493241644 221 221 223
271.826984411027 841.583017544026 3652.42003979071 221 221 223
287.800112121301 837.357779973745 3637.34176615657 221 221 223
301.486593344201 834.201365978869 3627.80290745356 220 220 222
311.123582087421 832.993688224885 3628.47732825209 217 217 219
321.104520084012 831.609914211297 3628.21328106251 216 216 218
332.848101030394 829.345700220005 3623.27554831549 216 216 218
342.775556787401 827.964902791887 3622.99008121018 216 216 218
352.331079161574 826.761049317108 3623.63148786504 216 214 217
361.871223634281 825.557756667509 3624.26666386544 215 213 216
372.435455933205 823.828512723152 3622.08379069478 211 209 212
381.937162512218 822.626890585462 3622.70339080184 212 210 213
390.05771080572 822.12626882106 3627.07394609541 212 210 213
398.521901663778 821.449749009771 3630.50616494888 209 207 210
407.658442627262 820.423214139668 3632.05565033694 209 207 210
417.11841990936 819.222447315746 3632.65834806376 212 210 213
426.231538616029 818.196458486861 3634.1980885803 216 214 217
434.67654341792 817.518888378423 3637.62254709629 207 205 208
443.121138554949 816.840812742039 3641.04684357363 202 200 203
450.270420113657 816.856697059281 3648.25690651676 198 196 199
456.797090446311 817.217395005021 3657.37013849775 203 201 204
463.990946343057 817.228492482849 3664.59828555805 200 199 197
472.785056844639 816.372080897251 3667.08664192912 191 190 188
496.312125973266 807.391447140129 3624.89426453113 105 104 99
93.2888038024398 870.001800926156 3755.77411796993 228 230 227
117.132609711067 862.747233573251 3725.56456319839 221 223 222
139.597434338155 856.036752449226 3698.0292262899 227 229 228
155.573654383939 852.164324987949 3685.1071468029 220 221 223
164.005776305928 851.649533009062 3689.60422068803 220 221 225
175.951037503712 849.547965401507 3685.82546495007 219 220 224
188.630396554453 847.09698997829 3680.18897237026 218 219 223
202.798024661903 843.946211724788 3670.84488392064 217 218 222
213.837865423638 842.204989937548 3668.85467204174 217 218 220
227.125066534218 839.413175082048 3661.30925759633 218 218 220
238.843428669598 837.326177024069 3657.43852159948 218 218 220
248.648619543805 836.116590166137 3658.18106072176 218 218 220
257.322662300568 835.431932388833 3661.69830880846 218 218 220
271.908434460684 831.953257370978 3650.36813578329 219 219 221
289.348729748693 827.085301248293 3631.57328975649 219 219 221
301.930068193233 824.490729998768 3624.81938960026 218 218 220
311.198776648845 823.465624604407 3626.42212060959 215 215 217
320.816619004967 822.266995571734 3627.08872058455 214 214 216
332.560086680612 820.027423722975 3622.15049796773 214 214 216
341.777784478051 819.004501334295 3623.73281580228 213 213 215
351.337004611992 817.808484442914 3624.37566025475 214 212 215
360.182381445014 816.959129477077 3626.8847205136 215 213 216
371.102702706928 815.072792684997 3623.76815059672 211 209 212
380.610560022252 813.878926924206 3624.39043952875 213 211 214
389.76145949807 812.858134121872 3625.94543782705 212 210 213
398.562781490996 812.009699166025 3628.43665361929 204 202 205
408.031846293365 810.816999442009 3629.04296967238 210 208 211
417.819383150807 809.453205360225 3628.70072151345 217 215 218
426.591876670747 808.605147008942 3631.18000477975 211 209 212
434.371922583027 808.270963566792 3636.49049688011 200 198 201
442.814555210455 807.593043416365 3639.91399757265 199 197 200
449.637267113541 807.769306189567 3648.06942729022 200 198 201
456.484715542371 807.942946183097 3656.23514975862 187 185 188
463.994672256692 807.772915458288 3662.51384856341 193 192 190
472.46821178407 807.090036015792 3665.94990083125 204 203 201
482.510064221704 805.555932108067 3664.63284878426 196 195 190
78.6812191524915 863.079459018531 3762.85880634486 219 221 216
95.0071450495664 859.230846604717 3750.07839699883 215 217 214
119.643753395775 851.72940434815 3718.03384005851 211 213 212
140.107939541505 845.983130575335 3695.07544829258 218 220 219
152.92062435846 843.551061620213 3689.49279506672 223 224 228
161.758348705664 842.858695954331 3693.07637509549 219 220 224
173.325889342654 840.951501806588 3690.22227504591 218 219 223
186.795298601232 838.180046046811 3682.75022384807 217 218 222
200.204069091286 835.41279140801 3675.25384582489 216 217 219
213.17004843529 832.82248111063 3668.65539452518 215 216 218
226.840043626849 829.89052618774 3660.18696754951 217 217 219
238.935178403954 827.653034827177 3655.39137391202 217 217 219
247.987068850576 826.796469332499 3657.9838474998 217 217 219
256.289444808493 826.283827333186 3662.42837186541 218 218 220
269.402770737802 823.535861076058 3654.81196700181 218 218 220
287.228162677451 818.560519090242 3635.09479247138 218 218 220
301.645416124967 815.137576750982 3623.69596497278 218 218 220
313.447002526496 812.919397455231 3618.78136929387 214 214 216
321.607610347047 812.414705208043 3623.16817525977 213 213 215
332.27223210831 810.712895047577 3621.02574113183 213 213 215
340.779475383869 810.036849720622 3624.47538800821 212 212 214
351.75016042252 808.167080266285 3621.37934167899 211 209 212
360.239339549887 807.491210829775 3624.82167317632 213 211 214
370.462734650348 805.964422362442 3623.57807102055 211 209 212
379.971768284937 804.778772282363 3624.20077396331 213 211 214
390.832730115491 802.9151310337 3621.05999780644 210 208 211
400.300676265582 801.731480939849 3621.66604955795 201 199 202
408.742929143492 801.056221024786 3625.08937632874 214 212 215
417.184850786196 800.38038959184 3628.51257331669 215 213 216
426.289758011431 799.366169698351 3630.04889985715 204 202 205
434.725820938455 798.689547142309 3633.46973068905 203 201 204
442.5081761572 798.349143351758 3638.7812049598 203 201 204
449.65202102418 798.343759682596 3645.98922783044 205 203 206
456.4941153294 798.504260111951 3654.15262481982 194 192 195
463.360950362689 798.662197204794 3662.32631581097 203 202 200
470.885534935904 798.482220455037 3668.61101272054 185 184 182
480.308564653045 797.295977481369 3669.19864055278 202 201 196
63.5995793275734 856.266475436341 3770.82953236918 204 205 200
78.7916801360251 852.977016797031 3760.82248868702 217 219 216
101.561416951861 846.429960876205 3733.40911262231 216 218 217
124.159309970534 839.895677537928 3705.9263186333 219 220 222
138.630887110372 836.800858173873 3696.70487284417 220 221 223
149.475258659973 835.250933287181 3695.71287502873 217 218 222
161.079921713756 833.360583889945 3692.87367790455 216 217 221
173.819819026976 830.960105028707 3687.2613140889 215 216 218
188.447343009655 827.710181646139 3677.02512034978 215 216 218
199.918570909509 825.828371678556 3674.13183154891 214 215 217
212.502150895465 823.438245158675 3668.45609748504 215 217 216
226.555238065773 820.371680330098 3659.06499390523 215 215 217
239.027701885852 817.988982485409 3653.3442133843 215 215 217
249.949924140835 816.287804308819 3651.30607508418 216 216 218
260.097007306504 814.927026053088 3651.10938182352 216 216 218
270.223880321192 813.567191472609 3650.90449846285 216 216 218
285.473235887186 809.843152021774 3637.68699194787 217 217 219
300.631314079464 806.125741131177 3624.43273485367 218 218 220
313.886887249649 803.25758410951 3615.79602776173 215 215 217
322.040298601185 802.75077210045 3620.17993599544 214 214 216
330.913023613899 801.906602850234 3622.70003003253 213 213 215
339.425918572806 801.230109751 3626.15196862952 211 211 213
350.755795454664 799.211190939632 3622.12342167884 208 206 209
360.296900054052 798.03244997533 3622.75880033267 210 208 211
369.475478570726 797.021712901561 3624.32518668573 208 206 209
378.643785870832 796.011197249973 3625.88715539098 210 208 211
390.195675021415 793.832293422872 3620.87090413719 208 206 209
401.02273570708 791.989923052362 3617.7164976456 200 198 201
409.45545299559 791.31553817638 3621.13595689113 223 221 224
417.887796214246 790.640465624018 3624.55526989081 199 197 200
425.987842124699 790.130942216941 3628.91784861305 205 203 206
435.080652459899 789.122701930007 3630.44923188449 206 204 207
442.528811020249 788.943221092447 3636.70298068307 196 194 197
449.991686935997 788.761916689274 3642.96270225689 199 197 202
456.182260847989 789.240111323701 3653.01776872465 200 198 201
464.003846683124 788.889366456511 3658.34520557707 198 196 197
471.518377677479 788.702062096961 3664.62563017839 190 189 187
482.189010464952 786.866227157559 3661.40783760034 197 196 191
61.5849761877267 843.958632990134 3749.60822581208 160 161 156
69.4251568939241 843.760466626002 3756.02084323623 212 213 208
91.0685422574424 837.807653276855 3731.3838501209 216 218 215
110.137567232202 832.880291804477 3712.16985013192 216 218 217
127.478548001938 828.637472977122 3696.56673564552 219 220 222
140.734433540112 826.088333713607 3690.08535324834 219 220 222
149.981016953031 825.227037568547 3692.75694972485 216 217 221
162.758598629779 822.851548261907 3687.15965462747 214 215 219
175.485823456536 820.479271544771 3681.5419460471 213 214 216
189.713800758167 817.439199368247 3672.22145343753 213 214 216
198.862765072255 816.582947476795 3674.85348639724 213 214 216
209.155147185556 815.224291823178 3674.71535033759 213 215 214
220.948099742846 813.197610613757 3670.87461551633 214 214 216
234.589001657308 810.338436721828 3662.39385721814 214 214 216
247.789060207592 807.650548036788 3654.81211440776 215 215 217
257.202419144222 806.633045418743 3656.47361297343 216 216 218
267.715973631895 805.116384127937 3655.34741754024 216 216 218
283.717055284964 801.107951459651 3640.27881893778 217 217 219
298.521815770141 797.604804327983 3627.95869008525 218 218 220
313.240423857434 794.107944904398 3615.60363107698 214 214 216
320.314439922687 794.095182002121 3622.78343669222 213 213 215
330.625177861606 792.591421352884 3621.57502448945 212 212 214
340.555548457137 791.254328423098 3621.29040631347 210 210 212
351.170180164772 789.58810043924 3619.12746186315 209 207 210
361.054626621119 788.25345047087 3618.82423081102 210 208 211
368.835014535509 787.907404264188 3624.13495130213 209 207 210
378.348963522736 786.737808592161 3624.75926552182 209 207 210
388.531882856493 785.240528429171 3623.49905134947 206 204 207
399.368442827636 783.416653353164 3620.3483508621 201 199 202
407.80932691048 782.741621437374 3623.77112168928 206 204 207
416.584428622037 781.902436997605 3626.25165095863 195 193 196
424.357868928219 781.553175342426 3631.55958278454 201 199 202
433.459229988122 780.549816775157 3633.09439118184 198 196 199
441.241951205865 780.198624288695 3638.40609541838 196 194 197
449.683291595593 779.520447863223 3641.82907483551 201 199 204
457.158396316665 779.329452697694 3648.09356399292 201 199 204
464.328641293594 779.29913751208 3655.31272228201 197 195 196
471.518646818178 779.266544836051 3662.5396415133 189 188 186
480.300011813941 778.422022303691 3665.02274720343 203 202 198
489.387586356066 777.415631465295 3666.55199652097 165 164 159
50.2046776671055 838.55198519496 3773.09247388232 230 230 228
72.8074690628242 832.339934117056 3746.68802892225 212 212 210
92.4036522440665 827.305642212994 3726.60947392301 216 218 215
110.659090661229 822.779769378097 3709.22088882966 218 220 219
127.997123261843 818.594569187298 3693.61614391687 220 221 223
142.442409153424 815.578226688884 3684.38345815402 217 218 220
154.048066929142 813.726533396278 3681.54437078299 211 212 216
165.618718222007 811.876961478536 3678.69083622863 209 210 214
177.154115220846 810.029519741331 3675.8232685403 209 210 212
188.654317173586 808.184268680633 3672.94143402199 210 211 213
197.80659683573 807.330444044992 3675.57479094475 210 212 211
207.719891467103 806.1470222447 3676.36090218977 209 211 210
219.520127640012 804.141587659541 3672.5226981828 212 212 214
232.413463000016 801.645914459678 3665.89437375087 212 212 214
245.626468297103 798.989871470698 3658.31788883157 213 213 215
256.542140768548 797.321371764464 3656.27685087653 213 213 215
269.278763776155 794.836027840928 3649.58473920178 214 214 216
285.269085253541 790.883202591315 3634.51136239122 214 214 216
299.697344040441 787.590776193494 3623.11600160144 216 216 218
311.143256120948 785.609044972589 3619.13441183681 211 211 213
318.947392306527 785.258726190783 3624.45478021993 209 209 211
327.834422974883 784.418988121811 3626.98037570212 208 208 210
338.491469249499 782.766495676697 3624.83450049837 208 208 210
349.822953634708 780.791319751301 3620.80653008183 210 208 211
360.413803390272 779.142876410264 3618.63382168457 206 204 207
368.88931041948 778.467552203541 3622.07061331335 208 206 209
377.709491965328 777.629996693934 3624.56938274195 206 204 207
386.866751210322 776.630697624822 3626.12679314918 203 201 204
397.033088206196 775.147936354119 3624.8600120828 207 205 208
405.824572872358 774.310806799289 3627.3469018926 183 181 184
415.614935606824 772.990903592396 3627.00546523042 195 193 196
423.723318298441 772.475399604628 3631.37146478756 206 204 207
432.825614168599 771.47752615165 3632.90661010725 194 192 195
440.935760902593 770.960632517925 3637.27307721927 202 200 203
449.375144503702 770.282790453455 3640.69526181216 197 195 200
457.49183576653 769.764237149053 3645.06464856401 202 200 205
464.97401592469 769.564013875006 3651.3320724624 198 196 197
472.153617788856 769.521480349025 3658.55511190065 196 194 195
478.723948416882 769.795217369821 3667.68642354002 188 187 183
485.323999868617 770.066116042667 3676.83004767117 197 196 191
27.9636047956158 834.375740197129 3796.48543491016 138 139 134
44.5678018264763 830.703836424608 3783.81635617487 232 232 232
66.7995828222519 824.743077421765 3758.33859514571 208 208 208
91.7111309993821 817.64802842174 3726.4022790484 217 219 218
111.181752671212 812.693981217565 3706.27227684905 219 221 220
128.516860444373 808.566338037904 3690.66591142786 218 219 221
141.36460771691 806.241180298696 3685.09664438443 215 216 218
152.974746050146 804.408200596694 3682.25922931553 209 210 214
163.370021416099 803.065716363373 3682.16288865779 207 208 212
173.745449065783 801.72409272815 3682.05824805045 208 209 211
184.10077850435 800.383398485422 3681.94572000157 209 210 212
195.593035282196 798.557307497893 3679.06052331 209 211 210
205.900701107605 797.219134255741 3678.92867749275 209 211 208
217.710669670347 795.234806645185 3675.09425407647 211 211 213
230.614306252921 792.768384678451 3668.46987882034 211 211 213
243.837905124861 790.144265098671 3660.89718396729 212 212 214
256.254806418875 787.846786659703 3655.15326063264 212 212 214
269.361927252401 785.230694480563 3647.53360102664 212 212 214
286.823320887058 780.689482097917 3628.74456371616 212 212 214
298.316975485798 778.726444141412 3624.78216286967 214 214 216
310.132965790125 776.605580306646 3619.87240437793 209 209 211
318.66047620163 775.929244326757 3623.33025947739 208 208 210
328.976734959825 774.45247809055 3622.12413523156 207 207 209
339.267626671029 772.977129290873 3620.90747207748 206 206 208
349.532945599389 771.503263175954 3619.68070067268 207 205 208
359.422678731761 770.190018045627 3619.37919068889 203 201 204
367.901299750989 769.514566675517 3622.81724411408 205 203 206
376.379671407667 768.838477524803 3626.25520140833 203 201 204
385.200328638531 768.003096043367 3628.75414695989 202 200 203
394.355629909483 767.008908103425 3630.31098308286 207 205 208
403.838043414328 765.856635402042 3630.92239750537 203 201 204
412.969937719118 764.863111844074 3632.4694940509 194 192 195
422.423745371246 763.711910008731 3633.06931804907 205 203 206
431.53196155703 762.719121263827 3634.60707914854 196 194 197
440.302353598111 761.88414104697 3637.08541241222 200 198 201
448.092535369805 761.520940239177 3642.40022839409 196 194 199
456.859321977789 760.685104514103 3644.87736555447 203 201 206
464.021630603112 760.633724799423 3652.09321290776 194 192 193
471.520877824711 760.423476385058 3658.36788035382 198 196 197
477.146434239966 761.15052935762 3670.34990524152 193 192 188
484.377800465778 761.091879641635 3677.59402586003 188 187 182
28.0793315601997 824.151296184666 3794.45217407014 147 147 145
42.626759036666 821.335847178196 3786.33813013814 210 210 210
65.6902688317109 815.138937488751 3759.0410466621 207 207 207
90.6124375614239 808.149741971694 3727.10848563742 217 219 218
111.705577768837 802.622686276851 3703.32402593975 219 221 220
128.636738643982 798.713377888122 3688.63125850157 215 216 218
141.083363716664 796.576079022341 3683.97722136714 211 212 214
150.71307242593 795.563557989309 3685.72602344007 205 206 210
160.33301724693 794.551033441507 3687.47087221033 205 206 210
171.897610627008 792.739475459399 3684.6148539412 207 208 210
183.038665178858 791.089702128256 3682.66492965575 208 209 211
195.307009376534 788.963359988601 3677.93862480688 209 211 210
207.913328210619 786.680762404338 3672.27128250178 208 210 207
219.707685245363 784.719549719493 3668.43036288339 211 211 213
232.59628946167 782.284386118647 3661.79966419857 211 211 213
244.677921543945 780.170271871491 3656.99741102401 211 211 213
256.340814381401 778.217556599332 3653.10345530035 210 210 212
270.55776113704 775.15970489916 3642.69956589471 210 210 212
285.802961385194 771.633130839279 3629.47913741364 210 210 212
298.398066763048 769.218117657922 3622.72919316359 211 211 213
309.122085375055 767.595103397875 3620.61046837555 208 208 210
318.373735164863 766.60362862512 3622.20603754079 207 207 209
327.973106663059 765.455180527643 3622.8647784382 205 205 207
337.201733524937 764.464274520157 3624.45102147166 203 203 205
347.478712184887 763.003173354089 3623.22887425489 202 200 203
356.32871327665 762.170009997362 3625.73968411541 199 197 200
365.869131873941 761.023781807515 3626.37453857388 199 197 200
374.703565708942 760.19066170728 3628.87878780782 199 197 200
384.903613847153 758.733204782043 3627.62546434452 199 197 200
394.057412242471 757.744700503648 3629.18139165662 201 199 202
402.862985537249 756.91212804897 3631.67420853747 193 191 194
411.663134641531 756.079327805608 3634.16483092854 194 192 195
421.455811630665 754.780706279515 3633.82391275582 199 197 200
431.887916909153 753.173168424593 3631.58687701659 200 198 201
440.97897075122 752.186706250514 3633.11738402423 198 196 199
448.109175104382 752.128246144601 3640.32028625221 197 195 200
456.22658875258 751.60443508602 3644.69000534513 201 199 204
463.708713865707 751.387957073139 3650.95753016266 190 188 189
471.522789969899 751.015809582042 3656.28208860419 195 193 194
476.197322454673 752.180349369767 3671.11267348081 197 196 192
