ply
format ascii 1.0
comment KinectMotionCapture
element vertex 790
property float x
property float y
property float z
property uchar red
property uchar green
property uchar blue
end_header
3.55822686105967 -230.964034795761 1919.0000295639 0 1 0
9.03447344899178 -237.342566251755 1972.00000286102 52 54 51
14.1273811459541 -232.648029923439 1932.99996852875 51 53 50
19.4390509277582 -233.128517866135 1937.00003623962 1 3 0
24.644834920764 -232.405140995979 1930.99999427795 3 6 0
29.3685998767614 -228.191241621971 1896.00002765656 10 13 6
34.1928228735924 -225.90272128582 1876.99997425079 13 16 7
39.2483957111835 -225.539594888687 1873.99995326996 11 14 5
44.2874617874622 -225.176215171814 1871.00005149841 10 13 4
49.7587472200394 -226.858481764793 1884.99999046326 10 13 4
54.6654686331749 -225.892767310143 1876.99997425079 10 13 4
59.2098459601402 -223.723337054253 1858.99996757507 11 14 7
64.3128156661987 -223.840221762657 1860.00001430511 16 17 12
69.3463832139969 -223.716154694557 1858.99996757507 17 18 13
74.2941796779633 -223.351135849953 1855.99994659424 17 18 13
78.7550434470177 -221.662163734436 1842.00000762939 16 17 12
84.04890447855 -222.37965464592 1848.00004959106 14 15 10
89.3269404768944 -222.976505756378 1853.00004482269 14 15 10
94.7337746620178 -223.813742399216 1860.00001430511 13 14 9
99.6418297290802 -223.447382450104 1856.99999332428 15 16 11
105.942733585835 -226.088896393776 1878.99994850159 14 15 10
110.94456911087 -225.842282176018 1876.99997425079 15 16 11
116.058759391308 -225.836053490639 1876.99997425079 16 17 12
120.397850871086 -224.385812878609 1865.00000953674 14 15 10
125.209361314774 -223.897814750671 1860.99994182587 14 15 10
129.228577017784 -222.086280584335 1845.99995613098 13 16 9
134.474724531174 -222.440019249916 1848.99997711182 14 17 10
139.283999800682 -222.071707248688 1845.99995613098 17 20 13
144.389167428017 -222.184345126152 1847.00000286102 24 27 18
149.013876914978 -221.574977040291 1842.00000762939 23 26 19
154.279768466949 -221.92770242691 1845.00002861023 24 29 22
161.806374788284 -225.407466292381 1873.99995326996 22 27 20
172.785699367523 -233.336970210075 1940.00005722046 12 17 11
178.616493940353 -234.049245715141 1945.99997997284 10 15 9
-159.450054168701 -229.767695069313 1868.00003051758 11 13 10
-152.794763445854 -227.439150214195 1848.99997711182 22 25 18
-146.961569786072 -226.217269897461 1838.99998664856 24 27 20
-141.877025365829 -226.102188229561 1838.00005912781 24 27 18
-137.467667460442 -227.094024419785 1845.99995613098 26 29 20
-132.00980424881 -226.363316178322 1840.0000333786 21 24 15
-126.446112990379 -225.386291742325 1832.00001716614 21 24 15
-120.859228074551 -224.285870790482 1822.99995422363 20 23 14
-116.52884632349 -225.522801280022 1832.99994468689 20 22 17
-111.839316785336 -226.144373416901 1838.00005912781 20 22 17
-107.587099075317 -227.75000333786 1850.99995136261 20 22 17
-102.432675659657 -227.509811520576 1848.99997711182 19 22 15
-96.7093631625175 -225.915789604187 1835.99996566772 19 22 15
-91.5560349822044 -225.551933050156 1832.99994468689 18 21 14
-86.4659398794174 -225.3108471632 1830.9999704361 17 20 13
-81.6089138388634 -225.684762001038 1833.99999141693 16 19 12
-76.5263736248016 -225.443109869957 1832.00001716614 16 19 12
-72.1182376146317 -227.293223142624 1847.00000286102 15 18 11
-67.1558901667595 -227.543294429779 1848.99997711182 15 18 11
-62.5183135271072 -229.023739695549 1860.99994182587 13 16 9
-57.6298832893372 -229.765549302101 1866.99998378754 12 15 8
-52.3708164691925 -229.030281305313 1860.99994182587 12 15 8
-47.1442714333534 -228.29470038414 1855.00001907349 13 15 10
-42.154461145401 -228.666454553604 1858.00004005432 13 15 10
-37.5872813165188 -231.745541095734 1883.00001621246 12 15 8
-32.4872210621834 -231.993675231934 1884.99999046326 10 13 6
-27.4922009557486 -233.226135373116 1894.99998092651 10 13 6
-22.2304780036211 -232.242941856384 1886.99996471405 11 14 5
-17.1752739697695 -233.474835753441 1896.99995517731 10 13 6
-12.0148500427604 -233.72183740139 1899.00004863739 11 13 8
-6.89387042075396 -235.691577196121 1914.99996185303 9 11 6
-1.66988850105554 -235.4456782341 1912.99998760223 9 11 8
3.55802499689162 -236.1840903759 1919.0000295639 0 1 0
13.8927204534411 -233.967706561089 1901.00002288818 44 46 43
19.2573145031929 -236.182123422623 1919.0000295639 1 3 0
24.50305595994 -236.303955316544 1919.99995708466 5 8 1
29.5837800949812 -235.071659088135 1909.9999666214 11 14 7
34.2637524008751 -231.500700116158 1881.00004196167 11 14 5
39.3299497663975 -231.129378080368 1878.00002098083 11 14 3
44.7583422064781 -232.726916670799 1891.00003242493 11 14 5
50.2310618758202 -234.201043844223 1902.99999713898 11 14 5
54.9244843423367 -232.105895876884 1886.0000371933 11 14 5
59.6842356026173 -230.625808238983 1873.99995326996 12 15 8
64.5857974886894 -229.883879423141 1868.00003051758 14 15 10
69.5289894938469 -229.387819766998 1863.9999628067 15 16 11
73.9698112010956 -227.414801716805 1848.00004959106 16 17 12
78.2803446054459 -225.318491458893 1830.9999704361 15 16 11
84.0896740555763 -227.528914809227 1848.99997711182 13 14 9
89.5147696137428 -228.508457541466 1856.99999332428 13 14 9
94.5757105946541 -228.50327193737 1856.99999332428 13 14 9
100.172832608223 -229.728281497955 1866.99998378754 15 16 11
105.316676199436 -229.845553636551 1868.00003051758 14 15 10
110.40648072958 -229.839518666267 1868.00003051758 14 15 10
115.001261234283 -228.848919272423 1860.00001430511 16 17 12
119.874782860279 -228.473246097565 1856.99999332428 15 16 11
125.404313206673 -229.327663779259 1863.9999628067 15 16 11
130.341500043869 -229.074522852898 1861.99998855591 14 17 10
135.558232665062 -229.313209652901 1863.9999628067 14 17 10
140.634462237358 -229.305580258369 1863.9999628067 15 18 11
145.632028579712 -229.174703359604 1863.00003528595 21 24 15
150.138273835182 -228.305488824844 1855.99994659424 22 25 16
154.773101210594 -227.682128548622 1850.99995136261 20 25 18
162.056639790535 -230.871558189392 1876.99997425079 17 22 15
171.529561281204 -236.889407038689 1925.99999904633 14 19 13
179.524749517441 -240.569680929184 1955.9999704361 10 15 9
-153.612643480301 -233.722940087318 1858.99996757507 24 27 20
-146.713703870773 -230.839610099792 1835.99996566772 24 27 20
-141.86917245388 -231.099128723145 1838.00005912781 28 31 22
-137.385562062263 -231.987103819847 1845.00002861023 22 25 16
-132.074177265167 -231.491714715958 1840.99996089935 21 24 15
-126.646086573601 -230.744540691376 1835.00003814697 21 24 15
-121.581681072712 -230.625778436661 1833.99999141693 21 24 15
-117.03085899353 -231.512799859047 1840.99996089935 21 24 17
-112.380616366863 -232.273861765862 1847.00000286102 20 22 17
-107.92975127697 -233.537703752518 1856.99999332428 19 21 16
-102.593079209328 -232.91489481926 1851.99999809265 18 21 14
-96.9145745038986 -231.411412358284 1840.0000333786 18 21 14
-91.7006656527519 -230.913713574409 1835.99996566772 17 20 13
-86.5554660558701 -230.54151237011 1832.99994468689 15 18 11
-81.9157287478447 -231.552556157112 1840.99996089935 15 18 11
-76.7308622598648 -231.05400800705 1837.00001239777 15 18 11
-72.114109992981 -232.316076755524 1847.00000286102 14 17 10
-67.1883672475815 -232.69747197628 1850.00002384186 14 17 10
-62.7162829041481 -234.839528799057 1866.99998378754 12 15 8
-57.7809065580368 -235.471934080124 1871.99997901917 11 14 7
-52.7899041771889 -235.978305339813 1876.00004673004 11 14 7
-47.3702810704708 -234.471723437309 1863.9999628067 11 13 8
-42.7192039787769 -236.864343285561 1883.00001621246 9 11 6
-37.6849174499512 -237.49566078186 1888.00001144409 9 12 5
-32.5542874634266 -237.623482942581 1889.00005817413 12 15 8
-27.4615995585918 -238.128393888474 1893.00000667572 14 17 10
-22.2880989313126 -238.004058599472 1891.99995994568 13 16 7
-17.2195509076118 -239.263147115707 1901.99995040894 11 14 7
-12.0647689327598 -239.892974495888 1906.99994564056 10 12 7
-6.93306932225823 -242.283657193184 1925.99999904633 13 15 10
-1.67590205091983 -241.529121994972 1919.99995708466 9 11 8
3.54669545777142 -240.648493170738 1912.99998760223 0 1 0
13.6653790250421 -235.238254070282 1870.00000476837 11 13 10
19.1357899457216 -239.89175260067 1906.99994564056 2 4 0
24.3995506316423 -240.5194491148 1911.99994087219 12 15 8
29.4736586511135 -239.385738968849 1902.99999713898 13 16 9
34.3164205551147 -236.993804574013 1883.99994373322 10 13 4
39.5370945334435 -237.494841217995 1888.00001144409 11 14 3
45.110784471035 -239.756628870964 1906.00001811981 13 16 7
49.4627393782139 -235.728606581688 1873.99995326996 15 18 9
54.4553995132446 -235.222429037094 1870.00000476837 14 17 8
59.4260394573212 -234.71599817276 1866.00005626678 13 16 9
64.754955470562 -235.592901706696 1873.00002574921 15 16 11
69.5996135473251 -234.708577394485 1866.00005626678 16 17 12
74.3257999420166 -233.572378754616 1856.99999332428 16 17 12
78.532375395298 -231.052383780479 1837.00001239777 15 16 11
83.8575065135956 -231.928154826164 1843.99998188019 14 15 10
89.1722589731216 -232.677817344666 1850.00002384186 15 16 11
94.6721956133842 -233.804523944855 1858.99996757507 14 15 10
99.9525561928749 -234.302029013634 1863.00003528595 15 16 11
105.028845369816 -234.296172857285 1863.00003528595 14 15 10
108.9818328619 -231.900587677956 1843.99998188019 14 15 10
114.067412912846 -232.020035386086 1845.00002861023 15 16 11
119.868047535419 -233.522430062294 1856.99999332428 16 17 12
124.859094619751 -233.389765024185 1855.99994659424 17 18 13
129.704251885414 -233.005344867706 1853.00004482269 16 19 12
135.696113109589 -234.632551670074 1866.00005626678 15 18 11
140.702098608017 -234.499022364616 1865.00000953674 15 18 11
145.858466625214 -234.616756439209 1866.00005626678 15 18 9
150.534421205521 -233.979821205139 1860.99994182587 19 22 13
155.767917633057 -234.222769737244 1863.00003528595 21 26 19
163.170084357262 -237.608388066292 1889.99998569489 18 23 16
171.787351369858 -242.502093315125 1929.00002002716 18 23 17
179.698497056961 -246.137976646423 1957.99994468689 0 2 0
-151.207849383354 -235.051080584526 1830.00004291534 15 17 12
-146.385848522186 -235.316395759583 1832.00001716614 19 21 16
-141.783982515335 -235.966846346855 1837.00001239777 29 32 25
-137.154400348663 -236.617043614388 1842.00000762939 20 23 14
-131.492793560028 -235.468596220016 1832.99994468689 21 24 15
-126.914918422699 -236.246764659882 1838.99998664856 21 24 15
-121.641039848328 -235.740050673485 1835.00003814697 21 24 17
-117.024168372154 -236.517742276192 1840.99996089935 20 23 16
-112.313330173492 -237.166732549667 1845.99995613098 20 23 16
-107.168026268482 -236.916109919548 1843.99998188019 18 20 15
-101.977847516537 -236.536726355553 1840.99996089935 19 22 15
-96.5929701924324 -235.643088817596 1833.99999141693 18 21 14
-91.9950380921364 -236.676529049873 1842.00000762939 17 20 13
-87.2587263584137 -237.452670931816 1848.00004959106 16 19 12
-82.6673582196236 -238.742560148239 1858.00004005432 14 17 10
-77.2276148200035 -237.590759992599 1848.99997711182 14 17 10
-72.1099227666855 -237.338155508041 1847.00000286102 13 16 9
-67.2207623720169 -237.856224179268 1850.99995136261 13 16 9
-62.5446811318398 -239.273607730865 1861.99998855591 11 14 7
-57.7158071100712 -240.305170416832 1870.00000476837 11 14 7
-53.2370209693909 -243.135556578636 1891.99995994568 10 13 6
-48.2315085828304 -243.909597396851 1898.00000190735 9 11 6
-42.8528152406216 -242.755711078644 1889.00005817413 9 11 6
-37.6827083528042 -242.629572749138 1888.00001144409 12 15 8
-32.5006768107414 -242.374613881111 1886.0000371933 14 17 10
-27.532521635294 -243.918567895889 1898.00000190735 15 18 11
-22.2867913544178 -243.148952722549 1891.99995994568 11 14 5
-17.1913802623749 -244.049713015556 1899.00004863739 13 16 9
-12.0767131447792 -245.33574283123 1909.00003910065 12 14 9
-6.92906277254224 -247.392550110817 1924.99995231628 10 12 7
-1.66969385463744 -245.850592851639 1912.99998760223 7 9 6
3.50384786725044 -242.89470911026 1889.99998569489 0 1 0
19.1547367721796 -245.33449113369 1909.00003910065 3 5 0
24.372598156333 -245.461687445641 1909.9999666214 13 16 9
29.379004612565 -243.789419531822 1896.99995517731 12 15 8
34.5329754054546 -243.659064173698 1896.00002765656 12 15 6
39.8279391229153 -244.427904486656 1901.99995040894 11 14 5
44.6348153054714 -242.369249463081 1886.0000371933 14 17 8
49.5390258729458 -241.209879517555 1876.99997425079 16 19 10
54.0445595979691 -238.508194684982 1855.99994659424 15 18 11
59.2951960861683 -239.275872707367 1861.99998855591 13 16 9
64.7511929273605 -240.685805678368 1873.00002574921 13 16 9
69.819338619709 -240.553334355354 1871.99997901917 14 17 10
74.8017355799675 -240.163564682007 1868.99995803833 14 17 10
79.2117938399315 -238.10313642025 1853.00004482269 13 16 9
83.8981196284294 -237.070381641388 1845.00002861023 13 16 9
89.0707075595856 -237.450823187828 1848.00004959106 14 17 10
94.1065773367882 -237.445503473282 1848.00004959106 13 16 9
99.678561091423 -238.724738359451 1858.00004005432 14 17 10
104.177214205265 -237.433969974518 1848.00004959106 14 17 10
108.916491270065 -236.785382032394 1843.00005435944 14 17 10
113.937243819237 -236.77895963192 1843.00005435944 15 18 11
119.151189923286 -237.157627940178 1845.99995613098 16 17 12
124.313823878765 -237.407594919205 1848.00004959106 17 18 13
129.276931285858 -237.271845340729 1847.00000286102 18 21 14
134.815827012062 -238.163486123085 1853.99997234344 18 21 14
140.090614557266 -238.541036844254 1856.99999332428 17 20 13
145.537599921227 -239.17518556118 1861.99998855591 18 21 12
150.768607854843 -239.423647522926 1863.9999628067 19 22 15
156.846076250076 -240.95630645752 1876.00004673004 24 29 23
164.973855018616 -245.44258415699 1911.00001335144 19 24 18
-146.936759352684 -241.213500499725 1838.99998664856 21 23 18
-141.853034496307 -241.090670228004 1838.00005912781 27 30 23
-136.476412415504 -240.442857146263 1832.99994468689 23 26 17
-131.198272109032 -239.925935864449 1828.9999961853 21 24 15
-127.045601606369 -241.507589817047 1840.99996089935 21 24 15
-121.700271964073 -240.858927369118 1835.99996566772 19 22 15
-116.763114929199 -240.997135639191 1837.00001239777 17 20 13
-111.698396503925 -240.872606635094 1835.99996566772 17 20 13
-106.754973530769 -241.010218858719 1837.00001239777 18 20 15
-101.584166288376 -240.622788667679 1833.99999141693 18 21 14
-96.429318189621 -240.23500084877 1830.9999704361 17 20 13
-92.2393277287483 -242.339894175529 1847.00000286102 16 19 12
-87.0647355914116 -241.95159971714 1843.99998188019 13 16 9
-82.6179981231689 -243.662357330322 1856.99999332428 13 16 9
-77.4736404418945 -243.404701352119 1855.00001907349 12 15 8
-72.925478219986 -245.114982128143 1868.00003051758 11 14 7
-67.1078488230705 -242.494776844978 1848.00004959106 11 14 7
-62.7425014972687 -245.123073458672 1868.00003051758 11 14 7
-58.3604872226715 -248.144820332527 1891.00003242493 11 14 7
-53.3464066684246 -248.804301023483 1896.00002765656 11 14 7
-48.1015928089619 -248.413667082787 1893.00000667572 12 14 9
-42.7141599357128 -247.104093432426 1883.00001621246 14 16 11
-37.6405492424965 -247.500196099281 1886.0000371933 15 18 11
-32.705519348383 -249.07711148262 1898.00000190735 14 17 10
-27.6179127395153 -249.86632168293 1904.00004386902 12 15 8
-22.214787080884 -247.505590319633 1886.0000371933 10 13 4
-17.0726738870144 -247.506782412529 1886.0000371933 12 15 8
-12.0064085349441 -249.082446098328 1898.00000190735 12 14 9
-6.91785151138902 -252.232640981674 1922.00005054474 12 14 9
-1.66086666285992 -249.739468097687 1902.99999713898 4 6 3
19.2940570414066 -252.362012863159 1922.99997806549 2 4 1
24.3328660726547 -250.260978937149 1906.99994564056 11 14 7
29.2223934084177 -247.634738683701 1886.99996471405 14 17 10
34.2395156621933 -246.714189648628 1879.99999523163 13 16 7
39.5533666014671 -247.893080115318 1889.00005817413 12 15 6
44.6321591734886 -247.496858239174 1886.0000371933 14 17 8
49.4041256606579 -245.656833052635 1871.99997901917 15 18 9
54.8566244542599 -247.228428721428 1883.99994373322 14 17 10
59.6419535577297 -245.781540870667 1873.00002574921 13 15 10
64.7127851843834 -245.646595954895 1871.99997901917 10 13 6
70.0016766786575 -246.298670768738 1876.99997425079 10 13 6
74.8773664236069 -245.507076382637 1871.00005149841 10 13 6
79.2071148753166 -243.140578269958 1853.00004482269 9 12 5
83.756759762764 -241.692394018173 1842.00000762939 10 13 6
88.8726860284805 -241.949677467346 1843.99998188019 12 15 8
94.1010415554047 -242.46908724308 1848.00004959106 13 16 9
99.2972031235695 -242.85700917244 1850.99995136261 15 18 11
104.114755988121 -242.326214909554 1847.00000286102 15 18 11
109.205611050129 -242.451131343842 1848.00004959106 16 19 12
113.868787884712 -241.657420992851 1842.00000762939 18 21 14
119.596071541309 -243.09366941452 1853.00004482269 20 21 16
124.508418142796 -242.824137210846 1850.99995136261 21 22 17
129.619404673576 -242.947936058044 1851.99999809265 22 25 18
133.571967482567 -240.972578525543 1837.00001239777 23 26 19
138.875618577003 -241.489380598068 1840.99996089935 22 25 16
144.747674465179 -242.924064397812 1851.99999809265 23 26 17
150.759994983673 -244.489520788193 1863.9999628067 22 25 18
157.505944371223 -247.103869915009 1883.99994373322 18 21 14
164.964511990547 -250.635892152786 1911.00001335144 16 21 15
173.816099762917 -256.003439426422 1952.00002193451 3 8 4
-148.606047034264 -249.022215604782 1860.00001430511 31 33 28
-141.921937465668 -246.219143271446 1838.99998664856 24 27 20
-136.542901396751 -245.557874441147 1833.99999141693 19 22 15
-131.620958447456 -245.699673891068 1835.00003814697 22 25 16
-127.245157957077 -246.91241979599 1843.99998188019 20 23 14
-122.02450633049 -246.518075466156 1840.99996089935 19 22 15
-116.501994431019 -245.45393884182 1832.99994468689 16 19 12
-111.813470721245 -246.130287647247 1838.00005912781 16 19 12
-106.399983167648 -245.199412107468 1830.9999704361 18 20 15
-101.799666881561 -246.143043041229 1838.00005912781 15 18 11
-96.4762344956398 -245.345458388329 1832.00001716614 14 17 10
-92.4835130572319 -248.029634356499 1851.99999809265 13 16 9
-87.2011631727219 -247.365400195122 1847.00000286102 11 14 7
-82.9244628548622 -249.647349119186 1863.9999628067 10 13 6
-77.6778012514114 -249.116450548172 1860.00001430511 9 12 5
-72.4136158823967 -248.451322317123 1855.00001907349 10 13 6
-67.3943012952805 -248.589500784874 1855.99994659424 11 14 7
-62.7051368355751 -250.066787004471 1866.99998378754 11 14 7
-58.5729852318764 -254.222631454468 1898.00000190735 12 15 8
-53.2306507229805 -253.422349691391 1891.99995994568 12 15 8
-47.7937795221806 -251.952081918716 1881.00004196167 15 17 12
-42.6208451390266 -251.686900854111 1878.99994850159 16 18 13
-37.6582257449627 -252.760976552963 1886.99996471405 15 18 11
-32.7896922826767 -254.906296730042 1902.99999713898 12 15 8
-27.4276807904243 -253.300726413727 1891.00003242493 10 13 6
-22.1074391156435 -251.4269053936 1876.99997425079 11 14 5
-16.9720686972141 -251.160204410553 1875 17 20 13
-11.980377137661 -253.706187009811 1894.00005340576 12 14 9
-6.88144052401185 -256.117910146713 1911.99994087219 13 15 10
-1.65814766660333 -254.51073050499 1899.99997615814 0 1 0
13.9990262687206 -256.652861833572 1916.00000858307 7 9 6
19.2627906799316 -257.187634706497 1919.99995708466 1 3 0
24.4334638118744 -256.516546010971 1914.99996185303 9 11 6
29.1277132928371 -251.960605382919 1881.00004196167 15 18 11
34.2374406754971 -251.824706792831 1879.99999523163 11 14 5
39.1740947961807 -250.616937875748 1871.00005149841 12 15 6
44.2745089530945 -250.614404678345 1871.00005149841 13 16 7
49.6386513113976 -251.95100903511 1881.00004196167 14 17 8
54.9988970160484 -253.019392490387 1889.00005817413 14 17 10
60.3070147335529 -253.685563802719 1894.00005340576 13 15 10
65.0199875235558 -251.940548419952 1881.00004196167 10 13 6
69.8482990264893 -250.864923000336 1873.00002574921 11 14 7
74.8728737235069 -250.592678785324 1871.00005149841 10 13 6
79.8862501978874 -250.320106744766 1868.99995803833 9 12 5
84.4337716698647 -248.707979917526 1856.99999332428 11 14 7
89.204728603363 -247.899174690247 1850.99995136261 13 16 9
94.2481756210327 -247.893661260605 1850.99995136261 13 16 9
99.3449240922928 -248.021766543388 1851.99999809265 15 18 11
104.672238230705 -248.685285449028 1856.99999332428 16 19 12
109.730951488018 -248.678863048553 1856.99999332428 17 20 13
114.232949912548 -247.46698141098 1848.00004959106 19 22 15
119.653552770615 -248.263448476791 1853.99997234344 22 23 18
124.971926212311 -248.791828751564 1858.00004005432 23 24 19
129.7517567873 -248.248666524887 1853.99997234344 24 27 20
133.491426706314 -245.830744504929 1835.99996566772 24 27 20
138.641223311424 -246.090516448021 1838.00005912781 27 30 23
144.97372508049 -248.35829436779 1855.00001907349 29 32 25
151.559993624687 -250.893384218216 1873.99995326996 27 30 23
157.99842774868 -253.02642583847 1889.99998569489 26 29 22
165.213942527771 -256.229996681213 1914.00003433228 10 15 11
173.538982868195 -260.905593633652 1949.00000095367 8 12 11
-146.120652556419 -249.841019511223 1828.9999961853 8 10 7
-142.067849636078 -251.4888048172 1840.99996089935 25 27 22
-136.907026171684 -251.22395157814 1838.99998664856 26 29 22
-131.326228380203 -250.139087438583 1830.9999704361 20 23 14
-126.892551779747 -251.239776611328 1838.99998664856 19 22 13
-122.083492577076 -251.657128334045 1842.00000762939 19 22 15
-117.003440856934 -251.527696847916 1840.99996089935 18 21 14
-111.989244818687 -251.53461098671 1840.99996089935 17 20 13
-106.45168274641 -250.311553478241 1832.00001716614 12 14 9
-102.015055716038 -251.684248447418 1842.00000762939 12 15 8
-97.0496460795403 -251.82694196701 1843.00005435944 11 14 7
-92.6776379346848 -253.60906124115 1855.99994659424 10 13 6
-87.3847082257271 -252.931326627731 1850.99995136261 9 12 5
-82.8749388456345 -254.576325416565 1863.00003528595 10 13 6
-77.7148231863976 -254.307925701141 1860.99994182587 10 13 6
-72.0188617706299 -252.126127481461 1845.00002861023 9 12 5
-67.2812536358833 -253.22362780571 1853.00004482269 10 13 6
-62.8020539879799 -255.55083155632 1870.00000476837 13 16 9
-58.0756664276123 -257.194429636002 1881.99996948242 14 17 10
-52.7491308748722 -256.241232156754 1875 14 17 10
-47.5113727152348 -255.561053752899 1870.00000476837 12 14 9
-42.4367785453796 -255.700469017029 1871.00005149841 11 13 8
-37.6359559595585 -257.752925157547 1886.0000371933 10 13 6
-32.6670706272125 -259.121805429459 1896.00002765656 13 16 9
-27.367977425456 -257.893592119217 1886.99996471405 15 18 9
-22.1649613231421 -257.211804389954 1881.99996948242 15 18 9
-17.0796364545822 -257.896393537521 1886.99996471405 12 15 8
-12.0365656912327 -260.084003210068 1902.99999713898 8 10 5
-6.8774176761508 -261.177957057953 1911.00001335144 13 15 10
-1.67026277631521 -261.588245630264 1914.00003433228 2 4 1
19.3017330020666 -262.952744960785 1924.00002479553 6 8 5
24.3426524102688 -260.764688253403 1907.99999237061 15 17 12
29.3272156268358 -258.849680423737 1894.00005340576 13 15 10
34.053236246109 -255.567699670792 1870.00000476837 14 17 10
38.9832593500614 -254.472076892853 1861.99998855591 14 17 8
43.8931956887245 -253.512859344482 1855.00001907349 12 15 8
49.4244992733002 -255.969911813736 1873.00002574921 12 15 8
54.6170473098755 -256.376713514328 1876.00004673004 13 16 9
59.4436749815941 -255.143225193024 1866.99998378754 10 12 7
64.9123191833496 -256.642669439316 1878.00002098083 9 12 5
70.6644132733345 -258.961617946625 1894.99998092651 9 12 5
75.26845484972 -257.043987512589 1881.00004196167 9 12 5
80.4797559976578 -257.312536239624 1883.00001621246 11 14 7
85.6561958789825 -257.444053888321 1883.99994373322 11 14 7
90.5486419796944 -256.755441427231 1878.99994850159 12 15 8
94.7516113519669 -254.290193319321 1860.99994182587 17 20 13
99.7680351138115 -254.147619009018 1860.00001430511 20 23 16
104.947738349438 -254.414707422256 1861.99998855591 20 23 16
110.374301671982 -255.227953195572 1868.00003051758 20 23 16
114.844188094139 -253.854870796204 1858.00004005432 21 24 17
119.839996099472 -253.711104393005 1856.99999332428 23 24 18
124.628178775311 -253.157287836075 1853.00004482269 24 25 19
130.023956298828 -253.832697868347 1858.00004005432 28 31 24
133.847013115883 -251.502335071564 1840.99996089935 29 32 25
138.708427548409 -251.221001148224 1838.99998664856 32 35 28
144.261807203293 -252.168774604797 1845.99995613098 33 36 29
150.90411901474 -254.892021417618 1866.00005626678 26 28 23
157.989144325256 -258.161157369614 1889.99998569489 35 37 32
165.894776582718 -262.522488832474 1922.00005054474 7 12 8
-144.913598895073 -252.719640731812 1814.00001049042 19 21 16
-140.901863574982 -254.400074481964 1825.99997520447 18 20 15
-137.047663331032 -256.498396396637 1840.99996089935 30 33 26
-132.394075393677 -257.203191518784 1845.99995613098 23 26 19
-127.298846840858 -257.071793079376 1845.00002861023 21 24 17
-122.47372418642 -257.497429847717 1848.00004959106 19 22 15
-117.441177368164 -257.504791021347 1848.00004959106 16 19 12
-112.164884805679 -256.954401731491 1843.99998188019 15 18 11
-106.619492173195 -255.707025527954 1835.00003814697 11 14 7
-102.285698056221 -257.385700941086 1847.00000286102 10 13 6
-97.6228937506676 -258.367359638214 1853.99997234344 9 12 5
-93.0714011192322 -259.766846895218 1863.9999628067 9 12 5
-88.040217757225 -259.911805391312 1865.00000953674 9 12 5
-82.6474130153656 -258.941560983658 1858.00004005432 10 13 6
-77.4177312850952 -258.389055728912 1853.99997234344 10 13 6
-72.6389214396477 -259.369343519211 1860.99994182587 10 13 6
-67.785382270813 -260.209947824478 1866.99998378754 13 16 9
-62.5966638326645 -259.795874357224 1863.9999628067 16 19 12
-57.7326416969299 -260.775327682495 1871.00005149841 15 18 11
-52.4926669895649 -260.081887245178 1866.00005626678 13 16 9
-47.5846230983734 -261.060655117035 1873.00002574921 9 11 6
-42.4341335892677 -260.784715414047 1871.00005149841 9 11 6
-37.3742058873177 -261.066019535065 1873.00002574921 14 17 10
-32.4755162000656 -262.740820646286 1884.99999046326 16 19 12
-27.1922368556261 -261.348813772202 1875 15 18 9
-22.2695674747229 -263.580560684204 1891.00003242493 14 17 8
-17.1509757637978 -264.139384031296 1894.99998092651 9 12 5
-12.0231630280614 -264.976620674133 1901.00002288818 12 14 9
-6.85539562255144 -265.53475856781 1904.99997138977 15 17 12
-1.68761028908193 -269.577264785767 1934.00001525879 10 12 9
19.170118495822 -266.369163990021 1911.00001335144 5 7 4
24.2518298327923 -264.973908662796 1901.00002288818 7 9 4
29.294416308403 -263.717740774155 1891.99995994568 10 12 7
34.4517081975937 -263.715744018555 1891.99995994568 6 9 2
39.1692481935024 -260.786354541779 1871.00005149841 12 15 8
44.1034063696861 -259.808093309402 1863.9999628067 12 15 8
49.2103323340416 -259.944528341293 1865.00000953674 12 15 8
54.4680915772915 -260.777562856674 1871.00005149841 12 14 9
59.6946775913239 -261.331468820572 1875 11 13 8
65.1847943663597 -262.860715389252 1886.0000371933 9 14 7
70.4735964536667 -263.413965702057 1889.99998569489 9 15 5
75.5839049816132 -263.270080089569 1889.00005817413 9 15 5
80.474779009819 -262.428998947144 1883.00001621246 12 18 8
85.6509134173393 -262.563139200211 1883.99994373322 16 22 12
90.494878590107 -261.721551418304 1878.00002098083 21 27 17
95.3567326068878 -261.018991470337 1873.00002574921 20 26 16
99.8155549168587 -259.340643882751 1860.99994182587 22 28 18
105.33581674099 -260.449141263962 1868.99995803833 22 28 18
109.953977167606 -259.327739477158 1860.99994182587 23 29 19
114.528141915798 -258.206009864807 1853.00004482269 24 30 20
118.671163916588 -256.248086690903 1838.99998664856 28 29 23
123.880825936794 -256.65870308876 1842.00000762939 28 29 23
129.246339201927 -257.347643375397 1847.00000286102 27 30 23
133.911639451981 -256.64296746254 1842.00000762939 28 31 24
138.096705079079 -255.102127790451 1830.9999704361 32 35 28
143.315434455872 -255.511581897736 1833.99999141693 34 37 30
149.924710392952 -258.289068937302 1853.99997234344 31 33 28
158.397659659386 -263.991594314575 1894.99998092651 17 19 14
-140.816122293472 -259.217590093613 1825.00004768372 22 24 19
-137.41147518158 -262.208968400955 1845.99995613098 18 20 15
-133.103132247925 -263.637721538544 1855.99994659424 26 28 23
-127.08406150341 -261.657118797302 1842.00000762939 16 19 12
-121.936023235321 -261.380732059479 1840.0000333786 12 15 8
-116.734907031059 -260.961949825287 1837.00001239777 12 15 8
-112.097129225731 -261.821448802948 1843.00005435944 12 15 8
-107.019573450089 -261.686205863953 1842.00000762939 11 14 7
-102.999225258827 -264.249980449677 1860.00001430511 11 14 7
-98.3012989163399 -265.2508020401 1866.99998378754 11 14 7
-93.0156633257866 -264.688521623611 1863.00003528595 12 15 8
-87.751492857933 -264.125883579254 1858.99996757507 13 16 9
-82.4643224477768 -263.420850038528 1853.99997234344 14 17 10
-77.6216462254524 -264.13631439209 1858.99996757507 14 17 10
-73.1027126312256 -266.130298376083 1873.00002574921 16 19 12
-68.3982968330383 -267.697721719742 1883.99994373322 15 18 11
-63.0628392100334 -266.849339008331 1878.00002098083 13 16 9
-57.728998363018 -265.858560800552 1871.00005149841 12 15 8
-52.7706444263458 -266.572505235672 1876.00004673004 11 14 7
-47.8356592357159 -267.570376396179 1883.00001621246 14 16 11
-42.6582396030426 -267.289072275162 1881.00004196167 17 19 14
-37.4516509473324 -266.723215579987 1876.99997425079 21 24 17
-32.3873236775398 -267.151772975922 1879.99999523163 20 23 16
-27.6400670409203 -270.848363637924 1906.00001811981 16 19 12
-22.3034843802452 -269.144713878632 1894.00005340576 9 12 3
-17.2313395887613 -270.567029714584 1904.00004386902 18 21 14
-12.0350485667586 -270.425826311111 1902.99999713898 14 16 11
-6.8585597909987 -270.852744579315 1906.00001811981 19 21 16
-1.68052280787379 -273.695111274719 1925.99999904633 2 4 1
19.1689003258944 -271.561324596405 1911.00001335144 2 4 1
24.4543980807066 -272.412538528442 1917.00005531311 4 6 1
29.6022072434425 -271.700292825699 1911.99994087219 7 9 4
34.6316061913967 -270.277202129364 1901.99995040894 4 7 0
39.1248986124992 -265.585511922836 1868.99995803833 10 13 6
43.9823195338249 -264.161884784698 1858.99996757507 12 15 8
49.2599904537201 -265.295714139938 1866.99998378754 12 15 8
54.8139736056328 -267.565965652466 1883.00001621246 12 14 9
60.0092634558678 -267.846494913101 1884.99999046326 13 15 10
65.2152523398399 -268.12669634819 1886.99996471405 11 16 9
70.2827423810959 -267.8382396698 1884.99999046326 11 17 7
75.099028646946 -266.696929931641 1876.99997425079 12 18 8
79.9996554851532 -265.981614589691 1871.99997901917 16 22 12
84.918200969696 -265.40806889534 1868.00003051758 19 25 15
89.9110212922096 -265.118420124054 1866.00005626678 23 29 19
94.8417112231255 -264.686405658722 1863.00003528595 21 27 17
99.9166071414948 -264.680296182632 1863.00003528595 22 28 18
105.160214006901 -265.100061893463 1866.00005626678 23 29 19
109.888091683388 -264.240950345993 1860.00001430511 24 30 20
114.150255918503 -262.387156486511 1847.00000286102 25 31 21
118.147633969784 -260.106950998306 1830.9999704361 26 27 21
123.200699687004 -260.241508483887 1832.00001716614 25 26 20
128.39874625206 -260.659903287888 1835.00003814697 26 29 22
133.612677454948 -261.078000068665 1838.00005912781 28 31 24
138.088271021843 -260.075300931931 1830.9999704361 30 33 26
143.228560686111 -260.350733995438 1832.99994468689 30 33 26
149.511307477951 -262.61430978775 1848.99997711182 21 23 18
158.889561891556 -269.990354776382 1901.00002288818 15 17 12
-142.967760562897 -268.226683139801 1853.00004482269 4 6 3
-137.923985719681 -268.235385417938 1853.00004482269 25 27 22
-132.879734039307 -268.243849277496 1853.00004482269 15 18 11
-127.352103590965 -267.238646745682 1845.99995613098 13 16 9
-121.928416192532 -266.37789607048 1840.0000333786 11 14 7
-116.791158914566 -266.095846891403 1838.00005912781 12 15 8
-111.968457698822 -266.537398099899 1840.99996089935 13 16 9
-107.303321361542 -267.41299033165 1847.00000286102 12 15 8
-102.715879678726 -268.577933311462 1855.00001907349 15 18 11
-98.1897935271263 -270.032167434692 1865.00000953674 16 19 12
-92.9598435759544 -269.603878259659 1861.99998855591 16 19 12
-87.7459272742271 -269.175261259079 1858.99996757507 16 19 12
-82.9038396477699 -269.90470290184 1863.9999628067 15 18 11
-78.1594812870026 -271.068274974823 1871.99997901917 15 18 11
-73.6054033041 -273.100346326828 1886.0000371933 15 18 11
-68.7932744622231 -274.40819144249 1894.99998092651 14 17 10
-63.4281635284424 -273.543566465378 1889.00005817413 13 16 9
-58.1263862550259 -272.823423147202 1883.99994373322 14 17 10
-53.0766658484936 -273.261427879334 1886.99996471405 16 19 12
-48.1120236217976 -274.278432130814 1894.00005340576 18 20 15
-42.9729782044888 -274.426162242889 1894.99998092651 20 22 17
-37.7485230565071 -273.994326591492 1891.99995994568 21 24 17
-32.8848026692867 -276.458501815796 1909.00003910065 19 22 15
-27.7977976948023 -277.619034051895 1917.00005531311 16 19 12
-22.4315728992224 -275.88278055191 1904.99997138977 11 14 5
-16.9496946036816 -271.249830722809 1873.00002574921 12 15 8
-11.926768347621 -273.133426904678 1886.0000371933 12 14 9
-6.84732338413596 -275.596022605896 1902.99999713898 16 18 13
-1.66645471472293 -276.610016822815 1909.9999666214 33 35 32
19.2479081451893 -277.911126613617 1919.0000295639 1 3 0
24.6186498552561 -279.502779245377 1929.99994754791 13 15 10
30.1111899316311 -281.673312187195 1945.00005245209 8 10 5
34.5747619867325 -275.009542703629 1899.00004863739 12 15 8
39.0177257359028 -269.93852853775 1863.9999628067 10 13 6
44.0031550824642 -269.356578588486 1860.00001430511 11 14 7
49.2040738463402 -270.077705383301 1865.00000953674 12 15 8
54.8104643821716 -272.680938243866 1883.00001621246 16 18 13
60.0372664630413 -273.111671209335 1886.0000371933 18 20 17
65.2456432580948 -273.397266864777 1888.00001144409 14 19 12
69.756306707859 -270.931214094162 1871.00005149841 15 21 11
74.4941309094429 -269.6233689785 1861.99998855591 20 26 16
79.2253911495209 -268.460035324097 1853.99997234344 21 27 17
84.5037028193474 -269.178777933121 1858.99996757507 20 26 16
88.9898911118507 -267.435699701309 1847.00000286102 19 25 15
94.1230431199074 -267.719447612762 1848.99997711182 21 27 17
99.1058647632599 -267.568498849869 1848.00004959106 20 26 16
104.871824383736 -269.44425702095 1860.99994182587 21 27 17
109.408564865589 -268.134415149689 1851.99999809265 24 30 20
113.895907998085 -266.82436466217 1843.00005435944 24 30 20
117.688603699207 -264.066338539124 1824.00000095367 24 25 19
123.19303303957 -265.216946601868 1832.00001716614 25 26 20
128.390744328499 -265.643358230591 1835.00003814697 28 31 24
133.967831730843 -266.793251037598 1843.00005435944 30 33 26
139.135494828224 -267.074227333069 1845.00002861023 25 28 21
145.094946026802 -268.802434206009 1856.99999332428 21 24 17
151.927784085274 -271.977692842484 1878.99994850159 14 16 11
163.392975926399 -282.968461513519 1955.00004291534 12 14 9
-137.394338846207 -272.234380245209 1845.99995613098 13 15 12
-131.652355194092 -270.768165588379 1835.99996566772 21 23 18
-125.688448548317 -268.711596727371 1822.00002670288 21 24 17
-121.390603482723 -270.194292068481 1832.00001716614 21 24 17
-116.402506828308 -270.201861858368 1832.00001716614 22 25 18
-111.900515854359 -271.389096975327 1840.0000333786 23 26 19
-106.889836490154 -271.39613032341 1840.0000333786 21 24 17
-102.377101778984 -272.730320692062 1848.99997711182 20 23 16
-97.077950835228 -271.99923992157 1843.99998188019 20 23 16
-92.2549888491631 -272.595375776291 1848.00004959106 20 23 14
-87.2683152556419 -272.748678922653 1848.99997711182 18 21 12
-82.8540399670601 -274.819374084473 1863.00003528595 16 19 12
-78.2379359006882 -276.447236537933 1873.99995326996 16 19 12
-73.3665153384209 -277.337312698364 1879.99999523163 16 19 12
-68.3169141411781 -277.636915445328 1881.99996948242 15 18 11
-63.0883052945137 -277.198642492294 1878.99994850159 15 18 11
-57.9375214874744 -277.055084705353 1878.00002098083 17 20 13
-52.8763458132744 -277.353703975677 1879.99999523163 18 21 14
-47.8802919387817 -278.094679117203 1884.99999046326 18 20 15
-42.9021529853344 -279.130339622498 1891.99995994568 19 21 16
-37.7859696745873 -279.428064823151 1894.00005340576 19 22 15
-32.8137613832951 -281.053215265274 1904.99997138977 17 20 13
-27.6364888995886 -281.202763319016 1906.00001811981 16 19 12
-22.3476942628622 -280.024141073227 1898.00000190735 17 20 11
-17.0481279492378 -277.959883213043 1883.99994373322 19 22 15
-11.8311401456594 -276.042878627777 1871.00005149841 11 13 8
-6.93322764709592 -284.305602312088 1927.00004577637 11 13 8
-1.67594279628247 -283.420652151108 1921.0000038147 68 70 67
19.1263016313314 -281.352818012238 1906.99994564056 0 1 0
24.5150066912174 -283.564448356628 1922.00005054474 3 5 0
29.9234613776207 -285.185515880585 1932.99996852875 3 5 0
34.9730364978313 -283.412992954254 1921.0000038147 6 9 2
39.1826368868351 -276.181399822235 1871.99997901917 9 12 5
44.0476089715958 -274.703353643417 1861.99998855591 8 11 4
49.0689724683762 -274.405270814896 1860.00001430511 10 13 6
54.4285327196121 -275.877207517624 1870.00000476837 18 20 15
59.6832372248173 -276.611089706421 1875 19 21 18
65.1031881570816 -277.934730052948 1883.99994373322 15 20 13
69.5653930306435 -275.274991989136 1866.00005626678 16 22 12
74.0892812609673 -273.205012083054 1851.99999809265 19 25 15
79.1348293423653 -273.200035095215 1851.99999809265 20 26 16
84.1800943017006 -273.19473028183 1851.99999809265 19 25 15
88.5505750775337 -271.12403512001 1838.00005912781 19 25 15
93.5061946511269 -270.970642566681 1837.00001239777 21 27 17
98.6705347895622 -271.406948566437 1840.0000333786 21 27 17
104.301638901234 -273.022919893265 1850.99995136261 22 28 18
108.869954943657 -271.836131811142 1843.00005435944 25 31 21
113.085329532623 -269.911617040634 1830.00004291534 25 31 21
117.164991796017 -267.839372158051 1815.99998474121 28 29 23
123.05074185133 -269.896537065506 1830.00004291534 27 28 22
128.732472658157 -271.363347768784 1840.0000333786 27 30 23
134.976997971535 -273.862093687058 1856.99999332428 28 31 24
141.011968255043 -275.770545005798 1870.00000476837 26 29 22
148.445427417755 -280.185461044312 1899.99997615814 16 19 12
156.769335269928 -285.926938056946 1939.00001049042 12 14 9
-139.469459652901 -281.45107626915 1873.99995326996 5 7 6
-131.64396584034 -275.752544403076 1835.99996566772 28 30 27
-126.370221376419 -275.160044431686 1832.00001716614 26 28 23
-121.846623718739 -276.219427585602 1838.99998664856 24 26 21
-116.83976650238 -276.2271463871 1838.99998664856 24 27 20
-112.075746059418 -276.835381984711 1843.00005435944 24 27 20
-106.766752898693 -276.091426610947 1838.00005912781 20 23 16
-102.093659341335 -276.9995033741 1843.99998188019 24 27 18
-97.2295850515366 -277.456641197205 1847.00000286102 21 24 15
-91.6998907923698 -275.960594415665 1837.00001239777 22 25 14
-87.0738625526428 -277.168273925781 1845.00002861023 23 26 15
-82.5373455882072 -278.826296329498 1855.99994659424 21 24 15
-77.8988748788834 -280.333936214447 1866.00005626678 19 22 11
-73.1275752186775 -281.540721654892 1873.99995326996 21 24 13
-68.1672617793083 -282.146334648132 1878.00002098083 21 24 15
-63.2520318031311 -283.052116632462 1883.99994373322 20 23 12
-58.0262616276741 -282.605409622192 1881.00004196167 20 23 12
-53.0416183173656 -283.36027264595 1886.0000371933 19 22 13
-47.9025393724442 -283.363610506058 1886.0000371933 16 19 12
-42.876660823822 -284.117847681046 1891.00003242493 16 19 12
-37.5640392303467 -282.91854262352 1883.00001621246 17 20 13
-32.5015708804131 -283.521831035614 1886.99996471405 18 20 15
-27.2287018597126 -282.171577215195 1878.00002098083 18 20 15
-22.16961607337 -282.924503087997 1883.00001621246 17 19 14
-17.1284377574921 -284.428298473358 1893.00000667572 20 22 17
-12.1465092524886 -288.636356592178 1921.0000038147 6 8 5
-6.99752755463123 -292.24306344986 1945.00005245209 7 9 6
18.9746059477329 -284.277617931366 1891.99995994568 4 6 5
24.2200437933207 -285.327970981598 1899.00004863739 4 6 3
29.7202598303556 -288.481444120407 1919.99995708466 1 3 0
35.3166162967682 -291.484296321869 1940.00005722046 11 13 10
39.5986475050449 -284.269839525223 1891.99995994568 10 12 9
44.707041233778 -283.966571092606 1889.99998569489 9 11 8
49.5141930878162 -282.010227441788 1876.99997425079 10 12 7
54.3667487800121 -280.654609203339 1868.00003051758 12 14 9
59.7111470997334 -281.852781772614 1876.00004673004 14 16 11
64.9952813982964 -282.599896192551 1881.00004196167 22 25 18
69.3371742963791 -279.440432786942 1860.00001430511 21 24 17
73.6844167113304 -276.731491088867 1842.00000762939 19 22 15
79.0014863014221 -277.778118848801 1848.99997711182 19 22 15
84.2200741171837 -278.373658657074 1853.00004482269 22 25 18
88.7856930494308 -276.865720748901 1843.00005435944 24 27 20
93.8055217266083 -276.859760284424 1843.00005435944 17 20 13
99.146731197834 -277.754783630371 1848.99997711182 18 21 14
104.125872254372 -277.597963809967 1848.00004959106 22 25 18
108.03597420454 -274.737030267715 1828.9999961853 20 23 16
112.212963402271 -272.777110338211 1815.99998474121 32 35 28
117.609068751335 -273.821115493774 1822.99995422363 30 33 26
123.110108077526 -275.014996528625 1830.9999704361 24 27 20
129.283934831619 -277.560234069824 1848.00004959106 21 24 17
135.33179461956 -279.654413461685 1861.99998855591 20 23 14
142.812669277191 -284.451544284821 1894.00005340576 15 18 9
148.514166474342 -285.493522882462 1901.00002288818 13 16 9
158.861413598061 -295.095145702362 1965.0000333786 13 16 9
-133.85808467865 -285.476177930832 1866.99998378754 5 7 6
-127.327665686607 -282.273560762405 1845.99995613098 23 25 22
-121.838718652725 -281.211316585541 1838.99998664856 28 30 25
-116.768635809422 -281.066179275513 1838.00005912781 30 33 26
-111.581973731518 -280.614882707596 1835.00003814697 27 30 23
-106.353186070919 -280.010372400284 1830.9999704361 19 22 15
-101.754799485207 -281.087726354599 1838.00005912781 22 25 16
-96.7494621872902 -281.094253063202 1838.00005912781 21 24 13
-91.4442837238312 -280.182838439941 1832.00001716614 22 25 14
-86.596205830574 -280.647575855255 1835.00003814697 23 26 15
-82.3095515370369 -283.100247383118 1850.99995136261 21 24 13
-77.6849910616875 -284.635037183762 1860.99994182587 19 22 11
-72.8886127471924 -285.710692405701 1868.00003051758 21 24 13
-68.307913839817 -287.856698036194 1881.99996948242 21 24 13
-63.1806924939156 -287.86113858223 1881.99996948242 21 24 13
-57.9298660159111 -287.253350019455 1878.00002098083 21 24 13
-52.8974756598473 -287.715911865234 1881.00004196167 21 24 13
-47.8485524654388 -288.17817568779 1883.99994373322 17 20 13
-42.7150875329971 -288.181185722351 1883.99994373322 18 21 14
-37.3221598565578 -286.195367574692 1871.00005149841 17 20 13
-32.2238393127918 -286.19772195816 1871.00005149841 17 19 14
-27.1398928016424 -286.352664232254 1871.99997901917 16 18 13
-22.1563614904881 -287.883996963501 1881.99996948242 16 18 13
-17.0820523053408 -288.80313038826 1888.00001144409 16 18 13
-12.0318895205855 -291.09862446785 1902.99999713898 9 11 8
-6.84956414625049 -291.252225637436 1904.00004386902 9 11 8
19.0435349941254 -290.485352277756 1899.00004863739 9 11 10
24.5117489248514 -294.002115726471 1922.00005054474 8 10 7
30.1361866295338 -297.824412584305 1947.00002670288 7 9 6
35.205040127039 -295.833677053452 1934.00001525879 4 6 3
40.5377745628357 -296.290040016174 1937.00003623962 8 10 7
45.2007725834847 -292.310118675232 1911.00001335144 7 9 6
50.5132526159287 -292.918771505356 1914.99996185303 7 9 6
55.148895829916 -289.856046438217 1894.99998092651 10 12 7
59.8344840109348 -287.557870149612 1879.99999523163 11 13 8
64.9218559265137 -287.400722503662 1878.99994850159 16 19 12
69.7053298354149 -286.019653081894 1870.00000476837 16 19 12
74.4395330548286 -284.638255834579 1860.99994182587 16 19 12
79.3380588293076 -284.021377563477 1856.99999332428 17 20 13
84.5326408743858 -284.474760293961 1860.00001430511 17 20 13
89.165210723877 -283.092558383942 1850.99995136261 18 21 14
93.7484502792358 -281.710028648376 1842.00000762939 13 16 9
99.3547067046165 -283.385962247849 1853.00004482269 14 17 10
104.175388813019 -282.767504453659 1848.99997711182 17 20 13
108.147047460079 -280.007839202881 1830.9999704361 15 18 11
112.576387822628 -278.624266386032 1822.00002670288 26 29 22
117.988467216492 -279.687136411667 1828.9999961853 27 30 23
123.438291251659 -280.749678611755 1835.99996566772 23 26 19
129.975110292435 -284.105479717255 1858.00004005432 20 23 16
136.921957135201 -288.072377443314 1883.99994373322 18 21 12
143.331274390221 -290.66264629364 1901.00002288818 14 17 8
148.426502943039 -290.500313043594 1899.99997615814 14 17 10
-136.573627591133 -296.456515789032 1904.99997138977 15 17 16
-128.422856330872 -289.773434400558 1861.99998855591 12 14 11
-122.426956892014 -287.602990865707 1848.00004959106 14 16 11
-116.506844758987 -285.432010889053 1833.99999141693 23 26 19
-111.453004181385 -285.283952951431 1832.99994468689 27 30 23
-105.939589440823 -283.890455961227 1824.00000095367 33 36 29
-101.415902376175 -285.142481327057 1832.00001716614 26 29 20
-96.743032336235 -286.082953214645 1838.00005912781 23 26 17
-91.2884697318077 -284.688413143158 1828.9999961853 22 25 16
-86.6848081350327 -285.939574241638 1837.00001239777 21 24 15
-81.948347389698 -286.8792116642 1843.00005435944 20 23 14
-77.6797980070114 -289.686441421509 1860.99994182587 20 23 14
-72.8057026863098 -290.469825267792 1866.00005626678 20 23 14
-68.2307407259941 -292.653918266296 1879.99999523163 20 23 14
-63.2435902953148 -293.281048536301 1883.99994373322 21 24 15
-57.8642785549164 -292.039752006531 1876.00004673004 21 24 15
-52.8376698493958 -292.510509490967 1878.99994850159 21 24 15
-48.0230934917927 -294.382035732269 1891.00003242493 20 23 16
-42.893573641777 -294.540762901306 1891.99995994568 19 22 15
-37.4592617154121 -292.364031076431 1878.00002098083 18 21 14
-32.2733223438263 -291.743695735931 1873.99995326996 17 19 14
-27.1090660244226 -291.123002767563 1870.00000476837 16 18 13
-22.1313163638115 -292.681485414505 1879.99999523163 16 18 13
-16.8637670576572 -290.191888809204 1863.9999628067 10 12 7
-11.8477325886488 -291.749715805054 1873.99995326996 12 14 11
-6.84550311416388 -296.265125274658 1902.99999713898 11 13 10
-1.6581614036113 -295.954048633575 1901.00002288818 119 121 118
19.1826298832893 -297.819882631302 1912.99998760223 3 5 4
24.6886257082224 -301.399081945419 1935.99998950958 9 11 8
30.1496274769306 -303.265362977982 1947.99995422363 4 6 3
35.5666987597942 -304.197192192078 1953.9999961853 6 8 5
40.1165001094341 -298.434555530548 1917.00005531311 9 11 8
45.3869365155697 -298.743009567261 1919.0000295639 8 10 5
50.7472306489944 -299.51810836792 1924.00002479553 7 9 4
55.4652884602547 -296.712398529053 1906.00001811981 7 9 4
60.1805299520493 -294.373393058777 1891.00003242493 7 9 4
64.6756514906883 -291.411459445953 1871.99997901917 8 11 4
69.7006583213806 -291.095584630966 1870.00000476837 8 11 4
75.0345066189766 -292.024701833725 1876.00004673004 9 12 5
79.3754756450653 -289.217561483383 1858.00004005432 10 13 6
85.1632207632065 -291.702598333359 1873.99995326996 10 13 6
89.7854566574097 -290.140122175217 1863.9999628067 10 13 6
94.6582704782486 -289.511352777481 1860.00001430511 10 13 6
98.758339881897 -286.703199148178 1842.00000762939 9 12 5
103.943139314651 -287.163376808167 1845.00002861023 13 16 9
108.376145362854 -285.599917173386 1835.00003814697 12 15 8
113.001435995102 -284.65873003006 1828.9999961853 15 18 11
118.303239345551 -285.429239273071 1833.99999141693 22 25 18
123.833559453487 -286.66627407074 1842.00000762939 20 23 16
130.666092038155 -290.704131126404 1868.00003051758 19 22 15
137.567058205605 -294.585853815079 1893.00000667572 17 20 13
144.151270389557 -297.533303499222 1911.99994087219 14 17 10
150.760307908058 -300.324708223343 1929.99994754791 13 16 9
