ply
format ascii 1.0
comment KinectMotionCapture
element vertex 795
property float x
property float y
property float z
property uchar red
property uchar green
property uchar blue
end_header
67.0572072961553 337.771692251602 2665.98545911611 23 26 19
70.1155807424969 337.497634887485 2673.69921348863 23 26 19
77.7235606216515 336.909957807257 2674.62621165503 25 28 21
84.7603241269015 336.361659964659 2676.40069523748 24 27 20
88.4347185559464 336.0446308037 2683.28538972036 24 27 20
102.722973751793 334.997841931163 2673.97393743326 24 27 20
108.621138917483 334.52798924079 2677.44468952093 23 26 19
111.212416505851 334.285029894887 2686.04789251286 23 26 19
116.038814532424 333.888370220028 2691.24175516939 23 26 19
115.957159292973 333.827948923086 2704.15562091784 21 24 17
110.490625566359 334.135728641722 2725.67550692683 21 24 17
106.220446258494 334.360434998142 2745.52254453916 20 23 16
117.161079922925 333.543610212716 2741.3275414441 15 18 11
120.006449808912 333.280504666296 2750.03377731306 13 16 9
115.404449502988 333.525681131481 2770.82511593555 14 17 8
120.486287119094 333.108734888633 2776.122558042 7 8 0
130.350190209866 332.365417906202 2773.64865347025 22 18 7
143.346948203555 331.408857629664 2765.9717299315 21 12 3
151.039740209973 330.814128538986 2766.93312138074 55 45 35
157.679654201747 330.291101707941 2769.62553999781 92 75 65
162.243103264138 329.909235115312 2775.79163249424 116 98 88
168.378511648471 329.420290944887 2779.35858739151 118 101 91
172.462802684511 329.070507921515 2786.40923715048 115 101 90
169.40739203225 329.204752521121 2805.6700035324 121 111 101
-150.883471385288 347.320625147482 2651.03479684502 51 56 50
-134.749101263557 346.17464074345 2641.39276716695 27 32 26
-137.671096839243 346.279549566188 2656.39228492687 20 25 18
-131.063861055917 345.75895485608 2659.07145393363 22 27 20
-115.667707570396 344.662823634709 2650.20921305682 27 30 23
-111.594674791901 344.308514121637 2656.17653059308 27 30 23
-108.746286425734 344.034001252463 2663.80526694431 31 34 27
-61.8325041386709 340.880597928047 2612.69655369279 53 56 49
-13.3907133533329 337.631868627395 2558.97056116395 45 48 41
-26.1926178649059 338.381659746696 2587.22710206387 44 47 40
-30.8732414855306 338.600164042056 2604.7501271733 41 44 37
-26.310088459798 338.215640936219 2609.83731179883 38 41 34
8.6522423608284 335.853581326072 2573.30363214285 39 42 35
5.8601343307394 335.948357992257 2588.35556002382 35 38 31
-2.88229395139683 336.428443285633 2611.78443512262 35 38 31
5.30562153889425 335.808450430321 2611.86768191789 49 52 45
11.0890135137256 335.344502133219 2615.29166117205 48 51 44
13.3075472572735 335.11131316757 2623.74412598707 40 43 36
19.7107366049065 334.606877202101 2626.34055555621 33 36 29
26.7051114334962 334.064218376787 2628.0975762945 31 34 27
27.2319993988324 333.939250756199 2639.10070983955 31 34 27
32.4907534963679 333.508271557068 2643.39108240071 30 33 26
39.5083961566016 332.963763851093 2645.15779536004 29 32 25
46.5223259079772 332.419537045866 2646.92274563312 30 33 26
55.8422996621766 331.727021519591 2645.30728822855 32 35 28
68.5886351909843 330.814644756412 2638.60718642268 31 34 27
74.4104420932079 330.347617614592 2642.04700017261 30 33 26
72.2584730392826 330.391912637922 2657.35849843491 31 34 27
68.4806216796769 330.539237749755 2675.24784639357 32 35 28
71.5741022860785 330.245388873908 2682.97596542118 31 34 27
78.6362857012262 329.69729045326 2684.76048260725 30 33 26
90.1741671708507 328.86334914651 2679.72836529326 29 32 25
98.3232015235738 328.246293124642 2679.79610435707 29 32 25
106.458441602849 327.630312995137 2679.85799283559 28 31 24
109.608417320373 327.331930019388 2687.60876347483 27 30 23
114.439212450443 326.9261610352 2692.80447553354 27 30 23
118.191595810247 326.588625372804 2699.72090261662 27 30 23
119.246283897148 326.4218710259 2710.93805543017 29 32 25
124.148746136799 326.010390366889 2716.16282828764 24 27 20
127.988036066625 325.665952257773 2723.11423831841 19 22 15
122.182641120989 325.931053487176 2745.57605345103 15 18 11
114.355229246829 326.322030549118 2771.53396115167 12 13 5
128.487118590279 325.325263042677 2762.15881828848 13 13 5
139.371161413183 324.534250704221 2757.9407063106 22 15 5
144.417011909403 324.111327470255 2763.22362279068 50 40 30
149.47919441842 323.687087865489 2768.51316196497 71 57 46
155.602101250982 323.195956506079 2772.07481442409 107 89 77
160.691907234622 322.769483513116 2777.37555507637 112 92 81
164.24673425089 322.438862601546 2785.29074872459 119 101 89
166.803944977196 322.170109039322 2794.95916194154 118 102 89
163.770060272969 322.249955543835 2814.22905635031 115 105 93
-179.133131632209 341.956223543822 2675.24061089856 175 182 175
-155.221422936257 340.371062791546 2655.80443004261 56 61 55
-147.329701283439 339.770858103522 2656.84640820233 35 40 34
-139.447323100393 339.171399475142 2657.88485482884 18 23 16
-139.13934896078 339.035649462303 2668.79943344166 18 23 16
-128.105681466994 338.243386488836 2665.72046383117 20 23 16
-110.852428782974 337.072018147221 2654.3740379061 28 31 24
-112.993522617166 337.084880613734 2668.61162680132 36 39 32
-89.0067831253059 335.505022986397 2648.1267198178 39 42 35
-14.4929175562343 330.853753328091 2559.65472811332 34 37 30
-6.37525433488118 330.246947881472 2559.70943030478 36 39 32
7.24414340802437 329.306506063094 2552.28422979698 37 40 33
11.6486278375885 328.925718317548 2557.30714231704 43 46 39
12.4220157605355 328.764461859499 2567.33154886771 42 45 38
-4.91916786110558 329.697644631996 2602.37975730036 27 30 23
-0.361169836219588 329.304757614097 2607.46466087213 22 25 18
6.01371984504095 328.802001509186 2610.04961937361 16 19 12
13.5852346689427 328.227145850051 2610.9620131407 19 22 15
21.1478044069575 327.653002439272 2611.87052248058 22 25 18
29.2942255282889 327.043946578188 2611.93688559988 20 23 16
28.5721898396589 326.967211506741 2624.59184671389 20 23 16
29.086974006993 326.81521455527 2635.59028439169 21 24 17
26.7267773942348 326.834248036058 2650.81792149021 29 32 25
39.5949068909813 325.941919280128 2644.16698124218 26 29 22
49.507625174191 325.226965288898 2641.71262661288 28 31 24
58.8134297252692 324.548728708644 2640.09132396765 27 30 23
68.6706169519911 323.838140714879 2637.61445211324 26 29 22
73.3443209789673 323.436088585346 2642.74653092254 27 30 23
75.7535381519623 323.168058353023 2651.27620897035 32 35 28
73.6575469477334 323.166207902581 2666.61097926477 33 36 29
71.6383838380368 323.158290864206 2681.97664546785 29 32 25
78.1354560519343 322.645817106179 2684.61114846985 31 34 27
84.6337946329598 322.133233676242 2687.24616504623 30 33 26
97.8246121082829 321.226508554797 2679.64743708227 28 31 24
104.295128497203 320.716090196925 2682.27117223918 28 31 24
112.977251225397 320.075803883809 2681.47560849886 27 30 23
116.139630876674 319.759420848423 2689.23179506526 27 30 23
118.785917633467 319.472585621281 2697.85760344767 29 32 25
122.013741290112 319.151010108 2705.64032718657 33 36 29
126.358012950964 318.763644170783 2711.71771798672 27 30 23
131.26357641315 318.343138192631 2716.94381491672 19 22 15
132.960659804508 318.108807418103 2727.34277311337 13 16 9
117.050877088198 318.89540371386 2766.20833839168 11 11 3
132.23513657722 317.875869359389 2755.10184903752 28 25 16
140.980925115554 317.230404617272 2754.3323596111 22 14 3
147.07093863308 316.738662632031 2757.88069842797 68 56 44
150.542742001722 316.397686079341 2765.76235488136 95 76 62
154.568515999576 316.024136262401 2772.78949165123 120 98 85
157.580993464257 315.708193163666 2781.56378869122 120 98 85
160.112600484951 315.419009322481 2791.22224723133 112 93 79
161.656341185547 315.185426561361 2802.63792053063 119 101 87
159.15382718559 315.181792112729 2821.0445305725 105 93 79
-179.980891415382 334.55502284801 2686.82111929855 24 29 23
-147.840315539816 332.574709770496 2656.69420894367 21 26 20
-140.590775417023 332.016204126731 2658.5549216461 20 25 18
-129.56172862019 331.242909008437 2655.47419460347 20 25 18
-106.005029859437 329.759207229982 2635.8935037041 22 25 18
-105.729815149807 329.598098017326 2646.79501047122 28 31 24
-102.288225308511 329.256676287831 2653.58537168544 35 38 31
-67.5135508874318 326.998753118411 2629.92139135507 27 30 23
-84.4209819951052 327.80413919258 2664.06738363375 34 37 30
-26.3425971987121 324.389118950358 2596.98222388063 34 37 30
-25.4666433803714 324.19454823336 2607.04841114998 38 41 34
-14.8157794348005 323.451161661443 2603.81433384685 36 39 32
-4.80459983615922 322.744350172145 2601.39978378988 26 29 22
-3.26505243318098 322.511325032464 2610.6561387392 23 26 19
4.92140703770083 321.906781973199 2610.73867889727 19 22 15
9.50569214139585 321.50303659027 2615.83456545133 21 24 17
22.4433887783371 320.634845107178 2609.21160949243 23 26 19
28.210692107661 320.165560809979 2612.62937223977 22 25 18
25.7174224279106 320.153400434662 2627.80310820896 23 26 19
20.3605479002305 320.297659922253 2647.21076037748 24 27 20
29.1563924049598 319.658929262133 2646.46148721534 24 27 20
42.5970414549914 318.764945275175 2638.96356048824 24 27 20
55.9783803909195 317.875639959395 2631.4418412789 24 27 20
57.1639889157198 317.65660873252 2641.63359095294 23 26 19
62.9994148614774 317.181925150063 2645.07871976446 22 25 18
67.1222814004835 316.800646129977 2651.06641905943 21 24 17
72.9775937162189 316.32438138369 2654.51961170631 22 25 18
75.9995999718164 316.002141588155 2662.21900647019 23 26 19
79.053005987044 315.677408444508 2669.93113367358 21 24 17
74.2580355109492 315.777242727439 2689.56663354961 25 28 21
82.4524230559194 315.172006161612 2689.6523889854 23 26 19
90.6328173324831 314.56786518019 2689.73247034155 22 25 18
115.458280981289 313.067561167724 2664.19225589926 22 25 18
108.057602309176 313.303414401267 2688.16624713843 21 24 17
107.937456968454 313.145583258221 2701.06526685717 19 22 15
112.260751947178 312.748385630493 2707.13449609516 21 24 17
113.334172868707 312.524161191973 2718.35966930859 22 25 18
123.685177657971 311.804315210608 2715.00400272247 17 20 13
126.439479503611 311.489154940451 2723.67376034656 18 21 14
129.230304554482 311.171099137197 2732.35832790549 16 19 12
124.565674628742 311.246571857526 2753.12559454597 12 12 4
130.127849169701 310.779347692388 2757.53909462578 19 15 6
140.472293498039 310.059950499923 2754.18076835374 37 27 15
145.506859811252 309.620416232536 2759.45924185503 102 86 73
149.507725599592 309.234615001898 2766.4763863294 133 110 96
152.489867952392 308.901354787321 2775.23853215614 138 112 97
156.54851275279 308.510949871846 2782.27936306509 133 107 92
158.046189354856 308.253048938838 2793.67656966178 124 101 87
158.050642266556 308.071216106567 2807.70528562795 118 99 84
-176.319874157101 327.20453835218 2670.01812939291 49 56 49
-169.647312690163 326.677077467694 2672.7238003507 25 30 24
-149.622073172592 325.445519618736 2658.18469871031 16 21 15
-134.767701709315 324.488850560492 2650.18084518252 21 26 19
-125.023876427338 323.802298576041 2648.7366998354 21 26 19
-90.5904814385916 321.649377825463 2626.01280735672 27 30 23
-87.8358599776268 321.33125821671 2633.60390867837 33 36 29
-98.7073980327537 321.722132380549 2659.40782291389 33 36 29
-106.964889545106 321.973306164103 2681.95597242463 28 31 24
-81.2335899823704 320.458069101755 2658.94025401286 34 37 30
-29.0132911379211 317.401164112229 2611.0584457254 32 35 28
-28.6887525225197 317.208224146969 2621.98016466157 28 31 24
-19.8327352315604 316.575150501697 2621.25521215638 24 27 20
-9.18603568763054 315.85073354752 2618.01904770539 23 26 19
3.82934488571984 315.006004692701 2611.42762480916 23 26 19
6.0227572954592 314.715535045321 2619.8700951192 24 27 20
18.3792551870414 313.906157290487 2614.09043547659 24 27 20
33.6524574801522 312.949882708277 2604.09854431291 24 27 20
28.17765289523 313.048039501956 2623.45879688113 26 29 22
28.6860224929644 312.84056857658 2634.45505782266 25 28 21
33.9311406432119 312.392531226777 2638.73978135479 25 28 21
48.5175848129786 311.473803187519 2629.54835023472 23 26 19
51.4222135594784 311.14383707676 2637.20027823865 23 26 19
58.9831061906565 310.579665312925 2638.10803294747 23 26 19
62.5056861926872 310.217576078337 2644.93160038559 22 25 18
63.7621810139961 309.967683533658 2655.15228534014 22 25 18
69.6298218692448 309.487148730632 2658.61050209134 24 27 20
78.343983780764 308.865259849098 2657.8280285688 24 27 20
87.6047916020264 308.216891438586 2656.18802344676 23 26 19
88.3960390070129 307.987022644768 2667.29898938161 26 29 22
90.9202561025408 307.670362642198 2675.87559868515 24 27 20
107.988971995778 306.639031906167 2662.29577738491 23 26 19
109.409827887256 306.376111547914 2672.5828524951 23 26 19
104.794347405286 306.406279103721 2692.29155465516 21 24 17
96.9779859609912 306.589065421381 2717.17644925583 19 22 15
95.8690995988318 306.442426758929 2731.83292340499 20 23 16
106.285653033476 305.736107675428 2728.50369447162 21 24 17
115.039474094583 305.111016897704 2727.73730292777 19 22 15
112.426426856834 305.033053492476 2745.0209140932 19 22 15
121.195285822632 304.406755411722 2744.26062044163 18 21 14
125.662602590118 303.986611163744 2750.38807978592 15 12 5
126.421394912908 303.742476985383 2762.56507838519 16 12 3
136.252081643153 303.065679250759 2760.07722054622 57 45 33
144.470359402893 302.466130265024 2760.1726058507 106 88 76
150.573714736322 301.966820307523 2763.72640403764 143 117 104
153.546949957307 301.614527532375 2772.48508769132 150 122 108
155.516224916577 301.308115119258 2782.99480068799 143 115 101
155.979053636661 301.07057023646 2796.13072391598 128 105 89
154.44308639568 300.924077909736 2812.77214844189 126 107 92
-182.603010930229 320.227483244455 2677.23706089515 19 26 19
-158.668276895014 318.860669502175 2657.80854782541 37 42 36
-148.860011503749 318.182150649231 2656.39043293386 21 26 20
-135.275141342702 317.321936204721 2650.02970972068 21 26 19
-129.316506299977 316.830898813113 2653.52484898161 22 27 20
-127.123051587686 316.520653934194 2661.96748631052 24 27 20
-81.7006858606617 314.136900557459 2613.48575696145 29 32 25
-82.7258266076338 313.983723388988 2626.01857239122 33 36 29
-66.3025245110491 312.996542197437 2615.41351739792 31 34 27
-49.340184729078 311.986232285024 2603.94808211723 33 36 29
-28.895482210382 310.407517126817 2610.0800902946 25 28 21
-27.3586017914991 310.129714297952 2619.3357048036 21 24 17
-23.3568973668998 309.734974225454 2625.27444844644 19 22 15
-9.07573380784688 308.858734141279 2617.03789746239 23 26 19
2.13639896938855 308.127723246508 2612.95217199211 28 31 24
21.6871792270357 307.010222119803 2597.14103526406 26 29 22
32.1901064709935 306.315807081508 2593.8466882458 24 27 20
39.6920713808384 305.761239315069 2594.73051074132 24 27 20
37.1400743078738 305.670319109696 2609.88132260892 25 28 21
39.9597174796573 305.33006313347 2617.49891854906 22 25 18
47.4975997581797 304.772649701231 2618.39730530251 21 24 17
54.4430295056084 304.242588731986 2620.13467026182 18 21 14
56.1571633568889 303.950761869897 2629.46190250382 18 21 14
54.4427065902815 303.8130900365 2643.87311751283 17 20 13
65.4673730375548 303.096904661634 2639.71137587796 17 20 13
66.133750809253 302.848930488688 2650.77192021523 17 20 13
69.1346338580561 302.494320820716 2658.46300769688 20 23 16
79.5543214437882 301.806476420483 2655.13490772605 21 24 17
88.242663791068 301.19705756655 2654.34188552514 20 23 16
92.9695822087437 300.764438183247 2659.4954849298 23 26 19
95.4697341620934 300.429913126837 2668.06274306625 23 26 19
104.704860047195 299.796745134622 2666.41222429487 23 26 19
102.246568422984 299.678858089614 2682.67998938066 22 25 18
101.529537546896 299.481755241052 2696.41669740621 21 24 17
100.879135658887 299.279374436651 2710.18042304329 22 25 18
102.487960720376 298.97631389201 2720.54416701928 23 26 19
106.871424184874 298.5513174923 2726.6377115322 23 26 19
116.707202291913 297.890119560944 2724.15179691342 20 23 16
106.512771623981 298.091499317215 2753.46798511406 18 21 14
114.769550785139 297.496663358954 2753.57892364023 16 19 12
127.832150412455 296.697255280299 2745.92746774247 19 16 9
122.713258832228 296.672713039324 2767.59037328123 14 7 0
134.682110096336 295.920797606195 2761.65332271195 76 63 54
144.489784121683 295.261787270526 2759.15626959443 102 84 72
150.590431928452 294.7594405657 2762.70899454069 138 112 97
153.559690458278 294.387725534411 2771.46621527565 145 118 101
155.004350022087 294.07807087379 2782.84234792764 149 120 104
155.464852851992 293.807233781365 2795.97758176503 134 111 95
153.92570425474 293.616523823094 2812.61805333988 128 109 94
147.340413109968 293.629862038683 2838.00242674229 127 114 98
-182.476974503597 312.916585725275 2676.26469861965 30 37 30
-174.507020833827 312.329873483026 2677.3382501007 43 48 42
-150.641551347136 311.041936383755 2657.88109444167 17 22 16
-144.020134870064 310.517412072787 2660.56603489635 20 25 18
-142.447451729525 310.214284514697 2669.83608040214 21 26 19
-112.543334651815 308.671173886486 2642.03701147813 23 26 19
-105.992265511779 308.152223413428 2644.69342654538 29 32 25
-91.3326048137424 307.281080896915 2636.61008773792 33 36 29
-74.2526662473615 306.307486122359 2625.19198908261 30 33 26
-12.0946430460658 303.39222515815 2553.28149471491 36 39 32
-26.9434870122125 303.340984384575 2606.60851193695 21 24 17
-29.6786634888326 303.222877879462 2621.68536182423 20 23 16
-16.5781622249936 302.430613636993 2615.12774879958 20 23 16
-10.1718092396632 301.923128636879 2617.7254824141 23 26 19
10.0610602424138 300.833682890089 2601.11149799359 28 31 24
22.9962079494424 300.054512251527 2594.4870924638 27 30 23
39.4538170429599 299.130216878278 2582.81664333017 23 26 19
45.1427295686793 298.657247925847 2586.20243689767 23 26 19
46.700174200865 298.355324607244 2595.46656053794 23 26 19
43.5904251981083 298.24457351072 2611.47050104987 22 25 18
47.008734060501 297.862200394358 2618.25174636072 20 23 16
59.7896352307175 297.095248026422 2611.56479488789 18 21 14
50.4376043615638 297.233485902467 2636.90705360749 18 21 14
55.1066347997375 296.796668488342 2642.03750362512 17 20 13
63.8238056104314 296.195400567098 2641.25609208331 16 19 12
71.3750903726724 295.641855934045 2642.15987608319 16 19 12
64.072290378516 295.684716238279 2665.09589517069 19 22 15
81.9032551767216 294.718582568017 2650.74514351533 20 23 16
90.5797709450038 294.120534151831 2649.94724663141 19 22 15
95.8568368631731 293.657865314118 2654.24527371807 21 24 17
99.4624448627597 293.260652487923 2661.10246760591 23 26 19
104.211132417787 292.81752235523 2666.26521807548 22 25 18
102.861538219865 292.611973912147 2680.82467784436 21 24 17
106.563681072055 292.20710733817 2687.72127325118 21 24 17
99.2755879187901 292.226482519002 2711.74223318877 22 25 18
101.43597072759 291.876791523516 2721.25084429861 20 23 16
102.546317602188 291.565646279561 2732.49162740529 19 22 15
114.573943136989 290.836042866985 2726.57820500352 20 23 16
114.655628184197 290.561749477138 2739.55982717102 16 19 12
110.49285146747 290.445129956005 2759.45319571658 15 18 11
108.575241351988 290.239939356494 2775.94028343202 18 15 8
121.135927507369 289.490423120161 2769.16403629597 14 7 1
134.173160940749 288.725478204506 2761.50179135775 74 61 52
143.453828054917 288.101879968011 2759.86989659835 105 85 74
148.505416633029 287.634747527109 2765.15547148094 137 111 96
151.480917351067 287.242801434272 2773.9153729797 142 115 98
152.410546003702 286.923648215722 2786.16185339806 143 114 98
152.878776484966 286.618722156919 2799.3004744919 134 111 95
152.893327948689 286.327416980994 2813.33410906088 129 110 95
148.357408976183 286.195714427462 2835.2341255581 128 115 99
-188.763927417084 305.868610830982 2683.48236531976 18 25 18
-169.271056520017 304.825041659672 2669.80509463043 46 51 45
-149.877564026383 303.789350723007 2656.08752661352 10 15 9
-141.359633191932 303.189204878591 2656.30424385277 20 23 16
-141.695419959882 302.939601054529 2668.03809657774 22 25 18
-124.366464911312 301.992292904886 2656.72036646297 22 25 18
-102.111217595011 300.85520753472 2638.76797333338 26 29 22
-101.815550179234 300.580637271239 2649.67862126041 29 32 25
-18.1448641166211 296.808159285501 2560.59175338663 40 43 36
-25.2343857620085 296.566769836317 2592.24751873168 28 31 24
-24.3781412768687 296.272849251383 2602.30647887633 20 23 16
-15.5608805610787 295.67406736555 2601.56531695922 23 26 19
-18.2830119665682 295.513243124124 2616.64777249234 24 27 20
-1.0030600413693 294.594914830249 2604.23143078323 26 29 22
13.1809584805325 293.796541037906 2595.9549562554 29 32 25
25.5045056756968 293.070369837531 2590.16132442585 28 31 24
31.8160132377192 292.569844582332 2592.72060304627 24 27 20
41.691188164539 291.937387845558 2590.25042207078 22 25 18
40.8947313342927 291.699197225962 2602.87621715336 21 24 17
37.2156270554611 291.564037089503 2619.72888012444 18 21 14
43.0029151939104 291.079975536617 2623.15458936068 17 20 13
50.5475505679034 290.531890593237 2624.05563968732 18 21 14
48.7836198901659 290.320192505139 2638.44764138499 19 22 15
56.9292672455852 289.749558328018 2638.51339998606 22 25 18
76.0085831155626 288.788997204641 2622.5101810993 21 24 17
59.4104851485249 289.100771386549 2658.94277790934 21 24 17
64.1476475767122 288.649767806325 2664.10092161515 23 26 19
75.1561525979858 287.977667230529 2659.93230218243 24 27 20
84.993373016786 287.348233436314 2657.44673078199 23 26 19
95.9289216284818 286.681929682096 2653.24827065011 23 26 19
94.4809199753858 286.445192723513 2667.76837956335 25 28 21
110.979543803866 285.588851927392 2655.03495655872 23 26 19
113.486950417327 285.214238969899 2663.60519868455 19 22 15
113.262987452022 284.930668041417 2676.46339368117 19 22 15
98.7737754138445 285.125452561912 2711.59287672566 21 24 17
87.7681541289586 285.194653379716 2741.66068683269 21 24 17
93.8509901479236 284.687187797227 2745.20623871173 19 22 15
112.983527930773 283.747547403629 2728.14560228427 21 24 17
116.854504329628 283.315041208929 2735.11076670088 15 18 11
116.444424045025 283.021140715738 2748.97249054986 14 17 10
110.205989390509 282.913213939452 2772.3406065609 18 15 10
124.35889224847 282.142473140076 2762.97251592685 17 10 4
135.788117244203 281.4621717844 2757.89523982608 65 51 42
142.946222127671 280.91968392735 2759.71880963631 110 90 79
145.893892833806 280.51020228001 2768.46757587478 126 103 89
148.878059529485 280.097831925828 2777.23114097693 136 109 92
149.815574498455 279.74731783767 2789.48130944239 139 110 94
150.291677096167 279.408295379759 2802.62311911537 131 108 92
151.860922903542 279.032810212381 2814.05019483357 134 115 100
149.889413463198 278.762338398365 2831.59501927733 125 112 96
-183.756272009811 298.656020151008 2665.06595819257 8 13 7
-183.505425896916 298.357080418352 2675.95864300498 36 41 35
-162.113980690923 297.300723164533 2659.81350689962 34 36 31
-143.38332489754 296.343969825713 2646.90577080844 17 19 14
-145.671635822233 296.134970216913 2661.08517697236 19 20 15
-134.626075142708 295.45343719263 2658.01044075239 21 22 17
-119.840457748223 294.642419305396 2649.97764519222 24 25 20
-100.106590004969 293.661811865688 2635.31866704537 29 31 26
-90.4620294753971 293.035679777857 2633.83387213568 30 32 27
-117.513347512792 293.676297966547 2681.13614165924 23 28 22
-67.5312725145649 291.661733295855 2625.86657117017 42 45 38
-40.0947023525362 290.432387376733 2600.30271335685 29 32 25
-40.459111493186 290.154339685782 2612.02493545575 22 25 18
-20.5872150208244 289.190660241444 2596.34290771216 18 21 14
4.6566589505237 288.05167230149 2573.12698225984 20 23 16
-2.39919807531463 287.997868054227 2594.00610321292 23 26 19
0.320398554515267 287.614508466282 2601.5835177294 24 27 20
16.9055463988757 286.772232619547 2589.9638292218 28 31 24
25.0203535121003 286.211706464223 2590.01728143742 29 32 25
31.3318221369412 285.710630430992 2592.5765484672 25 28 21
36.4564712676167 285.247965654262 2596.81260581719 23 26 19
36.860511627387 284.936811106427 2607.76741048171 21 23 18
30.8374137769538 284.828923750068 2627.98629011282 18 20 15
41.3411125665448 284.19038755178 2624.69157471501 19 21 16
48.8910181310287 283.64681070859 2625.59498196089 18 20 15
52.9435608069424 283.213451133265 2631.55460237745 21 23 18
66.8586317105067 282.471532971048 2623.16880494274 25 27 22
77.8274355460573 281.823980492575 2618.9839247128 26 28 23
70.9672688217349 281.726751342542 2641.02141657732 27 29 24
69.9374637107442 281.445727101519 2654.63212062845 29 31 26
76.36918994036 280.935130755675 2657.24015127328 28 30 25
89.5979474034367 280.219810096259 2649.65507692186 23 25 20
81.9064619190852 280.132781903844 2673.51376989259 19 24 17
91.7421031434365 279.519406359634 2671.02743737033 20 25 18
103.783952621674 278.842512563722 2665.11937461813 19 24 17
119.114170826138 278.072005291747 2654.07009535821 17 22 15
120.521392182348 277.709168966597 2664.35266450383 19 22 15
103.784746846853 277.865853744423 2702.88795628643 19 22 15
84.5170491127576 278.083942335904 2745.7927898255 24 27 20
84.0578705696282 277.757674797386 2759.63487947021 25 28 21
98.3446915809636 277.014225975837 2750.32054725706 24 27 20
113.64442180105 276.246179975799 2739.25890497211 12 15 8
121.862387148429 275.677565781081 2739.3541865323 14 15 9
115.055507163363 275.520396656854 2763.57132443616 24 19 13
128.65229050194 274.803849932104 2755.0564623088 19 12 4
136.342897618521 274.249222704828 2756.01692237695 68 54 43
142.439085933917 273.737471802371 2759.56791298795 118 98 87
144.333341380744 273.336065491106 2770.04797114243 123 100 86
146.274208306665 272.930974455693 2780.5466726578 130 103 86
148.261645480464 272.522191134862 2791.06451535025 136 109 92
149.2588157908 272.13622789397 2803.3388493099 127 104 88
152.376334062817 271.693560349457 2812.1568943932 131 112 97
149.36972885888 271.402233467934 2831.44039024524 129 113 98
-153.986178734052 290.440328096254 2626.47408998694 11 16 10
-169.899587839364 290.630588493155 2657.79053557262 28 33 27
-131.153213274332 288.77933103632 2630.33728818297 17 18 13
-136.665769390034 288.634160790581 2648.60529163259 22 23 18
-127.551775465578 288.032659697535 2647.98429550395 24 25 20
-110.905812423298 287.200946288163 2637.46821594945 28 29 24
-107.501287794306 286.776876920888 2644.24445339445 29 31 26
-84.7190102926003 285.764471246982 2625.42544065159 31 33 28
-68.9052605462188 284.968181823795 2615.65094345842 33 38 32
-73.6008111966357 284.788742043699 2633.17119825321 47 50 43
-69.5710035386883 284.345661877429 2639.12168710122 21 24 17
-56.3068556918684 283.629180720135 2632.63001623209 15 18 11
-8.840562227306 281.913715369629 2579.57623815767 22 25 18
9.0482534430294 281.075283772662 2566.32700733435 21 24 17
-5.91884186580671 281.190261090591 2598.02692208234 24 27 20
1.64551173383543 280.650454273104 2598.93615065971 25 28 21
18.2262613346886 279.854584568168 2587.31458681506 28 31 24
26.9334890957826 279.285361231924 2586.52864928703 28 31 24
27.8648503641425 278.935008366273 2596.61845142726 21 24 17
27.6541780033954 278.614023725532 2608.40324591145 18 21 14
21.5832522797765 278.451775675964 2628.60317241419 18 20 15
32.1146137723516 277.829675731626 2625.31979009341 20 22 17
45.5452262448999 277.130669593685 2617.81632174813 23 25 20
58.3323756016167 276.452099684921 2611.13123020687 25 27 22
61.7599044710133 276.026186996723 2617.91653865145 27 29 24
70.4252878995435 275.460299646592 2617.11389058977 31 33 28
79.0718318925279 274.895914249644 2616.30360318949 30 32 27
84.2550013928221 274.422584967353 2620.56343585732 28 30 25
78.5899038922064 274.228112924204 2640.92792358653 28 30 25
85.5503634716621 273.705649934608 2642.67105920137 27 29 24
96.4725828806707 273.083230127794 2638.46712676778 23 25 20
103.971641634823 272.548674764628 2639.34962089285 19 24 17
89.5637552336113 272.557851489366 2673.43488805224 18 24 14
100.497083291841 271.934579395106 2669.23520266572 16 22 12
109.721864368604 271.354991075397 2667.58034646184 14 20 10
116.70706147544 270.830611141947 2669.33351265648 17 20 11
103.837156920515 270.779004384544 2701.88408499734 18 21 12
91.6937048798896 270.700376963456 2733.64993226292 22 25 16
87.372123009513 270.429924518395 2753.47991050995 24 27 18
102.18764128778 269.713070742061 2743.30089158106 24 27 18
112.056826572479 269.113037012324 2740.82803968429 15 18 9
117.586275609636 268.612313937473 2745.22854335165 15 16 8
118.300444271311 268.21800357188 2757.38835521414 19 15 6
127.611691724648 267.631646875362 2755.76855993708 21 12 3
133.71147877487 267.116340912269 2759.32103459674 76 62 51
142.461131232589 266.543947073194 2758.55255578643 121 102 88
145.403575247698 266.095402547928 2767.29950186064 137 111 96
147.335121146416 265.665816078654 2777.79461502673 138 111 94
146.186135002939 265.296866418176 2793.51560348474 133 106 89
147.188719587595 264.879744627655 2805.79236581908 134 111 95
152.377012155876 264.375575519042 2811.13357190834 120 101 86
149.363966735234 264.032030013215 2830.41511319167 120 111 96
-151.265874338334 283.227432596233 2622.23589583612 17 22 16
-160.778629552516 283.147004814145 2645.35686231783 29 34 28
-165.049945381919 282.917493477006 2661.97045817671 23 25 20
-151.400219314401 282.200004092722 2655.63465561778 21 22 17
-134.632610792452 281.401910290356 2645.16757463023 24 25 20
-134.375340267723 281.046528877444 2656.06328845411 25 26 21
-113.924672026815 280.156348627852 2640.61504420253 28 29 24
-69.1324669039919 278.635805777708 2592.9504325244 28 30 25
-70.2294056931321 278.321148492188 2605.45540140994 34 39 33
-79.9724521645495 278.22545758624 2629.56230565052 37 42 36
-73.479108085313 277.708831485688 2632.19533063079 39 42 35
-78.7063467774749 277.488309078549 2650.57917100966 19 22 15
-75.8500463979364 277.060073416218 2658.21227605601 15 18 11
-31.3528999206787 275.596461200178 2609.34895755692 23 26 19
-28.6050660838326 275.176843422765 2616.93807994602 23 26 19
7.55306970839409 273.941261777177 2578.7221613568 24 27 20
8.41192593061124 273.571446515104 2588.78275423628 24 27 20
13.5300176095587 273.097219218253 2593.01650138775 28 31 24
22.2554952125087 272.53696036314 2592.23788514329 29 32 25
24.3963607017335 272.132130230082 2600.66020362469 22 25 18
20.0356783065874 271.876143489756 2618.31636718632 19 22 15
19.9092770345497 271.517729271744 2630.13556614433 19 21 16
29.8575667241583 270.927164497361 2627.69492851611 23 25 20
47.4056385370034 270.167396308337 2614.30687944098 26 28 23
55.5104323276785 269.623032296172 2614.35589760192 27 29 24
64.1830485256014 269.066989761186 2613.55610341641 28 30 25
68.2024612690351 268.613216924714 2619.50246448456 28 30 25
78.0108118883713 268.033817526675 2617.00482465941 26 28 23
80.8990088700206 267.603064096359 2624.65086349837 23 25 20
87.2489085541184 267.09787007449 2627.22572220548 22 24 19
91.3231894596576 266.639757608387 2633.19433189764 22 24 19
95.9853996257001 266.168369855161 2638.32228246907 19 22 15
103.484861735651 265.638736479387 2639.20490260273 17 23 13
97.4950285673699 265.37846172822 2660.51721406669 18 24 14
87.14384128032 265.197236863549 2688.69402451619 17 23 13
96.9841477920825 264.615374776167 2686.20934207239 15 21 11
105.133101171891 264.067605482684 2686.27626594977 16 19 10
108.30351405133 263.614494483751 2694.03674147412 17 20 11
99.9743080094733 263.372931533422 2719.79627074592 22 25 16
99.9812123736037 262.970585133379 2732.74858535061 25 28 19
104.402135499057 262.485023797935 2738.85775608103 24 27 18
106.136663430653 262.045731703444 2749.27342885814 16 19 10
111.151935011851 261.546407048105 2754.54454325373 16 17 9
124.23109863712 260.907943071814 2746.89831686264 18 14 5
128.173245134659 260.427041011093 2753.89266437635 21 12 3
133.736208271569 259.917686934662 2758.30680308633 77 63 52
139.310582647669 259.407450993139 2762.7253115841 117 98 84
142.264143423928 258.93827904578 2771.47691510652 126 103 87
143.158625784835 258.498974849013 2783.71033297813 135 108 91
142.0244513308 258.087129644386 2799.43738649442 135 108 91
144.59897018165 257.614685290152 2809.11460879581 128 105 91
146.698882739829 257.146545138678 2819.67818465799 114 96 82
-191.735824774079 277.050636044973 2672.78770974672 30 35 29
-174.127142291839 276.265178408371 2661.58201250878 36 41 35
-154.684082627374 275.442446738487 2647.8828997156 29 31 26
-157.003989173191 275.119248014958 2662.05063586069 22 23 18
-142.117385459106 274.405374401644 2654.05799262001 27 28 23
-130.455725210658 273.766909930154 2650.15331894046 26 27 22
-119.462923194432 273.145414841896 2647.05676603965 25 26 21
-67.7405037621259 271.638647157495 2590.3303834543 29 31 26
-68.8472845375203 271.291341716637 2602.83161485332 32 37 31
-78.602925451513 271.124851941352 2626.93395632931 33 38 32
-77.693694723459 270.725829236216 2637.01490964784 20 23 16
-79.2069787456022 270.374593146593 2650.43038869379 21 24 17
-58.528191954212 269.56219089951 2633.99485312399 21 24 17
-36.739761668843 268.733979836111 2615.85110789697 20 23 16
-8.37003220652677 267.780754158296 2588.50511325533 21 24 17
3.42869698617965 267.167582054377 2583.57693796927 21 24 17
3.69633619793475 266.783342289633 2594.47706873963 20 23 16
9.43363450048573 266.290047821107 2597.88286465439 25 28 21
13.3783639898981 265.830666419059 2603.79902951257 30 33 26
17.9412922501843 265.358335081997 2608.88678869461 30 33 26
28.4655795892226 264.77408282168 2605.60025522396 28 31 24
35.4037584185687 264.25772820162 2607.33432322088 25 28 21
42.9273806790809 263.731032056778 2608.22696059177 28 31 24
35.1799845537786 263.477140894136 2630.98521514527 26 29 22
43.3355017939847 262.936415103299 2631.05474329547 24 27 20
53.2231379870749 262.366604613138 2628.5891329571 23 26 19
63.6610518246947 261.789259075557 2625.26757511551 21 24 17
57.3331617761286 261.494904656768 2646.44326805405 21 24 17
80.9881974855811 260.699509939628 2623.66049425312 18 21 14
79.328586322676 260.323666423907 2638.09572113561 18 21 14
93.1148381906009 259.697408737708 2629.65688910953 17 20 13
88.6958415617811 259.359923013848 2648.36912476038 15 18 11
96.225838844161 258.832805658079 2649.26408929865 15 21 11
90.2619090965513 258.509529418674 2670.58736640856 19 25 15
91.1222305242441 258.078198056603 2681.72782695804 19 25 15
93.7045908534575 257.618595562811 2690.32906151081 18 24 14
100.757903827147 257.093214538494 2692.11007215275 16 19 10
110.014764412391 256.537503598831 2690.4677665044 16 19 10
110.45894849879 256.103094543403 2702.51856745889 23 26 17
112.599990220167 255.642415214853 2712.02018876052 25 28 19
117.503863821147 255.143153609628 2717.24619842385 21 24 15
107.797400186683 254.827806415631 2745.68506953133 18 21 12
111.184298348464 254.340546732322 2753.53345725319 17 18 10
119.969546134375 253.786218886015 2752.77925380422 17 13 4
123.92849090367 253.289738479179 2759.78026367244 22 13 4
128.445453967853 252.785120955721 2765.92846473555 77 61 48
134.041929759966 252.267115444125 2770.35623805813 110 91 77
137.543388384656 251.770850334184 2778.2510787599 121 98 82
139.504190578589 251.288468760707 2788.75843776551 126 99 82
138.90360898572 250.828677543072 2803.62335175846 128 101 84
139.932170921959 250.348032838019 2815.91111362511 122 100 86
138.434831529193 249.887157750128 2832.5705612292 113 95 81
-241.66463884404 271.132051940358 2723.82322928726 197 203 199
-203.855034947877 269.993482250973 2687.35405127299 25 30 24
-175.920590657135 269.056031820401 2663.0683748285 33 38 32
-150.710003818027 268.179410082107 2641.99485650082 23 25 20
-139.028420886572 267.560735452553 2638.09835659966 20 21 16
-174.364627650321 267.798842976772 2694.99565359211 22 23 18
-142.341391032637 266.80886813111 2664.81372690776 25 26 21
-97.2910972901804 265.600927431876 2617.25124404737 26 27 22
-78.2663559182726 264.86568975768 2603.38209395534 30 32 27
-70.5877224322591 264.331623154385 2604.33729291468 29 34 28
-64.1629283649405 263.819352172944 2606.9425294693 27 32 26
-72.6129646399059 263.555109224941 2629.4166256857 19 22 15
-62.4224486060076 262.977060607774 2627.07371169559 22 25 18
-46.7278940699594 262.311889054847 2617.24995936702 22 25 18
-12.1265949652749 261.350766856896 2581.63828994229 21 24 17
3.34152064075077 260.703631094179 2571.72297461256 21 24 17
-11.0210357820297 260.519970475216 2602.59111833082 21 24 17
-5.85961398191759 260.030213025284 2606.84252725624 19 22 15
-1.89162182778513 259.557455514087 2612.76821239011 22 25 18
6.29577785053415 259.021847606575 2612.85061072186 28 31 24
19.8443233036889 258.410516342396 2605.39422805474 32 35 28
32.7388580770538 257.812254569018 2598.75200739546 30 33 26
42.6181361669928 257.258995511017 2596.28288746488 29 32 25
36.5460726765867 256.922366104667 2616.48367505704 29 32 25
31.755150233695 256.561764753524 2635.04523855973 24 27 20
27.6452176352231 256.185941838984 2652.80409449274 21 24 17
50.989370495538 255.458008615943 2630.9737432285 20 23 16
47.5243065971747 255.069877872583 2647.91472985757 20 23 16
46.4543450139934 254.647107058458 2661.51024923748 19 22 15
56.9436454845686 254.084347870334 2658.2093869196 18 21 14
70.8316867113281 253.485099232311 2649.81156396381 20 23 16
80.0986040553773 252.941658386997 2648.17349444855 20 23 16
88.2073472783229 252.412413043242 2648.22399711131 18 21 14
82.7523991175767 252.026686943604 2668.67476524907 17 23 13
86.3971800247994 251.540734264066 2675.54874982062 19 25 15
93.9852029618764 251.013977324955 2676.46720580425 19 25 15
87.6385554159533 250.621235618875 2698.71485785699 18 24 14
106.91652857335 249.983164935339 2681.71082136794 22 25 16
112.279910031718 249.477507472393 2686.04412284844 23 26 17
117.654702597954 248.970966286756 2690.38179407764 28 31 22
118.665128517771 248.499778419048 2701.58333297586 27 30 21
117.549301172235 248.041818135601 2716.23935650295 20 23 14
122.466304110869 247.532766590522 2721.47075634733 20 23 14
121.074736527526 246.589064314337 2750.04460839108 20 13 3
121.818918236497 246.100162092747 2762.21728930464 25 15 5
127.406183584714 245.576856392992 2766.64137355761 84 68 55
130.887668486952 245.065172876383 2774.52798668118 110 91 77
133.346919585402 244.556858904766 2784.15880976675 118 95 79
134.2749598207 244.053423540803 2796.40604385458 103 76 59
134.737908380785 243.548015248872 2809.54404593657 114 88 73
133.705012566509 243.044683543975 2825.31279990057 105 86 71
126.548529184331 242.560676186332 2851.54899394601 107 91 76
-200.499497910861 262.607682383636 2682.29530352414 17 22 16
-166.790812854079 261.676045610935 2650.63748729286 28 33 27
-142.252407077857 260.890065307706 2630.37018593922 17 19 14
-143.992601325653 260.48467581397 2643.6942011076 20 21 16
-138.046506184775 259.968276277976 2647.18445528911 27 28 23
-136.522597548599 259.511685322044 2656.43617278029 24 25 20
-110.386397668595 258.723728883787 2633.57888305458 26 27 22
-86.2876378369908 257.972741552992 2613.13330693005 30 32 27
-74.8285030594384 257.393107540509 2609.1461862008 27 32 26
-65.8986947554177 256.847837110561 2608.4504456305 22 27 21
-62.5682513302825 256.372606920183 2615.19707590507 22 25 18
-51.801683268043 255.806341626155 2612.00824662294 22 25 18
-26.9245340557795 255.076917626657 2589.71979789617 22 25 18
-7.70932652589873 254.422536541658 2574.84834519018 22 25 18
-2.01790184387618 253.926332748819 2578.23533202575 21 24 17
-5.43271668445144 253.528824822487 2594.11792707604 20 23 16
-9.60861655389045 252.689497801857 2622.642439676 20 23 16
2.20914785454362 252.123041944371 2617.72161751776 27 30 23
15.1774306770507 251.548504006111 2611.10907710181 32 35 28
28.0917645472687 250.978286852265 2604.4744031597 30 33 26
28.5110886967706 250.526004221902 2615.43646583497 27 30 23
30.7514955918842 250.053996997872 2623.89933988512 28 31 24
32.4405435728943 249.584116880818 2633.21802185735 23 26 19
44.1140409433933 249.029210582551 2628.23869945322 20 23 16
34.7781643835015 248.643699467967 2653.59146881296 19 22 15
46.4537768485387 248.088635124778 2648.61326122014 19 22 15
47.1158666731222 247.617017752825 2659.67376455244 19 22 15
52.4280588164643 247.109268134758 2663.98609847272 19 22 15
66.3361417158244 246.543546356941 2655.59613612396 22 25 18
76.191426169036 246.008212001351 2653.11716547521 22 25 18
82.613981522319 245.495617764167 2655.72149804055 20 23 16
85.6490344891627 245.002172945634 2663.42747301295 19 25 15
87.028649039717 244.515254310898 2673.69980486828 18 24 14
86.215878349907 244.035848802023 2687.39988829756 17 23 13
95.4997382521459 243.504337602355 2685.76833105428 17 23 13
103.095431417091 242.981951384063 2686.69011675661 24 27 18
111.786648685261 242.455905371242 2685.89762664743 27 30 21
118.810040896507 241.937391006544 2687.6662133103 29 32 23
119.810896934483 241.438971182523 2698.86408384185 28 31 22
121.952440281701 240.933278065788 2708.36624944047 20 23 14
118.172344798948 240.439646164229 2727.33835519237 21 24 15
128.518770462176 239.907254518003 2723.9791564712 20 21 13
116.273888077308 239.419334076668 2756.7861030072 19 12 2
119.708692812857 238.894299866903 2764.65417408258 26 16 4
122.643019760833 238.367374433812 2773.39842771963 89 73 58
127.202381545561 237.836402619667 2779.56399548317 114 95 81
129.675117558297 237.304522032893 2789.20045714368 120 97 83
131.665120434165 236.769342289335 2799.72003949463 97 70 53
132.135796268055 236.22983969043 2812.86142872068 121 95 80
129.551780137452 235.682974537951 2831.23915666689 93 74 60
124.475350921782 235.125725048563 2854.00235806243 98 84 71
-222.95101799646 255.530153124445 2709.94079393378 13 20 13
-185.935305716375 254.672094396897 2674.22685676553 20 25 19
-151.075218645053 253.852227607555 2640.87677159415 18 20 15
-157.249550096322 253.452306044269 2659.95756597956 21 22 17
-135.372908482693 252.776433143576 2642.92719035716 21 22 17
-126.270131897168 252.227831592674 2642.30125144322 22 23 18
-126.009904797263 251.760386245659 2653.19926900409 25 26 21
-103.10098355837 251.09130018123 2634.42893114572 31 33 28
-74.0694696265565 250.379670001714 2607.34905712747 23 28 22
-71.9935550534145 249.901111050378 2615.74537906008 19 24 18
-66.7807775717704 249.395241579315 2620.01744643593 20 23 16
-43.6442453675088 248.752572078094 2600.26025827397 22 25 18
-24.3332018684701 248.147557242797 2585.4272346914 23 26 19
-11.2531817728889 247.593727530598 2578.85952171783 22 25 18
-17.1428786250523 247.170883358919 2598.05599361309 21 24 17
-12.2789121419502 246.201401622525 2614.0582624207 22 25 18
-7.08453693765443 245.696949033335 2618.32286810501 23 26 19
3.52190347014791 245.162063651409 2615.06922364343 24 27 20
11.7038817131256 244.64223278844 2615.14930728866 24 27 20
14.5157353112697 244.149476544329 2622.76490519598 20 23 16
14.9883428729531 243.664952320923 2633.7487863305 20 23 16
22.5934098207536 243.146558633486 2634.67407992237 24 27 20
34.3025008049607 242.612920411363 2629.70926514104 25 28 21
46.5526235176632 242.080741666581 2623.88443384788 21 24 17
47.6851384852799 241.5881988473 2634.05650223287 21 24 17
48.2837842135235 241.093644024117 2645.09149135887 23 26 19
51.8214487887445 240.587608729684 2651.92225750589 24 27 20
54.8104063311021 240.080764831925 2659.60967032828 26 29 22
62.9833018847135 239.561750709577 2659.68607026615 27 30 23
69.4323143758473 239.046488713967 2662.30113536037 26 29 22
78.1522674744035 238.528458712858 2661.5202194265 23 26 17
80.6388490836163 238.017165373633 2670.08306565543 23 29 17
86.536513470171 237.501348853936 2673.55370614792 23 29 17
88.5208272210531 236.985567622629 2682.99202983356 20 26 14
93.3337139169832 236.467134798007 2688.18134485514 21 27 15
103.7118151704 235.950740051991 2684.83510733083 28 31 20
110.189179624345 235.433362543733 2687.46166796929 27 30 19
117.217595765067 234.916656444349 2689.23253230607 23 26 15
113.842863857596 234.382532647035 2707.29000845036 24 27 16
113.283980620349 233.846780320876 2721.09331620714 20 23 12
129.060946726538 233.34583112517 2709.14407069299 22 25 14
124.24155804869 232.793219384665 2729.85369454476 23 25 14
122.752919201018 232.242540434641 2745.43828025687 21 13 2
121.341037308859 231.685756080896 2761.05424782126 12 0 0
123.199503368355 231.135719933306 2771.52068445302 109 91 77
126.163726945236 230.586698054469 2780.27746773525 110 88 74
127.055934232846 230.024614474094 2792.51063785348 93 70 56
128.529463269124 229.460792854305 2803.90038606697 126 98 84
127.966170397343 228.88111573415 2818.78104947528 130 104 89
124.357042788132 228.276840812539 2838.90202569738 106 88 76
119.815891490891 227.657776188566 2860.80361773494 101 89 77
-193.134627455437 247.93016965083 2671.36300426024 20 25 19
-174.632354992758 246.830234347486 2670.2318011375 17 19 14
-154.565345668262 246.221950348054 2655.70463032413 21 22 17
-129.519778415956 245.595092075224 2634.56266082038 21 22 17
-114.112171939316 245.027208138397 2625.70079598172 23 24 19
-117.055986125103 244.550793238468 2640.69588581605 30 31 26
-134.36562232304 244.131824316673 2674.68830837526 30 32 27
-78.3120679516982 243.397719563692 2612.15728643811 22 27 21
-74.9769072510997 242.893617375433 2618.90604554603 19 24 18
-59.2079713593021 242.344189624195 2609.1115323959 22 25 18
-53.3995448430826 241.832075433953 2612.5462702697 23 26 19
-42.6621211741063 241.305391653686 2609.34559783831 23 26 19
-27.05585354701 240.768945204328 2599.4851230635 23 26 19
-12.1343618495093 240.23979771274 2590.42639740353 22 25 18
-48.3416042142111 239.81353354852 2651.29154379776 22 25 18
-28.5050518371761 239.270931835577 2635.59175659897 24 27 20
-2.14678200117602 238.728744745591 2610.66490227644 25 28 21
7.83799891191306 238.214759300575 2608.23845923609 26 29 22
11.2178632675835 237.707019867311 2615.00508888057 22 25 18
6.88482454543449 237.199208815511 2632.67461115607 18 21 14
9.16404303307861 236.684584729777 2641.15352276974 18 21 12
23.8755857866837 236.17224836977 2632.00940561685 21 24 15
38.5176869638693 235.665460625826 2622.83738723033 22 25 16
45.4822290131249 235.155780290367 2624.58233614583 21 24 15
46.0325798419399 234.637087773475 2635.59795396575 21 24 15
51.276186377458 234.122703085857 2639.88282557705 24 27 18
55.3755548971953 233.604937715979 2645.86204521952 24 27 18
54.8945390595368 233.073865891282 2658.61778008883 25 28 19
61.3473677877827 232.557733669382 2661.23439694655 26 29 20
60.959083897089 232.01928330032 2674.02799147926 25 28 19
71.9856350131249 231.517037652694 2669.86539132863 23 26 17
76.1914345777466 230.99085489464 2675.88776794998 23 29 17
86.0448301609333 230.48757194952 2673.40778957016 27 33 21
90.8281789713432 229.962707213126 2678.58519366292 25 31 19
95.0702301096109 229.433704614929 2684.62226966369 24 30 18
102.108961268015 228.918333215727 2686.39730036151 27 30 19
109.143983194597 228.403294730039 2688.17056946766 26 29 18
109.574394382013 227.84703069828 2700.21697472681 22 25 14
106.776339909724 227.264280076572 2717.42950392087 24 27 16
123.68570227568 226.813821008589 2703.78050142898 20 23 12
127.480463117165 226.273320506629 2710.71562527284 21 24 13
129.681901886891 225.717943244546 2720.24216147017 22 24 13
115.800898901034 225.025148311949 2755.62488889539 25 17 6
118.695898281217 224.461841668448 2764.35349483803 26 14 2
120.030123120938 223.881036810887 2775.68696849584 110 92 78
123.535587608135 223.316451535074 2783.58394899124 107 85 71
124.435687669929 222.723006500159 2795.82055254919 79 56 40
126.966905416686 222.141518469903 2805.4810690611 133 105 91
126.405912128407 221.522670195035 2820.36296046118 117 91 78
125.397020489136 220.892250581153 2836.14239683758 111 93 81
-197.740293310646 241.182773132086 2665.23385635379 200 207 200
-197.517934528776 240.662666939214 2676.11668322881 22 27 21
-186.312063832331 240.117373418787 2673.10582274264 20 25 19
-182.187161170709 239.586235039195 2679.09548234235 21 23 18
-162.088860400673 239.032395729072 2664.58082576461 27 28 23
-138.916936682332 238.483697249908 2645.91606324508 30 31 26
-114.608067578221 237.944443369804 2625.55369677067 31 32 27
