ply
format ascii 1.0
comment KinectMotionCapture
element vertex 767
property float x
property float y
property float z
property uchar red
property uchar green
property uchar blue
end_header
14.5423988787643 472.605276933407 2577.32045808853 165 166 168
23.2178986831322 472.307133717874 2575.09638154758 154 155 157
34.4606714524369 472.333333727176 2574.61546913819 133 134 136
47.4359719347213 472.572791159185 2575.27773700291 131 133 132
58.7382468843063 472.590835950811 2574.74498924825 132 134 133
68.3553903505398 472.389068485638 2573.02770816627 136 138 137
80.5678175072226 472.50770783263 2573.02870779555 141 143 142
91.9516228519637 472.514593144219 2572.42536703055 139 141 140
108.539447081386 473.160584825561 2575.24757087499 134 136 135
123.450256018639 473.585701173458 2576.87821368624 129 131 130
158.339817950686 476.455927621122 2591.61360190996 142 144 143
210.742764920895 481.433114117214 2617.6232826881 135 137 136
255.527076187985 485.425873381578 2638.33207809151 125 127 126
278.67321738942 486.750284979961 2644.72901383277 125 127 126
289.652095035488 486.587368607805 2643.15447790621 155 157 156
298.024118992673 486.105820920548 2639.87136238378 157 159 156
-209.291490030739 485.596589182116 2706.39663576892 179 181 180
-208.74218652573 484.178062956667 2697.98953050366 173 175 174
-207.43921557442 482.878951848067 2690.25199714443 164 164 166
-205.376694563139 481.698261780532 2683.17862794733 159 158 163
-202.548365508197 480.635209868114 2676.76400396605 165 164 170
-198.163039292774 479.80415812759 2671.64520847032 150 149 155
-195.356877504005 478.743792083547 2665.24978025094 141 140 145
-191.774713501047 477.799631444098 2659.50427087762 175 173 178
-185.828049176989 477.199553873423 2655.67723254732 178 176 181
-179.084874229705 476.712942005702 2652.48267095398 126 124 127
-168.358205066583 476.794012044878 2652.44841301919 124 122 127
-155.211933926066 477.211534927905 2654.28491698533 129 127 130
-127.637704098261 479.661136155571 2667.42361140681 149 147 150
-100.751394861681 481.981929062516 2679.83580962791 133 131 132
-87.4137048912926 482.372445615937 2681.50657901543 125 123 124
-86.1179281421949 481.071825831585 2673.77497539327 115 113 114
-85.6509099429537 479.661895816485 2665.43913405656 121 119 120
-82.7803687364859 478.590815822845 2658.98829082127 138 136 137
-77.488431654511 477.85592488929 2654.40634084743 167 165 166
-73.0110597007321 477.009849964819 2649.20754783949 194 192 195
-70.9854233931142 475.831492224511 2642.16613282731 189 187 192
-67.3416558669997 474.876699784809 2636.36729836049 171 169 172
-64.5263431357961 473.812758062533 2629.9642773737 167 165 168
-60.0809133034219 472.970655457878 2624.79314400979 162 160 163
-56.4639382659582 472.01940357065 2619.01782412591 166 164 167
-52.0303027688969 471.178829440782 2613.8569034318 171 169 172
-46.7735037659582 470.448161572972 2609.30538152851 176 174 177
-40.6874959327039 469.826496004982 2605.35802457375 159 157 160
-32.9343699782019 469.421648881948 2602.61083317471 145 143 146
-25.1700628727027 469.015213893445 2599.85364544676 148 146 149
-23.246156132994 467.850376569262 2592.90031549508 149 147 150
-17.1489990547826 467.22702985709 2588.94330598282 151 149 152
-11.8887187104875 466.495683550177 2584.38877107214 156 156 158
-2.418595528761 466.300727975921 2582.79855810125 164 165 167
5.38297282549216 465.889117497021 2580.00942375982 183 184 186
14.8883204812371 465.689268474189 2578.38871218084 164 165 167
27.8063444666818 465.912417317438 2579.10104483706 146 147 149
40.7604446725478 466.130558006137 2579.78214138926 132 133 135
53.7504505276751 466.343833283704 2580.43214875262 132 134 133
64.2133725312553 466.235370008522 2579.30445726978 132 134 133
74.6998079662413 466.123717947204 2578.15609100133 132 134 133
88.643822844757 466.42880698017 2579.30189036934 131 133 132
101.767573668374 466.623741246774 2579.83609501131 128 130 129
118.377209672106 467.231522548375 2582.63964141116 125 127 126
135.903518901642 467.936235502913 2585.97130692934 131 133 132
170.817234874042 470.710707150975 2600.68669598441 147 149 148
225.845714891324 475.848732287833 2628.38947327486 137 139 138
259.340175543805 478.372114886634 2641.68977173649 121 123 122
279.874512357608 479.332239934184 2646.38271467751 117 119 118
293.480178921413 479.461136042538 2646.49965355411 127 129 128
-206.687774107684 479.150025322978 2709.4753499974 176 178 177
-206.90571676141 477.633315766035 2700.41030440174 168 170 169
-205.595453308932 476.347146100204 2692.66636650875 162 162 164
-203.525787332893 475.176782352834 2685.58673759906 158 157 162
-200.690561436957 474.121305468799 2679.16608679141 163 162 168
-196.298988594968 473.292354654339 2674.04154799301 164 163 169
-192.698882516202 472.351788542394 2668.28077979789 151 150 155
-189.108005487176 471.412203579042 2662.5276888812 157 155 160
-185.525944614807 470.473738268368 2656.78254750185 182 180 185
-179.574115619325 469.870330172033 2652.95105434707 153 151 154
-169.64366327276 469.82168798513 2652.28448581322 142 140 145
-156.501154839571 470.212738877286 2654.12442259221 121 119 122
-130.532551281136 472.366103433684 2666.00985337889 148 146 149
-103.657501391273 474.614932321184 2678.43227680914 145 143 144
-87.9180492604101 475.309330709285 2681.98948156912 119 117 118
-87.4264243499114 473.912914885444 2673.63222513899 120 118 119
-86.1528704649115 472.629271308875 2665.91977286569 115 113 114
-84.0911123270676 471.457577075157 2658.84700658518 149 147 148
-78.8011214788349 470.723307560872 2654.26673945527 177 175 176
-74.3252980400726 469.880517568812 2649.06958282735 193 191 194
-70.6699801603241 468.93009835653 2643.26070891524 183 181 186
-67.0234762512654 467.980828445625 2637.45978245369 164 162 165
-64.2057285786768 466.925010502614 2631.05428286054 156 154 157
-61.4010282606605 465.870919723474 2624.66008068651 165 163 166
-56.9619818912726 465.032843010236 2619.4947695244 182 180 183
-51.7022876162025 464.302144548782 2614.94073838293 188 186 189
-45.6157995236559 463.678056546055 2610.99266535476 164 162 165
-39.5260476756407 463.053409236103 2607.04176713675 150 148 151
-32.6010929938607 462.534322012915 2603.68986095464 145 143 146
-26.5027383962284 461.9084562715 2599.73151431978 149 147 150
-22.9083495497138 460.965875400878 2593.97571451104 166 164 167
-18.4853079304412 460.129602500784 2588.82394803953 183 181 184
-11.5471867095907 459.608562461367 2585.46064259904 197 197 199
-2.07597416067085 459.40013550718 2583.86957272933 205 206 208
9.10299427165739 459.397566918108 2583.4438327406 185 186 188
21.1557456107219 459.495123234385 2583.5836812719 132 133 135
38.3285766958648 460.210549743025 2587.22164957935 125 126 128
53.0075755151849 460.607926373765 2589.05339030619 125 126 128
66.8783540411746 460.896049252075 2590.26277619449 122 124 123
72.2477519545919 460.150067803404 2585.61376000055 119 121 120
84.465817754201 460.224829742205 2585.61015674203 118 120 119
93.2828370575574 459.886068860069 2583.26368336795 118 120 119
108.997759146205 460.361323251594 2585.5203083837 118 120 119
124.760959621346 460.830045976767 2587.73513111189 126 128 127
140.572089899277 461.292082124571 2589.90813917352 124 126 125
169.426774713634 463.265058171693 2600.61652939085 143 145 144
218.363675887571 467.543374411566 2624.34152634161 140 142 141
257.057857460905 470.586438051598 2641.07155297869 123 125 124
283.691911988928 472.203830866532 2649.73684934387 122 124 123
297.30597967495 472.307281797349 2649.84667155125 122 124 123
-203.311739724166 472.792084096875 2713.20703913791 169 171 170
-203.517684845658 471.29321407365 2704.13179476204 161 163 162
-203.753158448222 469.798200923251 2695.08211878947 165 165 167
-200.895892889632 468.748439419438 2688.64232837819 157 156 161
-199.617018479791 467.480158756851 2680.9251650627 164 163 169
-194.436175348036 466.763492809812 2676.43938611037 158 157 163
-190.829398137663 465.82774741589 2670.67280456732 154 153 158
-185.654296904179 465.111495421938 2666.19199964219 152 150 155
-182.852364225443 464.068377217354 2659.80012517805 149 147 150
-177.685181270963 463.352802329886 2655.32617892228 148 146 149
-168.544540093437 463.179012703503 2654.02140269166 136 134 139
-156.196655815149 463.434627355632 2655.22768554625 149 147 150
-133.426626948715 465.086447386051 2664.5953270097 141 139 142
-107.363683736354 467.155842534363 2676.39953435117 146 144 145
-91.6347774506496 467.816507964578 2679.96609816462 115 113 114
-88.7348261048175 466.758662340594 2673.48936283252 110 108 109
-86.655185766864 465.595826230534 2666.4007244927 140 138 139
-83.7832843008766 464.54166055071 2659.94859266642 160 158 159
-79.3024093102415 463.70134202883 2654.74672614888 183 181 182
-74.8262666873418 462.861653075774 2649.54927277779 186 184 187
-71.1705269158043 461.916956062258 2643.73999611691 175 173 178
-67.5235519142627 460.973461610357 2637.93862391745 158 156 159
-65.5243793901663 459.821184988328 2630.91997701139 154 152 155
-61.8997146918558 458.880553129539 2625.13760789116 175 173 176
-56.6370759439603 458.149877334682 2620.58102452237 194 192 195
-50.5499066105002 457.523362027515 2616.63237676722 194 192 195
-46.1143219744296 456.688685933548 2611.47004397769 150 148 151
-41.6836258589584 455.854638240951 2606.31194417264 149 147 150
-34.7632335327996 455.331052915698 2602.96370598311 152 150 153
-27.835341881322 454.806360069424 2599.60929054838 163 161 164
-24.2428368903029 453.869819662328 2593.85476888971 195 193 196
-18.983761473975 453.139324315859 2589.30127281917 206 204 207
-10.3666464560561 452.817483855259 2587.12795403 208 208 210
3.31653207418681 453.104581079113 2588.49994622408 176 177 179
16.196016647505 453.284591942667 2589.24596190925 147 148 150
26.5739059086205 453.155750655151 2588.1921034108 120 121 123
42.9104283925645 453.730694892576 2591.2325799002 116 117 119
55.8996231621332 453.895511715008 2591.88360427256 117 118 120
70.6285075499116 454.256234841296 2593.67202938687 121 123 122
77.7160420762462 453.709533615358 2590.17938834905 118 120 119
88.2348871780003 453.561290388573 2589.00348408197 120 122 121
96.2031819708402 453.11103514508 2586.0697768495 122 124 123
110.203678157378 453.354440541892 2587.16702154915 127 129 128
125.106495747482 453.691432643832 2588.80516179552 132 134 133
141.78158909099 454.219882739385 2591.55248803434 137 139 138
167.170428559193 455.725750962951 2599.97451886063 167 169 168
215.225193659328 459.771610897463 2623.14202479227 164 166 165
260.867777145936 463.496307715212 2644.43223824907 134 136 135
281.401578477313 464.364429887993 2649.12624149288 127 129 128
293.261080805144 464.249791586259 2648.11138452994 124 126 125
-201.486261249906 466.189140549781 2715.637716696 170 172 169
-203.237163590629 464.492311132829 2705.25598779964 164 166 165
-204.24728051995 462.90842727031 2695.55503805493 165 165 167
-201.389257474258 461.867097534032 2689.11453646429 163 162 167
-200.109229917138 460.612615053365 2681.39628426204 157 156 161
-194.143640773473 460.003363680373 2677.55321806965 161 160 165
-190.53442144344 459.073076164365 2671.78416897368 158 157 162
-182.991493714875 458.676325171113 2669.21911146942 145 143 146
-180.18069172979 457.640516360022 2662.81950229362 147 145 148
-175.005121980313 456.924171327228 2658.33829189173 140 138 139
-167.446413419499 456.524696243732 2655.7595742251 117 117 119
-155.892839987759 456.650319793126 2656.33158080221 128 128 130
-133.124867818018 458.24262045955 2665.70139056557 128 128 128
-107.064808152885 460.241588541483 2677.50855355022 144 144 144
-90.5335184108766 460.971608872408 2681.70247423137 115 115 113
-86.8237253676245 460.025972611016 2675.84666925617 118 118 116
-85.543936113833 458.769486093181 2668.12863658618 157 157 155
-84.2852149381645 457.515888985147 2660.42916116619 163 163 163
-81.425896164752 456.471869532047 2653.98755395119 184 184 184
-78.5797144034275 455.429589317131 2647.55732178647 171 171 173
-73.3014271564252 454.69746486314 2642.98718468838 154 153 158
-69.6582188182191 453.760264435343 2637.18872089315 161 161 163
-66.0239097362822 452.824284680631 2631.39827800605 178 178 180
-63.2198844953029 451.787442203329 2625.00454917614 207 206 211
-56.3128466357767 451.26080456437 2621.66790556193 175 174 179
-51.0489308229767 450.530256216111 2617.11021448923 159 158 164
-45.785871128516 449.799763276431 2612.55326508602 151 150 156
-41.3528877354876 448.968491690552 2607.39316482605 146 145 151
-35.2621342216768 448.339008420275 2603.44142976543 195 194 199
-27.5012249271334 447.90954789451 2600.68765176127 211 211 213
-22.2352174644778 447.178508259003 2596.12815096401 208 208 208
-13.6201292984257 446.846370848301 2593.9566556447 193 193 193
-5.82897370797975 446.412657349644 2591.17668964806 141 141 139
7.86451834497504 446.671386915456 2592.53992656442 127 129 126
20.7544683493501 446.825704540969 2593.27703797715 128 130 127
31.1434219967053 446.679293758735 2592.2137034282 128 130 127
44.0990734726956 446.824523723092 2592.89392790214 129 131 128
55.391154623456 446.768784183521 2592.37049360364 132 134 133
69.2662447128924 447.002398919446 2593.57649571904 132 137 133
76.3510931335425 446.450857084771 2590.08589867999 132 137 133
86.8667088056094 446.287059162317 2588.91289427052 135 139 138
97.4061285482208 446.12005550971 2587.71927879068 137 141 140
111.408732408772 446.336168399439 2588.81487354963 145 149 148
124.589474560461 446.450546086804 2589.30020376767 151 155 154
141.261956748992 446.944194647754 2592.05001870318 146 151 147
173.573998587641 449.154320916957 2605.05361557619 149 154 150
237.2595391779 454.784347512805 2638.48368988427 126 131 127
269.895569413928 456.94976382384 2651.20676408928 115 120 116
283.471895861598 457.009849511351 2651.3495789924 132 134 131
288.343181178219 456.118750426044 2645.80965887151 155 157 154
-206.628559803965 458.617174004879 2712.20360196411 170 172 169
-206.061525035721 457.263212623381 2703.78070999386 165 167 164
-203.963652836967 456.122945874558 2696.67643870777 164 164 166
-201.882916153643 454.984837076064 2689.58700540527 164 163 168
-198.25509523915 454.058152846081 2683.80181029804 157 156 161
-193.851954292678 453.236918747834 2678.667510516 156 155 160
-190.240181518879 452.312096314351 2672.89621284466 158 157 162
-185.060638975809 451.595904950414 2668.41155808399 146 144 147
-180.672375695686 450.776135474432 2663.29014381936 135 133 136
-173.119382049813 450.36976459719 2660.71642415984 152 150 151
-163.171496038965 450.270506337979 2660.03507323593 140 140 142
-150.810460874058 450.475752311996 2661.23028413467 120 120 120
-131.226706293261 451.59725061263 2668.06934603471 124 124 124
-108.367720837083 453.11695906424 2677.36074171064 141 141 141
-91.8410611097609 453.809665036464 2681.55891718992 110 110 108
-86.5235323210909 453.07309427116 2676.95479684935 123 123 121
-85.2406065248266 451.830288543847 2669.2339569734 135 135 133
-84.7875205838573 450.489329516129 2660.91005980486 170 170 170
-81.9274847801648 449.453807165117 2654.46777605251 180 180 180
-79.0806330032861 448.420000440747 2648.03690825279 169 169 171
-74.6172009356609 447.588109430096 2642.85010553313 159 158 163
-70.9753782742859 446.6570165982 2637.05311868928 164 164 166
-67.3428207475384 445.727029546846 2631.26383959232 209 209 211
-63.7190258048186 444.798274705807 2625.48246286999 173 172 177
-57.6352862947105 444.167610062913 2621.53681475382 157 156 162
-51.5483726866495 443.536398187107 2617.58841907894 152 151 159
-47.1122885405144 442.707882985222 2612.42561342336 148 147 155
-43.5103621713475 441.781841419634 2606.66285788485 183 182 188
-38.2549419629061 441.05273661811 2602.1125209036 215 214 219
-28.8341630951527 440.811509138194 2600.56569177924 213 212 217
-20.229162213552 440.470280060369 2598.40299838618 152 152 152
-11.6086593255234 440.126843531569 2596.22688315127 143 143 143
-3.81198193351384 439.684511371973 2593.44218705987 131 133 128
5.67902173848589 439.433527180688 2591.8345547972 133 135 130
18.5629677250456 439.564407223102 2592.57670647125 136 138 133
28.9467194773581 439.402707380089 2591.51797966522 135 137 134
41.0490837667044 439.428935123023 2591.61528908013 132 134 131
51.4842858174949 439.260126732048 2590.51201451461 127 129 126
66.200772812536 439.563232123963 2592.31155825918 134 139 135
76.6935688876309 439.386517743272 2591.15841611361 138 143 139
88.9211816576312 439.395496570217 2591.1469644289 142 146 145
99.4654816038336 439.211786199202 2589.94922736115 143 147 146
112.612629075282 439.306494119553 2590.46380275668 139 143 142
125.795479028401 439.396311849778 2590.94714970375 133 137 136
142.46951695049 439.854567771861 2593.69584557424 140 145 141
186.900427563664 443.283444533856 2614.71491551275 139 144 140
246.266372822909 448.2642512456 2645.2762099351 133 138 134
271.090290447493 449.510715704016 2652.8662988999 120 125 121
278.565623746884 448.900807665061 2649.03763279509 133 135 132
-207.125802069156 451.695212532613 2712.67943419127 172 174 171
-205.781427073477 450.460592299684 2704.90559655606 166 168 165
-201.346916276901 449.638644663652 2699.74379650826 160 160 162
-200.036967026766 448.408391110126 2691.99976860794 160 159 164
-195.620526036933 447.588517645244 2686.85361687048 163 162 167
-191.99282848144 446.667561411313 2681.06880707821 151 150 155
-188.374380204099 445.74761899325 2675.29169188539 150 149 154
-185.55301494828 444.727664771062 2668.88282440502 162 160 163
-181.954491061029 443.810158309746 2663.12327812504 148 146 149
-172.819606032808 443.597289625419 2661.82374418919 139 137 138
-161.282137208305 443.682285590634 2662.41028798887 144 144 146
-148.916730389684 443.862666731102 2663.6015554301 124 124 124
-130.128326354384 444.835224708562 2669.80799601421 119 119 119
-110.471154070221 445.897549416825 2676.58380759813 134 134 134
-93.951139465732 446.553242351094 2680.78798248963 121 121 119
-87.0285744079702 446.015253481066 2677.4382699637 120 120 118
-84.1314162504943 444.983385358383 2670.96378725349 149 149 147
-82.8645920068807 443.756761415676 2663.25679831361 182 182 182
-81.6189096424305 442.53294699241 2655.56843110744 160 160 160
-77.9567248427 441.60504843786 2649.75345945453 166 166 168
-75.9327421516658 440.483475881771 2642.71310972188 183 182 187
-73.1093896177457 439.461307729258 2636.30253414247 185 185 187
-69.4802350619437 438.537699945853 2630.51647869777 158 158 160
-65.8602024106232 437.615298426313 2624.73800620611 154 153 158
-60.6034876495345 436.886558260974 2620.1865448267 168 167 173
-56.9974054858506 435.965915702342 2614.42015232601 209 208 214
-50.9194271532749 435.333593789689 2610.47982388148 194 193 199
-44.838245002675 434.700788274138 2606.53640619362 155 154 160
-37.9228011267099 434.162620587162 2603.19286701066 141 140 145
-28.5010868586597 433.907950208559 2601.64499873871 130 130 132
-19.0596328283643 433.650553813883 2600.08035448278 148 148 148
-10.4357751552642 433.296125524888 2597.90140276194 157 157 157
-3.47483097331747 432.751478672206 2594.5181533006 163 164 159
4.33485899479269 432.299578943914 2591.72224073985 160 162 157
16.3721510827446 432.313340410675 2591.87603135248 156 158 153
28.4409678339945 432.322654548079 2592.00221171226 149 151 146
41.3890500117939 432.420485911439 2592.68930391312 142 144 139
52.6744045713756 432.32816350858 2592.17193685085 129 131 128
65.6902547155975 432.416688798978 2592.80035242291 125 130 126
79.5953858896556 432.592300415933 2593.98069271211 119 124 120
90.974143907383 432.487129740445 2593.38245277244 113 118 114
103.238107909896 432.46965407016 2593.33966559368 123 127 126
113.815167175285 432.265422571936 2592.11366782389 153 157 156
126.139174179532 432.239823130498 2592.01920737238 161 165 164
141.948951036055 432.572358040782 2594.19422766425 174 179 175
189.833448620235 436.241288190499 2617.51175308656 186 191 187
255.2686880396 441.684098790027 2652.07303543578 132 137 133
273.153348149039 442.150054177847 2655.09565252055 112 117 113
-202.20792990465 445.474806449248 2717.72070313218 173 175 172
-201.623906478352 444.152003606394 2709.28288457323 166 168 165
-196.398910348086 443.431188093474 2704.75886351933 159 159 161
-197.412822007225 441.914348809718 2695.06076835281 158 157 162
-193.769563362427 440.997173531491 2689.26213119158 159 158 163
-190.919174456264 439.982173803864 2682.82807576496 155 154 159
-186.510017321815 439.166088170575 2677.68852817438 151 150 155
-185.257612701781 437.956998741806 2669.99423912933 157 155 158
-180.076596291032 437.241147865427 2665.50830470819 159 157 160
-170.936430406738 437.014243327029 2664.20428461724 137 135 136
-157.806143496783 437.272076451508 2666.05567748418 142 142 144
-143.839648562051 437.62147064341 2668.50528186583 127 127 127
-126.636700281734 438.352424311644 2673.44030677339 118 118 118
-110.973631659161 438.881553069883 2677.0647868169 123 123 121
-96.8629513560173 439.210489338616 2679.38923761208 108 108 106
-88.3381203727733 438.860526223889 2677.29640246121 109 109 107
-84.6359976857003 437.933327620125 2671.4468106701 170 170 168
-82.5596290691255 436.816108487989 2664.36102796249 147 147 145
-82.1213061535482 435.510681621653 2656.04938067657 141 141 139
-78.4586502613349 434.588558526107 2650.23396328576 200 200 200
-74.8048509826016 433.667620417793 2644.4265300743 178 178 180
-71.9767020014155 432.653399986119 2638.01174574021 160 158 161
-69.9801843328349 431.546784786388 2630.99510400569 162 160 163
-68.8215508408243 430.348594704444 2623.38170362698 209 207 210
-64.3934288900643 429.52752966073 2618.22575081511 215 213 218
-58.3209707938774 428.893683238417 2614.2899013239 197 195 200
-53.071987362292 428.16631363685 2609.74513208438 161 159 164
-47.8237703915298 427.438987369548 2605.2010268832 164 162 167
-40.0840174609596 426.989080282497 2602.46571835438 201 199 204
-29.0015672212243 426.90614740259 2602.12415491509 208 206 209
-20.396000495305 426.54373224613 2599.96110837073 191 189 190
-13.4486220010626 425.995963949656 2596.58995251842 173 171 172
-5.65505159170643 425.538509750551 2593.80804735176 129 130 125
3.83188232265042 425.261461982645 2592.2037958741 124 125 120
16.7105691302396 425.344684456698 2592.95113020269 118 119 114
26.2449874361623 425.061114375389 2591.30608007365 114 116 111
39.1870207673883 425.135514192807 2591.99825135142 117 119 114
51.3162364461084 425.115127547272 2592.0725897644 120 122 117
67.7328487277711 425.538403751674 2595.04463235995 119 121 118
83.3482893997708 425.865130993912 2597.38812844211 119 121 118
93.025638197656 425.561922987143 2595.61932257236 145 150 146
101.865203406326 425.167276267339 2593.25366999336 159 164 160
111.579802716214 424.85902173474 2591.45261046751 165 170 166
123.036669334242 424.724527798098 2590.78686101185 168 173 169
138.837941619694 425.025839556014 2592.96945484796 110 115 111
207.476191287444 430.666864994183 2630.04696316103 90 95 91
262.531571622129 434.869169105148 2657.73248847501 96 101 97
273.476289480041 434.598476682081 2656.1882584562 101 106 102
-194.199261400913 439.606094220967 2725.37446331763 170 172 169
-198.244273444987 437.712723666587 2713.01229722431 165 167 164
-195.341478319201 436.699589353754 2706.53280735549 160 160 162
-195.570071670145 435.300964658492 2697.47654342194 156 155 160
-191.92011073549 434.388725674502 2691.67206515787 153 152 157
-189.062867631124 433.381336661114 2685.23201963369 153 152 157
-184.647209315857 432.567459641822 2680.08682292413 151 150 155
-181.024429355678 431.658372128281 2674.30588296603 143 141 144
-175.830993747672 430.941178113784 2669.8091930838 140 138 141
-167.470990210764 430.604309862238 2667.85913495029 152 150 151
-155.920151220742 430.644335063548 2668.43406624575 147 147 149
-141.949709264753 430.963412079999 2670.88013054542 124 124 124
-123.147201381696 431.8417261942 2677.07495752031 120 120 120
-108.276468954347 432.240627863511 2680.06345131424 113 113 111
-95.7636257879417 432.351679804104 2681.1276951411 107 108 103
-89.6478668958407 431.710415014621 2677.15436336484 127 128 123
-85.9471074712199 430.789320988181 2671.30622911732 115 116 111
-84.68016042639 429.590767122178 2663.59895184643 176 177 172
-82.6241651446198 428.487670070452 2656.53073592898 189 190 185
-78.1486363259876 427.663604240902 2651.33371332588 160 160 158
-73.6781521808187 426.840165645269 2646.14074354526 212 212 212
-73.2940836451546 425.558805680051 2637.87628003929 211 210 208
-72.9355913541578 424.280837966471 2629.63364688918 231 227 224
-70.9617166827794 423.188538479962 2622.63622237521 194 190 187
-66.5373954216912 422.371189191055 2617.48353967951 175 171 168
-60.4691424192221 421.735573514371 2613.55134635899 129 125 122
-57.70355950549 420.738304982727 2607.19099594858 127 123 120
-49.9799478002636 420.282824145939 2604.46939820515 129 125 122
-43.075329251991 419.735993559184 2601.13529785861 25 21 18
-31.1674577487953 419.72481482519 2601.40142355714 19 16 11
-25.0707625305857 419.085039418387 2597.44460530105 26 23 16
-17.2973036254218 418.622538406708 2594.68016420144 30 27 20
-6.15742614463954 418.51285785395 2594.28899983372 27 28 22
10.0549450486027 418.929234908728 2597.43811022862 39 40 34
23.7908971969363 419.074271541748 2598.76528218715 58 59 53
29.9631048268783 418.423997390401 2594.74308264166 86 87 81
35.2917424036829 417.685810815468 2590.12934438561 89 90 84
49.1089494167203 417.819635245295 2591.38616248758 85 87 82
65.519012170598 418.208730130968 2594.36410329007 139 141 138
79.4223155542122 418.330690344691 2595.54637545338 138 140 137
87.3803847665213 417.842788608425 2592.62209056216 106 111 107
99.63532273364 417.783672185823 2592.58771191867 72 77 73
108.485549814951 417.377049649299 2590.21289591501 36 41 37
129.407230974515 418.165328243943 2595.89448803002 42 47 43
274.994046350462 428.51293612633 2666.82249286325 104 109 105
-190.834872127664 433.107401772406 2729.11715776521 171 173 170
-194.867131276623 431.245460762407 2716.74373461507 165 167 164
-195.062641529467 429.862023380649 2707.65869795707 159 159 161
-193.728777808004 428.670589321667 2699.89369097356 153 152 157
-190.072163784186 427.763233371676 2694.08341459579 159 158 163
-186.424412931752 426.856973462821 2688.28112865771 147 146 151
-183.571352247544 425.8585617094 2681.84465001454 145 144 149
-177.581229212519 425.233557742758 2677.980105981 149 147 150
-173.956731698502 424.329958053044 2672.19764179603 133 131 134
-167.174600553431 423.796958095336 2668.96961606178 144 142 143
-158.00400745234 423.539119126458 2667.63973957707 145 145 147
-140.85675455083 424.196577328291 2672.62351392384 131 131 131
-119.660182416819 425.303193355873 2680.711622573 115 115 115
-103.981501661529 425.759763523596 2684.32304120138 105 105 103
-93.8636248909894 425.572216652391 2683.4949252882 108 109 104
-90.15349074568 424.655736709266 2677.63832022107 116 117 112
-88.8700850211435 423.469211490572 2669.91701518779 161 162 157
-89.2240681635279 422.105229477919 2660.96920660812 178 179 174
-84.7474731805571 421.284231722882 2655.77092452802 169 169 167
-77.8394529966651 420.732571342183 2652.43390715881 186 186 184
-71.7384465175388 420.090478632379 2648.47336719409 154 154 152
-72.9793245874561 418.646904098573 2638.97151721661 84 81 76
-75.8902563871668 417.030481398854 2628.2714456395 26 23 16
-73.1012433714904 416.038718798075 2621.89043632614 26 23 16
-68.6807249860411 415.225055615277 2616.74102583339 19 16 9
-60.1437730428072 414.851250129138 2614.63752399714 15 12 5
-59.0284514442323 413.687039426036 2607.06144340607 34 31 22
-52.1354904276881 413.13683816753 2603.73746890335 45 42 33
-48.5570396498618 412.237493360783 2597.99488750802 25 22 13
-38.3279574447433 412.033233586673 2597.07049414748 42 39 30
-31.4130456385104 411.479866580547 2593.72751462044 49 47 35
-21.1447491999039 411.270176050925 2592.76916806563 55 53 41
-11.6916165561642 410.971270549491 2591.19435500285 21 21 13
9.54964664878766 411.868224726498 2597.92182603634 21 22 16
28.3395575220586 412.498547342776 2602.80560189855 21 22 16
30.3003867293126 411.419053707313 2595.81940137502 18 19 13
33.0911905162568 410.426742763513 2589.43715900195 18 19 13
47.7511035082747 410.618952328105 2591.28645607619 22 24 19
63.3058617813949 410.8893166644 2593.68322852054 33 35 30
82.5919893934852 410.239233387773 2590.20501630273 17 19 14
84.55251791524 409.159959904596 2583.21907496753 20 25 21
104.533441295961 409.827713598243 2588.39389130972 50 55 51
292.652454184124 422.56667380056 2679.34621938886 98 103 99
-189.018676841861 426.396356256798 2731.55658189987 173 175 172
-192.267099020176 424.658361053853 2719.8265522856 167 169 166
-193.230138731524 423.201451595752 2710.08366071376 162 162 164
-190.330786581236 422.205788626396 2703.60704178082 157 156 161
-185.881975932274 421.393914638771 2698.43309777231 153 152 157
-182.221606832093 420.491742173283 2692.61953314577 150 149 154
-180.926040901737 419.319089839766 2684.88759852836 148 147 152
-176.502436575926 418.510131336397 2679.73548285374 145 143 146
-170.50508237467 417.881578432288 2675.86469430571 150 148 151
-162.130128772212 417.521474931242 2673.90151346517 121 119 120
-152.946120581422 417.248474715671 2672.56010788527 121 121 123
-138.969467156927 417.507188369597 2675.00117963801 97 97 97
-120.96080022533 418.203856162657 2680.56165778755 119 119 119
-106.086269283765 418.537299727105 2683.54728344283 117 117 115
-94.3701418564431 418.510951373035 2683.9796989236 83 84 78
-92.2668408195255 417.424360101367 2676.87037444991 59 60 54
-90.9865984312059 416.252311947496 2669.15140186924 55 56 50
-92.9588325128901 414.733418056281 2658.96035612181 23 24 18
-86.0603629090959 414.178103257471 2655.63164026438 20 21 16
-80.778534255876 413.447957209993 2651.0584208821 17 18 13
-75.4975617209954 412.717866571095 2646.48594316931 20 21 16
-75.9291368563968 411.383767052114 2637.6051927197 32 30 18
-79.6620299484392 409.709698783463 2626.29465721234 57 55 40
-73.6004705247915 409.070493078276 2622.36828872065 58 56 41
-69.1796351411726 408.259901285785 2617.21858357151 46 44 29
-62.2916760239596 407.705380891572 2613.89865686999 47 45 32
-62.8315530669661 406.385926440324 2605.11168067617 51 49 34
-54.2908920805312 406.00102159934 2603.00503600295 43 41 26
-50.7158442736504 405.108056060541 2597.26567825988 59 57 42
-43.8210416582243 404.552404440482 2593.93982738284 49 47 32
-37.7529396149519 403.912010453676 2590.00811138049 44 42 27
-25.8275244998001 403.85535879761 2590.25901055276 48 46 31
-14.7086204113971 403.711133792154 2589.88624842701 31 31 21
-7.76387656658128 403.148509220287 2586.51747238909 28 29 21
32.8855115205147 405.889801068181 2606.84848126443 26 27 19
110.028053436785 403.183554884432 2592.93802491007 45 47 42
-187.976845597296 419.578735996613 2733.34460491816 175 177 174
-189.669128624337 418.048790020225 2722.91098714674 167 169 166
-191.399161837624 416.523868032293 2712.51005626308 164 164 166
-189.271836764797 415.447186422094 2705.37984507908 158 157 162
-184.037619059007 414.726177033667 2700.84783261052 155 154 159
-180.370572269316 413.828914232297 2695.0284483757 149 148 153
-178.282704692778 412.757127219548 2687.93240470491 146 145 150
-175.424975164824 411.775064435563 2681.49177346531 145 143 146
-168.634160093805 411.230894009751 2678.25629344523 147 145 148
-161.836390890857 410.685525318999 2675.01447828097 125 123 124
-151.064462265684 410.572389986412 2674.94256631208 113 113 115
-136.28839027963 410.887263666926 2678.01365021647 103 103 103
-119.869387852874 411.367559305917 2682.30651257209 94 94 94
-105.792195490127 411.582512909182 2684.66104269228 56 56 54
-98.0828662730353 411.10681982992 2681.95227058337 25 26 20
-93.5764297265647 410.288360802233 2676.72810729653 4 5 0
-92.2969718739268 409.130573636286 2669.01003780242 35 36 28
-93.4618262857563 407.721473655027 2659.44175647903 32 33 25
-92.2311240794751 406.570192599482 2651.76590309637 12 13 7
-91.0219679015691 405.421701154084 2644.10839084137 13 14 8
-83.3241585659046 404.946960612945 2641.4095972553 18 19 13
-78.062389150662 404.219845347303 2636.85374429605 19 17 5
-81.7971363444516 402.576508834733 2625.54461666277 40 37 22
-75.7397798285537 401.935563523874 2621.62190225499 41 38 21
-68.8571805503466 401.376846534911 2618.30696382548 51 48 31
-62.7912704855254 400.734629532349 2614.37684398998 73 70 51
-62.5038221925198 399.516713464086 2606.19539809042 74 72 51
-57.2737259261338 398.793534295319 2601.66697188176 80 78 57
-52.0444343914255 398.07049344407 2597.13924226667 81 78 59
-45.1518131451172 397.510157293745 2593.81562792938 76 73 54
-37.4177919933545 397.029791475464 2591.08548471261 59 56 37
-28.0002493986191 396.709329024162 2589.54165851415 64 61 42
-19.4010966337204 396.305699863613 2587.38475376097 34 34 24
-13.3072440274016 395.65930059356 2583.43044222158 32 32 24
4.58118251781769 396.131246709046 2587.77301685311 30 30 22
-35.6285751130239 389.908587039225 2543.26325054726 33 34 26
122.924313891881 398.422564549782 2610.90485602213 22 25 18
100.925042956257 395.180702770947 2587.64623471896 41 44 37
112.356051941743 394.974893292295 2587.00335912935 40 42 37
103.311020173996 391.709550474482 2564.42696413699 27 32 28
-186.163509754414 412.836276009329 2735.78671100134 179 181 178
-187.07308635062 411.416751847554 2725.99723876825 170 172 169
-188.016133827449 410.001682598934 2716.23706359538 169 169 171
-186.656534950229 408.848860529548 2708.44918530784 164 163 168
-183.756525037061 407.870101679492 2701.97188672906 150 149 154
-180.086697035667 406.978355369762 2696.15037168393 155 154 159
-177.21095806135 406.002610607489 2689.6940900689 157 156 161
-172.774550169558 405.198103850516 2684.53053272315 138 136 139
-163.608775647505 404.901314075919 2683.20508507628 140 138 141
-156.00568822052 404.433206516306 2680.58834739132 128 126 127
-144.425837798885 404.383148503197 2681.13871717767 116 116 118
-135.994700610396 403.993859765732 2679.12702912468 91 91 91
-121.170521224939 404.269519210943 2682.15698623888 46 46 44
-111.892821838627 403.956563423105 2680.73463404523 5 5 3
-110.608619973041 402.812427972007 2673.01204876829 7 8 2
-102.115806047891 402.414114501151 2670.94696175118 15 16 10
-94.4128679943472 401.931257382534 2668.2437755166 33 34 26
-93.9652579382297 400.70880970345 2659.92354102495 34 35 27
-101.637283555553 398.672678088172 2645.41291957388 12 13 7
-105.318399771294 397.052698647687 2634.05684117693 26 27 21
-94.4017544198479 396.899600770447 2633.85944146503 39 39 31
-85.9039439125269 396.500007794313 2631.79034753463 47 45 33
-85.5669329605169 395.292364834456 2623.565877327 48 45 30
-77.878449979071 394.810870512068 2620.87521099203 38 35 18
-71.0003638557914 394.24770868128 2617.56389756596 59 56 39
-64.1148647857568 393.683495876831 2614.24648139566 71 68 49
-64.6539468916964 392.403069983415 2605.45856329528 68 66 45
-60.2557663967605 391.601720152536 2600.3281185515 88 86 65
-54.2025615950399 390.958840936884 2596.40933062822 83 80 61
-45.6507584563299 390.551280775261 2594.29317545816 68 65 46
-37.0834522182086 390.141527987012 2592.16359740287 56 53 36
-29.3366010843306 389.651574275615 2589.42239610923 75 72 55
-20.7403890411135 389.237808926569 2587.26779035514 38 35 26
-8.76842541713341 389.131852551817 2587.4789792703 33 33 25
15.8657860823852 390.179591617374 2596.55804197019 29 29 21
25.3993775771955 389.829816695094 2594.91382196424 29 30 22
121.680576365325 393.558337259633 2627.89476087255 28 29 23
93.8635305453679 389.853214878837 2600.41784347614 23 26 19
91.5755525037003 388.427296803518 2590.49986188251 19 22 15
92.6837657705164 387.306405110387 2582.92997714266 37 40 33
84.3070819752754 385.367050065944 2569.02916563561 37 40 33
105.18578064614 385.96629971445 2574.74955264368 29 34 30
-185.124250337748 405.992644960291 2737.57681615303 179 181 178
-184.478929556237 404.762210849987 2729.08527042133 172 174 171
-186.18856940991 403.284569607668 2718.6666730123 167 167 169
-185.600217774341 402.061612988279 2710.22445603279 165 164 169
-182.695388999527 401.090798840483 2703.74292929153 146 145 150
-180.586401127484 400.038969185498 2696.62845057729 151 150 155
-177.709922708508 399.071718506735 2690.17147301712 156 155 160
-173.273174311184 398.270294945839 2685.0076005638 140 138 141
-164.89698180874 397.878516727654 2683.0438666899 138 136 139
-157.296417156299 397.402903825408 2680.42936421913 130 128 129
-148.098715243918 397.088093182334 2679.07604521828 122 122 124
-138.881349556301 396.770446984128 2677.70601680394 63 63 63
-124.86265037934 396.934103190219 2680.11126196632 1 1 0
-117.192117855961 396.448319031914 2677.43618173683 18 19 14
-115.919032807005 395.319813835833 2669.72313052 14 15 9
-105.029778981901 395.152274278355 2669.54956561101 19 20 12
-97.3334365619856 394.66255014445 2666.8521405476 22 23 15
-97.6978362865166 393.378346975875 2657.91284342521 27 28 20
-106.184154108511 391.30811303227 2642.78464289631 19 20 12
-109.873010318621 389.719814950604 2631.43538324754 30 31 23
-98.1545996014796 389.627995722375 2631.865928459 22 22 14
-83.9582915763883 389.766161064484 2634.11739883007 30 27 20
-82.7963672770888 388.652244019679 2626.50091561186 28 24 15
-77.5585692410181 387.929135536127 2621.96581354454 43 39 28
-71.5002088733576 387.283383913642 2618.04226020737 52 48 36
-65.4384679612021 386.637154310288 2614.11609544095 41 38 23
-64.327139818503 385.529924128755 2606.54310688643 55 52 37
-64.0645734821996 384.349104808957 2598.38298668526 63 60 45
-58.8494281777545 383.628852372947 2593.86750004743 56 53 38
-50.3085225200932 383.212264739974 2591.76084861414 58 55 40
-41.751952145237 382.793559769574 2589.64094924065 36 32 20
-36.5230094201561 382.07131447019 2585.1135167962 41 37 26
-27.1061013729557 381.724437843385 2583.57041174741 36 33 24
-15.1499540750701 381.599232113871 2583.7954339772 31 31 21
3.57247466647692 382.065549417782 2588.73844627425 25 25 15
32.4861615807075 383.413624785395 2600.72332300772 26 26 18
31.905649526037 382.158316189302 2591.97115097237 27 27 19
45.7112451142931 382.159214977145 2593.23889447504 26 27 19
61.2567305775977 382.301354193526 2595.64453489893 29 30 22
55.5497061429531 380.609546365404 2583.39832768127 27 28 22
71.9946000724381 380.818319313955 2586.34724754252 26 27 21
67.0892366282292 379.206638392219 2574.72895357682 21 24 17
79.2968439579305 379.046827329365 2574.73593508899 34 37 30
84.6552816633537 378.306933143689 2570.09637905567 35 38 31
104.670368390096 378.785921058365 2575.24280800482 38 43 39
121.296680141134 378.969865709365 2578.03433189428 38 43 39
-185.630556347898 398.974768745751 2738.06112578366 178 180 177
-184.983897166546 397.760952462281 2729.56831232878 173 175 172
-183.586217762339 396.631260557534 2721.74759390851 163 163 165
-183.766696042195 395.343323427879 2712.6489096552 163 162 167
-182.41596908766 394.219692939 2704.86853181978 153 152 157
-179.521550651427 393.258739688985 2698.39596419431 147 146 151
-177.424719873934 392.219790877033 2691.29193900271 158 157 162
-172.198880790389 391.500583569757 2686.76717690968 149 147 150
-166.185334955608 390.860447984935 2682.88242954693 136 134 137
-156.21524008783 390.613843208506 2682.18278421752 132 130 131
-147.806966100744 390.206748190542 2680.19102790814 119 119 119
-138.588372187724 389.875671798333 2678.82002197468 69 69 69
-130.943993214023 389.385789262737 2676.16763652436 4 4 2
-120.891671995937 389.127332419222 2675.39679946324 12 13 8
-106.010646702446 389.329948386883 2678.37764399635 23 24 18
-93.4901350203718 389.294474142726 2679.43619073836 31 32 24
-99.4481078211282 387.486326968196 2666.08498249961 23 25 14
-101.429178584927 386.068947435464 2655.90093800663 21 23 12
-113.1564286226 383.741205309446 2638.29007958122 19 20 12
-119.292866702186 381.957339614684 2625.09308075704 26 27 19
-92.96182774241 383.210432858584 2636.67020953432 29 29 21
-81.1986239705327 383.090939656167 2637.06242583606 29 24 20
-75.1244214978533 382.440838765105 2633.1251697604 30 22 19
-73.143167415048 381.41580797156 2626.12122885533 33 26 20
-67.8938669852931 380.691509760299 2621.57616495942 32 25 17
-63.468998241698 379.892913716843 2616.42257070662 33 26 16
-59.0489493373867 379.094988965224 2611.27346514462 52 46 34
-59.5981692583134 377.855138817596 2602.49407092105 45 39 27
-56.0297106166758 376.986678521122 2596.75994993692 46 40 28
-54.133048400383 375.973039842074 2589.82925402199 53 46 36
-43.9184951364742 375.690848549379 2588.91795841522 33 26 16
-39.5290697388564 374.896973053968 2583.79536910794 32 25 17
-28.4439546942248 374.682545556268 2583.45234807486 34 31 22
-19.0104880793398 374.320159203554 2581.89499162367 29 29 19
-2.82398509909498 374.529370360696 2585.06786536877 25 25 15
21.0078098671951 375.374976365851 2593.5204602757 27 27 17
38.162489803601 375.63850590394 2597.17708913983 30 30 20
40.9614405385197 374.688193645176 2590.78719784874 30 31 23
59.0438988596547 375.011713899273 2594.96287548183 34 35 27
39.7060333385033 372.22994678365 2573.36431963425 30 31 23
38.1807444140247 370.936811145938 2564.10800391965 29 30 22
69.146021246735 372.301604484802 2576.96110733856 24 25 19
81.3582508850783 372.11974665073 2576.96422539331 32 35 28
87.5828263234579 371.448743282503 2572.8970866246 33 36 29
86.0525091202744 370.156457243944 2563.64480808162 24 29 25
92.265552831075 369.48713438953 2559.5873378731 17 22 18
48.2507589899921 364.848980124672 2522.33536371573 26 31 27
-189.225478029782 391.641562564676 2735.93113398078 180 180 180
-187.037334124672 390.60224879555 2728.7479667842 173 173 175
-184.866683617265 389.565118976502 2721.57963207929 167 168 172
-184.269377717702 388.374604755059 2713.12975940262 165 166 171
-182.137272829647 387.342456331218 2705.99480129196 172 173 178
-180.804576905133 386.235274697831 2698.23026052222 150 151 156
-178.708866603831 385.207840183182 2691.12713187468 148 149 153
-174.271435009475 384.412612663138 2685.96262711944 161 160 165
-169.050416665108 383.694339031409 2681.4420372841 154 153 158
-159.087475929318 383.432678161815 2680.74869026189 123 121 124
-150.685999777883 383.015973623974 2678.76288815094 121 121 121
-138.296210316485 382.974748331854 2679.9347738073 93 95 92
-133.040048395328 382.251098085184 2675.38375861133 9 11 6
-126.986206889856 381.602391797482 2671.46414108075 10 13 6
-104.114540209174 382.521919992493 2680.74843466659 13 16 7
-89.1813674631323 382.684852502504 2683.6846537908 9 12 3
-92.7100896690214 381.135826057698 2672.19603025059 16 19 10
-98.7049029063933 379.371446479705 2658.87646932735 19 22 13
-103.949001796153 377.688545341679 2646.2289701847 19 22 15
-106.003393600692 376.306199481673 2636.10856416699 19 22 15
-89.3979885550702 376.608248085704 2640.2410197179 23 24 16
-80.8860985849273 376.175146854665 2638.15962423247 16 16 8
-75.6268964809723 375.450054145521 2633.60598334799 21 18 11
-74.4639252711905 374.364120415605 2625.98809588941 24 21 12
-66.753348739018 373.856220256674 2623.27845139036 23 20 11
-63.9703310402138 372.917006706631 2616.90229791448 21 18 9
-57.8995181928237 372.264869279114 2612.96830845855 21 18 9
-57.6161576806662 371.114935547814 2604.78996505834 24 21 12
-52.382527642532 370.393017179646 2600.25846783267 27 24 15
-53.7999679099626 369.107335625327 2590.90862750779 34 31 22
-45.2511849484791 368.668637154589 2588.79529181091 37 34 25
-43.3696051805526 367.668422995821 2581.87758140489 40 37 28
-31.4566320992906 367.506265651453 2582.13994821465 34 35 27
-25.3878297786048 366.854152214666 2578.20738568618 30 33 24
-5.0107686870331 367.375988703882 2584.36306165458 31 34 25
8.69072830240381 367.337398312921 2585.72128704549 34 35 29
13.9767872208072 366.608134808902 2581.14439542141 36 39 32
28.5853115270918 366.629597665553 2583.03933935965 53 56 49
60.2299159772048 368.004194950384 2596.62715796953 48 51 44
13.6495152688703 363.13517966234 2556.30670897477 38 41 34
49.6259773494963 364.838025156088 2572.75444368625 37 40 33
69.4899074386752 365.245616723264 2578.0320326637 32 35 28
76.556258168524 364.641253374703 2574.55812603573 31 34 27
75.0323169877873 363.370356380355 2565.30018256338 66 69 62
79.5079567489907 362.568059204959 2560.10292274094 69 72 65
98.6639582612003 362.888365393149 2564.67140360159 40 45 41
97.1035505170255 361.622708779951 2555.44503305274 23 28 24
-188.959824320534 384.709010895011 2737.06906634176 181 181 183
-186.768724753579 383.68061756889 2729.88326660207 175 175 177
-185.371003806995 382.579089288102 2722.06201416171 167 168 172
-183.216432565277 381.55540568514 2714.90784431537 162 163 168
-181.859118379295 380.45913163906 2707.12189533209 164 165 170
-179.741211042073 379.440161046378 2699.99947286923 164 165 170
-177.64068503066 378.423359310883 2692.89178585911 146 147 152
-172.4125230737 377.704647642053 2688.36500723645 150 149 154
-166.396850137041 377.059621587238 2684.47876344126 158 157 162
-158.797637374354 376.560760281349 2681.86558335216 137 137 139
-149.602508769455 376.206441942212 2680.51475074026 126 128 127
-138.799050783093 375.994972101906 2680.41583283792 98 100 95
-132.746420143119 375.344272981109 2676.4972777216 4 6 1
-131.481190213035 374.259396967549 2668.79106761331 11 14 7
-113.426967006701 374.689095407387 2674.3137904701 13 16 7
-94.5058556440799 375.181557818521 2680.4080043619 16 19 10
-97.2398737684714 373.735924973298 2669.55348862079 14 17 8
-100.015602866296 372.295939350985 2658.7350886855 16 19 10
-100.407111895072 371.074195253993 2649.81888343518 16 19 12
-101.639011795647 369.785827071793 2640.30793050174 17 20 13
-93.9641198508836 369.275351639511 2637.62923180511 20 23 16
-89.5369028978097 368.483153835621 2632.47387632683 25 25 17
-80.2140193957088 368.10999865324 2631.01243601664 26 26 16
-74.9657708269202 367.386785304889 2626.4682767765 25 25 15
-68.0764913906282 366.802001525282 2623.14771732731 23 23 13
-66.1176938441317 365.802751732666 2616.16307324793 24 24 14
-59.2264297101543 365.217528758598 2612.84048092307 25 25 15
-55.6356107835465 364.357936827551 2607.08723752183 25 25 15
-51.2248733092888 363.567584051402 2601.94615344437 28 28 18
-53.467890782696 362.235665889788 2591.98859378836 33 33 23
-45.7507755963147 361.718815498777 2589.27334000041 36 36 26
-40.5277841990559 360.998749055654 2584.75105166666 37 37 27
-29.44530867773 360.747293083859 2584.41055834874 37 38 32
-22.5314267876122 360.158739683076 2581.06838398289 38 41 34
-0.467053842006848 360.763890922989 2588.40790349306 52 55 48
23.3642022018112 361.490089367843 2596.86142375459 54 57 50
-8.50782220910773 357.860552600237 2566.28199238749 49 52 45
45.8722144376353 360.939906129107 2595.88371548344 51 54 47
26.5891538242382 358.310130428187 2574.23667334423 54 57 50
23.36477631308 356.931148855856 2563.80673780748 53 56 49
40.5822425922628 357.11043691199 2567.40949337839 50 53 46
44.1677905156492 356.251472751945 2561.6604989643 31 34 27
63.1803378722711 356.548084885225 2566.35347023606 31 34 27
71.0828801202981 356.005858519951 2563.47766458562 42 45 38
76.4120642875645 355.271401106758 2558.86342841491 58 61 54
86.9224860390316 354.916801651871 2557.69616216179 55 60 53
95.7252788762193 354.432981032527 2555.36295936801 63 68 62
-180.978034644778 378.502447528053 2744.74831265737 183 183 185
-182.632141801081 377.117554868097 2734.28066653746 177 178 180
-183.548334165429 375.810324912729 2724.49620075915 171 175 178
-182.164475174365 374.724684031871 2716.687175536 165 168 173
-180.022152870682 373.713863697556 2709.54353893024 155 158 163
-177.897342007146 372.705289629295 2702.41475005039 161 164 169
-175.005505940792 371.77044243002 2695.9445670027 167 168 173
-170.555108069687 370.979756769922 2690.76879447797 159 158 163
-163.745431848147 370.402489365354 2687.51718129001 152 151 156
-156.928704186273 369.824115391978 2684.25914802301 160 160 162
-147.728090464726 369.455800802114 2682.90396747224 152 154 153
-137.713879523031 369.154806934435 2682.16643759851 80 82 77
-130.861078364986 368.5710808279 2678.87717281768 10 12 7
