ply
format ascii 1.0
comment KinectMotionCapture
element vertex 751
property float x
property float y
property float z
property uchar red
property uchar green
property uchar blue
end_header
-1219.70885409284 413.34016507268 2514.68825406086 127 130 135
-1232.28288324174 414.696912461134 2519.18748107225 112 116 119
-1245.84945285189 416.199635874796 2523.44126963185 120 124 127
-1261.38402518205 417.99414678853 2527.17221763398 138 142 145
-1275.00335968082 419.497487449185 2531.52323605714 128 132 133
-1290.59555003586 421.292640584938 2535.36085147919 137 141 142
-1308.16885708093 423.379768352138 2538.69929735448 116 120 119
-1339.44898017179 427.508481442488 2538.25232056579 108 112 111
-1363.95595500728 430.617360166586 2539.84570350315 108 110 109
-1372.84987211782 431.393520192069 2545.86214466651 109 111 108
-1383.71696559498 432.461532095369 2551.36527991093 115 117 114
-1399.50998865151 434.259070793222 2555.57247640922 135 137 134
-1402.55430011698 434.160563774514 2563.25669603289 127 129 126
-1412.48505014442 435.083221721736 2569.10931758613 126 128 127
-1430.31555652293 437.173366526098 2572.92170718613 117 119 118
-1447.1943673001 439.117980099994 2577.0552943807 127 129 128
-1456.20066512127 439.895458970395 2583.27882075206 143 144 146
-1465.21942311436 440.67311672509 2589.5248132002 142 143 145
-1480.19453812689 442.326697027606 2594.29973997289 148 149 151
-1495.19731451359 443.98060395294 2599.12563927517 131 132 134
-1502.28155925944 444.466868385061 2605.95618406077 126 126 126
-1502.4109282494 443.931131161619 2614.49271108113 89 83 83
-1511.49217281702 444.709528853933 2620.85385024026 54 44 42
-1529.55985445005 446.802436512065 2625.10378344096 82 65 58
-1548.66132642757 449.041811400442 2629.18429195693 90 70 63
-1562.8023640168 450.551286504027 2634.49666217837 95 72 64
-1593.98567101008 454.544593445685 2635.94519849532 106 86 75
-697.290613564427 348.569206916037 2346.52934190193 190 195 198
-679.725064716108 345.336150388257 2361.89476182081 180 186 186
-667.572239848048 342.956373283324 2374.78246658319 176 180 181
-655.375032009034 340.576099557464 2387.58788938667 178 182 183
-645.877587741106 338.622403030747 2399.14204799624 170 174 175
-636.343342604735 336.668268739645 2410.62839145834 159 163 164
-630.441763723725 335.283286315037 2420.50732467596 161 165 164
-624.513746150533 333.897989865421 2430.33753788737 169 173 172
-622.239183223849 333.082092946589 2438.59864897131 176 180 179
-621.791216690606 332.550910411359 2446.07472046174 134 138 139
-625.022660061423 332.589436829239 2452.02951932242 137 141 142
-624.557940520376 332.058025213738 2459.47521433368 137 141 142
-624.082568507423 331.52651881437 2466.90078476064 178 182 183
-623.596308240697 330.994883565153 2474.30629095713 174 180 180
-625.882496244443 330.890691797143 2480.5944738749 165 170 173
-627.236355907677 330.643901635245 2487.24035627498 165 170 173
-632.30615026949 330.967287258001 2492.43177793965 173 178 181
-638.312173326791 331.433288193034 2497.27318291719 172 177 181
-640.593448622167 331.329009955152 2503.55280870981 167 171 174
-645.674599856216 331.652533528014 2508.76515921634 170 174 177
-650.760399038313 331.976113429766 2513.98607508552 174 178 181
-658.661153033755 332.727612185452 2518.16849215195 177 181 184
-665.636225095174 333.336623124286 2522.72036166212 177 181 184
-671.681748956701 333.80310003353 2527.63455895149 180 184 187
-677.734436703871 334.269663173832 2532.56195786337 179 182 187
-684.736302354146 334.878995941431 2537.16320244615 184 187 192
-691.748183094727 335.488480208321 2541.78240791989 185 188 193
-699.714137316934 336.240761140941 2546.08497530046 185 188 193
-707.692665187634 336.99322415566 2550.41021842357 180 183 188
-712.84168018888 337.317533423003 2555.7481232822 178 181 186
-717.995507870862 337.641932066052 2561.09440217079 178 181 186
-722.203901677194 337.823575907827 2566.77423003963 179 182 187
-732.120883641692 338.862057515456 2570.52105670881 180 183 188
-741.103043925255 339.757942123588 2574.6204933283 186 189 194
-753.914745188923 341.225325816733 2577.4753140524 189 192 197
-765.796784560632 342.550173953327 2580.69225299608 195 198 203
-784.395252328425 344.875328497814 2581.75813734195 198 201 206
-803.991937212033 347.343837438093 2582.58823525847 203 206 211
-822.673131818354 349.669979866417 2583.80656641141 208 211 216
-839.474653765632 351.710776569576 2585.71213037676 208 211 216
-861.118966701209 354.466636793212 2586.16449916495 210 214 217
-904.954166372717 360.510692990283 2579.7748687781 215 219 222
-1478.05729899514 434.389729684041 2577.40714817495 110 112 107
-1485.12483158078 434.86838370785 2584.20517188546 108 110 105
-1504.09254937375 437.066505498546 2588.02677215861 117 118 113
-1530.04463432698 440.26812968766 2590.19106714368 121 122 117
-680.624068391058 338.364660383985 2361.45171828565 180 186 186
-677.590638291084 337.427460670154 2370.395959583 170 174 175
-662.658942882591 334.674603938079 2384.4050200209 175 179 180
-652.250594087665 332.619480196658 2396.36815721333 177 181 182
-639.969913644588 330.284512204751 2409.03368308506 159 163 164
-635.904042001563 329.206282246668 2418.15146477589 156 160 159
-629.060029586009 327.708692702061 2428.37802695175 182 186 185
-625.868262984889 326.769675411886 2437.03000774577 163 167 166
-625.422753933648 326.249683322022 2444.51396419795 138 142 143
-630.503767290762 326.568108698766 2449.72503223183 144 148 149
-630.968465950157 326.187730988654 2456.81021222039 151 155 156
-631.424890820031 325.807263063316 2463.88014807286 176 180 181
-627.239046106162 324.727679748028 2472.77636619931 183 189 189
-627.672399630169 324.346949090692 2479.80379063389 167 172 175
-627.168109239197 323.826297654066 2487.17943921238 164 169 172
-632.237048775097 324.144624956728 2492.36827179616 170 175 178
-638.242743035157 324.602909576991 2497.20675159594 171 176 179
-642.389240938536 324.78153733204 2502.7713303761 171 175 178
-646.537591573103 324.960163565794 2508.33982045301 172 176 179
-650.687959686406 325.13882120984 2513.91203048664 173 177 180
-656.714843358203 325.59739000684 2518.78956693343 174 178 181
-664.626031962549 326.335963174561 2522.98678390411 177 181 184
-673.489096496529 327.21461363071 2526.86250330859 182 186 189
-682.367320788972 328.093483888898 2530.76566612623 181 184 189
-687.491098250257 328.412566725933 2536.05507860786 183 186 191
-692.619437489587 328.731711732493 2541.35289972619 185 188 193
-697.752159723452 329.050884424961 2546.65929453981 185 188 193
-707.620871388033 330.07034580925 2550.31162354719 182 185 190
-713.716942221454 330.529800809453 2555.31667429068 180 183 188
-719.820176227184 330.989347571783 2560.33492700803 180 183 188
-724.030163022881 331.1687950192 2566.01702417215 180 183 188
-733.951031223377 332.188940307579 2569.76497997283 181 184 189
-742.936285824496 333.069125207683 2573.86589061447 186 189 194
-755.75266428328 334.510066961057 2576.72136189977 188 191 196
-765.728581237172 335.530892699931 2580.5707670141 191 194 199
-779.548099395385 337.112563779739 2583.19871598413 194 197 202
-797.226990503834 339.255301288895 2584.63377816631 199 202 207
-812.066628203552 340.977938092862 2587.06500069032 205 208 213
-834.620378894777 343.822645200601 2587.1019100633 206 209 214
-858.18711414601 346.808228452589 2586.92894352066 208 212 215
-890.474827303394 351.05664738543 2584.14100370246 212 216 217
-908.373904204474 353.202067809818 2585.98183448614 218 222 221
-679.699683414773 331.119348276053 2361.80288950629 180 186 186
-680.31288386489 330.749088898969 2369.1642341436 175 179 180
-670.861910391259 328.872298646807 2380.82698836117 169 173 174
-657.712007498098 326.447186954625 2393.98205118635 171 175 176
-644.51512687131 324.021552820926 2407.05005204649 161 165 166
-637.697575604062 322.55434851162 2417.33441858103 165 169 168
-629.01213375309 320.812768682663 2428.33098628503 180 184 183
-625.816371069931 319.892939438748 2436.98189205307 152 156 155
-626.290253778471 319.52114389537 2444.08603977721 139 143 144
-631.371904195453 319.83451923686 2449.29676082741 144 148 149
-632.760235655152 319.59969911766 2456.00913854424 158 162 163
-631.36502176279 318.953510883018 2463.82376843263 184 188 189
-625.320637308267 317.621646693969 2473.45602996197 182 188 188
-625.748988835392 317.249344930333 2480.47678956023 167 172 175
-626.16906621633 316.876955717004 2487.48230519807 165 170 173
-630.305024572218 317.05309622569 2493.02725610621 172 177 180
-637.240358605576 317.640827518522 2497.4991366568 174 179 182
-642.317928516475 317.954272446557 2502.70237383897 173 177 180
-648.335230189831 318.405012375491 2507.55993293784 173 177 180
-650.614857521113 318.306985224496 2513.83790341481 174 178 181
-656.64142299128 318.757865934643 2518.71254265983 176 180 183
-661.736227589427 319.071572412824 2523.94755622581 178 182 185
-670.596357027042 319.934442672574 2527.81262776911 182 186 189
-681.354378668946 321.072082642733 2531.02079513118 181 184 189
-686.475971268164 321.386154276387 2536.30518652208 182 185 190
-691.602360988892 321.700325544852 2541.59792641181 182 185 190
-694.84263870786 321.739894156524 2547.56928665822 183 186 191
-706.601853591515 323.015584053982 2550.54554606248 184 187 192
-715.539814263697 323.879443871947 2554.55456525266 185 188 193
-721.645309163312 324.331394656209 2559.5746918939 184 187 192
-725.857096457696 324.508678226803 2565.25894553545 183 186 191
-733.877729006733 325.235591114647 2569.654447612 183 186 191
-744.770185472249 326.374973198203 2573.11038900008 186 189 194
-755.682460170239 327.514578311772 2576.60335104254 188 191 196
-765.659216014529 328.516992181554 2580.4492664331 192 195 200
-778.52431771807 329.932047945602 2583.38656417646 194 197 202
-794.289392098373 331.759887749504 2585.43667085471 198 201 206
-808.168491330877 333.313153341368 2588.16515389896 203 206 211
-828.800913094859 335.829365022435 2588.79970658548 205 208 213
-847.555106144988 338.071097506049 2590.12691131438 208 212 215
-876.947414621962 341.826386494951 2588.21040221924 208 212 213
-880.361905723196 341.868227223367 2594.50285589219 216 220 219
-674.214211912419 323.213819207591 2364.14135101985 182 188 188
-676.643757645782 323.120335069427 2370.69641493477 182 186 187
-671.753922127535 321.952815224134 2380.38672486036 170 174 175
-664.09271483813 320.38223389077 2391.20367012619 168 172 173
-649.980037603091 317.871318219854 2404.67701173249 164 168 169
-639.49143459921 315.897036001717 2416.5168575747 171 175 174
-629.883054321726 314.056601717441 2427.90104501109 172 176 175
-627.605959231094 313.29036331744 2436.17243235537 151 155 154
-629.002088039 313.061328833451 2442.90139492364 141 145 146
-633.163420063524 313.235334084764 2448.4923705144 144 148 149
-633.627452511796 312.871918934403 2455.58092197729 157 161 162
-630.377927904456 311.970793647032 2464.13857444794 183 187 188
-625.255057514541 310.800694586203 2473.3990109152 178 184 184
-625.681037045973 310.43685026463 2480.41795131363 166 171 174
-627.958789111472 310.341787490301 2486.69386853014 164 169 172
-631.164993040133 310.381187628065 2492.60251020403 171 176 179
-637.168822278303 310.824019124099 2497.43291280611 170 175 178
-642.245936183675 311.132485981128 2502.63331005537 172 176 179
-646.39224763614 311.306502558627 2508.1966634833 172 176 179
-649.604098391859 311.346051185932 2514.115735355 174 178 181
-655.629052159577 311.789228406172 2518.98509378254 177 181 184
-660.722118255669 312.097966469371 2524.21491157458 179 183 186
-667.70061443347 312.675901647224 2528.76373351739 179 183 186
-677.514245304509 313.657731465077 2532.30344229817 181 184 189
-684.516232480343 314.235986998013 2536.89556480416 181 184 189
-691.528188878734 314.814418527489 2541.50557120878 181 184 189
-696.65828928136 315.123675109841 2546.80416201214 182 185 190
-706.527869941757 316.106263505777 2550.4470007705 184 187 192
-715.466770432244 316.954432663208 2554.45252569895 185 188 193
-720.622471739379 317.264082775568 2559.79781532918 184 187 192
-725.7824972222 317.573775107219 2565.15157484663 183 186 191
-733.803748008797 318.287711584243 2569.54380744839 184 187 192
-742.790668138864 319.136533808133 2573.63784563447 187 190 195
-754.656420971974 320.38975990977 2576.80379664319 189 192 197
-766.545050082792 321.643312012564 2580.01141508631 195 198 203
-777.499076591696 322.762392628832 2583.57448992028 197 200 205
-791.348750600946 324.286082893599 2586.24046493254 199 202 207
-800.426926450644 325.136102585023 2590.50269911831 202 205 210
-819.131648587919 327.334567324332 2591.72590629497 204 207 212
-836.914496038253 329.39867886365 2593.32851863248 208 212 215
-866.300623750303 333.081573405067 2591.37887143667 208 212 213
-872.594696550151 333.528398469124 2596.74428578363 214 218 217
-671.460559812464 315.740748115563 2365.28927332867 183 189 189
-672.05727308346 315.387115139368 2372.62529495135 184 188 189
-673.560567207275 315.164957282265 2379.55342200953 177 181 182
-668.645009913575 314.021809896132 2389.20375421946 171 175 176
-659.118344495592 312.2205107275 2400.74999893183 167 171 172
-644.042152634901 309.629199955533 2414.54188436691 171 175 174
-635.354052431785 307.958567819945 2425.55489835506 158 162 161
-633.081320166673 307.208946513712 2433.83930684339 148 152 151
-635.406008619782 307.117402673426 2440.20210260304 141 145 146
-637.727609004269 307.025849758128 2446.55921611278 151 155 156
-636.344884649264 306.407554229362 2454.40520446506 171 175 176
-631.242465445425 305.262353411605 2463.71124606431 186 190 191
-625.188378333095 303.985190432606 2473.34211245361 185 191 191
-626.541272335131 303.761548168697 2479.99267564732 170 175 178
-630.679620892915 303.933063906732 2485.54063180551 167 172 175
-632.956682370799 303.841133881848 2491.81571674587 172 177 180
-637.096558939069 304.01272321112 2497.3665053242 173 178 181
-642.17303864985 304.316172904302 2502.56422740634 174 178 181
-647.253925919861 304.619680581879 2507.77057747411 173 177 180
-649.528812796043 304.527833606509 2514.04168790047 172 176 179
-654.615302646801 304.831487440758 2519.25788184348 176 180 183
-660.645876578071 305.267072216437 2524.13529356652 178 182 185
-668.565162855796 305.966493964299 2528.33613421456 179 183 186
-675.554785191013 306.534213728387 2532.90234719625 182 185 190
-684.44110194732 307.365900639917 2536.80620449507 181 184 189
-692.397740309047 308.065887242098 2541.07540805109 181 184 189
-698.474634532151 308.502165783542 2546.03821986075 182 185 190
-705.505946152464 309.070502008953 2550.6812924168 184 187 192
-713.495499528597 309.770935919361 2555.01167144071 184 187 192
-719.597769782034 310.207599732903 2560.02127025334 185 188 193
-724.756063487086 310.51238189506 2565.36986387969 184 187 192
-730.871377231947 310.949241654415 2570.40351097472 185 188 193
-739.85510325621 311.782319334019 2574.4869398994 186 189 194
-750.763757747616 312.879680020792 2577.96053992604 188 191 196
-762.648998290319 314.109391961507 2581.15475693195 193 196 201
-773.599036485678 315.207310075099 2584.70463676062 194 197 202
-788.405077491401 316.833908092874 2587.04518794026 197 200 205
-800.360571860702 318.064528592373 2590.36939200088 198 201 206
-820.992656273101 320.484658109155 2590.97392604509 200 203 208
-842.633354097313 323.037514682694 2591.35859847602 206 210 213
-862.394194068544 325.326661841382 2592.43666961196 214 218 219
-868.682757424577 325.765870873875 2597.78966078545 214 218 217
-673.266998256693 308.933464157266 2364.44974862179 184 190 190
-674.777777550807 308.717069793274 2371.39337547677 186 190 191
-674.452602751551 308.242971183703 2379.11244968818 180 184 185
-671.366970764796 307.382183057191 2387.98315654729 172 176 177
-661.837982204888 305.619042281549 2399.53660361751 171 175 176
-649.514773253742 303.468787777316 2412.17945908243 175 179 178
-639.908003774401 301.704737361947 2423.59008356563 152 156 155
-636.716675190926 300.842794001889 2432.26604772151 149 153 152
-637.198695863091 300.496440674208 2439.39331790212 142 146 147
-640.445463560225 300.536905500887 2445.37688391178 156 160 161
-639.063747348902 299.932524475284 2453.2284065666 177 181 182
-631.179950311024 298.425034227417 2463.65494155697 183 187 188
-625.121055523231 297.175214525556 2473.28518845923 183 189 189
-625.54222046736 296.828280554408 2480.30035925585 166 171 174
-631.5399429912 297.255543326122 2485.11484865155 164 169 172
-634.748633816926 297.29575046334 2491.02830686414 172 177 180
-637.956766005153 297.335984185663 2496.9407456353 175 180 183
-642.09901032749 297.505330489237 2502.49521441932 178 182 185
-645.307376074272 297.545629774502 2508.40810246338 176 180 183
-650.389849203855 297.844222472617 2513.61538693316 173 177 180
-656.415475234537 298.272031716708 2518.48136029799 176 180 183
-664.327949588399 298.958262047895 2522.66570563774 180 184 187
-671.311912486671 299.515540704021 2527.21786577681 182 186 189
-676.420413540901 299.814555940815 2532.47365165282 182 185 190
-685.308746232165 300.630501260729 2536.37648279244 182 185 190
-691.37684970177 301.058997286702 2541.32078643701 183 186 191
-697.452112895902 301.487611808304 2546.27829375369 183 186 191
-701.639189422131 301.657820656074 2551.91547651474 184 187 192
-707.726185063679 302.086641362826 2556.89462394419 184 187 192
-716.671124678361 302.903438025971 2560.90182154711 186 189 194
-724.679219862215 303.591128307987 2565.26247005416 185 188 193
-733.652692745102 304.40833491408 2569.32226881481 184 187 192
-741.687013549098 305.096431704803 2573.73076901758 185 188 193
-752.599649965081 306.172741457999 2577.20536206627 186 189 194
-764.489218875026 307.378716209295 2580.40040145122 192 195 200
-773.527404633763 308.196841140243 2584.57949514144 193 196 201
-783.539713863985 309.144569881 2588.47435470715 196 199 204
-796.451227360425 310.480795451486 2591.47330628086 198 201 206
-815.15917455345 312.593983778931 2592.6768004946 200 203 208
-839.686865459711 315.484423518945 2592.1277955211 207 211 214
-863.306110669301 318.246106130066 2591.98457692584 206 210 211
-869.595674490717 318.677778497741 2597.3371417023 210 214 213
-680.551881080343 302.877620927873 2361.22225124514 190 196 196
-680.242578409262 302.414790450956 2368.97390575906 187 191 192
-675.34446386745 301.321123343647 2378.67119813854 179 183 184
-668.588889290597 299.974902511141 2389.10593340006 170 174 175
-658.131432886709 298.123618615745 2401.04055596652 182 186 187
-649.473598799107 296.524293925106 2412.13067851883 181 185 184
-643.543875389202 295.303230121992 2422.00714263032 157 161 160
-639.4319022507 294.334359857163 2431.07251780922 151 155 154
-639.915435590744 293.996477916133 2438.20511758755 159 163 164
-642.240129670017 293.911071979091 2444.56976949259 175 179 180
-640.85768310877 293.320536663985 2452.42461684401 187 191 192
-632.97096989618 291.845813291628 2462.85564215307 184 188 189
-625.981300919932 290.497074447001 2472.85907794089 185 191 191
-626.401373511558 290.15861038617 2479.87478678413 169 174 177
-631.468980000101 290.451826248297 2485.05311186348 166 171 174
-636.541079809199 290.745097423025 2490.2402218557 171 176 179
-638.816756237755 290.65938106723 2496.51462802024 172 177 180
-642.959268878547 290.826426107575 2502.06889825206 172 176 179
-646.167567624301 290.867134522681 2507.98178610305 175 179 182
-652.188261633136 291.287155498619 2512.83634648343 176 180 183
-657.277285630129 291.58087383501 2518.05421336791 177 181 184
-663.311087544075 292.001143226392 2522.93295627793 181 185 188
-672.176714710854 292.800963937681 2526.78917880868 181 185 188
-678.228771055707 293.22153564343 2531.70158585556 182 185 190
-687.120205376204 294.021724561858 2535.60588741592 184 187 192
-691.299897998015 294.189565068777 2541.22827337697 183 186 191
-695.481339154834 294.357439282422 2546.85438959281 183 186 191
-699.664781198313 294.52536317399 2552.484200743 185 188 193
-707.647566253014 295.199669500418 2556.7937702272 186 189 194
-719.444979142511 296.380519921643 2559.81176247951 187 190 195
-728.409155936309 297.181844652045 2563.8501922652 186 189 194
-736.435377445464 297.856797477755 2568.23984371961 186 189 194
-743.519304435995 298.405274943357 2572.97371357753 187 190 195
-751.568898473264 299.080583643827 2577.40645838886 189 192 197
-760.587523995464 299.882715552388 2581.5452720426 191 194 199
-769.621277578089 300.685092275192 2585.71147833275 193 196 201
-778.66989408186 301.487686609641 2589.90508568344 197 200 205
-790.616212436646 302.670668427399 2593.19758317416 197 200 205
-805.471549775573 304.234166913176 2595.61032816734 198 201 206
-828.065716571634 306.812172962386 2595.64086320497 201 205 208
-851.675375199793 309.517603480658 2595.46309694078 202 206 207
-866.643986922814 311.08265215306 2598.08413609568 208 212 211
-678.393577343283 295.098202938159 2369.71790478997 182 186 187
-672.572497967484 293.905665365641 2379.80276351917 187 191 192
-668.559541245541 292.959777913272 2389.05715934934 180 184 185
-659.013959014483 291.272772836228 2400.6034875003 181 185 186
-651.271503860849 289.832393516277 2411.30965340646 176 180 179
-646.260574843077 288.762185482153 2420.80651405064 157 161 160
-642.148152291622 287.815248342751 2429.87816267783 149 153 152
-641.709513086183 287.362307687726 2437.39491781859 157 161 162
-643.110129618262 287.156413737983 2444.1385887354 177 181 182
-639.873160748055 286.332561612954 2452.74257117533 191 195 196
-630.124520853336 284.643395225203 2463.91428508838 187 191 192
-624.983475979259 283.571844577328 2473.1714352124 179 185 185
-624.469674807522 283.118204622248 2480.54974350777 167 172 175
-629.534034762363 283.406348207929 2485.72057227885 164 169 172
-635.535817544647 283.818244570918 2490.5379082242 169 174 177
-639.676528923542 283.982919386891 2496.08815283039 172 177 180
-643.819324097083 284.147663333271 2501.64225070359 173 177 180
-645.154319678726 283.941379429461 2508.26511546852 175 179 182
-652.111285971106 284.477406251481 2512.76173729655 176 180 183
-658.138834409352 284.88986794575 2517.626630985 179 183 186
-664.173625955669 285.302463900751 2522.50488644399 182 186 189
-672.099214924429 285.962729513269 2526.70554380778 181 185 188
-678.15096549861 286.375627129101 2531.61508072487 182 185 190
-685.154322388572 286.912464884921 2536.19726717954 184 187 192
-689.330397119709 287.078002168005 2541.81230655212 184 187 192
-693.508233173481 287.243584389217 2547.43110307578 183 186 191
-699.584849675442 287.656959068448 2552.38651642789 185 188 193
-706.618189639279 288.19433482282 2557.02400900611 186 189 194
-718.416084291049 289.351359779136 2560.03572248374 188 191 196
-729.284225829045 290.384784184021 2563.41558480957 190 193 198
-738.265554174734 291.170663929625 2567.48041054539 188 191 196
-744.3973490373 291.584928336346 2572.53757451645 187 190 195
-752.448589079223 292.247253435673 2576.96944218565 188 191 196
-760.511867854411 292.909742163848 2581.42400472952 190 193 198
-769.54634809879 293.696439496214 2585.58683235735 193 196 201
-776.67561590043 294.235323173782 2590.40120717248 198 201 206
-787.659896399875 295.270494370637 2593.99469126313 199 202 207
-798.663946782237 296.305932338265 2597.62512023829 200 203 208
-818.362827515346 298.458230918395 2598.54808377213 202 206 209
-841.000431622912 300.98335463541 2598.64310934382 201 205 206
-853.058278408613 302.144128779211 2602.134049621 179 183 182
-677.45721191397 287.918740985375 2370.06684431469 186 190 191
-671.630011255534 286.753466419275 2380.14864345479 187 191 192
-668.529084869893 285.950225803256 2389.00852688615 187 191 192
-663.571727383191 284.905232897068 2398.6114980615 170 174 175
-655.830224720786 283.497648055622 2409.32927776873 166 170 169
-651.742681501672 282.572940158196 2418.45336882642 159 163 162
-647.634104701693 281.648050153981 2427.53821628907 147 151 150
-647.200510559477 281.206326256433 2435.06762333752 140 144 145
-648.606644921494 281.006231420782 2441.82369070972 171 175 176
-644.44729080398 280.08087709412 2450.81500980186 188 192 193
-633.770768964726 278.309014414785 2462.37061476389 185 189 190
-626.77204023238 277.02036796827 2472.37545906978 187 193 193
-625.327385848523 276.456955884167 2480.12405143233 174 179 182
-630.39234991686 276.740084126169 2485.29448305785 168 173 176
-635.461804452414 277.023289805047 2490.47370100168 167 172 175
-639.601728310746 277.185667444052 2496.02130216017 168 173 176
-643.743483612074 277.348098242265 2501.57279190612 173 177 180
-646.013375165341 277.268602250957 2507.83842922666 177 181 184
-652.971666409576 277.794245243525 2512.33436524453 181 185 188
-658.060652478797 278.077991914148 2517.54916368126 178 182 185
-663.154014825322 278.361818354913 2522.77253912191 175 179 182
-670.136519566449 278.887919562584 2527.31314596743 182 186 189
-679.015925329308 279.656406392373 2531.18528708332 180 183 188
-685.075833768009 280.061793485267 2536.10756922593 182 185 190
-691.142943147452 280.467310643719 2541.04313432409 183 186 191
-694.375035570698 280.509524791751 2547.00023588922 184 187 192
-699.503972634052 280.794120197463 2552.28876671616 187 190 195
-705.587423168901 281.199983361693 2557.25449022786 189 192 197
-716.434328622831 282.211960516981 2560.58884588231 190 193 198
-727.301296576433 283.224239358928 2563.96019085276 191 194 199
-736.280726219361 283.994375213782 2568.01679000594 187 190 195
-743.364929520403 284.522261760033 2572.74447167852 186 189 194
-750.4586267204 285.050285324198 2577.4901598093 188 191 196
-755.646443692025 285.335893895429 2582.88779044022 192 195 200
-765.634136656629 286.228114829904 2586.72068383204 193 196 201
-776.599759513633 287.241935956097 2590.27343269904 198 201 206
-791.431837180001 288.741380511989 2592.62363229531 200 203 208
-802.442480637161 289.755831877086 2596.25987601925 201 204 209
-818.294258002604 291.377434915659 2598.40742550983 202 206 209
-834.179019137163 292.999489814772 2600.61577404573 203 207 208
-829.79407340566 292.072540388819 2609.19221361926 186 190 189
-682.926720500291 281.576536827256 2367.6440267263 184 188 189
-672.519266045539 279.848405657486 2379.70764662788 190 194 195
-666.662070219198 278.710172588471 2389.74241114135 187 191 192
-663.536121812799 277.925933848253 2398.56198878496 192 196 197
-656.709521679115 276.6691362731 2408.89298657872 179 183 182
-654.462847485878 276.002588191022 2417.2503024919 129 133 132
-653.123147863491 275.454031079563 2425.19639298997 146 150 149
-651.770231571212 274.905392331445 2433.11764683008 168 172 173
-652.255137830342 274.592960721279 2440.26042511174 186 190 191
-646.242718895292 273.453233782172 2450.00925680718 186 190 191
-636.490691606724 271.840447180857 2461.1977097096 190 194 195
-628.560881951757 270.463663428379 2471.57892533233 185 191 191
-627.115925618689 269.91416871202 2479.33064335931 171 176 179
-631.250482558526 270.074020988364 2484.86811859061 166 171 174
-634.453673145407 270.115702627173 2490.77190427573 167 172 175
-638.591056775276 270.275714127277 2496.314626187 168 173 176
-642.730508558829 270.435805650661 2501.86117587443 173 177 180
-646.872235351498 270.596014785006 2507.41144084227 176 180 183
-653.831822643444 271.111277296972 2511.90663889706 180 184 187
-658.921421809337 271.390049354353 2517.12106895844 179 183 186
-663.074204118764 271.550539665848 2522.69225583591 177 181 184
-668.171719643306 271.829524168854 2527.92130941016 186 190 193
-677.048997601615 272.582181245752 2531.7852810069 180 183 188
-684.051352519067 273.09829468303 2536.35888816485 182 185 190
-690.116581371222 273.496109726166 2541.28918268504 183 186 191
-694.293896268273 273.657219047341 2546.90517136651 183 186 191
-698.47297343907 273.818365931885 2552.5249167306 187 190 195
-704.554791518278 274.21657613841 2557.48533645203 189 192 197
-713.498681079712 274.970427164206 2561.47167372578 189 192 197
-726.269084612167 276.198598002889 2564.17860401198 190 193 198
-733.339433601745 276.715921770478 2568.87813287355 187 190 195
-740.419541154 277.233413445961 2573.59566000342 187 190 195
-748.466327841285 277.869668031813 2578.01149718496 189 192 197
-756.525194002494 278.506101503823 2582.45010875885 192 195 200
-768.434047888365 279.617184211599 2585.65208067567 193 196 201
-778.444129454996 280.491339488506 2589.52071805908 199 202 207
-792.319703688476 281.840350792821 2592.18129438583 202 205 210
-804.296196869441 282.952414330633 2595.50846649106 203 206 211
-820.153732204555 284.53952644577 2597.65623378384 201 205 208
-832.180832748699 285.652364384816 2601.07621068585 205 209 210
-829.723528500806 284.984873962682 2609.04585616871 200 204 203
-695.724789132173 276.130194175145 2362.04976807959 163 167 168
-674.325453046297 273.058952446638 2378.87251731108 181 185 186
-665.711181725817 271.60196671209 2390.08556407649 191 195 196
-662.58013503667 270.836893239389 2398.90152845214 184 188 189
-658.509437282847 269.956251894398 2408.06985313801 180 184 183
-657.184218154576 269.421681082303 2416.04627763645 180 184 183
-655.845307983925 268.886982280165 2423.99798756803 180 184 183
-655.417850016446 268.467663278988 2431.54541778802 180 184 185
-653.127329125199 267.817337322554 2439.82696997211 185 189 190
-645.256558227421 266.473988039255 2450.32682308147 187 191 192
-634.568416649364 264.783819309288 2461.88512008817 186 190 191
-628.490443559778 263.670780597427 2471.52141146574 188 194 194
-627.973558603955 263.250655209538 2478.90412666239 170 175 178
-631.175898078208 263.292644314903 2484.80643945804 167 172 175
-634.37774570643 263.334694038109 2490.70786588829 173 178 181
-637.579001988558 263.376803194306 2496.60822259808 172 177 180
-641.716120399079 263.534566166471 2502.14978054255 186 190 193
-646.792968177266 263.808021619738 2507.33966390677 180 184 187
-653.752780512497 264.312914942857 2511.83165337788 181 185 188
-659.781950343199 264.702318123595 2516.69259491777 184 188 191
-662.993439809233 264.744888896788 2522.61191113536 183 187 190
-668.090067123086 265.018853170578 2527.83832568276 186 190 193
-675.079798718429 265.524352013097 2532.38602846124 182 185 190
-683.97039369795 266.261492592178 2536.26932210203 183 186 191
-690.035536898048 266.651678677101 2541.19666065873 183 186 191
-695.159827748808 266.926269699685 2546.47363772366 183 186 191
-698.389879024335 266.969408653521 2552.42726335497 185 188 193
-705.421968109623 267.475751650384 2557.0531231304 187 190 195
-714.36785463616 268.213897789093 2561.03841039376 187 190 195
-725.235004138762 269.18392669635 2564.39738381328 189 192 197
-732.304080616323 269.690916950727 2569.09146478651 190 193 198
-740.338919263795 270.313955889282 2573.48135312002 189 192 197
-750.300209104901 271.168939377859 2577.25448826611 189 192 197
-758.362251006715 271.792435203229 2581.69454573653 190 193 198
-771.235109325196 272.995679337796 2584.58241305285 191 194 199
-779.327970795641 273.61964368178 2589.07979846299 198 201 206
-793.2072583288 274.939531556368 2591.73844619063 202 205 210
-803.25971564565 275.795955202458 2595.67968802187 204 207 212
-816.22437447774 277.000587944097 2598.73681079299 201 205 208
-829.214196363521 278.205601575181 2601.84032754627 202 206 207
-823.847123743718 277.206690057262 2610.70361559121 203 207 206
-705.783646368588 270.276035980035 2357.63986391856 160 164 165
-679.801170568542 266.714925807001 2376.46107527226 167 171 172
-665.677062312288 264.61745043253 2390.03772342511 186 190 191
-660.702508269142 263.64622996587 2399.63074769512 190 194 195
-656.625046449861 262.787459517391 2408.79320907521 192 196 195
-658.061658900292 262.604802437333 2415.61007086475 181 185 184
-658.568625390406 262.309414705223 2422.79854738679 184 188 187
-659.992401505973 262.126735832107 2429.59229850801 186 190 191
-653.072973845558 260.929221490712 2439.77039729373 186 190 191
-642.413545908579 259.280245230279 2451.39439561256 190 194 195
-631.714905258914 257.630862999242 2462.94564827998 192 196 197
-628.418897286568 256.88352196227 2471.46405556282 189 193 194
-630.694031573205 256.813047722153 2477.74204825747 168 172 175
-630.167354282321 256.404054733546 2485.1101013146 164 168 171
-635.234992532003 256.672187830806 2490.28094188839 171 175 178
-637.500553113773 256.601782351735 2496.54185171729 178 182 185
-642.573571870972 256.870142014124 2501.72265615771 182 186 189
-647.65100574391 257.138611453482 2506.9121180567 180 184 187
-652.733316793008 257.407222104411 2512.11008819263 177 181 184
-658.760846136004 257.788924222248 2516.96569670356 179 183 186
-661.96965364634 257.83186929327 2522.88019287525 181 185 188
-668.00771002265 258.21385187516 2527.75524686004 181 185 188
-673.108475824669 258.482977729306 2532.98731358171 186 189 194
-682.942976562694 259.317336222082 2536.5210580912 183 186 191
-689.00647642175 259.69984336838 2541.44306502438 182 185 190
-696.025544483475 260.19555045649 2546.04177832133 183 186 191
-700.205156812124 260.352216667357 2551.66116050448 184 187 192
-708.191006023668 260.961369899767 2555.9567726124 185 188 193
-716.189004829498 261.570710239414 2560.27529054905 189 192 197
-723.245746321701 262.067154001334 2564.94351368244 188 191 196
-730.31249539934 262.563807454 2569.62970140337 185 188 193
-739.300994434053 263.286926201095 2573.68934602173 187 190 195
-750.219684232003 264.236697664136 2577.13651534769 188 191 196
-762.117149420318 265.299982351404 2580.30316749476 187 190 195
-772.117006531774 266.13718147157 2584.14188674097 189 192 197
-782.134352880004 266.974655328934 2588.01285449957 193 196 201
-791.206547197857 267.699186230148 2592.22635041418 194 197 202
-802.221380602571 268.650462605668 2595.8513021541 197 200 205
-815.186816674479 269.828647647902 2598.90190102599 204 207 212
-825.27782514516 270.667301505834 2602.90870170072 203 207 210
-825.708044861791 270.373016271569 2609.95635846709 206 210 211
-702.103733964735 262.719229850366 2359.17434739597 177 181 182
-684.362559766185 260.234259397555 2374.44172566554 168 172 173
-667.48028583658 257.858592025068 2389.20634424224 177 181 182
-659.742791443452 256.582041543355 2399.97140494574 190 194 195
-656.581585110612 255.855164289845 2408.74338665564 194 198 197
-657.0931199188 255.568177232949 2415.94279140844 194 198 197
-659.444741019006 255.501265404801 2422.36252858256 193 197 196
-661.79313089551 255.434364914664 2428.77683060111 190 194 195
-655.79779946227 254.376952555893 2438.58184306826 189 193 194
-642.351698511464 252.438631603289 2451.3380277656 191 195 196
-631.646246175954 250.830048349303 2462.88952586446 186 190 191
-628.346641202025 250.101973591143 2471.4066071412 181 185 186
-629.688180760045 249.924425621225 2478.05014897662 166 170 173
-628.224071037703 249.416384306657 2485.77961059311 168 172 175
-633.288389304428 249.679462718046 2490.94282506194 182 186 189
-635.54963012702 249.612085796384 2497.19670081815 188 192 195
-642.49369441783 250.095807725082 2501.65336007826 185 189 192
-645.693765738815 250.138826031287 2507.55181082932 183 187 190
-650.77254566952 250.402377595079 2512.74226946418 179 183 186
-655.856214137342 250.666092663981 2517.94126393499 180 184 187
-661.886699864107 251.040214933383 2522.80003035295 181 185 188
-668.867955374856 251.524784084006 2527.32585006462 180 184 187
-675.858978907015 252.009558185579 2531.86969658056 180 183 188
-682.859799840287 252.494530201874 2536.43162181946 179 182 187
-688.922980189932 252.869359401612 2541.35073219503 180 183 188
-695.942030402024 253.354718372734 2545.94630076471 184 187 192
-700.120832435806 253.509153610196 2551.56301752289 186 189 194
-707.155526827306 253.994853980523 2556.18746125496 187 190 195
-714.199993995779 254.480722428007 2560.82992944891 188 191 196
-722.208269031781 255.077261376482 2565.16299335107 187 190 195
-730.228666184592 255.673979718907 2569.51891022632 186 189 194
-738.261626642549 256.27096034393 2573.89750793881 188 191 196
-749.180182578601 257.199596738026 2577.33857954826 189 192 197
-757.241636938383 257.797071777194 2581.76973141881 186 189 194
-769.156786638828 258.836833675576 2584.96233904774 187 190 195
-779.171521321272 259.655909127953 2588.822466442 190 193 198
-789.203492413282 260.47524703371 2592.71487790333 191 194 199
-799.252879768367 261.29487357986 2596.6394078461 194 197 202
-808.354226431662 262.004196534182 2600.90194688313 201 204 209
-821.337901502686 263.156200900922 2603.97821751254 203 207 210
-823.696761511026 263.091677845259 2610.4124909563 206 210 211
-713.087766841274 256.905446693068 2354.36284789926 175 179 180
-699.024805097079 254.912045548189 2368.08325296013 162 166 167
-676.638169917237 251.952736071277 2385.23914321286 168 172 173
-660.622807636077 249.74353756704 2399.53343169377 186 190 191
-656.537230302071 248.928582638349 2408.6936391769 191 195 194
-655.199830925778 248.435374691465 2416.66060491589 189 193 192
-658.47157663691 248.478759017209 2422.69098799981 189 193 192
-658.965440892572 248.200188485499 2429.8604244147 189 193 194
-652.961369893131 247.170030112789 2439.6575590796 191 195 196
-640.432088309269 245.387944331345 2452.03212557892 191 195 196
-631.576901905801 244.034973800957 2462.83336519131 187 191 192
-629.204410127784 243.433542575146 2470.97886166287 188 192 193
-629.612732600727 243.154285782732 2477.99076477991 178 182 185
-630.012727346807 242.875025842558 2484.98735074328 178 182 185
-635.078988724067 243.133082696837 2490.15262885756 180 184 187
-637.341288268405 243.068851969372 2496.40889367939 179 183 186
-643.350338858782 243.434660770201 2501.22573693936 186 190 193
-645.611359240966 243.370538486807 2507.48018600434 185 189 192
-651.629711581975 243.736635319233 2512.31422349578 183 187 190
-654.831114980262 243.78025298854 2518.21530442093 182 186 189
-658.974597880434 243.931495975778 2523.76660712358 181 185 188
-666.896076519486 244.513233688182 2527.93558559086 180 184 187
-673.884529335638 244.98758495664 2532.4715697244 184 187 192
-680.882747319864 245.462163300325 2537.02558206765 184 187 192
-687.89098615271 245.93695887878 2541.59758566049 184 187 192
-694.908756296277 246.411932544115 2546.18767686891 184 187 192
-700.035369371886 246.671732847198 2551.46498128899 184 187 192
-706.118408699152 247.039390285539 2556.41845924188 184 187 192
-713.161784160231 247.514944032067 2561.0553134934 189 192 197
-722.123153578802 248.206127276946 2565.05545812076 189 192 197
-730.144127158511 248.789862247844 2569.40802653057 189 192 197
-737.220366140932 249.266041801967 2574.1060152234 192 195 200
-746.222805078544 249.95799666237 2578.18142197659 192 195 200
-755.240143397957 250.650217578141 2582.28431141617 189 192 197
-765.233042488684 251.450521596635 2586.09913845385 189 192 197
-776.205412232885 252.358947890778 2589.63310585546 188 191 196
-784.307996474344 252.944156938008 2594.13621442827 190 193 198
-793.387408461572 253.637449402966 2598.35359089078 193 196 201
-804.413430405725 254.546787874491 2601.98650877498 199 202 207
-816.426905553544 255.564375109545 2605.35278218098 199 203 206
-824.588670581243 256.150582439948 2609.96553945175 202 206 207
-718.576664262686 250.405413014808 2351.92873146684 168 172 173
-708.187085044815 248.881906480535 2364.08625791554 155 159 160
-683.963148061253 245.789535351198 2382.0525995146 165 169 170
-659.660618067429 242.696204288263 2399.87460981921 183 187 188
-656.49176993769 242.007717536397 2408.64408171137 187 191 190
-654.227760665703 241.42370194656 2416.99433452932 187 191 190
-656.572035800762 241.362751845639 2423.40235395304 190 194 193
-654.282417020495 240.778615949005 2431.70547004025 189 193 194
-651.049326277543 240.089703953767 2440.35666018158 188 192 193
-640.367742593943 238.563163385288 2451.9762248142 186 190 191
-634.296804969292 237.559714541299 2461.65841169432 184 188 189
-630.061954320993 236.765419098576 2470.55079534408 184 188 189
-628.604008835882 236.28518043636 2478.29945072001 178 182 185
-629.934165028536 236.119083792509 2484.92600437334 177 181 184
-634.999707638771 236.372116936287 2490.08844980766 172 176 179
-639.133196346179 236.520493288885 2495.6205093109 174 178 181
-644.206743401779 236.773828560241 2500.79776723488 186 190 193
-645.528282721332 236.607983838426 2507.40854864683 186 190 193
-652.486594002479 237.071214655275 2511.88575284955 186 190 193
-655.68796215722 237.115215981296 2517.78688432912 185 189 192
-660.774852473929 237.36907206281 2522.98883956019 184 188 191
-665.866098195862 237.623059368511 2528.19934888094 183 187 190
-673.799015061953 238.191941165022 2532.38549828493 180 183 188
-678.903594461894 238.446288559963 2537.62013471151 182 185 190
-684.96066441713 238.805702212275 2542.52387541991 184 187 192
-691.025154005053 239.165302123987 2547.44081395289 187 190 195
-698.047723764631 239.630090331124 2552.0361653021 189 192 197
-703.17561843193 239.885031079652 2557.31436543155 189 192 197
-711.168417006334 240.455202064211 2561.61103589419 191 194 199
-721.082698182851 241.235683679707 2565.2753092454 192 195 200
-729.102511598076 241.806351736894 2569.62231864687 191 194 199
-735.220293168243 242.167118049461 2574.63762160685 193 196 201
-744.220832927539 242.843332706493 2578.70480201164 193 196 201
-754.196029756213 243.624923784078 2582.4814439852 192 195 200
-763.22764661452 244.301693160393 2586.6059476534 190 193 198
-771.311817214298 244.873594795545 2591.07118836265 188 191 196
-776.51692927039 245.130186273778 2596.49190174908 190 193 198
-787.516777362336 246.018046434947 2600.06971792198 197 200 205
-802.401523779006 247.327019812956 2602.46001046241 199 202 207
-816.349350846092 248.531282235994 2605.20994385246 197 201 204
-820.636144482066 248.683552252654 2611.02512995995 200 204 205
-728.655964608553 244.387940801013 2347.50731391524 167 171 172
-717.355223930497 242.803537687486 2360.08603906668 151 155 156
-692.212517102303 239.69076041348 2378.47125825276 171 175 176
-661.460992877414 235.965726225417 2399.04652590402 177 181 182
-654.600340220566 234.888867290668 2409.3695105176 180 184 183
-653.254313707388 234.423241543435 2417.32839968915 184 188 187
-654.670198604646 234.263336019139 2424.11448585169 187 191 190
-650.521631543176 233.491777633859 2433.1718940111 190 194 195
-644.496155412658 232.516102640595 2442.94604504905 191 195 196
-637.514968682221 231.43817030007 2453.04702274332 189 193 194
-630.504956084082 230.359985220188 2463.09440416654 185 189 190
-627.192602919854 229.689584311961 2471.60538295001 183 187 188
-626.66054857998 229.325154016028 2478.97694758237 179 183 186
-630.788875850046 229.47094286514 2484.49873614465 176 180 183
-635.855037739184 229.718953459744 2489.6608101585 168 172 175
-639.98876728757 229.865020835826 2495.19261825391 170 174 177
-645.062919407777 230.113333388744 2500.36947856385 178 182 185
-646.383653344754 229.953291924934 2506.98052389343 181 185 188
-653.343276314573 230.406131368308 2511.45701562393 183 187 190
-659.370705556556 230.757039707713 2516.30317968772 181 185 188
-663.518586626237 230.903763082179 2521.86121228193 179 183 186
-665.779296680444 230.846227377852 2528.11656707743 179 183 186
-668.982721789127 230.890947490098 2534.02169782437 184 187 192
-673.132758571262 231.037955047821 2539.58378062651 182 185 190
-679.181944933319 231.38960256726 2544.47018228554 181 184 189
-686.188295453024 231.843716781173 2549.03249360092 182 185 190
-695.106295026781 232.50260864077 2552.94316247607 183 186 191
-701.182181383802 232.85486216197 2557.87885252835 184 187 192
-709.172721311822 233.411969811285 2562.16744050641 191 194 199
-719.085455221581 234.173982562707 2565.82331417248 192 195 200
-725.190584981205 234.526879758738 2570.81298173717 193 196 201
-733.217879342868 235.084689093105 2575.16988307119 195 198 203
-741.257722795382 235.642760540807 2579.54943904886 193 196 201
-752.190164730202 236.50832263407 2582.9970817584 195 198 203
-760.258496377867 237.066932744467 2587.42919470499 191 194 199
-767.376227015199 237.523294650182 2592.19753452352 186 189 194
-775.467889922371 238.082359856054 2596.67269476433 188 191 196
-788.39836537266 239.154108728585 2599.6269870664 195 198 203
-812.953411556808 241.456374964701 2598.95192141358 196 199 204
-826.917867961898 242.631704693066 2601.72373851047 200 204 207
-832.186916161353 242.884529855286 2607.26090950291 201 205 206
-732.317768326614 237.622985084188 2345.86277016728 171 175 176
-723.772438549172 236.379569086858 2357.26683794749 153 157 158
-697.706165516614 233.251688963281 2376.06421239857 173 177 178
-665.105023710962 229.428596842394 2397.43780680002 174 178 179
-655.47548289747 228.084177864035 2408.93274273545 177 181 180
-654.12761714262 227.632371737467 2416.89240505986 192 196 195
-656.468411649581 227.577436778426 2423.29583185522 192 196 195
-651.391283972544 226.728554782508 2432.73749854318 190 194 195
-644.433935582012 225.680923357309 2442.89143141676 191 195 196
-637.44776227489 224.633031817994 2452.99176755083 183 187 188
-632.293893418173 223.783442795821 2462.2920806088 176 180 181
-628.980294494423 223.132304733682 2470.80656096043 179 183 184
-628.448052930652 222.779039968097 2478.18113896603 177 181 184
-630.708806429775 222.723816625573 2484.43726904096 177 181 184
-634.838172391157 222.867402018097 2489.96030531963 175 179 182
-638.969572846517 223.011107656545 2495.48711956392 177 181 184
-644.980168579147 223.35378686805 2500.29984906331 181 185 188
-645.359086484683 223.100082923494 2507.2653561072 184 188 191
-652.317644325863 223.542511963313 2511.73625399864 186 190 193
-657.400876103249 223.786225814196 2516.92893476913 183 187 190
-663.432566590777 224.129592001759 2521.78066795467 181 185 188
-667.581410524738 224.274147947108 2527.33981963977 180 184 187
-670.786019014772 224.319295771834 2533.24725546286 180 183 188
-673.042597795301 224.264982907607 2539.49598126979 179 182 187
-677.19356615979 224.40984482196 2545.05913218109 180 183 188
-683.246996699761 224.753972144568 2549.95107817372 184 187 192
-691.210603972789 225.297486284987 2554.18604423514 187 190 195
-698.233661285427 225.741619532421 2558.77658514222 189 192 197
-704.312498319543 226.086337453737 2563.71543591238 189 192 197
-713.264520757115 226.730214201324 2567.68365942623 191 194 199
-722.231470053963 227.374364717566 2571.67941848211 192 195 200
-731.21309338288 228.018776718645 2575.70274863469 195 198 203
-740.209850902062 228.663496388682 2579.75350159932 193 196 201
-747.300406882751 229.109024299352 2584.46860426049 197 200 205
-756.324356242927 229.754289353308 2588.56953198376 192 195 200
-762.473863582649 230.10053572493 2593.63881795999 186 189 194
-771.523733106194 230.746271930947 2597.78755927194 188 191 196
-788.313823294014 232.19066278621 2599.49274624439 195 198 203
-811.908428053355 234.334381466708 2599.11787024986 197 200 205
-829.74676987976 235.879891780448 2600.66659245435 202 206 209
-841.806079972927 236.826874667294 2604.09593244934 203 207 208
-857.771347845979 238.173729928763 2606.36958917073 197 201 202
-742.408127958677 231.517277449382 2341.43515839312 175 179 180
-732.951854012522 230.212976733455 2353.26032383743 151 155 156
-709.648167204277 227.461349090718 2370.90684268903 181 185 186
-674.282748237756 223.454559848276 2393.48659247936 177 181 182
-659.120335635564 221.569430718336 2407.33226607776 179 183 182
-655.925243793813 220.938449725178 2416.07076420465 181 185 184
-657.341085178415 220.790016159073 2422.85971595696 184 188 187
-651.333587975395 219.869212285057 2432.68343442931 190 194 195
-643.442602008431 218.755019293496 2443.21502050664 185 189 190
-637.379638672848 217.833680490292 2452.93656579036 181 185 186
-631.290223433538 216.912130102086 2462.60939757532 185 189 190
-629.836148492465 216.473423280216 2470.37816533738 183 187 188
-628.368809483057 216.034671187687 2478.12202020313 181 185 188
-631.562712968901 216.079152352682 2484.00956709425 179 183 186
-632.88350507705 215.930360588322 2490.62410243474 179 183 186
