ply
format ascii 1.0
comment KinectMotionCapture
element vertex 767
property float x
property float y
property float z
property uchar red
property uchar green
property uchar blue
end_header
-784.593332034261 692.657576497469 2341.45245603238 18 19 11
-776.40823753539 692.157307876192 2341.18873916664 18 19 11
-769.158810894308 692.430740827465 2343.8433590664 22 22 14
-753.088436632396 685.212093047174 2318.20525141458 22 22 14
-741.389057080196 681.605398925471 2306.18458375618 21 21 13
-738.439550452584 685.492564551604 2322.48234768004 20 20 12
-730.971020120776 685.502838462607 2324.1301641717 19 19 11
-725.271600997298 687.064524298375 2331.65184436038 19 19 11
-721.586993360355 690.438642348239 2346.04487535347 20 20 10
-709.175136165493 686.047334315101 2331.02369988399 26 26 16
-708.022052836332 691.753442332794 2354.27265444572 34 34 24
-846.082632506617 657.515220555967 2216.19587592856 15 18 11
-859.942632334494 673.291898924503 2277.41515534618 19 20 12
-876.888625010044 691.622822707134 2348.37197054966 16 17 9
-858.742732478955 683.765704227544 2320.24013428385 19 21 10
-833.732938745623 670.557837228865 2271.79902745165 14 15 7
-821.612633680654 667.012926171353 2259.93570516527 18 19 11
-818.466280153808 670.340877550479 2274.12968487729 19 20 12
-796.75106656854 670.902051452962 2280.99516840013 18 19 11
-789.780407190751 677.312443601665 2308.54411865341 19 20 12
-785.107564142374 679.626815792442 2318.94977391176 19 20 12
-779.147369225317 680.920718251239 2325.4794428187 16 17 9
-768.839316472911 678.638849946231 2318.38624959931 17 18 10
-759.5021709716 677.121028296135 2314.19786087147 20 20 12
-745.944688628292 672.022406308304 2296.33964305681 20 20 12
-739.428325483667 672.80144923903 2300.89942931898 19 19 11
-729.613866135447 670.765997762954 2294.71204385989 19 19 11
-729.032868830074 676.662513393821 2318.83406088071 20 20 12
-730.984138454518 684.866944708695 2351.80966089929 20 20 12
-720.253346894783 682.063692111048 2342.69761281199 21 21 11
-715.069493918121 684.125731571579 2352.20308771785 29 29 19
-710.136324237725 686.445050848373 2362.70344837832 20 20 10
-707.43159791218 690.816771344813 2381.08220164471 25 25 15
-879.144919754729 685.88308443301 2355.65231433176 14 15 7
-874.127043919301 687.928811198512 2365.09625269014 17 19 8
-849.33975809431 675.119748443795 2317.67094703317 14 15 7
-832.452073797305 668.093296437141 2292.34430028876 14 15 7
-814.395031605269 660.052885822458 2263.09954113107 16 17 9
-770.886411873554 643.458407971659 2204.0580559753 15 16 8
-789.492183503189 663.91169093823 2284.17196990019 15 16 8
-790.276243217932 670.494095283329 2311.04943055271 15 16 8
-773.973809794214 663.442031401496 2285.50820773038 15 16 8
-770.591357438997 666.743240555287 2299.78595326971 15 16 8
-761.895619832377 665.749379786029 2297.5374174313 14 15 7
-754.757579007211 666.018221403658 2300.15122025764 14 14 6
-746.40429189548 665.274911492293 2298.86346568841 14 14 6
-738.071696408976 664.530302814741 2297.56834938594 13 13 5
-739.917251097811 672.391512820344 2329.48990677738 14 14 6
-728.577207234915 669.115329187648 2318.43017275002 16 16 8
-728.173876344835 675.209627445296 2343.56911614246 16 16 8
-724.160257769153 678.266475110933 2356.99094006559 19 19 9
-717.493884834199 679.043460253542 2361.60507525473 18 18 8
-711.103580575308 680.07399372771 2367.20459119018 27 27 17
-870.876718756552 672.383856367588 2333.10535035012 13 16 7
-867.26335619348 675.404516030291 2346.37901578987 16 19 10
-853.898980636169 671.202932483424 2331.71849533349 13 14 6
-837.308912387566 664.505115328642 2307.37506576368 14 15 7
-829.421320512046 664.283270081008 2308.09107305318 16 17 9
-812.070955944056 656.827765483705 2280.76679594369 16 17 9
-799.416429279978 652.858906610229 2266.93247641208 16 17 9
-769.58304369228 641.164157996823 2224.62460810136 14 15 7
-792.986128828673 665.407991279759 2320.34739796318 14 15 7
-785.765429602419 665.681373453719 2322.99157628306 15 16 8
-768.581918731127 657.954937205323 2294.51993080155 14 15 7
-761.443231227931 658.224220959142 2297.1340019502 14 15 7
-753.692231387038 657.992644341627 2297.79939167122 14 14 6
-745.344332409742 657.259710394004 2296.51071657868 14 14 6
-750.568348136992 667.791923979306 2339.13916521154 14 14 6
-739.161007551446 664.556245388658 2328.10693878091 14 14 6
-730.193647567569 663.321956276287 2324.87214230767 15 15 7
-729.768284053973 669.3548243544 2350.01445597452 15 15 7
-725.443708769719 672.131855101539 2362.46159327691 15 15 5
-719.338047567435 673.405418439078 2369.042580929 30 30 20
-724.359878785735 684.465679119442 2413.91769956356 18 18 8
-862.955029691507 659.254348673351 2311.52693779996 15 18 9
-859.058868126151 661.996949461178 2323.81581851403 13 16 7
-827.711425885193 644.534979580304 2257.09034419301 14 15 7
-833.207418109119 654.17475954701 2296.35296929676 14 15 7
-807.703461448776 646.337262062757 2268.76270771247 14 15 7
-803.504250967827 648.829645609637 2280.07600764532 14 15 7
-795.081241328242 648.113641787928 2278.81590048217 14 15 7
-788.272958950498 648.631253625831 2282.39521602848 15 16 8
-778.613209990417 646.924767715883 2277.2432499953 15 16 8
-786.249863818674 658.811720167209 2325.49715984668 13 14 6
-778.087670944466 658.342893176933 2325.22749428191 13 14 6
-766.237447213045 654.904432650137 2313.27432747208 14 15 7
-759.361202023723 655.422199399324 2316.87834814845 13 13 5
-750.962473106002 654.701911745992 2315.60909566526 13 13 5
-747.701014879822 658.190731577922 2330.92359125633 15 15 7
-740.792312382786 658.708278011244 2334.53938826832 15 15 7
-737.429308574675 662.200054016482 2349.89100223079 16 16 8
-727.840402537052 660.486630827602 2344.71277287464 16 16 8
-725.561936746009 664.972574207512 2364.01182421726 21 21 11
-720.314806049991 666.979857317534 2373.53615884084 18 18 8
-733.600960471699 685.123809353585 2446.87543395099 20 20 10
-729.815946015906 688.628981476539 2462.38139098862 31 31 21
-862.500404756845 651.60058567156 2311.11463147125 16 19 10
-852.544423963725 649.930867387483 2306.07307176392 20 23 14
-854.31896445099 656.789551499075 2334.74486608451 14 15 7
-828.115032674345 643.171895149609 2282.44023593276 14 15 7
-820.290827350182 642.958067478661 2283.13356314141 14 15 7
-811.49802420865 642.011353932987 2280.92385219038 14 15 7
-804.025900363624 642.039587981974 2282.57407515618 14 15 7
-801.377497960134 645.730315675026 2298.74761505188 14 15 7
-770.932877614831 628.168402029308 2230.6200144771 14 15 7
-780.376738167406 641.142618669752 2283.63262387386 15 16 8
-783.91100258092 649.725100010782 2319.2615099328 14 15 7
-783.228743979276 655.134104771051 2342.31697927425 13 14 6
-775.653036481654 655.163290329056 2344.00490986394 13 14 6
-771.753806724776 658.129244063373 2357.37856824638 13 13 5
-764.461554654461 658.403219211828 2360.04878914251 14 14 6
-746.640991671806 650.102059663394 2328.56506750364 15 15 7
-726.911383779129 640.078412633947 2290.17860687011 16 16 8
-730.462057515 649.169738309091 2327.97329070369 16 16 8
-732.363505862627 657.041004695332 2360.94210914251 16 16 8
-728.294787897084 660.010618383418 2374.3773708003 15 15 5
-721.577779469794 660.772610156963 2379.00877249174 18 18 8
-725.414659673118 670.620022893865 2419.95643776112 22 22 12
-862.854686446197 650.008143199128 2336.46488513637 19 20 12
-849.520425921194 645.950629702985 2321.80429307318 13 14 8
-833.296639512624 639.719054332973 2298.42976878527 14 15 9
-821.15543641636 636.376185744292 2286.58928396538 14 15 9
-812.02651290091 635.201986110662 2283.41772343772 14 15 9
-809.077151415159 638.613101681475 2298.61295965178 14 15 9
-798.034914583565 635.988230083438 2289.62753045918 14 15 9
-791.513225571914 636.743078584901 2294.18717199527 13 14 8
-785.613542380962 637.981363097876 2300.69091256206 16 17 11
-791.916658000784 648.65043617914 2345.07097672657 17 18 12
-779.97054774163 645.296727266684 2333.15878943262 14 15 9
-776.117248799962 648.231540578497 2346.51315552513 13 14 8
-783.521092262756 660.125956816614 2395.91902782267 14 14 6
-771.275027872407 656.528387176054 2383.0308692104 14 14 6
-752.195848250037 647.354441291622 2347.67211788561 14 14 6
-723.478544076658 630.173850698707 2280.01224614786 16 16 8
-725.275183370577 637.712520155764 2311.92749444507 16 16 8
-726.039917110119 644.528427921131 2340.96296193622 16 16 8
-736.369757586672 665.942913883732 2430.55594847792 22 22 12
-728.936140696954 666.218602464015 2433.27766180298 25 25 15
-946.616077195658 684.511880846591 2501.69550843791 15 16 8
-860.378320904437 640.85958962344 2330.27477702991 15 15 7
-832.512552072098 631.882387595857 2297.05655763613 14 15 9
-816.104546089184 625.47883345529 2272.66943492753 14 15 9
-812.55401934189 628.376087567257 2285.91095860978 13 14 8
-809.594427879682 631.752467342367 2301.10729088722 13 14 8
-805.28499645344 634.175598249527 2312.45566731178 13 14 8
-786.285464006928 625.609203881992 2279.24718468916 14 15 9
-773.600256924983 627.343857751201 2289.32011470492 17 18 12
-778.890045654969 637.181819152307 2330.80572686244 16 17 11
-783.975926115214 647.027080835319 2372.3662316752 15 16 10
-773.883666290264 645.148269180648 2366.29160028662 15 15 7
-767.171033232845 645.90194504428 2370.92053048794 14 14 6
-745.724420584779 634.914995441863 2327.75220395337 14 14 6
-742.6922184499 638.539970283991 2344.06023154727 14 14 6
-744.315133382526 646.003962204506 2376.03296588968 15 15 7
-699.516970067081 615.570911656615 2253.48448243417 15 15 7
-712.558493025019 632.389563018865 2323.61272227236 13 13 3
-820.163674806786 600.146064119619 2193.55211555275 17 17 9
-812.871316785562 600.177918740303 2195.13755032692 15 15 7
-844.938297793806 628.016479017953 2310.38311046567 16 17 11
-831.397840923296 623.8148958734 2294.71975645067 15 16 10
-821.895391919527 622.439312779925 2290.60216081939 14 15 9
-803.630751312777 614.691104701952 2260.38806656733 12 13 7
-803.644637113324 620.154356830278 2284.26124979212 12 13 7
-809.64059606191 630.108094020716 2326.56582980026 11 12 6
-787.744459055032 619.516377217013 2284.65720953013 15 16 10
-779.655928368683 619.077663128618 2284.36305179271 17 18 12
-768.452017877015 616.273573273612 2274.356031866 17 18 12
-762.283280653903 617.250902779948 2279.87102985219 17 18 12
-762.567072758347 623.197443748381 2305.81572337021 17 18 12
-766.088437738341 631.751996086331 2342.51399953258 16 16 8
-769.734242708344 640.549586320332 2380.25195580811 15 15 7
-754.876476689219 634.901862877733 2358.5582700477 14 14 6
-741.635463689416 630.434006006022 2341.69946981366 14 14 6
-746.505552132281 640.425028249942 2384.41567976955 14 14 6
-708.038871327214 621.513147942868 2309.50116883087 15 15 5
-841.530755414577 623.681843828502 2325.16039174113 16 17 11
-828.008268653425 619.530177467704 2309.49427481159 14 15 9
-824.027984427281 622.138739302297 2321.80360699444 12 13 7
-820.64309194675 625.215473747768 2336.06530214773 10 11 5
-816.235247466049 627.59357239844 2347.4457836699 9 10 4
-798.424315400269 620.163835623688 2318.15767977721 15 16 8
-783.621384262559 614.829983989095 2297.53456311691 16 17 11
-773.948014266873 613.230866450494 2292.39564723256 15 16 10
-758.728913997876 607.420527773154 2269.75442195827 16 17 9
-754.130816429408 621.095402571731 2331.12153656764 18 18 10
-737.002933422251 613.636291372625 2301.58303895319 16 16 8
-733.436426977459 616.71476389898 2315.91085242108 16 16 8
-748.10279036439 634.328393529524 2390.84174458369 16 16 6
-740.453486325394 634.367766539476 2392.55743852551 18 18 8
-714.249681658669 625.52581210723 2358.74582408851 35 35 25
-864.01928731311 626.548196099679 2367.337437847 16 15 10
-843.056682130751 617.386380359041 2330.53055421777 15 14 9
-819.664176873275 611.718317126836 2309.80321259562 12 12 4
-820.506194477085 617.760212968706 2336.61908704603 13 14 6
-808.403667990316 614.575789141307 2324.77650447168 14 15 7
-801.463945187463 615.081849657202 2328.40296000017 14 16 5
-788.843442108936 611.430158140498 2314.57995490049 13 14 6
-776.310034294007 607.774810910409 2300.72528329657 14 17 8
-770.998531625519 609.431956849886 2309.18003202912 16 19 8
-762.272365832366 608.546121300861 2306.95070256896 18 20 9
-765.776239229057 616.912353317206 2343.64087070619 19 19 9
-757.302048948431 616.258854404306 2342.40407548717 18 15 6
-734.148369962435 604.25887222104 2293.37970930008 16 13 4
-728.220215040383 605.451177620664 2299.89007121323 17 14 5
-740.555705665165 621.010380698412 2366.9798887109 19 19 7
-739.106657647323 625.918177033078 2389.20933392483 22 22 10
-720.457880488154 617.146357719368 2353.72454231355 32 32 20
-857.538217492422 609.359974073832 2325.73007394599 27 22 16
-838.577189840826 601.674666623462 2294.70719297511 17 14 7
-839.623595790404 607.6429485075 2321.44325117313 18 15 6
-835.295618004435 609.97087987583 2332.7909289242 21 18 9
-833.199484140116 613.895342366541 2350.91481136333 21 18 9
-826.502382290172 614.630651100899 2355.53696696973 17 17 9
-810.827842203383 608.979666476941 2333.07324360283 16 16 8
-795.603922122588 603.551349502196 2311.52914993211 24 24 16
-788.38680593749 603.824293886177 2314.17199336662 23 23 15
-787.109384673702 608.435557077588 2335.25014999884 15 16 8
-781.394505106591 609.851574066207 2342.76671090542 14 15 7
-764.097953553608 614.102075838809 2365.37126557596 24 20 11
-737.592915626504 599.729755407003 2305.65269571387 21 17 8
-742.035582054899 608.925161404388 2346.33106114803 18 16 4
-737.732124337536 611.48555089669 2358.75417971669 22 20 7
-726.073248185706 608.319162349136 2346.75176310529 28 26 13
-711.015761419533 602.398781430717 2322.97695847586 24 25 11
-856.409298844505 601.21277538305 2323.39216655521 23 19 10
-844.448736907237 598.344118320145 2312.58863857795 19 16 7
-843.790480221678 603.121915034609 2334.52095092419 19 16 7
-840.408152497571 606.102372988171 2348.7744499901 20 17 8
-831.76126286169 605.481542178643 2347.60261348779 21 18 9
-829.26550176939 609.139896049186 2364.78506094885 20 17 10
-814.849481668078 604.461331803971 2346.20391993361 17 17 9
-797.688101072704 597.748721646874 2318.86728472676 12 12 4
-792.024987387534 599.150342450462 2326.36369662399 16 16 8
-789.773483060751 603.034545705158 2344.54099336333 22 22 14
-786.820704052376 606.469840587281 2360.8058518968 21 22 14
-780.723383344889 607.648734124771 2367.37692045157 21 21 13
-776.129681288461 609.957572227834 2378.81970519187 22 19 12
-760.005651826108 603.677579818463 2353.27216984127 21 17 8
-757.32079864399 613.271464312447 2397.63685289635 31 29 17
-748.166780534809 612.188406932776 2394.48128700561 27 25 12
-882.508024529107 605.893724524207 2375.0607332014 45 42 33
-881.431403559238 610.399832393624 2396.05799740893 32 28 19
-861.95886012551 602.687840296896 2364.15239969478 40 36 25
-850.263859277362 600.08112216747 2354.33870334909 35 31 20
-839.945846918451 598.360952057212 2348.35832039723 24 20 9
-829.023745755886 596.193389210248 2340.43004801215 23 19 10
-821.382999891515 596.249102275186 2342.14386533098 26 22 13
-812.787683058987 595.636008736599 2340.95412858712 26 22 13
-804.847727733707 595.467021361472 2341.69289539003 18 15 8
-797.233083913791 595.520106418747 2343.39703056848 18 15 10
-789.623735993301 595.572329433777 2345.09917650532 24 21 16
-785.426725822303 598.07782060839 2357.47947651707 28 25 20
-781.793204120318 601.030889380064 2371.82192292582 29 25 22
-772.006316433403 599.520355065767 2366.73093602753 24 19 15
-762.562570817706 598.231210029657 2362.59853314025 28 23 17
-760.043743909384 602.07964841024 2380.87025969576 38 34 25
-757.146502815273 605.706958206127 2398.19598328858 33 29 20
-747.401646898052 604.192875567095 2393.0894569431 45 43 31
-740.324564009393 604.690323326619 2396.76491639777 44 42 29
-877.945505499729 600.527093096095 2386.98012639189 36 32 23
-865.484635815729 597.520739243142 2375.28117902242 53 46 36
-852.44056930843 594.071746655779 2361.62761868626 46 39 29
-841.448035448956 591.937129219266 2353.72742292886 31 24 14
-831.811452655633 590.678924433608 2349.66741952142 29 22 14
-820.921461360841 588.539273405607 2341.72984071208 26 21 15
-811.366925241569 587.276849730148 2337.63970834476 25 20 14
-803.434426423636 587.112990162888 2338.37615281982 23 18 14
-796.141730474566 587.388471455349 2341.04664863473 28 23 20
-788.225046811289 587.223086838715 2341.77748610802 26 21 18
-781.86661156176 588.158401985336 2347.35823846068 23 18 15
-775.186024977106 588.87342685491 2351.97260869573 21 17 16
-768.191086686223 589.367604727418 2355.61797521494 29 24 20
-760.889389281886 589.640877080298 2358.29157492858 26 21 15
-754.486094076084 590.575742002977 2363.88859261793 42 38 29
-748.364578748997 591.731700806089 2370.46672152428 49 45 36
-742.222934544932 592.887804896953 2377.05192066451 66 62 51
-733.435896834074 592.054683329338 2374.84843130689 81 77 66
-869.438163864147 587.450944689032 2363.48516267777 153 150 145
-860.364396199109 586.65104945952 2361.38861436601 84 79 73
-849.007380903444 584.330952766284 2352.54029745874 63 59 50
-839.675481572385 583.310051830069 2349.45405229905 66 61 55
-828.426112510361 580.984722086242 2340.56648293573 29 22 14
-817.882487456704 579.090988801913 2333.58816738729 16 11 5
-808.668570194018 578.0638690477 2330.45858569167 12 7 3
-801.070785416299 578.122025898138 2332.1567237166 9 4 1
-793.792872631714 578.396988994029 2334.82180915393 8 3 0
-787.451055411793 579.324151148284 2340.39590839605 28 22 22
-780.165979964385 579.598381790218 2343.06354103296 62 56 56
-772.574285342922 579.654083517965 2344.75953533773 103 99 100
-765.292244075154 579.927004542325 2347.42596673048 111 106 103
-758.01049292208 580.199378261806 2350.09225141865 72 67 63
-751.028215750091 580.689369103181 2353.73270175969 23 18 12
-744.337803302623 581.397022548989 2358.35034021927 36 31 25
-739.107892895018 583.195975320825 2367.85269920868 83 79 70
-861.20571920852 569.728405246908 2317.14078843148 179 178 173
-859.264565142732 573.433152502567 2335.19152871902 122 119 114
-852.922894571409 574.356735813844 2340.76530464879 145 142 137
-844.917687404087 574.209222380306 2341.52965444485 175 172 167
-836.268503179533 573.632013657995 2340.36194300891 224 221 216
-826.341750264875 572.195906544745 2335.32739005159 221 216 213
-817.09999082819 571.186489874348 2332.20926018932 219 214 211
-808.527998592809 570.604761884494 2331.01341532411 224 220 219
-800.293523507998 570.236246190674 2330.77758124848 225 223 224
-792.388920565775 570.081420226952 2331.50457170409 232 228 229
-785.741983588633 570.785290270433 2336.10612842886 242 237 241
-778.157374832601 570.843990424256 2337.79977440865 242 240 243
-770.271354765097 570.686889865261 2338.51984138616 248 246 249
-762.700018990418 570.743939805513 2340.20854028212 249 245 246
-756.03874887331 571.446180282161 2344.81492751624 255 254 253
-749.367639249285 572.148196091731 2349.4251271665 253 249 246
-743.279537124107 573.281066766095 2355.98911946035 255 254 251
-737.759209207206 574.845314402157 2364.51273292262 188 185 178
-731.334439295911 575.763212582037 2370.11627301111 110 107 100
-879.110152333676 563.797034174612 2321.92078559438 156 158 153
-864.989132857864 559.856599153907 2305.42151958213 175 175 173
-860.748488255226 562.037821937744 2316.72665081622 190 191 186
-854.788809717592 563.163470205122 2323.24343705569 186 185 181
-849.472956790318 564.712104010898 2331.69157898686 212 211 207
-841.819923434801 564.780578664452 2333.41056938966 217 213 210
-833.845286074803 564.636694217429 2334.16408583951 211 210 206
-823.61013868067 563.009713775054 2328.16037193799 212 208 207
-814.708501332636 562.227521387096 2326.00236362021 227 223 222
-807.109850729806 562.291713122092 2327.70152587885 231 229 230
-799.833213882209 562.567043215471 2330.3661754109 242 242 244
-791.928383978584 562.417645341198 2331.09365788812 245 243 246
-784.657322660938 562.69162604905 2333.75617980746 248 246 251
-776.7683813068 562.54040249771 2334.47800593298 243 242 247
-769.196430453307 562.600811380452 2336.16718174774 250 250 252
-761.629767690563 562.660312665535 2337.8541134156 250 248 251
-754.369976291025 562.931709060901 2340.51234555995 254 252 253
-748.007086307686 563.840638174746 2346.09272561639 250 249 247
-742.221849024244 565.175198516303 2353.62870408947 253 252 250
-736.11760687539 566.297206457817 2360.19774104951 255 255 251
-729.119661794633 566.780544297589 2363.84338215061 251 250 245
-721.53970219793 566.837514406817 2365.5352083816 121 121 113
-942.405106877979 552.261352231117 2291.65311994225 8 8 8
-939.302110815552 559.480465915418 2327.45759124907 202 202 202
-931.967954013932 564.423751619931 2352.89455146324 181 183 182
-917.473872577231 560.554768453381 2336.53622402801 171 173 172
-904.481117447233 557.513414596443 2323.96133357211 203 207 206
-892.959135161662 555.30104908896 2315.18133816277 220 226 224
-884.25582005331 554.751622736059 2314.03539073391 206 212 212
-873.862475058738 553.159098338479 2308.09201003051 209 215 215
-865.892084504907 553.023279768093 2308.84433773421 220 224 225
-857.931995646523 552.886522625106 2309.59285162828 220 221 223
-852.323512869577 554.209291880451 2317.06371889494 222 223 225
-846.025754063538 555.115080050734 2322.6201973595 226 225 230
-840.042108677415 556.229456847072 2329.1448412046 227 226 231
-831.097049712293 555.463776163998 2327.00410973074 232 233 237
-822.17763758878 554.696511336206 2324.85368596467 226 225 230
-813.605674356941 554.136697298115 2323.65948400404 217 218 222
-806.649974526814 554.621659482001 2327.28989837845 231 232 236
-799.056249412841 554.687743036616 2328.98741376283 224 227 232
-791.467763450325 554.752920906193 2330.68270292609 212 213 218
-783.884700054121 554.817396747506 2332.37622320346 217 220 225
-776.30703044157 554.881125824834 2334.06772737214 223 226 231
-769.041048269633 555.153776546607 2336.72830349753 231 234 239
-761.47156195213 555.216054323005 2338.41672486483 246 247 252
-753.907402186141 555.277601654224 2340.10290147741 253 254 255
-746.946151850681 555.758419783046 2343.73527418854 253 254 255
-741.164632492781 557.079211137291 2351.26860860231 241 241 243
-735.357997583366 558.400493939116 2358.8113598249 241 241 241
-728.652968122103 559.091224083741 2363.43277799917 253 253 251
-720.207222488329 558.519509703101 2362.19181854529 255 255 251
-986.444770884477 547.39891226253 2297.68418408055 13 13 11
-981.330658655088 548.917627547641 2306.05676863976 50 50 50
-971.341595623314 547.778902778239 2302.13384949816 17 17 17
-967.309287147204 549.911190445508 2313.35959216085 17 15 16
-956.615546409442 548.36067200526 2307.52827162346 92 90 91
-948.522497877752 548.241246016056 2308.32665672855 59 57 58
-939.714642162629 547.710912337479 2307.22013340086 221 219 220
-931.646974708867 547.589184276384 2308.00912291217 206 206 206
-924.304011041171 547.876575268314 2310.69878148289 206 207 209
-915.896783683462 547.547921830013 2310.52872246645 199 203 204
-907.504861511904 547.218015171399 2310.35300794364 221 227 227
-899.128255991 546.886735740698 2310.17162472858 231 237 237
-890.07282149144 546.143545709715 2308.07243948184 230 235 238
-881.387536596472 545.604239456434 2306.92095888227 216 221 224
-872.722739758065 545.063536980286 2305.7619288551 220 225 228
-864.757218920465 544.932947313477 2306.51288173714 232 235 240
-855.791497835026 544.18385538079 2304.38090923525 233 237 240
-848.857156546604 544.668757014761 2308.00355868077 234 235 240
-842.581346626236 545.565528784273 2313.55138198904 235 236 241
-835.961171874615 546.256204339619 2318.14221944704 231 231 239
-827.371006466127 545.708906630104 2316.95532109249 244 247 252
-818.80152569718 545.160429531138 2315.76107255003 230 233 238
-810.895725403232 545.0235022291 2316.49010283634 213 216 221
-803.957199641762 545.505113390604 2320.11402438666 208 211 216
-797.646642655231 546.399670016301 2325.67430547284 230 235 239
-791.320963393806 547.294103021033 2331.240071722 214 217 222
-784.357551926489 547.775078853292 2334.87298724721 207 212 216
-777.080568926372 548.048695470833 2337.53763326498 214 219 223
-768.885232330251 547.70056527093 2337.28911682465 220 225 229
-761.312841243196 547.765636403912 2338.97880436703 237 240 247
-752.842556682422 547.20822065878 2337.74783968176 236 236 244
-746.184204640412 547.893374811931 2342.35187747921 254 255 255
-740.40398934198 549.200642789444 2349.88397202408 254 255 255
-735.478816792573 551.130716314662 2360.352057813 251 251 253
-728.767932655275 551.816301910019 2364.97546935175 252 252 252
-721.758815140014 552.293882991772 2368.6247354613 247 247 245
-715.316572688541 553.186856724238 2374.23274339044 252 251 249
-709.992226715371 554.911249033998 2383.76378866136 255 255 253
-704.351953137728 556.428493311609 2392.32743640822 255 254 252
-989.176517446824 537.126060739843 2284.18365338572 237 237 239
-981.83901128766 537.418121696777 2286.87168139495 240 240 242
-976.001410734665 538.516250160495 2293.3420357049 225 225 227
-968.653351110454 538.807532525567 2296.03383943831 234 234 236
-961.305151628662 539.098165286001 2298.72564497352 241 240 245
-951.385335033641 537.974361612283 2294.77869182145 233 231 236
-944.784435515385 538.667321007316 2299.36269818264 239 237 240
-937.086377011598 538.753336555246 2301.09937140119 232 231 236
-930.832199061408 539.647774118085 2306.6391588827 231 232 236
-921.348467073181 538.720930096498 2303.61543127902 230 234 237
-912.604382739457 538.197096467042 2302.48622785265 232 236 239
-903.528802053939 537.469329846296 2300.39578049803 229 234 237
-895.876631803442 537.550620279349 2302.11567857864 228 233 237
-886.494965267226 536.617240346688 2299.05411931305 227 232 236
-878.521422197485 536.493634009408 2299.80851387666 231 236 240
-869.532801716197 535.7601463297 2297.68603895107 236 241 247
-862.605234953437 536.243294408406 2301.30609464845 231 236 242
-853.315776923495 535.3039883052 2298.21058543066 239 244 250
-846.396050877922 535.785638919574 2301.82767931496 237 240 247
-839.471400231375 536.266932336772 2305.44678984589 238 243 249
-833.199784695504 537.154845611522 2310.99242078918 243 247 255
-825.607030919805 537.228467982531 2312.68989776036 240 245 251
-817.371749941997 536.893868793783 2312.45691555039 247 252 255
-810.437507087129 537.373274118233 2316.07936883122 235 240 246
-803.498257596321 537.852233730379 2319.70335327595 217 222 228
-797.186679486662 538.738612106138 2325.2633883125 242 249 255
-790.859979113392 539.625105067939 2330.82892648102 243 248 254
-783.895871876405 540.10330915441 2334.46188567283 214 219 223
-776.309781455523 540.172548341673 2336.15686518401 216 224 227
-767.810955362314 539.628098863372 2334.93724903487 233 238 242
-760.546762936321 539.899965016821 2337.59711568141 239 242 249
-752.680976729379 539.762321321071 2338.31129898891 242 245 252
-746.61602784903 540.851409790862 2344.86357540215 251 254 255
-740.235147989861 541.735911090451 2350.44864873848 251 255 255
-735.012378227315 543.439778230557 2359.94123890062 252 253 255
-727.137804632048 543.300260849065 2360.65872792897 253 254 255
-719.850128185166 543.569828993022 2363.32695381374 255 255 255
-713.70525431523 544.659182562938 2369.90828997947 252 252 252
-708.389503284679 546.364361029042 2379.43476266977 250 250 250
-701.63598567213 547.043990166756 2384.07321512691 252 252 252
-694.038725486592 547.107247975482 2385.77154742325 255 254 255
-686.722461383718 547.375432190075 2388.45005585735 181 180 176
-687.046343983467 553.398517761952 2418.65269196565 118 117 113
-683.71385106304 556.752939392811 2436.11596904479 183 182 178
-1055.83121303902 531.190356650416 2281.91684776204 129 133 136
-1049.23723154638 531.885308649304 2286.49849088987 104 108 111
-1039.07499889438 530.796884021858 2282.64228600063 123 126 131
-1027.37724026918 528.913193179679 2275.01751200245 210 213 218
-987.966353136845 528.993709417424 2281.87638585276 233 234 238
-980.255992763998 529.086623650846 2283.61830362442 233 234 238
-973.300251231359 529.576768476534 2287.24912418952 230 231 235
-965.222395454915 529.469433278104 2288.04290146555 230 231 235
-957.154518944224 529.360888040075 2288.83270729489 234 235 239
-947.260780894532 528.25494311765 2284.87762629923 236 237 242
-941.049164949654 529.140928380648 2290.4013116663 234 235 239
-934.460054269356 529.827352760122 2294.98054162258 232 233 238
-927.141540716056 530.114264619488 2297.66128039721 233 236 241
-916.967113218948 528.803381307427 2292.72591094748 236 239 244
-908.25128096538 528.289268291573 2291.58743022048 232 235 240
-899.555870241523 527.773761652822 2290.44142443375 230 233 238
-892.278130873163 528.056757472733 2293.1070529443 231 234 239
-883.960122159357 527.738909681767 2292.90539274733 233 236 241
-876.001659633785 527.620014089735 2293.65466341615 234 237 242
-868.053541568975 527.500224114358 2294.40036237651 236 239 244
-860.454695111056 527.579563367922 2296.10048439586 240 243 248
-852.188023606708 527.257446270384 2295.87984933675 241 244 249
-844.270817602635 527.134482993457 2296.61407735389 242 245 250
-837.026746521429 527.411994375422 2299.26705910173 241 244 249
-830.440502843412 528.090400001718 2303.84438803542 246 249 255
-823.844258857951 528.768587245264 2308.4255882843 244 247 252
-815.619133169622 528.441749777552 2308.18950191053 245 248 253
-809.336764503968 529.320197691767 2313.73832569313 238 241 246
-801.445963762277 529.192702588646 2314.46236344803 227 230 235
-795.778335732904 530.473059881471 2321.95152035577 240 245 249
-789.144757924018 531.149847697934 2326.54617979574 239 242 247
-782.812103197796 532.02765427681 2332.11297169758 218 221 226
-775.230746035303 532.099447866832 2333.806424172 219 224 228
-766.431279667634 531.363986977658 2331.61507357154 229 232 237
-759.174232378184 531.635573888361 2334.27232305233 235 239 242
-752.218245328094 532.108398717362 2337.90192600173 254 255 255
-746.450301231987 533.388640678485 2345.42726849661 251 252 255
-739.474588915551 533.861150775944 2349.06426893431 252 253 255
-732.787169857399 534.535351884046 2353.67804144558 251 252 254
-725.218271059666 534.602847263149 2355.36664302134 253 254 255
-717.654895387962 534.669650375235 2357.05318560534 250 251 253
-710.953283856312 535.342738694533 2361.67203081354 250 251 253
-703.676090856816 535.61088474785 2364.33634036916 253 254 255
-697.520772196926 536.688782004122 2370.92086142742 252 253 255
-691.067601448791 537.564198168589 2376.53151527061 252 253 255
-684.324286553626 538.23689155511 2381.16548307861 255 255 255
-678.389330689299 539.518168126209 2388.75183958915 254 254 252
-672.969526701337 541.205617157763 2398.31478091238 248 248 246
-668.317202630254 543.503082027197 2410.84481764618 249 249 249
-663.349314763279 545.598863417608 2422.40773697985 253 253 251
-657.286074109007 546.882844721022 2430.04065394336 254 254 252
-650.937919637906 547.963944697863 2436.6952268388 255 255 255
-642.510995909985 547.417935755455 2435.44936819604 252 252 252
-1080.42453906832 520.052521297534 2260.40791983598 55 59 58
-1076.73510321766 522.107212076507 2271.50322918831 62 66 67
-1073.40465062361 524.358137668976 2283.54946890958 114 118 119
-1062.77208397505 523.097793548496 2278.78437188145 232 236 239
-1053.38091180346 522.421128982717 2276.81244649724 236 240 243
-1045.20800516331 522.328956164641 2277.64164904219 229 232 237
-1035.85962684431 521.649309009395 2275.65395000309 222 225 232
-1026.53639548419 520.968037693742 2273.6567372787 228 231 238
-985.997187109988 520.478769894689 2277.68291278191 231 234 239
-976.787600418236 519.789410818606 2275.64405275245 231 234 239
-969.102131956245 519.883569348665 2277.37676593701 231 234 239
-962.538156704507 520.566033804458 2281.94656446558 232 235 240
-954.485357250785 520.46237810355 2282.7312611573 231 234 239
-946.809747284593 520.554231997818 2284.4604727969 230 233 238
-939.503607568839 520.84197040986 2287.13677805638 230 233 238
-932.197383934587 521.129235686667 2289.81307810778 231 234 239
-923.453591199072 520.628185333037 2288.68574207264 229 232 237
-913.302853525091 519.337933960941 2283.74332193333 232 235 240
-905.318644550796 519.227951285467 2284.50287405291 229 232 237
-897.69631619209 519.314090190318 2286.21229527848 230 233 238
-890.079013752179 519.399391295447 2287.91957288042 231 234 239
-880.733890668101 518.496919850532 2284.84706810105 235 238 243
-873.139715426044 518.580171933128 2286.54604242672 235 238 243
-865.892159281009 518.860201591145 2289.20048043707 237 240 245
-858.983584202235 519.337188226655 2292.81317085171 239 242 247
-850.72456939955 519.02285725561 2292.59059560628 240 243 248
-842.480913694649 518.707225096714 2292.36208734186 241 244 249
-835.246494132374 518.984180627131 2295.01152039052 241 244 249
-828.669594112255 519.656920973411 2299.58502696799 245 248 253
-822.082690280563 520.329264418301 2304.16239266429 243 246 251
-815.162100439297 520.80320704904 2307.77921881833 246 249 254
-808.878682685204 521.673477806244 2313.32780679461 242 245 250
-801.306197754095 521.749927012461 2315.01838692785 235 238 243
-794.686772835895 522.421173047398 2319.60723164961 242 245 250
-787.744094603214 522.893702263856 2323.23223100666 244 247 252
-781.418141500725 523.763253292339 2328.79621936772 228 231 236
-774.1523341289 524.036254493832 2331.45675842591 227 230 235
-765.96963550521 523.711867990736 2331.20544163543 228 232 235
-758.712067359052 523.983415705445 2333.86287740562 235 236 240
-751.755374055122 524.453528750256 2337.49253235512 253 254 255
-745.092019759897 525.122547497532 2342.09742452214 250 251 253
-737.236748960682 524.994021141681 2342.80847510496 251 252 254
-730.270882956284 525.462825217363 2346.4413640772 250 251 253
-723.009902918247 525.731885992035 2349.09985187225 252 253 255
-715.173694714204 525.601052601437 2349.80405653416 251 252 254
-708.203878536506 526.068462707452 2353.43827557547 251 252 254
-701.229346683123 526.535521142448 2357.07418146471 253 254 255
-695.090697509633 527.601823078613 2363.65151668188 253 254 255
-688.09924391781 528.06857631968 2367.29380215207 252 253 255
-681.103049366129 528.534992569144 2370.93753045921 254 254 254
-675.46483934173 530.001834876469 2379.49662553053 254 254 254
-670.066413941252 531.669630012046 2389.05031629224 249 249 249
-664.900131638268 533.538557514566 2399.60139274432 250 250 250
-659.163808745451 535.00762632094 2408.19630389822 255 255 255
-653.397388160217 536.477275872046 2416.80219449221 253 253 253
-646.821623928538 537.345691906613 2422.45686298092 251 251 251
-638.945015248439 537.210615036523 2423.17517217044 248 248 248
-631.843206832958 537.677095617664 2426.85753311975 253 253 253
-625.997305249742 539.147886194963 2435.49238823741 249 249 249
-620.121284188419 540.619331611546 2444.13798199601 250 250 250
-614.215232678103 542.091579661061 2452.79480180969 255 255 253
-609.012543220997 544.167893007146 2464.44156448387 247 248 243
-1166.11850932268 497.433063419949 2169.9673023295 126 128 125
-1093.03901037045 510.9182626715 2250.86893502769 49 53 52
-1086.95475389652 515.554483506087 2275.82859097871 46 50 49
-1080.36562748856 516.240968052084 2280.4078311891 182 186 187
-1072.95544330482 516.54259873659 2283.12298790527 249 253 254
-1063.12892854945 515.688835841251 2280.22906593633 234 238 241
-1053.33270368875 514.833234100521 2277.32399976732 227 231 234
-1044.36195856476 514.361181918978 2276.28131201637 222 225 230
-1035.01633896483 513.694945221521 2274.29362247149 229 232 239
-1025.69589778757 513.027142685867 2272.29641220984 230 233 240
-1016.01088735088 512.164752890849 2269.35042549445 225 228 235
-1008.29293127611 512.265884373456 2271.09572307444 229 232 237
-1001.73409023256 512.945898897137 2275.66321699582 228 231 236
-994.018200035772 513.045699053003 2277.40766351403 228 231 236
-985.547872421445 512.758041722993 2277.26362441236 230 233 238
-977.092656530131 512.469138733501 2277.1140006672 228 231 236
-969.027217884268 512.372573556767 2277.90407894871 231 234 239
-961.715771841343 512.662425007692 2280.58247162828 231 234 239
-954.034683513642 512.757841600167 2282.31368826837 226 229 234
-947.092467179721 513.240297925899 2285.9392688165 225 228 233
-939.416253498583 513.33433297257 2287.66861007459 225 228 233
-931.383397789908 513.233457260389 2288.4465245146 226 229 234
-921.205287166617 511.966369405415 2283.51579772011 226 229 234
-912.138085813984 511.279961611158 2281.42542642867 228 231 236
-904.512812082491 511.369610081774 2283.13618262113 227 230 235
-896.189494282205 511.069418473544 2282.93778360183 230 233 238
-888.579441101789 511.157116100442 2284.64260809695 231 234 239
-879.242455765287 510.270689690855 2281.56861149707 235 238 243
-871.999389822808 510.55102027986 2284.22144075394 235 238 243
-864.756374544882 510.83087247392 2286.8742155068 238 241 246
-857.174601165067 510.914963705218 2288.56849278002 239 242 247
-848.925642950286 510.608233348302 2288.34258277175 240 243 248
-840.692121560882 510.300363730137 2288.11097802602 240 243 248
-833.798529499533 510.772284725727 2291.71809664238 243 246 251
-826.571352929813 511.04848077414 2294.36484073571 244 247 252
-819.670314236711 511.519575001256 2297.97434830679 243 246 251
-813.087814659116 512.185791135019 2302.54965145678 244 247 252
-807.137008395278 513.243203537682 2309.05806556103 241 244 249
-800.210961633996 513.713369458347 2312.67658946024 237 240 245
-793.280024413846 514.183190538785 2316.29686422806 238 241 246
-786.344295430764 514.652708782397 2319.91911147905 239 242 247
-780.956972319726 516.102063859379 2328.38573047338 232 235 240
-773.690630108537 516.375026411342 2331.04646094263 231 234 239
-765.81342088525 516.254980080646 2331.76612241024 227 231 234
-757.643761442534 515.93758752126 2331.51059569985 234 235 239
-750.090680875571 516.011908682742 2333.19396493451 251 252 254
-743.138755498896 516.478500485463 2336.82162183364 248 249 251
-735.000717756391 516.158323753778 2336.55439570178 249 250 252
-728.342365448359 516.820655862855 2341.15696594147 248 249 251
-721.383854162332 517.285837600737 2344.78690935716 249 250 252
-714.420637696077 517.750845913008 2348.41854925628 253 254 255
-706.882535892773 517.821306329328 2350.09618484419 253 254 255
-699.632465744877 518.08833282871 2352.75055517711 253 254 255
-693.502911774783 519.143440871657 2359.3237411682 254 255 255
-685.966075339659 519.212541694507 2361.00081441683 252 253 255
-680.359140270482 520.662380485802 2369.54726317998 253 253 255
-674.449662197614 521.915519388406 2377.1219853148 255 255 255
-668.784908806184 523.366664977411 2385.68954024573 250 250 252
-662.021116538117 524.027698620186 2390.33032281129 249 249 251
-656.306354131431 525.479726703644 2398.91611448114 254 254 255
-651.085737647462 527.327969304958 2409.48537187283 255 255 255
-645.046102721054 528.583501409237 2417.10781975666 255 255 255
-637.696287063349 528.849304653898 2419.79833908266 253 253 255
-630.092476179012 528.916510689296 2421.49934939389 252 252 254
-623.502113604439 529.775968951246 2427.15864613056 253 253 255
-616.14889310825 530.040595121179 2429.85031375008 253 253 255
-609.289941708822 530.701655511317 2434.52567321984 255 255 255
-602.421261040298 531.362633412385 2439.20430716926 255 255 253
-596.268254591731 532.619261342983 2446.86802986654 255 255 253
-590.09028127895 533.876461844644 2454.54061285935 255 255 253
-581.994421712107 533.544036494586 2454.25713763448 255 255 253
-574.148572281456 533.409649474809 2454.96457718909 251 251 249
-566.313604014712 533.274374479061 2455.66774190376 249 249 247
-1267.94264378787 505.147241975052 2234.88303482811 183 185 180
-1258.62329049318 504.714137160889 2233.96969385318 220 222 219
-1248.86002083062 504.092629097958 2232.13712710757 228 230 227
-1242.81136555136 504.968374740571 2237.60083014921 235 237 234
-1233.99466431559 504.719682860827 2237.58558159752 233 235 234
-1227.92939759742 505.595124873809 2243.05529728941 222 224 223
-1217.76609093347 504.782037276077 2240.28681348506 241 243 242
-1208.98582143112 504.53037324066 2240.25810366255 228 230 229
-1199.77184907844 504.089980039893 2239.30617821871 240 241 243
-1192.36128775801 504.39996272417 2242.02210213452 243 244 246
-1184.06342961022 504.333575903655 2242.89864984937 244 246 245
-1176.21602280679 504.454297170938 2244.69245982107 254 255 255
-1173.63220960351 506.833961301901 2257.54368717778 124 126 125
-1164.45618605151 506.389464722658 2256.57766390305 168 170 169
-1154.00058293219 505.37807205711 2252.83386370649 253 255 254
-1147.45561022666 506.062295042859 2257.39689058029 249 251 250
-1139.1876398509 505.991524362441 2258.26224817591 246 248 247
-1130.07849173619 505.542210771038 2257.27156309208 154 156 155
-1121.41217011449 505.280436053157 2257.20068885815 209 211 210
-1115.28298836579 506.151706153667 2262.69331250347 247 249 248
-1108.72013788912 506.833842583511 2267.26242330368 170 172 171
-1098.40924456974 505.812804465294 2263.4653168375 252 255 255
-1091.02271911673 506.115177982952 2266.17193349625 252 255 255
-1083.63577066302 506.417032065357 2268.87866465482 248 252 251
-1076.24840619429 506.718247335775 2271.58549876789 236 240 241
-1069.26570606675 507.208671569929 2275.22613548475 225 229 232
-1061.07008249283 507.12940234887 2276.06481984711 219 223 226
-1052.88423544181 507.049050115434 2276.89961601129 221 225 228
-1043.51620931486 506.397981545863 2274.92121205861 226 229 234
-1034.9629895837 506.125295482021 2274.80842038189 222 225 230
-1025.64021394073 505.471042901662 2272.81308068507 221 224 231
-1016.73249955439 505.005519714717 2271.74798412311 226 229 236
-1008.23209921666 504.728982833209 2271.61571062681 227 230 235
-1001.66990289379 505.403695575555 2276.18427792457 219 222 227
-993.950974280516 505.506367554265 2277.92979079195 222 225 230
-985.478057577633 505.226896771729 2277.78756439672 226 229 234
-976.643184866813 504.755384264487 2276.69529550948 223 226 231
-967.828678684498 504.28258569633 2275.5957839675 224 227 232
-960.521766517354 504.572259956529 2278.2725159504 223 226 231
-952.845457706199 504.670215452653 2280.00244188223 218 221 226
-946.274224069431 505.340888240373 2284.57373364923 222 225 230
-938.964377205175 505.62883108525 2287.25140127976 229 232 237
-930.569670530295 505.342016002427 2287.08020410503 226 229 234
-920.753839501778 504.287946863913 2283.1004763683 222 225 230
-912.043329648265 503.806617572236 2281.96253539782 223 226 231
-904.415081124707 503.899062136022 2283.67458341364 222 225 230
-895.737737522657 503.415186067958 2282.52439974012 228 231 236
-887.080764063548 502.930051180266 2281.36646554348 229 232 237
-878.098076582544 502.251357550544 2279.24596923464 234 237 242
-870.515849770008 502.339442786169 2280.94096691625 235 238 243
-862.93870830537 502.426747451355 2282.63380369946 237 240 245
-855.366832102179 502.513356235989 2284.3249292154 238 241 246
-847.800150424169 502.599106940238 2286.01410262173 239 242 247
-839.571652678691 502.298961388132 2285.78125539062 239 242 247
-832.682369831982 502.768107382433 2289.38634462394 239 242 247
-825.788112624835 503.236792711782 2292.99320647131 242 245 250
-818.237276674571 503.31948251467 2294.67639157978 242 245 250
-812.308076619799 504.365748041846 2301.17611428732 246 249 254
-805.717225622388 505.026394927379 2305.75403161308 245 248 253
-799.752635412188 506.072852518127 2312.26662738464 243 246 251
-792.820988439714 506.539902399238 2315.88695094073 239 242 247
-786.823718033604 507.586551556691 2322.41168941402 241 244 249
-780.80619290098 508.633231816563 2328.94353523158 237 240 245
-772.920839057826 508.519339872422 2329.66662030375 234 237 242
-764.74061263292 508.210995306696 2329.4156156604 229 233 236
-756.576015294894 507.901503965851 2329.15884585683 236 237 241
-748.42715622385 507.59084789169 2328.89652417409 253 254 255
-740.889302052053 507.666671989061 2330.57422018122 249 250 252
-732.766600166944 507.353935410257 2330.30198332786 249 250 252
-725.830115776312 507.816217849158 2333.92395909375 247 248 250
-719.468949869041 508.666361447439 2339.49927726759 248 249 251
-713.092832165508 509.516507557188 2345.07977387475 252 253 255
-706.416920803126 510.172439229079 2349.68824105511 253 254 255
-699.166368248001 510.439365477942 2352.34277910063 252 253 255
-693.035674178077 511.483679638807 2358.91556491716 254 255 255
-685.498523251716 511.55529393066 2360.59294207752 248 249 251
-679.065923302165 512.404953926964 2366.19417843304 253 254 255
-672.890634980263 513.449522102107 2372.78318618181 254 255 255
-667.234710862233 514.884005419525 2381.34627591114 248 249 251
-660.213182900197 515.344325065398 2384.99874879916 245 246 248
-653.980691458993 516.389461372843 2391.6085834559 253 254 255
-649.300160480043 518.605847041164 2404.14275126342 254 255 255
-643.790896984544 520.237822250824 2413.73426530215 251 252 254
-636.705153584955 520.698626769832 2417.41010665467 252 253 255
-628.851931374431 520.572759737694 2418.12061355851 251 252 254
-622.016568499034 521.228372311104 2422.78699138516 250 251 253
-614.174707155941 521.101227553009 2423.49327405275 253 254 255
-607.083693033892 521.560616468274 2427.17117795237 245 247 246
-599.255744398353 521.432213358175 2427.87231066615 248 250 249
-593.129608481633 522.674391978757 2435.52518006659 250 252 251
-586.500467204529 523.52501743833 2441.1976458079 247 249 248
-580.093200145839 524.571908641761 2447.87136972503 245 247 246
-573.43215821993 525.422992961469 2453.55571509704 254 255 255
-566.293794400438 525.881744887605 2457.25052055284 252 254 253
-559.608520500108 526.733061607188 2462.94368784612 253 255 254
-551.324832919917 526.209503706498 2461.64748009868 254 255 255
-543.062132475768 525.684841528743 2460.34330931184 181 183 182
-1373.79534643019 502.748910384178 2248.50663067748 184 189 182
-1357.82219121865 499.958218619644 2235.9669881162 185 190 183
-1318.24432392328 500.831099627979 2246.14649464067 227 232 226
-1308.32748354302 500.232029654974 2244.37141889377 222 227 221
-1298.91158411434 499.815382556421 2243.49439851598 225 230 226
-1287.62029573693 498.661282703981 2238.97691043481 231 235 234
-1277.31159835497 497.873410206243 2236.26315505794 228 232 233
-1266.09544922019 496.71536141687 2231.71806811452 227 231 232
-1259.11485391665 497.214874378085 2235.35862582874 218 222 223
-1251.20134095892 497.345384949205 2237.17719326748 214 218 219
-1242.83114395904 497.290519812338 2238.08089373338 231 235 238
-1232.63640509989 496.495811568641 2235.32521717757 224 228 231
-1223.83959105868 496.254024657463 2235.30326385215 237 241 244
-1216.41765492202 496.566000235183 2238.02347103287 238 242 245
-1208.99516645357 496.877640087692 2240.74385356546 222 226 229
-1201.57203476043 497.188828663497 2243.46443575619 235 239 242
-1193.2567867769 497.128943855287 2244.3480467439 248 252 255
-1184.50796109371 496.882899411993 2244.30833620824 247 248 250
-1177.53642284879 497.37771112372 2247.94524843615 243 244 246
-1172.74977694379 498.800196370618 2256.19159147184 249 250 252
-1165.75417450502 499.294995717652 2259.83724619216 254 255 255
-1155.28893823943 498.303036125916 2256.09841233586 250 251 253
-1147.01122305284 498.238647334251 2256.96804641617 247 248 250
-1137.8872530485 497.801301101658 2255.98339533255 242 243 245
-1128.78330698917 497.362503541246 2254.99161359797 241 242 244
-1120.12206845178 497.108748325714 2254.91949757287 254 255 255
-1113.57681923052 497.785419031625 2259.48205508364 245 246 248
-1106.60318336169 498.275548572697 2263.11937617984 237 238 240
-1097.96350250035 498.019223846571 2263.03923356778 243 247 248
-1089.75138325351 497.948281491581 2263.88453970294 238 242 243
-1082.36901412485 498.25007571076 2266.58960250397 232 236 237
-1074.57870097849 498.36429162875 2268.36192306169 246 250 251
-1067.60305228932 498.851687205093 2272.00002351436 239 243 246
-1059.81708419365 498.964482722823 2273.77065818052 229 233 236
-1052.03597237243 499.076717447557 2275.53974037233 225 229 232
