ply
format ascii 1.0
comment KinectMotionCapture
element vertex 753
property float x
property float y
property float z
property uchar red
property uchar green
property uchar blue
end_header
-872.9945755321 432.053577081586 2546.73992542055 65 69 70
-872.640074079187 431.410205802855 2554.35415868592 171 175 176
-871.320348636079 430.596829514999 2562.25734858881 171 175 178
-873.808697390695 430.462663220119 2568.90832798562 172 176 179
-875.336997109502 430.158546153564 2575.85779801431 170 174 177
-877.817592468107 430.0242284423 2582.49447196902 167 171 174
-879.335580217855 429.719929491785 2589.42492171134 164 168 169
-885.650488640251 430.265043706748 2594.85821419959 164 168 169
-886.201585346114 429.790736555002 2602.07404936001 166 170 171
-887.707564693412 429.486259564651 2608.98185567787 168 172 173
-885.349919428157 428.501918471146 2617.03950846247 164 168 169
-887.804720649821 428.367145880716 2623.62860550766 163 167 168
-888.32230670655 427.892387980409 2630.78267292881 162 166 165
-888.83150918274 427.417508089881 2637.92128473275 158 162 161
-885.454174325272 426.262581770797 2646.16704326137 152 156 155
-887.883047000314 426.127417288348 2652.70883937871 145 149 148
-889.336926254339 425.822246027439 2659.52061535017 140 144 143
-891.758153541053 425.686975731272 2666.0483183849 128 132 133
-890.277610296596 424.871538584842 2673.65461106114 124 128 131
-893.663473133139 424.906199815873 2679.89225311174 121 125 128
-894.116899668011 424.430648357422 2686.92808084213 120 124 127
-898.476260394531 424.635307831221 2692.89248567367 119 123 124
-898.918201779278 424.159619607205 2699.90714899201 128 132 133
-901.314250617745 424.024073530518 2706.38795709569 133 134 136
-898.794838118713 423.037872581958 2714.14753116443 142 143 145
-901.1781784266 422.902182557734 2720.60492267672 152 153 155
-900.603347901608 422.256025098932 2727.81309276966 144 146 145
-900.0176822796 421.609768159758 2735.0013052291 144 146 145
-889.545133203053 419.261638499123 2744.64395824932 123 128 122
-879.036139396839 416.91316537346 2754.21897524 141 146 140
-1048.54275915136 508.750342252588 1784.43436018284 183 185 184
-1045.89218269414 507.47337699063 1796.09485942582 195 196 198
-1049.19231115604 507.357960393506 1804.2449922921 183 184 188
-1053.34455631912 507.408446910466 1811.89691008052 193 194 198
-1056.6413464505 507.2928225675 1820.04033643112 171 172 174
-1055.65067307468 506.346829043132 1830.62363151987 168 168 170
-1050.35317919734 504.57028203717 1843.61063464026 182 180 181
-1047.60594585045 503.291501034019 1855.09281821971 184 184 184
-1047.4204720004 502.510598918455 1865.0918691434 163 163 163
-1048.08439636765 501.895567545175 1874.58769546719 172 174 173
-1045.28382624147 500.615802372779 1885.97199127461 178 180 179
-1040.73300063844 499.003428200918 1898.26682435884 184 186 185
-1037.02240768343 497.556830399594 1910.04154731163 183 185 184
-1039.35998516412 497.272956658015 1918.48551419776 177 179 178
-1042.56120502905 497.155123278753 1926.45250511071 185 187 186
-1037.05952351923 495.375153177014 1939.06344481707 183 185 184
-1037.62851066527 494.758252679567 1948.38410220755 182 184 183
-1035.56917590723 493.642449811404 1959.06566831966 179 181 180
-1036.98716025949 493.191280444407 1967.88282583755 178 180 179
-1031.39559304887 491.409872563465 1980.32751274766 178 179 181
-1033.66380585791 491.124456374777 1988.64344151733 178 179 181
-1031.53769496721 490.007444713383 1999.20183064463 180 182 181
-1035.54706418783 490.054250388022 2006.58986663451 177 179 178
-1032.51296298483 488.77041364175 2017.54292758806 177 179 178
-1034.74805809724 488.484204237819 2025.7977083427 177 179 178
-1029.03065142273 486.700706969426 2038.01032522678 179 181 180
-1028.59022243887 485.914937090344 2047.53900336507 175 177 176
-1021.05159158985 483.797895204706 2060.53185604387 175 177 174
-1018.80052930475 482.678738256261 2070.85979165655 179 181 178
-1016.53101146171 481.559265519296 2081.15368917114 176 178 175
-1018.69059079298 481.271595528406 2089.26914341529 175 177 174
-1018.17236770723 480.484465382539 2098.65383072051 178 180 177
-1018.53291260174 479.863546441967 2107.58991639973 170 172 169
-1014.41542078681 478.410033284215 2118.61470285901 164 166 163
-1012.95847180806 477.455621533038 2128.33790061599 163 165 162
-1010.58957733711 476.334448389832 2138.44851505653 171 173 170
-1006.40734236791 474.87992052757 2149.35392191529 177 179 176
-1003.99872660455 473.758104501895 2159.3912883332 177 179 176
-1003.37129177921 472.969051540696 2168.57504136283 176 178 175
-1005.4344661493 472.679474676545 2176.51211163648 178 180 177
-1002.97915938594 471.556858912038 2186.46336429955 171 176 172
-1000.50525562194 470.433947832958 2196.38032488256 168 174 170
-996.202342451343 468.977532379343 2207.06321490181 172 178 174
-990.062816450209 467.187553440752 2218.4975282555 176 181 177
-983.894025347648 465.397113333994 2229.87838331631 176 181 177
-977.696421692956 463.606317241259 2241.20563554738 178 183 179
-973.290306242174 462.148392180108 2251.6982637982 178 183 179
-957.920680566314 458.690081757436 2266.80454507238 101 106 102
-949.799490845367 456.56455904893 2278.72341547619 132 137 133
-945.300974023757 455.105378561284 2289.04572323653 22 24 21
-938.031926557502 453.145713067589 2300.46691600118 144 146 143
-931.648172656496 451.352367917477 2311.45103745582 76 80 81
-924.317050466532 449.391859830642 2322.7578101075 151 155 156
-923.390520147192 448.598279539937 2331.38960631843 193 197 198
-920.608899542062 447.470921233108 2340.73928218681 85 89 90
-904.899840646975 444.008219794888 2355.22046769628 47 51 52
-896.522570154203 441.87928574955 2366.66733303971 175 179 180
-897.357533850347 441.418110414388 2374.40869608979 46 50 49
-892.628303118682 439.955754184617 2384.30572391888 119 123 122
-888.802325441027 438.659893343161 2393.79926809379 37 41 40
-890.526413234632 438.364934356942 2401.11107785114 189 193 192
-887.595540790023 437.235481152411 2410.18562241185 40 44 43
-884.64566406254 436.105703738063 2419.22562138085 186 191 187
-878.880011410097 434.475007827546 2429.28065643601 190 195 191
-882.424975064947 434.513107328293 2435.81194784139 55 60 56
-877.554385002666 433.048818546907 2445.4479047016 31 35 34
-875.468579950825 432.084997973879 2454.011692126 205 209 208
-876.179435274141 431.621833225029 2461.52470325015 198 202 201
-874.065183666532 430.657592662501 2470.03604597559 27 31 30
-873.81526168866 430.027129347257 2477.84650164936 172 176 175
-867.905390906899 428.394494499731 2487.6357102077 74 78 77
-863.854428631067 427.095518754909 2496.71452999534 187 191 192
-860.726354827761 425.963325807296 2505.42556142712 168 172 173
-862.306466292228 425.66609838963 2512.47189031626 201 205 204
-859.147340912773 424.533483976182 2521.12568549798 8 12 11
-862.605132312194 424.570072717285 2527.49619692476 188 192 193
-864.163700841708 424.272446542939 2534.50328876066 68 72 73
-870.46925305815 424.810188822781 2539.91715658394 179 183 184
-872.022671309808 424.512427457903 2546.91473546578 66 70 71
-874.523530876512 424.381704335909 2553.58975996078 170 174 175
-873.203334463693 423.582356000345 2561.49630216772 172 176 179
-872.825447054419 422.949992178006 2569.07083457418 172 176 179
-871.479578497487 422.150332638636 2576.92956320088 169 173 176
-872.994864604398 421.851969473169 2583.85682914639 166 170 173
-877.383151360167 422.055097333653 2589.87397362758 164 168 169
-882.734373963325 422.425440560364 2595.59711425486 165 169 170
-885.203616287819 422.294156287043 2602.21382013045 168 172 173
-885.742628658975 421.828332181357 2609.40998102961 169 173 174
-886.273255547367 421.362400834968 2616.59068724852 162 166 167
-888.727664805973 421.230888226392 2623.180043748 158 162 163
-891.178629678848 421.099273626218 2629.76353896749 155 159 158
-890.720750929137 420.465794770371 2637.19061740969 151 155 154
-886.372386697619 419.163013540788 2645.7208121782 142 146 145
-888.800867409604 419.031109040194 2652.26286774984 130 134 133
-891.22634587531 418.899178061891 2658.79888943714 128 132 131
-897.543733154519 419.436551634237 2664.2344132191 115 119 118
-898.017794758875 418.969887617813 2671.31086524467 121 125 124
-901.412654030905 419.005217321133 2677.56525440315 126 130 131
-899.91878914321 418.203662486815 2685.15122085626 118 122 123
-903.306030504389 418.238894089705 2691.39156978777 115 119 118
-901.791487799104 417.437076363992 2698.93993115366 126 130 129
-903.208007384495 417.137359817341 2705.68514047974 121 123 122
-899.705005136704 416.000465854136 2713.70519649252 124 126 125
-899.135680609816 415.365704214626 2720.92692008407 121 123 120
-895.599411205736 414.22845842148 2728.88568593221 145 147 144
-880.204716725472 411.08137632757 2739.80985547914 176 178 175
-1049.81230561708 501.639143731656 1763.48129332401 255 255 253
-1038.69719470092 498.751800153633 1780.23920215857 203 202 200
-1036.04347705661 497.496362966094 1791.90090237932 185 185 185
-1035.92575313884 496.730443402348 1802.02855910046 183 183 185
-1040.0622420071 496.780712748466 1809.65143288395 180 181 185
-1045.90825726755 497.157485280369 1816.28702503499 185 186 190
-1050.04771227263 497.207605295233 1823.91530917744 175 176 178
-1050.7580349901 496.604294194929 1833.49999505635 163 163 165
-1048.02357287903 495.347358202374 1845.01223652406 167 165 166
-1046.98815164077 494.416778375424 1855.51786736659 182 182 182
-1045.07603034826 493.322552781193 1866.47667460954 165 167 166
-1043.14575993083 492.22802243354 1877.40201065905 175 177 176
-1042.06110802666 491.296583080989 1887.81683885922 177 179 178
-1038.36542056271 489.874557124928 1899.62686924565 175 177 176
-1037.24569190131 488.942515425025 1909.97700375942 179 181 180
-1036.11035349091 488.010184438507 1920.29834210596 176 178 177
-1038.4357660056 487.731530020523 1928.72100072054 177 179 178
-1034.66327384775 486.308220167283 1940.38938718543 181 183 182
-1031.73911045718 485.048079786509 1951.55176980776 180 182 181
-1029.6669566194 483.951113891641 1962.21542397442 179 181 180
-1032.8219168189 483.835054380252 1970.09837261757 179 181 180
-1030.72096194606 482.737560869549 1980.70889776772 174 175 177
-1034.73972703463 482.784766487805 1988.11433474228 174 175 177
-1031.73309974831 481.523186186867 1999.12461822031 176 178 177
-1032.22314235021 480.915647315924 2008.30340169382 174 176 175
-1027.41813780101 479.326223231688 2020.13765496173 173 175 174
-1028.76165094665 478.881857860045 2028.81938822344 174 176 175
-1025.67996851527 477.619012608558 2039.69175546067 170 172 171
-1024.34669239828 476.683172343795 2049.64799498476 164 166 165
-1021.22575706769 475.419735991048 2060.44748698754 163 165 162
-1021.63284437825 474.81073107719 2069.47275545105 168 170 167
-1018.4747699796 473.546651159794 2080.20425265111 173 175 172
-1016.18564967132 472.445993708009 2090.46775581626 175 177 176
-1012.09556789947 471.01755033319 2101.55049335518 176 178 177
-1015.1218140046 470.898785589531 2109.19539556147 177 179 178
-1012.78237094403 469.797285151881 2119.36609251227 176 178 177
-1013.10969520028 469.186857707403 2128.24423440039 166 168 167
-1011.63340087095 468.248605312706 2137.93671199448 159 161 160
-1009.24352464642 467.146290118744 2148.014408153 163 165 164
-1008.63292530932 466.371301315792 2157.2333541041 170 172 171
-1005.30826897302 465.104597032624 2167.65718332201 175 177 176
-1003.7654817307 464.165264780721 2177.22704359766 180 182 181
-1000.40099369031 462.897945844637 2187.57743021499 179 181 180
-994.302495489566 461.138618348694 2199.09692295286 173 179 177
-991.797131632804 460.034514303279 2208.96167836749 175 179 178
-982.925536910425 457.782716579852 2221.57724296451 177 181 180
-981.281827381741 456.841857554153 2230.96102963355 177 181 180
-974.165620072945 454.917064814633 2242.673810274 177 181 180
-973.392826709055 454.139592530318 2251.59320077746 188 192 191
-958.926499858289 450.902283651829 2266.31247373744 109 111 110
-943.494262314231 447.500294339964 2281.32104157581 192 194 193
-933.494808611422 445.081690160131 2293.9269050589 196 198 197
-928.951083405206 443.646640851823 2304.17332312079 49 51 50
-924.383441247673 442.211262423125 2314.37565457789 107 111 112
-914.281150028384 439.791300701067 2326.79197288874 83 87 88
-915.176715287482 439.33953485281 2334.64812713161 198 202 203
-916.063972317519 438.887614674239 2342.48895461703 58 62 63
-904.951842580009 436.302382949986 2355.11359923643 20 24 25
-898.416163037239 434.537168157738 2365.82676115006 69 73 74
-896.476163956872 433.592116158199 2374.66435643142 191 195 194
-895.446258165858 432.810967238133 2383.11026893542 167 171 170
-888.837519578464 431.044753199775 2393.68876145963 23 27 26
-886.843918920703 430.098948426488 2402.42754729856 31 35 34
-878.323003823972 428.003697973329 2413.62035341385 31 35 34
-876.288035340998 427.057323036661 2422.2828848245 183 188 184
-873.304231583532 425.946535670072 2431.2656922703 111 116 112
-875.906066291902 425.820792945797 2438.12792616051 193 198 194
-874.763122879873 425.038009912533 2446.36545047073 184 188 187
-873.606816427391 424.255065945737 2454.57784507461 141 145 144
-867.747081107769 422.650611445723 2464.46773631179 203 207 206
-861.860852245038 421.045826687513 2474.30880178024 182 186 185
-857.82899533978 419.769255168921 2483.42949725212 191 195 194
-856.60158951312 418.985350064007 2491.51083811747 175 179 180
-857.246694986204 418.529859430458 2498.90523105645 177 181 182
-855.050136180389 417.581246362043 2507.26989536685 181 185 186
-855.674581677867 417.125450620113 2514.62619909373 170 174 173
-852.502608293125 416.012097535373 2523.26215674333 116 120 119
-856.898255615292 416.213455445477 2529.2923063856 167 171 172
-861.296062382382 416.414833571299 2535.32592947585 171 175 176
-864.744755472519 416.451764520577 2541.67981036336 188 192 193
-866.288370165104 416.159813747418 2548.66110608212 176 180 181
-869.733204575979 416.196639658734 2555.00785856825 171 175 176
-872.222691187603 416.068994053969 2561.66289160142 172 176 179
-873.752742166536 415.776796823666 2568.61916706448 172 176 179
-873.362381099229 415.155603639126 2576.17411738905 168 172 175
-875.837022808452 415.027711092947 2582.80177368134 166 170 173
-878.30819217891 414.899712529261 2589.42351607223 165 169 170
-880.776387731678 414.771687826395 2596.03927696595 166 170 171
-883.241344327477 414.643609781747 2602.64906478663 170 174 175
-883.775347753798 414.186378827406 2609.83859746668 169 173 174
-888.161337597189 414.387226580395 2615.85083183075 160 164 165
-888.683745012365 413.929835382098 2623.01898914467 157 161 162
-890.165652526312 413.636937488328 2629.8860050552 152 156 155
-888.734644857479 412.850151754377 2637.59252301291 148 152 151
-888.26046500001 412.227827503262 2644.99297517431 138 142 141
-893.604740597281 412.593091318599 2650.70181150511 125 129 128
-897.980536465976 412.793725355328 2656.69523302328 122 126 125
-906.254720867452 413.652938954796 2661.59684878889 126 130 129
-907.713551975692 413.359707177712 2668.42132257886 117 122 118
-907.213164287677 412.737044991549 2675.77347214041 110 114 113
-904.745795371829 411.784871040129 2683.63899648197 125 129 128
-903.2416129894 410.997210246115 2691.21066965933 127 132 128
-899.762977662089 409.880005996073 2699.28146199358 102 104 101
-896.265747659521 408.762598785205 2707.31799429733 112 114 111
-895.69936913102 408.139213559549 2714.54855724594 150 152 149
-898.075235512307 408.009939788965 2720.99463659313 141 143 138
-1067.96586429996 498.434008323958 1721.88162103388 117 109 98
-1053.57555304089 494.954784957137 1740.89805453358 147 138 129
-1041.67008514246 491.956317682441 1758.28423915624 142 134 131
-1036.50407825367 490.241403760566 1771.53160518362 182 176 176
-1033.8593236903 489.007686876112 1783.21581765576 195 191 190
-1035.4497243329 488.576408042416 1792.35606165273 177 177 177
-1035.3275030373 487.823794463604 1802.47995251284 172 172 174
-1040.31536232092 488.034521878792 1809.6016012222 152 151 156
-1044.4508010875 488.084571909895 1817.22247772468 183 182 187
-1049.44272403872 488.29515379012 1824.35206073772 153 153 155
-1049.29127878593 487.541856144569 1834.42199770237 149 149 151
-1048.26801966037 486.627688995664 1844.95493252701 183 181 182
-1048.9499089106 486.034605102576 1854.49039961732 171 171 171
-1047.03669887474 484.959252761707 1865.45288005096 164 166 165
-1041.65381865544 483.240821965017 1878.30031890889 172 174 173
-1037.9706171766 481.843366781013 1890.14070224995 175 177 176
-1038.59160188476 481.249225260727 1899.56383673922 178 180 179
-1038.33525799886 480.494106057073 1909.44029822317 177 179 178
-1038.06611453087 479.738780926976 1919.29265277305 172 174 173
-1039.52262519099 479.30475549755 1928.18582273695 174 176 175
-1036.61767736798 478.066579296146 1939.3906556284 176 178 177
-1032.82011741634 476.667313663394 1951.01966421674 174 176 175
-1030.74555996056 475.589316155583 1961.68460188875 170 172 171
-1031.27634832656 474.993504107271 1970.94185075118 170 172 171
-1031.79683898572 474.397523311018 1980.17960526434 168 169 171
-1034.93848476287 474.283947663308 1988.03830896539 169 170 172
-1034.56315716354 473.526687761193 1997.69529396726 173 175 174
-1033.29492250378 472.608314563402 2007.77640930016 171 173 172
-1028.48646405768 471.04603014113 2019.61247169509 170 172 171
-1028.0640195268 470.288030096952 2029.1820732544 174 176 175
-1023.20963334643 468.725043657856 2040.93345506629 166 168 167
-1022.75404869365 467.966466133831 2050.44243648665 160 162 161
-1022.28544074303 467.207687405433 2059.9269009389 155 157 154
-1029.79213729263 467.897572197378 2065.48084523337 150 152 149
-1024.86395560535 466.333418941536 2077.09615277548 159 161 158
-1019.90948460621 464.768897236026 2088.66299868235 172 174 173
-1010.47091685696 462.398790229108 2102.31552200486 172 174 173
-1014.3857082008 462.443941562075 2109.52911455098 175 177 176
-1013.82958730104 461.683699719633 2118.85218675488 178 180 179
-1014.15551759739 461.084301565254 2127.73108163853 173 175 174
-1015.36739428217 460.645789789981 2136.17297600843 164 166 165
-1012.9789830008 459.562692167361 2146.25914559616 162 164 163
-1014.16932841039 459.123787354353 2154.66132183304 167 169 168
-1004.54366994598 456.751027764867 2167.96895355334 172 174 173
-1001.19241827771 455.505865900747 2178.35034737283 176 178 177
-996.013378302413 453.938042202914 2189.50317703543 178 180 179
-992.616882789436 452.692188271735 2199.8016553055 174 178 177
-989.199378847678 451.446067593306 2210.06091078663 175 179 178
-983.03917150405 449.715998346067 2221.47520349969 177 181 180
-977.758093095266 448.146706557105 2232.44042864886 178 182 181
-971.541085006823 446.415853826406 2243.75001883263 177 181 180
-968.939171027088 445.329637691675 2253.44258025369 180 182 181
-957.195104446961 442.630421377953 2266.98549958796 92 94 93
-942.665453240529 439.446775408656 2281.60444509619 185 187 186
-933.572808019233 437.230252600058 2293.82456970889 116 118 117
-918.029829550303 433.88408891149 2308.64574851522 103 105 104
-909.772030600563 431.827882797519 2320.33421462826 140 144 145
-903.317721148994 430.093934681893 2331.20643351943 32 36 37
-901.43491480501 429.166385542966 2340.15448014578 188 192 193
-904.143278744609 429.045497316503 2347.2141005531 91 95 96
-896.698270465751 427.149210421724 2358.33072861285 40 44 45
-891.993699412262 425.736726932693 2368.28810787555 202 206 207
-888.190678986496 424.485380307366 2377.83675674579 42 46 45
-888.072806895987 423.87945647661 2385.89745576689 194 198 197
-884.232121671734 422.627541273149 2395.37716547042 74 78 77
-880.370283022417 421.375379754071 2404.81739185464 142 146 145
-874.626001125617 419.799968350078 2414.92835684851 191 195 194
-874.446159518137 419.19315886248 2422.87481630083 180 185 181
-869.589680401892 417.778644864447 2432.55219834032 181 186 182
-870.315751537535 417.332941050785 2440.09844498978 179 184 180
-869.161939900969 416.564003070266 2448.32014415621 188 192 191
-867.994776584907 415.794926449757 2456.5167412153 180 184 183
-864.937365898013 414.702510705603 2465.36969684326 187 191 190
-859.981943982039 413.286685543767 2474.86471075123 198 202 201
-856.884425786599 412.193751574549 2483.64374552185 174 178 177
-855.652437483758 411.423757100147 2491.72134584456 184 188 189
-855.350445465687 410.815216063064 2499.44262772152 182 186 187
-855.037511769584 410.206518880804 2507.14373890276 175 179 180
-852.821349247132 409.274357535618 2515.4772957889 183 187 186
-853.431101161907 408.826965759184 2522.80910259083 173 177 176
-855.929874741668 408.702813570674 2529.482266595 123 127 128
-860.3251554422 408.901936517505 2535.51106985236 173 177 178
-861.868891728719 408.615982886949 2542.49388842868 183 187 188
-865.311734925271 408.65334642924 2548.8371403859 172 176 177
-867.799940907817 408.528911406584 2555.49128784307 173 177 178
-871.240189546225 408.566192350196 2561.82974309594 171 175 178
-871.810548999586 408.118146834855 2569.0889033906 167 171 174
-874.287968533471 407.993552016473 2575.72266030536 163 167 170
-876.76222160853 407.868893640494 2582.35057441227 164 168 171
-879.233001869268 407.744132934387 2588.97257485203 168 172 173
-880.739263197488 407.457559477744 2595.88628375699 170 174 175
-882.239493613897 407.170849536018 2602.78936391628 170 174 175
-884.698233714703 407.045936263202 2609.38867018409 167 171 172
-888.119145310415 407.082809674611 2615.69143853852 156 160 161
-888.639159210982 406.634042772292 2622.85778725192 153 157 158
-889.150816057374 406.185168967798 2630.00873367223 148 152 151
-892.562095592392 406.22188705683 2636.29374020329 142 146 145
-895.972752076224 406.258579261336 2642.57759304566 134 138 137
-903.270277235009 406.942944938463 2647.74517332503 123 127 126
-910.577735631254 407.627434481027 2652.93055564295 117 121 120
-914.971235474502 407.826126293656 2658.95595392807 115 120 116
-915.463681727791 407.37696833312 2666.07148311562 112 117 111
-906.177385975665 405.307909184716 2675.86449102994 125 130 124
-898.813730122174 403.562478872198 2685.06080325878 152 154 149
-893.380241314876 402.140720825534 2693.67478090228 176 179 172
-860.457614983424 396.182117638867 2709.58531455872 184 187 180
-1057.28465003971 488.936860027579 1707.84062907664 128 115 107
-1053.06276546921 487.410787283813 1720.76639732706 132 117 110
-1049.66012088564 486.042092190949 1733.13142468794 127 113 104
-1042.84914112185 484.041891793702 1747.4976970121 141 128 119
-1039.39502522906 482.672428670932 1759.76782829403 126 117 112
-1035.06890311264 481.14481552644 1772.50142147354 173 165 163
-1033.26766464462 480.090332740469 1783.67611394073 191 186 183
-1035.70593119231 479.824815882157 1792.31078667192 158 156 157
-1037.28664417312 479.40135992234 1801.435061554 151 149 152
-1043.13007028673 479.767107435763 1808.06257633504 152 152 154
-1043.84650251755 479.185469691978 1817.66501636078 161 161 163
-1048.83621813323 479.393214882009 1824.78968662861 157 157 159
-1046.96453145242 478.337468496422 1835.83443200513 163 163 165
-1049.37131424713 478.071155721672 1844.41096102907 135 135 137
-1049.1912766068 477.330862445752 1854.43171782945 137 137 139
-1047.27437080573 476.274356006781 1865.39306844041 150 152 151
-1042.74957427029 474.743579343304 1877.76031182625 147 149 148
-1042.52140105434 474.002456160309 1887.69279320577 168 170 169
-1043.14623980412 473.419166375758 1897.1262793272 173 175 174
-1041.15923289715 472.361548192223 1907.95836690635 155 157 156
-1039.15400722303 471.303639198133 1918.75685940022 166 168 167
-1036.26064949058 470.087349337842 1929.98959026758 171 173 172
-1036.83081175415 469.503131485632 1939.32223727882 163 165 164
-1033.90113840718 468.286307659621 1950.48751229533 167 169 168
-1036.19235478525 468.017857949277 1958.8508510002 163 165 164
-1034.97849225482 467.116739827759 1969.03715555378 152 154 153
-1033.74891549767 466.215368105925 1979.19448251818 148 149 151
-1035.13653099158 465.788286932381 1987.96252575951 160 161 163
-1033.87938045732 464.886461297618 1998.06900302242 154 156 155
-1031.72636643242 463.826190468845 2008.59497555738 162 164 163
-1029.55475323205 462.765600254289 2019.08714901766 167 169 168
-1029.13058870824 462.021240291723 2028.6576890588 166 168 167
-1025.15674581418 460.643649394653 2039.96950349345 166 168 167
-1022.93010565193 459.582250696415 2050.35972497237 169 171 170
-1024.23170067592 459.153655819502 2058.96960993727 171 173 170
-1032.62922567645 459.991228991639 2064.09105955792 148 150 147
-1026.81074356911 458.295990175364 2076.14482573932 147 149 146
-1023.63535618692 457.075346661893 2086.85703921324 145 147 146
-1013.30364992507 454.587701501914 2100.94637115487 153 155 154
-1017.22103717515 454.633090557389 2108.16480953374 165 167 166
-1014.87672085483 453.569873253614 2118.33805622332 170 172 171
-1013.40960045478 452.664745900253 2128.05736774829 179 181 180
-1012.82376380842 451.917788606767 2137.3297822258 175 177 176
-1013.12268386339 451.328979866341 2146.16268905976 171 173 172
-1017.00979717449 451.373712975321 2153.32525089172 161 163 162
-1008.28263415971 449.200239925417 2166.23000560809 161 163 162
-1001.32315094701 447.343178870695 2178.25139877342 170 172 171
-995.235789899513 445.644182472375 2189.8090133637 173 175 174
-990.929052671661 444.261737434876 2200.50711471992 173 177 176
-985.692382164798 442.720482122613 2211.56194101208 175 179 178
-976.799309055859 440.544819213117 2224.16089829813 175 179 178
-976.048637977159 439.795444821309 2233.12942534788 177 181 180
-975.284298656578 439.045820840573 2242.07324319766 180 182 181
-969.949600771522 437.503220948871 2252.94737493652 184 186 185
-953.636031861982 434.057388406699 2268.43662851722 117 119 118
-934.523004925323 430.1351171284 2284.97829135516 155 157 156
-923.582017501879 427.639441088396 2297.9446291695 190 190 190
-914.43223671309 425.460481247221 2310.07046280115 88 88 88
-913.506423584973 424.70870915522 2318.71665491464 199 203 204
-908.890402457515 423.322156454485 2328.8446915644 184 188 189
-900.568577396087 421.30065958634 2340.42583979942 194 198 199
-895.899779842291 419.913454457857 2350.45611054207 188 192 193
-893.053111848683 418.843294941989 2359.70335330215 180 184 185
-891.112019565826 417.931555937978 2368.54895591017 189 193 194
-885.452171748739 416.384737003664 2378.82380892391 172 176 175
-883.473618669489 415.472489133475 2387.6003612749 192 196 195
-880.550751223239 414.401285589326 2396.70714539606 191 195 194
-875.74990362871 413.012295613922 2406.49451955606 190 194 193
-873.717745167616 412.09932446902 2415.17226433853 178 182 181
-872.601758019911 411.344949905385 2423.46740491659 183 188 184
-871.472022073925 410.590343258766 2431.73769340119 189 194 190
-866.589712408819 409.20027243894 2441.37491893762 187 192 188
-865.427879933068 408.445274393666 2449.58555410992 184 188 187
-862.377676659607 407.372366184925 2458.45763181459 185 189 188
-860.247289917968 406.458062840401 2466.9543162706 167 171 170
-856.220783685779 405.225771832876 2476.09816869523 140 144 143
-853.114313628471 404.15213450865 2484.86654227173 127 131 130
-850.931804793607 403.237182835157 2493.26666549103 122 126 127
-851.564375072579 402.798748816006 2500.64313321022 128 132 133
-852.188548032271 402.360188949991 2508.00411888438 174 178 179
-852.804351625718 401.92150726302 2515.34967513492 102 106 105
-851.516216439857 401.164755879814 2523.3279935882 99 103 102
-853.061784016882 400.88480309176 2530.31598482221 113 117 118
-856.501978812663 400.922722290524 2536.65453298556 179 183 184
-860.893023274505 401.119590045844 2542.67486684412 170 174 175
-864.33321146489 401.157450077274 2549.01338506607 177 181 182
-864.910227629365 400.718169865693 2556.28742417835 173 177 178
-867.389882942489 400.596881092581 2562.92628729653 170 174 177
-870.822958806793 400.634586262383 2569.25167808473 165 169 172
-874.255382715764 400.67226889651 2575.57586303132 161 165 168
-876.727704157525 400.550791192204 2582.20168525215 163 167 170
-878.236438321739 400.27021144544 2589.12174458892 169 173 174
-878.777278207461 399.830397040296 2596.32908828967 170 174 175
-881.236251774177 399.708751196964 2602.92980652926 170 174 175
-883.69177857738 399.58702179893 2609.52466466004 165 169 170
-887.110031362475 399.624421198513 2615.82270115312 154 158 159
-887.626371510797 399.184270733141 2622.98488431233 151 155 156
-890.071193822214 399.062408366623 2629.55951070186 144 148 147
-896.391394330458 399.577306346377 2634.9934496366 139 143 142
-902.718704363837 400.092270521392 2640.44048418979 133 137 136
-910.997490287178 400.925739322662 2645.34282098498 126 130 129
-917.341606848019 401.440863006922 2650.82081377224 120 124 123
-919.793602199535 401.31901588941 2657.40863727518 106 111 105
-913.457402464745 399.763648065399 2666.43698504392 133 138 132
-896.34352130297 396.455813358001 2678.38051390819 179 184 177
-1050.80206592035 480.960553303674 1680.8300308555 248 238 237
-1035.70052417883 477.446865120901 1700.64281690328 114 100 97
-1041.57596161205 477.808061808814 1707.32733355989 106 91 86
-1045.77134615606 477.859180208367 1715.05878255063 144 127 120
-1043.21470804447 476.669795073043 1726.91838873141 142 125 117
-1042.32816453733 475.790227419815 1737.71317329191 129 111 101
-1041.42630610494 474.91041461421 1748.4797171919 127 113 104
-1041.35701056432 474.185456960432 1758.70926488282 113 102 98
-1037.02875591116 472.684700076283 1771.44701218654 166 158 156
-1037.77814117542 472.114404608682 1781.11346970834 179 174 171
-1040.22117440306 471.854245914872 1789.75801630233 160 156 155
-1043.51212524171 471.749086399937 1797.89435436967 145 143 144
-1046.80086605634 471.643883989807 1806.02611065666 117 117 119
-1045.80822846505 470.76257286906 1816.62524456769 129 129 131
-1049.0856099837 470.657113321645 1824.73603171298 147 147 149
-1046.35170852257 469.464917456176 1836.26927729319 151 151 153
-1050.47466969955 469.514412669061 1843.86703838926 134 134 136
-1050.29293289152 468.787556605416 1853.88871096574 153 153 155
-1050.09806846036 468.060453697506 1863.88666946403 153 155 154
-1049.0269437052 467.177892234321 1874.34057093132 155 157 156
-1049.66970432042 466.605641976833 1883.81084269302 164 166 165
-1050.30229941127 466.033246703693 1893.26187034988 176 178 177
-1045.71949670326 464.528624024948 1905.53029487392 145 147 146
-1045.45474717342 463.800428603924 1915.39888915633 156 158 157
-1043.43648043673 462.761230182295 1926.17952767044 162 164 163
-1043.14305298477 462.032578779272 1935.9952409053 150 152 151
-1039.34558162025 460.6820789375 1947.63958157447 159 161 160
-1040.76869213602 460.263753749243 1956.47604398314 162 164 163
-1036.05677432403 458.757253803486 1968.50643777129 144 146 145
-1034.82512498835 457.872173262052 1978.66485199006 153 154 156
-1033.5779544172 456.986887622015 1988.79415390724 145 146 148
-1038.46931222367 457.189668809443 1995.7364334615 150 152 151
-1036.31907921857 456.148483502207 2006.27326022022 165 167 166
-1036.79594465045 455.573561661207 2015.43711286669 158 160 159
-1033.72955997287 454.376331898795 2026.35734743155 156 158 157
-1033.29566975639 453.645457597015 2035.91405557637 147 149 148
-1031.07701444626 452.603250704237 2046.32473403672 157 159 158
-1033.27495482938 452.338609392419 2054.5176664577 161 163 160
-1037.24419183873 452.385033190397 2061.83177716029 155 157 154
-1031.42729826951 450.719795294673 2073.89698262268 159 161 158
-1031.81780133577 450.143444312013 2082.90207361374 139 141 140
-1024.16765939121 448.166255861231 2095.73189396773 139 141 140
-1023.63179172786 447.433812676429 2105.10057521037 154 156 155
-1015.92377348146 445.455846399628 2117.82371659102 163 165 164
-1009.97396972991 443.788800529278 2129.64393231467 169 171 170
-1011.17462390082 443.36688090435 2138.07017604871 177 179 178
-1011.46825052359 442.789091949395 2146.89666117988 173 175 174
-1018.9517826596 443.456958152889 2152.40087619591 167 169 168
-1009.31955313794 441.165836261276 2165.72097273412 161 163 162
-1000.55071568364 439.029990226031 2178.56039580527 162 164 163
-992.648908407987 437.04942824547 2190.92634326829 165 167 166
-990.14442599352 436.003119728657 2200.81010015876 173 177 176
-984.901631350684 434.489149547088 2211.86186826727 174 178 177
-975.093067425731 432.195754286315 2224.85697005818 175 179 178
-971.609287558266 430.992680803584 2235.00727724197 177 181 180
-966.28326684564 429.477619850955 2245.90564942579 178 180 179
-957.28361940829 427.338750150261 2258.32016584662 183 185 184
-939.11690577165 423.640736564405 2274.55491102019 89 91 90
-923.630384040742 420.40962237669 2289.51452188273 57 59 58
-918.160814169372 418.892733858361 2300.14833142022 195 195 195
-915.415586754206 417.843263098371 2309.58836343544 192 192 192
-915.406182418956 417.261285832649 2317.85625990663 180 181 183
-909.86883551392 415.743505283086 2328.36514687706 194 198 199
-898.779914025988 413.289604914415 2341.07196982384 190 194 195
-893.181764550425 411.771052316189 2351.46879761703 182 186 187
-888.480688864644 410.408169271363 2361.44701716076 186 190 191
-885.605053907941 409.356968347828 2370.64668564908 178 182 183
-880.858533448907 407.993461011081 2380.54164048063 116 120 119
-877.942807575734 406.94172359485 2389.66741313399 144 148 147
-878.722843642188 406.513934756135 2397.3182985374 115 119 118
-873.914926941143 405.14962244997 2407.1000924217 111 115 114
-872.808126036507 404.409346520545 2415.41636793328 163 167 166
-869.822427699646 403.356644726257 2424.41366271151 106 111 107
-866.818233059719 402.303735643538 2433.37637283824 99 104 100
-862.860248941811 401.094472442975 2442.65267062281 124 129 125
-861.689914173434 400.353312499607 2450.85233418491 130 134 133
-859.568348975679 399.455825218592 2459.37030001488 193 197 196
-858.369812394288 398.714320254991 2467.51748730539 160 164 163
-854.336800525744 397.504089760533 2476.65550450019 185 189 188
-852.165506168596 396.605958600376 2485.08181571692 189 193 192
-847.149387566637 395.238986059701 2494.47988838071 186 190 191
-845.885964385725 394.496599438943 2502.50797650291 192 196 197
-849.336387029514 394.535242397165 2508.86555319217 199 203 204
-851.83952891563 394.417619822736 2515.54871490128 187 191 190
-853.391411468225 394.14367325951 2522.55012672535 177 181 180
-853.038522292221 393.557025956786 2530.18488760995 168 172 173
-854.576195781226 393.282869568075 2537.16010327812 182 186 187
-858.96366732067 393.477526961101 2543.17320117849 175 179 180
-862.399934957101 393.515872104525 2549.50465467086 166 170 171
-864.88111771251 393.397862476571 2556.14731314229 168 172 173
-868.314790315241 393.436128708695 2562.47397016454 164 168 171
-870.790554324622 393.317982499264 2569.10712574575 160 164 167
-876.138494033965 393.668964636018 2574.81840624222 160 164 167
-876.692460037117 393.237977800379 2582.05254590221 165 169 172
-878.199149269387 392.963319500545 2588.97062494137 174 178 179
-878.737568163024 392.532121678092 2596.17610718596 173 177 178
-880.231147289162 392.257246286926 2603.07051331122 167 171 172
-883.648671554383 392.295216818905 2609.36738167515 161 165 166
-885.133212766868 392.020215338739 2616.24512751279 149 153 154
-890.481848553485 392.371098666181 2621.95765850814 146 150 151
-895.834978910567 392.722013356869 2627.67846526911 141 145 144
-905.072458666535 393.698976415356 2632.27236717506 138 142 141
-911.41105841244 394.206541222432 2637.73794041956 130 134 133
-921.647093990334 395.340334276318 2642.10022699341 131 135 134
-926.057466588798 395.535015136131 2648.15494692702 124 128 127
-903.164994207192 391.34575824362 2661.89533554858 132 134 129
-1053.57606261063 473.207529582513 1668.79530950636 74 66 64
-1041.86196661643 470.365400122298 1686.58047603104 110 99 97
-1038.50384576067 469.04571378537 1699.0421286136 76 61 58
-1051.11696993491 470.619874159349 1701.56383990375 85 67 63
-1048.58067890743 469.452206358591 1713.4673989433 93 74 68
-1051.93453184295 469.350691229139 1721.72052137205 68 49 43
-1051.05785807063 468.487304032935 1732.53781973628 68 49 42
-1058.63576798034 469.147517534737 1738.21381558846 77 60 52
-1056.04456220903 467.978972337715 1750.01661680058 69 56 50
-1049.18483559864 466.048056434947 1764.31407011072 56 48 45
-1047.39704646348 465.03129943004 1775.52484329516 110 105 101
-1048.14792513058 464.471639242451 1785.19724571147 141 140 138
-1049.74207346383 464.06425839639 1794.35156902678 110 108 109
-1053.89308389656 464.114191025967 1802.00104935543 109 110 112
-1052.90750578944 463.249091485384 1812.61804211057 88 89 91
-1056.19369183249 463.146340377349 1820.74583686572 100 104 105
-1051.74881836549 461.670751459275 1833.27666946399 125 126 128
-1054.15819128989 461.41513872699 1841.86117993836 149 150 152
-1054.83992290078 460.854322760059 1851.40606075185 132 133 135
-1054.64876265786 460.140774997424 1861.4144040033 147 149 148
-1056.17240856012 459.73218530175 1870.43869697529 154 156 155
-1055.09256851482 458.865630912942 1880.88188734722 141 143 142
-1054.86362445489 458.151457759262 1890.82105545036 110 112 111
-1051.15055947493 456.826579045408 1902.62783541341 148 150 149
-1050.02131347831 455.959299686259 1912.97994122482 164 166 165
-1048.0060472034 454.939128504631 1923.77131578601 152 154 153
-1049.45948350472 454.529425772429 1932.6661457955 106 108 107
-1045.66670843578 453.203381784568 1944.32647820257 112 114 113
-1044.47352008264 452.335160038555 1954.56069897389 140 142 141
-1041.51343894238 451.161271343033 1965.68296002359 133 135 134
-1037.65532544319 449.834316353363 1977.22284919475 123 124 126
-1038.16507798956 449.27086156702 1986.45063562388 150 151 153
-1039.54379206421 448.85999575483 1995.20768808079 130 132 131
-1040.91455088938 448.448998280832 2003.95006979093 111 113 112
-1044.04176585533 448.343486274779 2011.78465750909 108 110 109
-1043.63215234103 447.626585588392 2021.39072133948 130 132 131
-1044.09424754005 447.062345407215 2030.53062103845 137 139 138
-1038.343227032 445.427968066409 2042.72625948709 149 151 150
-1036.11280085747 444.404673410828 2053.12097649441 135 137 134
-1037.41858341917 443.99264737732 2061.74354570724 150 152 149
-1036.04636235626 443.121784063772 2071.64769832892 134 136 133
-1035.54945210666 442.403592717968 2081.0928194284 150 151 153
-1032.36169233622 441.226449940229 2091.79535942105 148 149 151
-1027.36496199026 439.743111410867 2103.30889619436 135 136 138
-1021.44655545747 438.106439808005 2115.19649555534 137 138 140
-1012.8099359354 436.010498314164 2128.29109163787 156 157 159
-1013.11441398402 435.443982373943 2137.14042030932 156 157 159
-1012.50889999606 434.724272495487 2146.38534269062 171 172 174
-1014.59142595 434.463469594351 2154.36665699471 171 172 174
-1011.25797992702 433.284305728363 2164.80114988382 166 167 169
-1001.58261159587 431.033541077626 2178.05353832662 161 162 164
-999.102072103212 430.006787968506 2187.98721133924 164 165 167
-992.980364800236 428.367425860954 2199.50009444926 173 177 178
-989.550542168105 427.18701836041 2209.75645496238 176 177 179
-977.017341132241 424.475182652131 2223.95952086937 178 179 181
-972.622612424084 423.14094580082 2234.50978284209 180 181 183
-965.471402446758 421.346927881819 2246.19751396319 176 177 179
-954.640217529382 418.939896130437 2259.39245581304 185 186 188
-939.200092651679 415.766502732354 2274.45475680968 189 189 191
-923.704710381813 412.592405123768 2289.41572186683 183 183 185
-917.31438644421 410.949680020196 2300.43305447378 188 188 190
-911.812234878854 409.459798505467 2311.01506191897 174 174 176
-908.120820054417 408.276050680469 2320.78930222016 180 181 183
-903.488068533562 406.938752282633 2330.90138044298 111 115 116
-898.831439850936 405.601147396475 2340.96945204718 176 180 181
-895.073510925059 404.416539197974 2350.62110206395 102 106 107
-889.446629689373 402.925056067185 2360.97322727889 101 105 106
-881.943019260226 401.126618322357 2372.01150062397 109 113 114
-878.113359111194 399.941091317729 2381.53094754696 79 83 82
-874.262172091339 398.755261766813 2391.01121589406 124 128 127
-875.963729184464 398.489294458119 2398.29030600112 127 131 130
-871.147462901488 397.149653805851 2408.06416277317 142 146 145
-867.238758715408 395.963076556812 2417.43842172289 188 192 191
-861.443127089795 394.469460223626 2427.47954272409 184 189 185
-860.29187576446 393.742581439444 2435.71809461893 183 188 184
-859.126845310028 393.015484983265 2443.93174297012 183 188 184
-857.948463889437 392.288244356027 2452.12028886262 193 197 196
-856.756289125454 391.560785887528 2460.28390501789 188 192 191
-854.611255825127 390.67968954033 2468.76363783308 183 187 186
-852.450325773219 389.798429785899 2477.2135802416 190 194 193
-847.447159348199 388.456425031189 2486.64298266223 175 179 178
-842.420086143929 387.114122668077 2496.02832666268 184 188 189
-841.147319005535 386.385669459431 2504.04291537347 176 180 181
-844.58994392181 386.424725508834 2510.38627484632 174 178 179
-848.031959287858 386.463761374044 2516.72850717543 184 188 187
-848.628063920438 386.042049148568 2524.04293652511 182 186 185
-850.165433455999 385.773796120938 2531.01987267755 177 181 182
-853.599027354185 385.812672614341 2537.34656846632 176 180 181
-857.984220185383 386.005129517056 2543.35481367287 175 179 180
-861.417847029942 386.043971318884 2549.68155962354 175 179 180
-863.896012933334 385.929153485093 2556.31962939472 165 169 170
-868.283131589881 386.121579771489 2562.33140733801 163 167 170
-871.714817020517 386.160352291865 2568.65456184033 162 166 169
-875.145836519305 386.199100263611 2574.97648419035 163 167 170
-877.616220360318 386.084132518597 2581.60019624938 168 172 175
-878.160688317066 385.661665066192 2588.81942923089 177 181 182
-879.659505707676 385.392851440162 2595.72478813648 174 178 179
-881.152289808692 385.123919765944 2602.6195194676 163 167 168
-883.604654679579 385.008700519987 2609.21001572572 156 160 161
-887.986599147464 385.20095624722 2615.21222610253 147 151 152
-895.273849994339 385.8546027223 2620.3516721338 145 149 150
-904.509025684802 386.815970364754 2624.93614232669 140 144 143
-912.788753697281 387.623685915613 2629.83196300214 134 138 137
-920.108931508483 388.277672783532 2635.03207008368 130 134 133
-930.357672424817 389.393310722508 2639.41226446129 135 139 138
-929.907355858064 388.81665812575 2646.87033999876 127 131 130
-1067.2823893919 466.66468651446 1660.31216352918 117 109 107
-1067.33510281711 465.968152075884 1670.77415115951 92 82 80
-1070.73835062223 465.86981765792 1679.11907626102 57 43 40
-1072.45517623916 465.472197769692 1688.50196078091 64 49 44
-1085.12944523084 467.01975035941 1691.12812700553 78 61 54
-1065.72951715366 462.880774246025 1713.42186076312 87 70 63
-1069.94649204661 462.931606866987 1721.19293239977 79 62 54
-1073.31649463204 462.832736268728 1729.47604799999 70 56 47
-1077.53276026312 462.883493969013 1737.2457926446 78 65 59
-1066.44988788527 460.239307460656 1754.13662076394 63 56 50
-1068.94084174426 459.990283354788 1762.87265053748 87 82 78
-1063.75348396538 458.393386670373 1776.11674292136 114 113 111
-1066.22276011312 458.144028718203 1784.81280303942 100 98 99
-1066.97640907008 457.594969119232 1794.49399258967 111 112 114
-1068.57643932656 457.195572504895 1803.66153486156 112 116 117
-1069.3111080073 456.646249998253 1813.30723291958 67 73 73
-1063.16298714939 454.898184319443 1826.85314227108 72 76 77
-1060.42500807847 453.749030314831 1838.39183198555 130 134 135
-1060.25157247537 453.049206459477 1848.43690114955 141 145 146
-1061.79105134165 452.648911531062 1857.49280823989 142 144 143
-1063.32279367829 452.248493084925 1866.53444929819 158 160 159
-1059.65321997611 450.948519230787 1878.42921130968 120 122 121
-1062.02865916958 450.697698565468 1886.95224830225 118 120 119
-1061.79411405662 449.996936472009 1896.88514803894 134 136 135
-1064.15505705562 449.745839739784 1905.38194511337 130 132 131
-1063.89858005899 449.044783283853 1915.27391535481 123 125 124
-1062.75681025136 448.193534008903 1925.60780818262 109 111 110
-1058.97914279826 446.892068006793 1937.30331737019 108 110 109
-1053.42869420946 445.290288169087 1949.87764688526 110 112 111
-1049.60140563084 443.98816849518 1961.48169720874 106 108 107
-1047.50528140959 442.985832039471 1972.12972255463 117 118 120
-1045.39081922226 441.983247670288 1982.74394648675 133 134 136
-1045.89776001144 441.430639103963 1991.96982327077 149 151 150
-1047.2752920872 441.027944844676 2000.72715917586 141 143 142
-1053.05734101706 441.37563002911 2007.23635840675 124 126 125
-1054.42563244871 440.972794381591 2015.97615232119 109 111 110
-1054.90044374449 440.419636988708 2025.14327631285 111 113 112
-1047.38697282292 438.514993511857 2038.24627539475 144 146 145
-1041.61497067128 436.910263344588 2050.41224031252 144 146 143
-1040.25911314236 436.056047391871 2060.3514946697 150 152 149
-1041.55839870856 435.652203480946 2068.96457526203 127 129 126
-1043.74137406874 435.398470518541 2077.13276040744 128 129 131
-1045.02578487728 434.994390389812 2085.71841257445 136 137 139
-1039.14809615935 433.388220703648 2097.69007199015 133 134 136
-1035.03282882991 432.082248956012 2108.76281427492 132 133 135
-1023.71898761824 429.573757006093 2123.1543513182 141 142 144
-1019.54558949529 428.267008054448 2134.12045100415 147 148 150
-1013.5494516853 426.659328160256 2145.87380680572 159 160 162
-1012.92902588333 425.953232418289 2155.09489346002 163 164 166
-1009.58885537286 424.79590852925 2165.52358653627 163 164 166
-1004.42093514684 423.337631009032 2176.72981030591 159 160 162
-1003.74990909747 422.630857010201 2185.8576299193 158 159 161
-997.629754506711 421.021608034375 2197.38192016422 174 175 177
-992.387765281612 419.562380176672 2208.45163176204 177 178 180
-976.216738605678 416.297885687362 2224.25757868602 180 181 183
-969.086482746041 414.536939203871 2235.99379353052 182 183 185
-961.924788468008 412.775631316792 2247.67157446958 177 178 180
-953.818821671476 410.863446743507 2259.68259791302 169 169 171
-939.282441940266 407.897549209283 2274.35465001695 198 198 200
-928.353719714091 405.532948651177 2287.38296294493 63 63 65
-919.215468577348 403.468815339095 2299.56503672733 170 170 172
-906.370071056819 400.802209607027 2313.20701378522 170 170 172
-898.071964697781 398.887665014861 2324.86394785636 176 177 179
-892.500290626498 397.424333992576 2335.32607504263 177 181 182
-892.431356237516 396.864046182804 2343.49050313428 187 191 192
-889.5829889736 395.851878586424 2352.75206002841 179 183 184
-883.943532399754 394.387697937768 2363.08926734137 187 191 192
-877.351956303398 392.772552700074 2373.74525865431 181 185 186
-876.291870237436 392.060818926867 2382.15603449847 173 177 176
-872.433949430548 390.896956652118 2391.63052421074 180 184 183
-872.272180346334 390.335461804922 2399.623849401 178 182 181
-866.515678566699 388.86981351706 2409.74534790384 185 189 188
-859.800838069885 387.253170938822 2420.17367899869 178 182 181
-853.990011871438 385.78685544217 2430.19506435323 181 186 182
-855.628614396893 385.525888494578 2437.36037749838 181 186 182
-858.197380828432 385.415582217798 2444.16643486983 180 185 181
-857.014405332924 384.702231771221 2452.35121273779 175 179 178
-853.002877837498 383.536470215446 2461.54211636358 172 176 175
-850.849255710041 382.671965989768 2470.01104236405 184 188 187
-849.62037279819 381.958031945666 2478.11121262856 181 185 184
-847.435930811935 381.093171835707 2486.52284402716 178 182 181
-843.347870454061 379.926426869098 2495.57319828561 182 186 187
-841.128285253765 379.06109468288 2503.92055719091 184 188 189
-840.78497885884 378.497268203163 2511.57930101809 179 183 184
-845.167829229048 378.68757740551 2517.58259215296 181 185 184
-846.70654730567 378.42530104711 2524.56330158549 181 185 184
-850.13946103354 378.464704932151 2530.88890501499 180 184 185
-853.571736782595 378.504088294469 2537.21332891359 171 175 176
