ply
format ascii 1.0
comment KinectMotionCapture
element vertex 753
property float x
property float y
property float z
property uchar red
property uchar green
property uchar blue
end_header
-949.383910532188 429.242977677698 2434.70935492243 148 152 151
-943.605523943995 427.666864710478 2444.75738419977 56 60 59
-938.741417087391 426.251997675048 2454.42063126907 182 187 183
-936.679939275504 425.321641390323 2463.0392243425 175 180 176
-931.772022359185 423.906250857203 2472.62123505865 29 34 28
-924.005638122126 422.00562367352 2483.14548895745 179 184 178
-927.560355374533 422.04437111853 2489.6949138565 150 154 153
-931.114423049387 422.083077590968 2496.24313174275 172 176 175
-932.770464805312 421.798378163838 2503.43338194968 157 161 160
-929.671033967098 420.705151826719 2512.20881110049 170 174 173
-930.357779589964 420.258495934953 2519.6824446565 167 171 170
-933.893710828275 420.296868260725 2526.19720584637 174 178 177
-937.428964060446 420.335199275396 2532.71070763629 161 165 164
-940.008519959588 420.211768997792 2539.5326621388 163 167 166
-941.628471496883 419.926516130712 2546.65586518266 168 172 171
-941.326859371083 419.317582574818 2554.37823195597 172 176 175
-939.096449526943 418.38495612865 2562.68544555583 167 171 170
-937.810307595016 417.613949373792 2570.66263882929 150 154 155
-940.356842313275 417.490026166683 2577.42371312912 145 149 150
-940.011287197139 416.880510247464 2585.06508560749 148 152 153
-937.726818311244 415.947241951415 2593.27217751778 148 152 153
-934.460378774936 414.851858794981 2601.74030288537 142 146 147
-934.075658344562 414.241900539157 2609.30900595068 128 132 133
-940.456160888435 414.764983929103 2614.85631284304 129 133 132
-936.181335679477 413.507276734601 2623.5353139929 124 128 127
-937.708732518798 413.220757342057 2630.48841545602 116 120 119
-929.511588183886 411.314954529737 2640.21836238218 111 115 114
-932.960945964591 411.352030036737 2646.57350922833 114 118 117
-926.664762281458 409.769535040289 2655.66780033439 137 139 136
-931.075871556864 409.968438433704 2661.72514495665 151 153 150
-925.718352976049 408.547514875322 2670.47909663727 153 155 152
-923.272000042274 407.612313278331 2678.38837714654 136 138 133
-913.952269891215 405.542874457159 2688.11977893359 118 120 115
-905.57958889857 403.635125376894 2697.52629667818 111 113 108
-883.424431223292 399.458504123782 2710.51174189513 169 171 166
-1249.92712609962 512.662669805462 1762.61201314611 241 240 236
-1242.23058524085 510.503170045271 1777.41697610232 171 172 167
-1237.09538965171 508.817284726456 1790.72973924121 184 186 181
-1236.26720203484 507.921176548927 1801.62687682981 171 176 170
-1229.34428305296 505.918398620354 1815.78649741744 174 179 173
-1227.6060456274 504.86359876376 1827.07696493106 170 176 172
-1227.5917426715 504.124702947601 1837.40295825985 147 152 148
-1232.79834413048 504.334177728994 1844.92704123634 161 163 160
-1233.63930649196 503.7530257729 1854.75866094922 164 166 163
-1231.84487447264 502.697261305759 1865.94548628701 150 152 149
-1230.03211860228 501.641208469763 1877.0985240054 161 161 159
-1229.07851763419 500.743027058072 1887.76438012444 166 166 164
-1228.1091656024 499.844587914368 1898.40118966193 175 175 173
-1221.84298039047 497.996698550704 1911.7004422963 171 171 169
-1215.54559037109 496.148402555749 1924.9416770774 166 166 164
-1209.21655908528 494.299635562383 1938.12508040907 170 170 168
-1205.50833115991 492.925155914957 1949.92634478673 179 179 177
-1205.31813378088 492.183390003047 1959.92797312356 174 174 172
-1203.34124073125 491.124839738629 1970.77838163265 169 169 167
-1203.12171028353 490.382560146603 1980.72641088096 167 167 165
-1201.9996844256 489.481763773525 1991.08171656507 166 168 165
-1201.75249613871 488.739060698953 2000.97824641352 165 167 166
-1197.92427487435 487.362764397258 2012.55827487072 165 169 168
-1194.07231623959 485.986126341458 2024.09454320592 166 170 169
-1187.51332805523 484.134094795404 2036.85352793722 158 162 161
-1183.60995732001 482.756726345181 2048.29502040695 154 158 157
-1180.57983093112 481.537400789893 2059.27529589704 152 156 155
-1179.3255969736 480.634636809727 2069.38635085163 157 161 160
-1177.15533930591 479.573139476335 2079.8807445936 160 164 163
-1171.36271213473 477.877649086168 2091.98148281592 164 168 167
-1165.54109398457 476.18176546087 2104.02878309141 162 166 165
-1162.40101257439 474.960857272258 2114.80635533139 169 173 172
-1160.14472421648 473.898145331291 2125.14165345641 155 160 156
-1153.33893819825 472.042694812599 2137.44570384538 158 163 159
-1148.31632794111 470.503822350293 2148.89494251353 161 166 162
-1145.08470372446 469.281624642492 2159.50376306692 168 173 169
-1146.38239319464 468.851853187175 2168.10611118464 170 175 171
-1143.11491279347 467.629163914986 2178.64833361362 165 170 166
-1134.34971324032 465.454693160395 2191.48333641843 169 174 170
-1120.9779425773 462.486868864246 2206.18143383765 165 170 166
-1113.96310205581 460.628594656435 2218.10065000478 171 176 172
-1101.41718007564 457.818234093851 2232.2501870173 170 175 171
-1093.41327055535 455.800423262826 2244.41714832837 158 163 159
-1082.61745715743 453.306228526308 2257.65093308669 192 198 196
-1080.98442277614 452.398113569938 2267.06420013391 74 78 77
-1051.68164428827 446.729521517727 2287.60470674315 148 150 149
-1029.66965293769 442.329358791703 2305.01583584504 179 181 180
-1015.90365004361 439.356623880998 2318.98789587763 31 33 32
-1013.19602258116 438.287928026387 2328.49129966261 56 58 57
-1000.27270993139 435.472875864356 2341.94583985113 104 106 105
-989.158768833793 432.974763595706 2354.59335171975 59 61 60
-982.650646086036 431.269962748416 2365.37536335669 55 59 58
-977.975001380571 429.882327050783 2375.39341570253 110 116 114
-973.275380964383 428.494376305218 2385.36727760623 185 191 189
-964.818054993131 426.470903969409 2396.69862091386 81 85 88
-961.934962101589 425.399930321242 2405.87862682292 205 209 212
-953.416745896261 423.375703358081 2417.09775496302 23 27 28
-949.551060493186 422.1453108324 2426.5374528648 24 28 29
-940.03208448102 419.961459734069 2437.98279830602 175 179 178
-936.115665635947 418.730387324902 2447.32948795259 92 96 95
-932.178105202323 417.499087206279 2456.63672164463 178 183 179
-932.931732975032 417.062028269191 2464.23624966863 183 188 184
-929.901682347352 415.989164307613 2473.1454050669 151 156 150
-926.852856538589 414.91606199836 2482.01995781 184 189 183
-926.624313226636 414.31953191943 2489.88044143451 173 177 176
-929.228108580834 414.199780498897 2496.74808302191 170 174 173
-931.828666404732 414.079964674446 2503.60975083356 173 177 176
-935.376206179863 414.119062428796 2510.14608038957 165 169 168
-935.116767472244 413.522099858724 2517.94910744886 176 180 179
-936.751955032268 413.243016650228 2525.10269190597 153 157 156
-938.381303846061 412.963838062444 2532.24550916232 161 165 164
-938.094054421487 412.3664926188 2539.99727210762 165 169 168
-938.752477806364 411.928056243779 2547.42128769071 170 174 173
-935.570299719279 410.853207170165 2556.05005600719 172 176 175
-936.206751608988 410.414479613481 2563.43357444281 164 168 167
-938.756105368126 410.2938657041 2570.20082864857 144 148 149
-943.225944050315 410.491416923805 2576.36628496742 140 144 145
-941.918578278405 409.734190995342 2584.30858791919 144 148 149
-938.668603712241 408.658490282403 2592.81241005166 142 146 147
-939.263016375992 408.21921041857 2600.11844460044 133 137 138
-942.750275809831 408.257350304784 2606.54361957406 111 115 116
-948.173543603212 408.613829094576 2612.39559934663 113 117 116
-944.874503193943 407.537529331711 2620.80900030648 120 124 123
-943.498769993385 406.779463430246 2628.62531050227 116 120 119
-938.220359294856 405.384276977047 2637.53249568648 111 115 114
-942.653425173473 405.58128320671 2643.63015622924 113 117 116
-937.340480167443 404.185731721348 2652.47321251268 115 119 118
-934.931829371061 403.267712257226 2660.45700115443 135 137 134
-923.710505521774 400.915887988218 2670.83620918694 128 130 127
-919.300911663179 399.67878592017 2679.27354263353 119 121 116
-894.290612797747 395.095767954092 2693.23055299289 134 136 131
-1258.37151976669 507.807017904221 1715.34887623492 121 110 104
-1263.67575929684 508.015605724684 1723.05226668658 120 110 101
-1260.37289851688 506.671545986161 1735.60822301779 147 134 126
-1247.561628076 503.619102119894 1753.42703911259 120 115 111
-1235.56187899148 500.721255456038 1770.67008220993 95 91 88
-1231.29677825196 499.220541546762 1783.52399399134 182 181 177
-1227.00568187732 497.719455298845 1796.32998309305 175 176 171
-1227.02614566679 496.99471529657 1806.72417575518 167 172 166
-1226.1646570319 496.114378708413 1817.56480955585 143 148 142
-1226.15757174333 495.389161042014 1827.90869504409 166 172 168
-1229.62321331318 495.285297019404 1836.36620653392 141 146 142
-1233.95885159545 495.336730218812 1844.35570237147 167 169 166
-1234.79844672743 494.766441684221 1854.18807436173 164 166 163
-1230.37565052312 493.263362450316 1866.75124414692 134 136 133
-1227.679808229 492.070788860214 1878.35437388005 163 163 161
-1226.71913767927 491.188885328004 1889.01161861041 164 164 162
-1223.10483346214 489.84025643141 1900.99339967082 168 168 166
-1217.70582195967 488.180288246116 1913.82925535258 168 168 166
-1214.92369051556 486.986489584607 1925.27281096747 166 166 164
-1210.35421100531 485.481323880931 1937.56557598062 167 167 165
-1204.87413620687 483.820259328642 1950.25150754601 166 166 164
-1202.9078540262 482.780974569831 1961.12772916715 161 161 159
-1199.14939952265 481.430335570317 1972.84328286108 167 167 165
-1203.36207672538 481.479610252989 1980.60598175724 159 159 157
-1200.4573108627 480.283983758338 1991.82394490734 168 170 167
-1200.20447300444 479.55495152571 2001.71419527715 162 166 165
-1192.80031751424 477.580629508418 2014.99729153844 161 165 164
-1191.61674411713 476.695379155429 2025.24407510205 162 166 165
-1185.94314165494 475.031596448291 2037.57325662493 152 156 155
-1187.40959888306 474.612819857109 2046.48930578921 150 154 153
-1187.97050997562 474.03820823584 2055.80782700901 151 155 154
-1186.72307611099 473.151998005912 2065.93687088166 149 153 152
-1182.75950621995 471.798375414038 2077.27478701907 160 164 163
-1171.56146201665 469.198537473651 2091.85182618047 164 168 167
-1164.83189615783 467.376879241586 2104.30672563262 160 164 163
-1158.07088051965 465.554837312393 2116.70316358032 170 174 173
-1158.51989559154 464.978584819873 2125.81589842908 164 169 165
-1155.3321246331 463.779010370174 2136.51167216483 155 160 156
-1151.21508786245 462.42330177643 2147.56670744292 154 159 155
-1143.43765199201 460.443973381032 2160.16176754665 164 169 165
-1143.82000379959 459.866788611507 2169.15111190637 170 175 171
-1138.72093332421 458.354282468464 2180.46765521377 168 173 169
-1132.68239097007 456.685563157705 2192.12416123943 164 169 165
-1120.21414081714 453.925224623814 2206.4320978249 167 172 168
-1114.10828812328 452.255637304441 2217.96454684281 176 181 177
-1108.89020378849 450.741584683764 2229.06173691899 168 173 169
-1097.21791263947 448.135667308396 2242.76472132117 141 146 142
-1079.06397037881 444.43754540451 2259.02342705264 160 166 164
-1069.13492845011 442.142351763374 2271.79590278764 90 94 93
-1046.25633214527 437.662988522944 2289.70467374314 145 147 146
-1026.99554373456 433.806667738815 2305.99491326537 160 162 161
-1014.14259635864 431.041635619833 2319.59340585875 117 119 118
-1001.24212464244 428.275987682755 2333.10481158551 180 182 181
-992.931073420462 426.289946752192 2344.71643722775 195 197 196
-981.800068988207 423.835377265477 2357.34515651013 174 176 175
-978.06596589537 422.628748616509 2367.03450880197 185 189 188
-977.104404328662 421.890109876088 2375.61839825703 172 178 176
-973.331460226176 420.682967004441 2385.23616021737 172 176 177
-967.669698134519 419.163354075517 2395.51567395497 191 195 198
-963.851693589941 417.955669123541 2405.04989429293 174 178 181
-957.202874142053 416.279259718162 2415.58218121601 183 187 188
-948.649614243997 414.290201608784 2426.74743364122 178 182 183
-934.428302847504 411.363771505738 2439.89551897277 181 185 184
-930.499966701002 410.154678508114 2449.22690020643 185 189 188
-928.43355444577 409.257726119852 2457.84646320053 160 165 161
-929.179619456157 408.829192992738 2465.43464581876 182 187 183
-928.029047188615 408.088107775113 2473.67017444837 179 184 178
-924.973826188806 407.034347327945 2482.53878177858 160 165 159
-923.793271922871 406.292840414869 2490.71954548146 171 175 174
-926.39147763771 406.176250151659 2497.57785733074 170 174 175
-930.885019573151 406.372144783334 2503.78641008 170 174 175
-933.479323014733 406.255456349128 2510.63751541565 171 175 176
-937.022262327546 406.295012653889 2517.16552177907 170 174 175
-939.611368092826 406.17822539515 2524.00703792231 163 167 168
-942.197013831411 406.061347037687 2530.84266729469 167 171 172
-940.95642867011 405.319031142591 2538.9122757209 169 173 174
-936.830708176522 404.107403033221 2547.87986881364 170 174 175
-933.642159522532 403.051925659256 2556.5027459783 162 166 167
-935.233458894685 402.778223197303 2563.57672592198 150 154 155
-940.66256673596 403.130040743443 2569.43804487176 142 146 149
-944.171750480127 403.169058443161 2575.90380662398 136 140 143
-944.789608839266 402.738729034724 2583.25565367055 135 139 142
-944.434227809704 402.151850828655 2590.8852579009 143 147 148
-946.000290203356 401.877788755213 2597.91271429995 132 136 137
-951.429976603098 402.229535636959 2603.77507607389 113 117 118
-955.895493760832 402.424830649568 2609.93190583247 109 113 114
-956.483230901615 401.994137057595 2617.22774070848 104 108 107
-954.148416881994 401.093715246709 2625.35262062428 105 109 108
-954.715280058398 400.662734269365 2632.61048229754 101 105 104
-960.143039971847 401.014406507854 2638.46927846536 119 123 122
-955.823932870898 399.800470045048 2647.07999993599 147 152 148
-939.765999344167 396.707274540519 2658.91535617 139 141 136
-910.945275790537 391.577726259638 2674.15964940814 173 175 170
-1274.43702028651 503.454412069782 1673.79391863946 76 69 63
-1266.08223213907 501.220868575136 1689.48077766962 109 98 92
-1255.11646389249 498.529302578137 1706.57222936107 125 112 106
-1251.83237565172 497.209855234794 1719.17011328225 128 114 105
-1252.82524250659 496.652810751873 1729.2883626656 128 111 103
-1250.36231847754 495.48532781495 1741.32741681967 120 103 93
-1244.42837444413 493.707295324011 1755.25822471899 110 100 98
-1235.87122534749 491.471031892631 1770.57208714939 94 89 86
-1233.33192908984 490.302519529232 1782.46986504517 171 170 166
-1226.43903510621 488.370591930176 1796.70601327404 155 156 151
-1226.45497184928 487.659290509062 1807.09642538372 142 147 141
-1225.58881371174 486.795140316198 1817.93333871103 141 148 141
-1227.31838455263 486.388766427111 1827.33703150609 152 158 154
-1231.65538843136 486.440304521102 1835.32907046837 147 153 149
-1235.99235004352 486.491797795275 1843.32101821645 139 141 138
-1237.7061660373 486.085088575233 1852.6956341359 139 141 138
-1232.40690859115 484.456415832315 1865.72386266323 142 142 140
-1231.46360356223 483.591062607344 1876.41852702331 132 134 131
-1228.74815226306 482.419976181165 1887.9915496258 149 151 148
-1224.25252512132 480.943022119869 1900.42862644101 161 163 160
-1217.96888685717 479.160118199802 1913.71532223529 152 154 151
-1215.18267177185 477.988048780403 1925.1579017345 158 160 157
-1213.25884623041 476.968501154866 1936.11763998219 166 168 165
-1207.77733368234 475.337309078858 1948.81041479605 157 159 156
-1205.81143150317 474.317168077206 1959.69258799954 160 162 159
-1203.82706307915 473.296766555408 1970.54072007012 146 148 145
-1207.15633862915 473.193405873863 1978.74758096805 149 151 148
-1205.14282762447 472.172572381233 1989.54198462005 143 145 142
-1202.21936154562 470.998534311392 2000.73204676313 156 160 159
-1194.81196930347 469.059575253921 2014.01982444084 156 160 159
-1191.83995840429 467.88491298819 2025.11991186122 156 160 159
-1187.05634017793 466.404023572306 2037.02613715329 138 142 141
-1191.21123204506 466.452532591315 2044.6823280371 146 150 149
-1197.16119646553 466.806948106365 2051.50237840384 162 166 165
-1199.51989623134 466.549400655154 2059.99260565153 135 139 138
-1190.16769696268 464.30244364879 2073.84101016724 132 136 135
-1176.26773227986 461.289827613041 2089.66949625849 151 155 154
-1165.02431406975 458.735715790937 2104.17683516878 159 163 162
-1158.25759125312 456.946350219192 2116.57310729406 158 162 161
-1159.60962526485 456.534309914084 2125.28073705902 168 173 169
-1156.41903896154 455.356675540652 2135.97793070946 155 160 156
-1154.11532632474 454.331854518862 2146.23740154868 152 157 153
-1142.69801524113 451.775524252714 2160.42425264698 160 165 161
-1142.16537764994 451.056298112516 2169.80335347085 165 170 166
-1136.14688830092 449.417978669834 2181.50588251264 164 169 165
-1129.18571308637 447.626083355756 2193.54376050042 165 170 166
-1117.61953479557 445.067876968572 2207.45625349069 165 170 166
-1113.33645968008 443.734705599045 2218.2126914213 168 173 169
-1109.02949318851 442.401227571932 2228.92509653972 170 175 171
-1101.942996543 440.607779031259 2240.73151424937 125 130 126
-1076.42682715794 435.74897288628 2260.02010332635 93 99 97
-1057.2752979139 431.961997467863 2276.53214398798 102 106 105
-1038.05846302989 428.17427027946 2292.92334536138 26 28 27
-1024.31867488765 425.305470607908 2306.97487463278 44 46 45
-1009.60399533895 422.282776229041 2321.30192086759 174 176 175
-999.468555959084 420.026027049012 2333.70685939285 184 186 185
-990.221467140532 417.922160550668 2345.67630799056 176 178 177
-980.9374237713 415.817833684524 2357.57765199385 183 185 184
-978.128342439881 414.786614331483 2366.90573360816 178 182 181
-976.231983707672 413.908514293546 2375.84372531805 179 185 183
-971.520832424223 412.57001271654 2385.81125027099 191 195 196
-961.180966685571 410.31078679091 2397.83896242065 168 172 173
-952.672382989345 408.357909624296 2409.09726289917 182 186 187
-949.749996476091 407.325254242737 2418.21652379489 162 166 167
-944.93265709245 405.985434625047 2427.98835312059 131 135 134
-937.273302405423 404.184907764024 2438.73955615623 107 111 110
-932.404196700461 402.844455092499 2448.41598741214 100 104 103
-927.511320475762 401.503737866551 2458.04811654999 118 122 121
-926.367149101842 400.776727307165 2466.30015438189 165 170 166
-923.320468805831 399.742512430532 2475.1903473907 123 128 124
-924.038223176964 399.322219270013 2482.72893951791 122 127 123
-923.800559012037 398.748268825357 2490.57893416349 172 176 175
-927.345382857421 398.788445844044 2497.11059318754 172 176 177
-931.839219109736 398.982168778559 2503.31903416371 170 174 175
-934.433105250786 398.868716019714 2510.17034504393 168 172 173
-937.023781101234 398.755208413926 2517.01573512117 166 170 171
-939.610982472916 398.641611383838 2523.85521235108 162 166 167
-944.104964495868 398.835293624746 2530.06340494459 167 171 172
-941.907539074478 397.953338882175 2538.44652096524 168 172 173
-937.778994861403 396.763826168854 2547.4155712926 168 172 173
-934.587970119478 395.72776871665 2556.03973446329 156 160 161
-938.098385014216 395.767395656757 2562.50794373726 147 151 152
-942.569660678681 395.960744727844 2568.67427500902 142 146 149
-947.042663820685 396.154070012748 2574.84428051771 135 139 142
-951.517545627372 396.347399203646 2581.01774240767 133 137 140
-951.168491458335 395.771954289545 2588.66242112102 141 145 148
-951.774859867586 395.350135316856 2595.99569532497 133 137 140
-953.340544858541 395.08199419507 2603.0247424116 114 118 119
-959.745870541886 395.58281607765 2608.61100907235 114 118 119
-966.158305274809 396.083707842869 2614.21037158578 108 112 113
-971.606251087203 396.430847239148 2620.10442593385 111 115 116
-982.896160438615 397.7010915607 2624.33121289563 113 117 116
-988.360854019066 398.048404538685 2630.2561216404 162 166 165
-981.148400399471 396.395363227897 2639.75830566227 188 193 189
-1286.75514891151 496.088134137447 1666.73959755956 82 75 69
-1270.70380230637 492.547046732083 1686.91258341659 93 82 76
-1265.74139862917 490.952742062936 1700.57068261158 107 94 88
-1258.17325959566 488.908579840214 1715.64598012302 111 97 88
-1249.70827381325 486.714079827695 1731.14190682803 115 101 92
-1242.9277868587 484.818807338633 1745.59581503469 106 89 81
-1242.15439705359 483.972192179328 1756.6086193853 102 92 90
-1237.04413945255 482.375936668865 1769.994201615 75 70 67
-1236.2331294785 481.528799666442 1780.93765869099 156 155 151
-1231.93901958818 480.081776909651 1793.7543634282 136 136 134
-1231.9599549609 479.384092211092 1804.15755952225 135 140 136
-1232.83710106704 478.836120990571 1814.0662101303 127 133 129
-1234.57476160612 478.437979206005 1823.48725692299 122 131 126
-1238.92089969511 478.489655614827 1831.49613695645 140 146 142
-1239.77342823638 477.941313734141 1841.35889566787 117 119 118
-1238.86598440073 477.092777267084 1852.12457245278 120 122 121
-1235.31500481695 475.793968242516 1864.2372967016 156 156 156
-1234.3722177647 474.944937046367 1874.93782209587 147 149 148
-1236.04954397949 474.545864448649 1884.2476231576 157 161 160
-1228.0399442876 472.495867336021 1898.50923940601 152 156 155
-1221.75602859432 470.745553056848 1911.80522535468 143 147 146
-1216.32336922808 469.144963507348 1924.59654865692 152 156 155
-1217.04837248103 468.594792795031 1934.22471940268 156 160 159
-1211.56714053128 466.993560213287 1946.92651550017 137 141 140
-1206.05704718256 465.391950711625 1959.5751168784 149 153 152
-1204.06893775555 464.39062167513 1970.42210406422 138 142 141
-1207.39634698264 464.290100836567 1978.62689069934 140 144 143
-1207.15982478957 463.588766823731 1988.55547799318 135 139 138
-1206.90978762075 462.88720905184 1998.45964573898 133 138 134
-1201.28900952686 461.28412825115 2010.9042352525 156 161 157
-1197.42762439369 459.981133537924 2022.44531265664 162 167 163
-1191.75153874306 458.37733689078 2034.78796622571 139 144 140
-1193.22108630096 457.975330273866 2043.71474215693 141 146 142
-1196.47882525326 457.873791494642 2051.79058210198 152 157 153
-1197.03502872192 457.321235864864 2061.10758209267 145 150 146
-1194.87842674309 456.317595737246 2071.64398578111 145 150 146
-1181.87884473064 453.509723025866 2087.07470678231 136 141 137
-1176.05586054401 451.903977641053 2099.14710539501 139 144 140
-1168.39466468315 449.997155890217 2111.97775634386 156 161 157
-1167.04077555496 449.142551603071 2121.92051416822 160 165 161
-1162.04192921194 447.686161857064 2133.43826330885 167 172 168
-1155.19964696583 445.928637227777 2145.7046388795 164 169 165
-1143.7763697924 443.418566978991 2159.8944286212 153 158 154
-1140.50852148041 442.261884569179 2170.45632830443 154 159 155
-1134.48225901636 440.653591170186 2182.15359064038 163 168 164
-1130.25424381207 439.345850230036 2193.01894125014 163 168 164
-1121.42721662118 437.285393479667 2205.77401395216 164 169 165
-1116.22861449545 435.826477313198 2216.92361606331 170 175 171
-1115.59156118214 435.119786527669 2226.11444699636 161 166 162
-1101.15702977823 432.154968857328 2240.97414146962 90 95 91
-1065.50455647937 425.72695415308 2264.41263142188 171 177 175
-1037.11204219913 420.502089028242 2284.64591857728 175 179 178
-1024.3163954758 417.835959399557 2298.37953959054 194 196 195
-1014.2456934716 415.621001581422 2310.91610949526 176 178 177
-1005.06101856175 413.556189930544 2323.01209326533 123 125 124
-993.985868808351 411.189672135392 2335.77052273681 113 115 114
-986.58088657134 409.425216040007 2346.99990605758 118 120 119
-978.214729354977 407.509694908976 2358.53138853682 114 116 115
-975.397936609779 406.497757427888 2367.85108592451 151 155 154
-971.630345558142 405.334876630412 2377.49200366641 105 111 109
-965.975102186385 403.870356577287 2387.80007411542 179 183 182
-956.55533187765 401.802675234463 2399.46281163374 152 157 153
-947.098634020155 399.734544924506 2411.0574976475 192 196 195
-946.975778963048 399.173343546408 2419.12298532038 179 183 182
-943.088632490761 398.009016961132 2428.54307983685 187 191 190
-936.361027847469 396.392109749206 2438.94785575964 188 192 191
-928.663149887321 394.624038390922 2449.63796753575 186 190 189
-924.702831792553 393.458812777616 2458.92321574932 176 180 179
-923.551681204172 392.74573789795 2467.16660828901 186 190 189
-922.386928962425 392.032489970199 2475.38493287062 182 186 185
-922.154912225213 391.469942568547 2483.24874330196 168 172 173
-923.806879629995 391.208983396206 2490.43813498955 169 173 174
-926.40144623908 391.098768265322 2497.29217524196 170 174 175
-930.893209925246 391.290333828276 2503.4956513799 168 172 173
-931.581374846157 390.878261713183 2510.98229535972 164 168 169
-934.166209656707 390.767891918762 2517.81839055081 162 166 167
-938.656002787027 390.959393392804 2524.01822320461 164 168 169
-943.147453036746 391.150864703272 2530.22159877608 166 170 171
-941.901983820828 390.43659470034 2538.29065853133 167 171 172
-936.811521435687 389.118212558579 2547.5666115968 165 169 170
-936.492725530567 388.554528382411 2555.2704774744 156 160 161
-939.043851405192 388.443699938659 2562.04443786475 150 154 155
-945.438623182158 388.936943585662 2567.6090150323 141 145 148
-950.877570983218 389.279232120518 2573.48506164098 138 142 145
-956.320805072643 389.621525493079 2579.36949721375 136 140 143
-957.906623006697 389.359638274946 2586.43694888874 133 137 140
-956.58585899864 388.644388525035 2594.36773741532 131 135 138
-959.124235187488 388.533389832911 2601.11769336916 131 135 138
-965.53698167964 389.026786588246 2606.71537535598 121 125 126
-976.810259084801 390.275869301576 2610.90520939315 121 125 126
-988.103730783753 391.525210995004 2615.13175805296 123 127 128
-1006.22994018743 393.83282384445 2617.43910160061 148 152 153
-1013.67414783198 394.47803951216 2622.86418021453 189 193 194
-995.755395785741 391.192509619624 2635.44941594327 151 155 154
-1302.97597544856 487.876955786928 1679.29877381438 69 59 57
-1287.72280283992 484.547072436382 1698.8879570859 70 59 55
-1269.82767288904 480.77503043215 1719.83003506457 87 74 66
-1257.03714409642 477.885089216687 1737.73586682794 84 69 64
-1255.4179505723 476.90770605581 1749.26855861137 66 54 54
-1250.32191058214 475.341315561484 1762.6897749066 71 62 63
-1250.39314024574 474.657803545935 1773.18973339228 97 93 92
-1246.98227570337 473.385221706668 1785.56854604772 126 125 123
-1246.15363658919 472.554035528796 1796.48437667455 98 103 99
-1245.30937727945 471.72263934032 1807.37141576101 119 125 121
-1246.19185303516 471.185570705043 1817.29264296066 93 102 99
-1247.06388169452 470.648355507127 1827.19461197209 72 78 76
-1246.1778606211 469.816390003801 1838.0046723608 137 139 138
-1245.27614893127 468.984215497818 1848.78581199546 137 139 138
-1243.48243454152 468.00451593521 1859.99683151698 121 123 122
-1242.54798060014 467.171907216855 1870.71762160832 141 143 142
-1241.59778232591 466.339085163145 1881.40939084835 128 132 131
-1236.23061514061 464.769218683505 1894.33040528402 102 106 105
-1229.95293855898 463.051577183984 1907.64769149453 119 123 122
-1224.52685527522 461.480964812899 1920.46012418484 146 150 149
-1225.26108674968 460.941903757493 1930.10810397716 134 138 137
-1221.55724874565 459.665515578475 1941.94694040777 100 104 103
-1215.16962941104 457.946513214794 1955.06110837854 110 114 113
-1214.07879841169 457.111865086995 1965.49367927364 137 141 140
-1212.97209242294 456.277009454061 1975.8969907695 130 134 133
-1216.30298591603 456.179427338455 1984.10856509707 141 145 144
-1215.17098418937 455.344226166492 1994.46524921095 123 128 124
-1214.02307193757 454.508817066234 2004.79260844164 127 132 128
-1208.38641699481 452.935512548436 2017.21695189786 144 149 145
-1201.82476378473 451.214267862864 2030.01086979172 160 165 161
-1197.92310410628 449.935341210911 2041.48511274596 147 152 148
-1197.59178247783 449.246489030395 2051.24310015711 135 140 136
-1199.04651195804 448.852637462655 2060.14507534 140 145 141
-1199.59202249955 448.311063212808 2069.44520717953 140 145 141
-1197.41932863509 447.326407543896 2079.95822823213 132 137 133
-1188.90242002009 445.308016251935 2093.29631547749 135 140 136
-1183.06362744914 443.732164336661 2105.34812494817 144 149 145
-1177.19556879946 442.155914023302 2117.34649320481 155 160 156
-1167.66836648721 439.988572442738 2130.89647304203 165 170 166
-1157.19263366719 437.67301416471 2144.77266408064 164 169 165
-1148.49528361646 435.652404002087 2157.77821938656 154 159 155
-1142.49532368301 434.074525761523 2169.53350759682 155 160 156
-1138.29216212357 432.79184820794 2180.45160143658 165 170 166
-1132.2365994359 431.213280150037 2192.10441860793 160 165 161
-1125.23684309667 429.486617286982 2204.09045141705 169 174 170
-1119.12173993847 427.907315291062 2215.6335421037 167 172 168
-1109.30587223614 425.736437484167 2228.65155027351 172 177 173
-1085.66108201737 421.347602375144 2247.29317404562 147 152 148
-1050.89074850061 415.183671410428 2270.31869607938 171 177 175
-1027.07345348238 410.792783031547 2288.64243463195 171 175 174
-1011.48613540286 407.731821061792 2303.4683352731 123 125 124
-1001.39087485266 405.557590383904 2315.971480809 123 125 124
-993.107520856535 403.67867097611 2327.66626041302 123 125 124
-983.862850034936 401.651427891244 2339.66319843539 127 129 128
-979.22297525296 400.363401256011 2349.7769927485 147 149 148
-975.48879818794 399.223024904457 2359.48613246485 177 179 178
-971.733423033859 398.082417400855 2369.15571127666 195 199 198
-965.159928853347 396.497597820645 2379.85357385271 178 184 182
-959.490782150682 395.060411522158 2390.14429338342 185 190 186
-950.055495131761 393.030821901856 2401.79045207837 185 190 186
-940.583501039363 391.000825680588 2413.36847325939 184 189 185
-936.699320702206 389.858647429988 2422.80068351342 174 178 177
-936.548709779051 389.308434749164 2430.81792338198 189 193 192
-933.566709323865 388.313822381218 2439.83948796254 169 173 172
-928.683645563657 387.022859260292 2449.50462612649 169 173 172
-924.718993221084 385.879664540314 2458.7890322701 181 185 184
-924.508800254522 385.328709117076 2466.69646654619 169 173 172
-923.342271349065 384.629457897938 2474.91573262704 169 173 174
-925.001903968524 384.37452195238 2482.12103335329 169 173 174
-924.760030311286 383.823166192867 2489.97008067717 169 173 174
-927.354209475097 383.716176013735 2496.82437815861 170 174 175
-930.895672568746 383.757354450394 2503.35015729552 167 171 172
-932.533249001714 383.502121698363 2510.51480342002 164 168 169
-934.16480552716 383.246777520323 2517.66884857355 163 167 168
-936.74492503119 383.139619035553 2524.49673292181 166 170 171
-938.36609280943 382.884136375783 2531.63162963193 167 171 172
-941.895194578911 382.925127913162 2538.13461783681 164 168 169
-941.591111968194 382.372976894906 2545.86901240918 162 166 167
-942.235384767293 381.968979513307 2553.2773590234 154 158 159
-942.871243536149 381.564875474321 2560.67019862877 147 151 152
-947.346727781821 381.753974996341 2566.84349656254 136 140 143
-954.714287376968 382.388158077354 2572.12428771472 137 141 144
-960.16203725949 382.725682110934 2578.01559441228 137 141 144
-961.750981173759 382.469801919907 2585.09060177508 133 137 140
-962.366744021014 382.065434573216 2592.4464021368 133 137 140
-964.910887374288 381.957749777041 2599.20846575972 139 143 146
-970.361377347814 382.295317559383 2605.10432089608 137 141 142
-978.729577997607 383.078234426335 2610.15540138094 136 140 141
-995.860907782147 385.197297240728 2612.6910783339 147 151 152
-1014.97504026926 387.613710096045 2614.73280736815 170 174 175
-1022.4306725769 388.248838504244 2620.17636880996 187 191 192
-1276.69156868149 469.728605498035 1758.74130265213 96 95 93
-1266.37453226042 467.324653003123 1774.99808680777 100 100 100
-1264.70233520413 466.365481499261 1786.43877206997 101 105 104
-1263.01191174043 465.406081875582 1797.84586704751 80 86 84
-1263.9177448944 464.880135076369 1807.81339733073 73 79 77
-1264.81313053263 464.354051865389 1817.76167170697 81 87 85
-1256.95685310347 462.381896214542 1832.3291883575 228 232 231
-1251.69047694189 460.84315006309 1845.44493439415 121 123 122
-1256.91567908864 461.039486761713 1852.99927652412 127 129 128
-1258.63140029399 460.657301717919 1862.3847714154 144 148 147
-1259.45994599026 460.130369948746 1872.20985978025 134 138 137
-1249.71052585495 457.867273034232 1887.43764843099 99 103 102
-1250.50232144992 457.339882408588 1897.19500867555 106 110 111
-1246.86734140711 456.088844302555 1909.16811074852 117 121 122
-1243.20894578583 454.837549100163 1921.09756574786 101 105 104
-1237.75497356808 453.296454061906 1933.86808633986 97 101 100
-1228.7239055934 451.176066784478 1948.34466777883 99 103 104
-1229.426125629 450.647559172274 1957.9369463469 104 108 109
-1226.55861064322 449.539782725108 1969.24983902193 109 113 112
-1231.68928648134 449.734879316868 1976.62995712054 115 119 118
-1226.11447167649 448.192329164381 1989.17728434883 142 146 145
-1222.29785353529 446.939051013331 2000.8156472341 137 141 140
-1217.56261235642 445.540653043535 2012.83565366083 115 120 116
-1215.48973747263 444.576496057791 2023.53792015191 109 114 110
-1211.6031317704 443.322356332996 2035.04730406675 130 134 133
-1204.99643864823 441.633304938225 2047.76756231797 144 149 145
-1199.25799425735 440.088723606609 2060.01383834846 150 155 151
-1199.80076690804 439.558223116852 2069.31226482274 145 150 146
-1200.33276607445 439.027586949987 2078.59083609544 124 129 125
-1201.75787611619 438.641747413684 2087.44074512212 123 128 124
-1196.83739576101 437.241076672978 2099.11937948137 126 131 127
-1190.07711527368 435.550115067082 2111.55709238638 133 138 134
-1178.74557431239 433.133827037631 2125.94380404212 146 151 147
-1161.91389145657 429.846951179692 2142.64275262077 154 159 155
-1150.48517589617 427.429494912627 2156.85039116907 157 162 158
-1142.65912765683 425.591648357989 2169.39859086305 152 157 153
-1141.19069049724 424.76875676199 2179.140210666 152 157 153
-1136.96302632225 423.510491575031 2190.02058104831 166 171 167
-1128.13246501576 421.526462679463 2202.79264159083 164 169 165
-1122.01633114187 419.97732568354 2214.34240361563 173 178 174
-1108.52425575662 417.266895159738 2228.89714674799 163 168 164
-1083.02700360175 412.669168167675 2248.29904010395 133 138 134
-1048.23703905107 406.619024771581 2271.32217118384 167 173 171
-1019.79277946852 401.583666355752 2291.51727799189 175 179 178
-1003.26296776357 398.434516619316 2306.69804049136 176 178 177
-991.299714845876 396.010653054553 2319.92064063295 183 185 184
-984.848553077408 394.457502991727 2330.85301850095 180 182 181
-975.585960299723 392.468332260774 2342.82844394594 180 182 181
-971.858591509409 391.350116758846 2352.5567695581 177 179 178
-969.970001740365 390.522161959102 2361.52412954486 174 176 175
-967.13396133344 389.548751908267 2370.82001299207 179 183 182
-959.616263408817 387.848714209339 2381.86146360567 172 178 176
-953.934507529953 386.438871998397 2392.1372155117 179 184 180
-948.226199645799 385.028711297105 2402.36403766524 183 188 184
-938.745170442713 383.036884904731 2413.93742435361 175 180 176
-935.791978137149 382.062061801453 2423.01741917851 182 187 183
-933.759059807985 381.232362019297 2431.71880789236 176 180 179
-929.829306286204 380.111734707002 2441.07368158095 182 186 185
-925.877967490863 378.990816155344 2450.38927268063 181 185 184
-923.791527825918 378.16049985317 2458.99153626139 174 178 179
-925.465726368088 377.911630952415 2466.22595510671 190 194 195
-925.243103753602 377.371836073552 2474.11388520821 174 178 181
-925.009465417385 376.831907249313 2481.9815151101 174 178 181
-926.660993823944 376.58275546615 2489.17415437664 169 173 176
-928.306666357195 376.333530719634 2496.35600168357 168 172 175
-931.848103554195 376.375241107631 2502.88189316089 163 167 170
-934.436901539081 376.271437228597 2509.72674761791 163 167 170
-935.115707302328 375.876521406713 2517.2013376632 163 167 170
-937.695409089715 375.77260182376 2524.029427761 164 168 171
-938.359972843 375.377510867965 2531.47777148849 164 168 171
-940.930578313996 375.273476502938 2538.28909728565 158 162 165
-940.622210904092 374.732596826569 2546.01950510746 158 162 165
-944.142159297499 374.774026397114 2552.50579031181 154 158 161
-946.700442104431 374.669836522402 2559.29440571942 145 149 152
-953.104914204332 375.148135454819 2564.87232935525 135 139 142
-958.552866411331 375.480875293814 2570.76206521148 137 141 144
-963.04019667769 375.667975760665 2576.95654897737 138 142 145
-962.698378991687 375.126714878109 2584.6248167658 136 140 143
-966.215657297136 375.168095572834 2591.10617649389 136 140 143
-968.7632446447 375.063731209395 2597.87557277446 136 140 143
-975.188273170863 375.542255078345 2603.4913710669 134 138 139
-983.563251846644 376.312354708146 2608.55106316114 146 150 151
-997.786471892438 377.957102828152 2611.94046206506 163 167 168
-1012.03761785723 379.602209382801 2615.38082536722 182 186 187
-1015.58835881187 379.64397147159 2621.92384369757 173 177 178
-1283.51453927822 456.12753860045 1839.10858192709 124 128 129
-1285.26697201103 455.753990195888 1848.56419322729 104 108 109
-1276.45572171431 453.67697439047 1863.45810215094 128 132 133
-1269.36705703194 451.883403031006 1877.37579905368 112 116 117
-1278.12498481962 452.645065360096 1883.13777130897 90 94 97
-1266.2495144632 448.16506384233 1929.74280521665 90 94 97
-1252.78331997557 445.375238598324 1946.43607165506 89 93 96
-1251.72576596604 444.573815802492 1956.93983656063 92 96 97
-1252.43514381076 444.056397191385 1966.548614342 99 103 104
-1241.52900023487 441.691488213123 1981.73316007146 102 106 107
-1235.94222240505 440.178778145206 1994.26745866421 103 107 108
-1235.6979855348 439.518511296668 2004.1947112735 103 107 106
-1237.23364395559 439.142403001908 2013.25086530287 97 101 102
-1232.47598267654 437.771035290111 2025.23776565289 94 98 99
-1218.70010001262 434.97753265527 2041.36035323841 103 107 106
-1214.77705639474 433.747571422114 2052.80999217305 130 134 133
-1204.51773752299 431.521838909472 2067.1112204098 142 146 145
-1205.05347907543 431.002364864593 2076.40003129944 140 144 143
-1201.96089649774 429.913793313771 2087.30425474038 129 133 132
-1204.28100234972 429.678500877865 2095.73069754819 117 121 120
-1200.24658894516 428.447219566037 2106.97511017716 114 118 117
-1191.64695450938 426.504218517643 2120.18372101222 137 141 140
-1173.91459564577 423.137717424303 2137.31701660245 143 147 146
-1159.76285744205 420.339748090483 2152.74699413572 151 155 154
-1151.9439045113 418.537511362524 2165.31895202616 153 157 156
-1148.65797689246 417.446613637766 2175.8673834218 147 151 150
-1139.86218462499 415.501281120614 2188.71452314102 162 166 165
-1127.36522011563 412.985982465608 2203.04283324456 168 173 169
-1115.73825999189 410.612509829061 2216.8990907312 171 176 172
-1105.90381624402 408.523314491804 2229.90800206589 170 175 171
-1076.71030038667 403.442626953567 2250.82625793368 155 160 156
-1046.50155266497 398.218384253846 2271.94894663355 169 173 172
-1016.19613355468 392.992990157071 2292.89349278613 174 178 177
-1000.5759316408 390.046042784843 2307.69320067505 178 182 181
-988.601531214307 387.668435125303 2320.90920864985 179 183 182
-979.361840142989 385.717821262142 2332.93834937467 176 180 179
-971.012948970442 383.909281051129 2344.53375868907 178 182 183
-967.274948927037 382.813007764608 2354.24912997986 177 181 182
-968.167549326379 382.42926776398 2362.12028812247 176 180 181
-963.461943458413 381.190039264792 2372.12736138366 175 179 180
-957.799290628592 379.807917733001 2382.4465834745 176 180 181
-952.110099651108 378.425480645659 2392.71690218212 178 182 181
-948.265335624046 377.32793924134 2402.23553370393 178 182 181
-940.652089009134 375.659659865523 2413.11080326872 177 181 180
-935.821317588743 374.418912228992 2422.88772168016 177 181 180
-930.966623465776 373.177880066314 2432.62055631965 178 182 183
-928.910148077573 372.364598664349 2441.28355666526 178 182 183
-925.895568030855 371.408442719865 2450.25626186003 177 181 182
-924.748962137457 370.737494290708 2458.52017699618 173 177 178
-923.588531529576 370.06635049742 2466.7591114573 171 175 176
-923.360542761078 369.537808122978 2474.64055609087 175 179 180
-925.01584279501 369.294624430651 2481.84192679903 172 176 177
-928.562414151842 369.336926138782 2488.37743875428 168 172 173
-932.108274704772 369.379220075081 2494.91164107449 163 167 168
-933.751486466992 369.135925713114 2502.09024172371 162 166 167
-934.436315183098 368.749721946776 2509.57852897684 163 167 168
-935.112714733276 368.363418498084 2517.05128348139 161 165 168
-936.735591515148 368.119852170778 2524.19290685481 161 165 168
-938.352861936887 367.87625086036 2531.32370434629 163 167 170
-939.964082863349 367.632546773392 2538.44384905059 162 166 169
-942.528455856582 367.531690723373 2545.24466797236 159 163 166
-946.049611400588 367.573694857059 2551.73334612995 150 153 158
-951.49283226868 367.901520002059 2557.61340648298 145 148 153
-955.978141609811 368.086504220348 2563.80303275427 146 150 151
-959.501173247523 368.12853219492 2570.29516855948 145 149 150
-963.023579396825 368.170553182786 2576.78615187649 146 150 151
-964.612028651637 367.926580815153 2583.86433464979 141 145 146
-970.066344688378 368.254571936761 2589.76434670828 133 137 138
-971.648312150498 368.010522960755 2596.83058524603 126 130 133
-977.106522785099 368.33856138263 2602.7377744038 143 147 148
-986.455884895317 369.238802214404 2607.51437634198 165 169 168
-1002.63158842881 371.140691522416 2610.34197311068 182 186 185
-1010.07137353308 371.75529275508 2615.74971145645 188 192 191
-1022.39855154586 373.085426459081 2619.78743519452 158 163 159
-1221.86735659773 425.417030236301 2059.11507265423 209 213 212
-1207.97010565432 422.676498167525 2075.03037123383 117 121 120
-1207.59131021203 422.028474090908 2084.71382777321 109 113 112
-1211.72933678426 422.078107156316 2092.33933833134 107 111 110
-1214.95963934298 421.988184962262 2100.36821110336 109 113 114
-1210.00910095117 420.641921798089 2112.00792477019 102 106 107
-1198.66254993987 418.318120845017 2126.39484303706 112 116 117
-1180.89268799388 415.016455187243 2143.47866101785 127 131 130
-1165.79735058971 412.132924021308 2159.2627609738 130 134 133
-1150.64713941119 409.248776387531 2174.94524843142 143 147 146
-1137.27193207348 406.643292745811 2189.7464929535 155 159 158
-1124.76344634324 404.176926925353 2204.06832857512 171 176 172
-1109.45422359326 401.290870963576 2219.45829514914 167 172 168
-1097.76618277814 398.963046931353 2233.2159416198 167 172 168
-1070.38785441934 394.259289423259 2253.3559060609 169 174 170
-1039.23396207644 388.995466215129 2274.84370243365 172 176 175
-1010.74965662611 384.149745516235 2295.02218568307 176 180 179
-996.961756814501 381.539402031171 2309.06244784834 176 180 179
-987.751242847507 379.627380484345 2321.15736035736 178 182 181
-980.357766838188 377.994586336089 2332.44749927098 177 181 180
-972.932328050172 376.361385682125 2343.67923480984 178 182 183
-968.263437901958 375.147333236757 2353.76191018753 178 182 183
-964.501509910643 374.072878721766 2363.43933074627 178 182 183
-960.717938480811 372.998142430648 2373.07736458592 179 183 184
-955.046557616274 371.643406240642 2383.38876958447 180 184 185
-950.283404099754 370.428282123692 2393.29725093406 179 183 184
-946.431886438997 369.352751498675 2402.81008040173 179 183 184
-941.622108728058 368.137082335071 2412.63264745546 179 183 184
-935.849747492808 366.781159362747 2422.75797426235 178 182 183
-930.050611815317 365.424890744345 2432.83445829236 178 182 183
-927.048387134497 364.488285172059 2441.83576646835 178 182 183
-924.969954097732 363.691479782786 2450.46283314037 174 178 179
-923.818693021955 363.034453813185 2458.72287757117 172 176 177
-920.764072786398 362.097237238469 2467.62763703379 170 174 175
-920.529467303177 361.579930168575 2475.50029101806 173 177 178
-923.126324487408 361.482641187319 2482.36243122322 171 175 176
-926.66893404435 361.525416667975 2488.89079918007 166 170 171
-931.161147928977 361.708303403015 2495.09249340715 162 166 167
-931.849413785197 361.33077166767 2502.58971005111 162 166 167
-932.529264065615 360.95314525892 2510.07142044749 164 168 169
-932.246695866492 360.435295668424 2517.85569911064 162 166 169
-937.684856536525 360.758202936345 2523.72497392737 161 165 168
-940.25788016161 360.660696659541 2530.54271028525 155 159 162
-940.91180142848 360.282778105891 2537.97664464711 159 163 166
-942.516399216351 360.044950296423 2545.08637531421 159 163 166
-944.115376117711 359.807089754423 2552.18525405949 153 156 161
-951.478974798061 360.410515211953 2557.45001514107 148 151 156
-956.926265690597 360.733591255355 2563.33562861094 152 156 157
-962.37781182735 361.056692078518 2569.22957994605 148 152 151
-963.971555728256 360.818785840458 2576.31882050824 144 148 149
-966.526116944612 360.721058748854 2583.1030389728 133 137 138
-971.98236070281 361.044258021979 2589.00515545169 128 132 133
-974.534484321337 360.946541644118 2595.78438970755 130 134 137
-980.966619927124 361.410138389231 2601.40877031123 147 151 152
-991.294146911489 362.435235088685 2605.90663894973 172 176 175
-1006.50586417717 364.162379219086 2609.0240432836 181 185 184
-1012.0013650829 364.486067202675 2614.99850777533 180 185 181
-1010.66945828775 363.826971344529 2622.92568935395 155 160 154
-1220.26912841571 412.312709954468 2126.25841453353 146 150 149
-1176.00888095865 405.105010032283 2154.78067722726 133 137 136
-1144.40886179649 399.812969948171 2177.55427897649 137 141 140
-1132.84765773921 397.53299751008 2191.55959134588 145 149 148
-1124.90884902393 395.800427714944 2203.93206293628 168 173 169
-1107.75491364675 392.697480272464 2220.09364159227 166 171 167
-1094.2181569654 390.141873352936 2234.61276642569 164 169 165
-1063.13876132404 384.982135667762 2256.26837228956 170 175 171
-1036.56990387189 380.506425867685 2275.85088070949 174 178 177
-1008.99158575609 375.892636936105 2295.65008300966 176 180 179
-997.966627619582 373.74516027458 2308.56669433049 175 179 178
-989.677201977711 372.008470716587 2320.29307860806 178 182 181
-982.280593308237 370.408480525591 2331.58782507945 178 182 181
-972.995407205029 368.533893443792 2343.55615501887 179 183 184
-967.392329744772 367.207427459084 2354.00168387432 178 182 183
-964.555913133447 366.292126641513 2363.31435009359 178 182 183
-961.70051044338 365.376581231312 2372.59252814447 179 183 184
-958.826579454986 364.460855849495 2381.83607091347 180 184 185
-953.129000370176 363.133303313117 2392.1074673134 179 183 184
-948.341289527977 361.942684622248 2401.97815256861 179 183 184
-940.716731393013 360.340050168935 2412.85286325328 179 183 184
-933.999469188874 358.874315236911 2423.32212152114 178 182 183
-927.252816517823 357.408208123399 2433.73771768633 177 181 182
-926.12585993014 356.765491324728 2442.04626132676 177 181 182
-924.985120171135 356.122588196785 2450.32990341457 173 177 178
-922.886815425117 355.342229452416 2458.92587249191 169 173 174
-919.827093855999 354.424367377304 2467.82706998168 166 170 171
-919.588458719136 353.918325957141 2475.6957005188 166 170 171
-923.130363124955 353.961601757405 2482.22292203098 164 168 169
-925.722478000743 353.867512685133 2489.07679830343 163 167 168
-930.212148988959 354.048164352504 2495.27364779236 161 165 166
-929.944980769279 353.541821936348 2503.08971027538 163 167 168
-930.619838934715 353.17276856762 2510.56481735791 164 168 169
-932.240546417209 352.94105530949 2517.70601546415 160 164 167
-936.72265897594 353.121685332641 2523.88845287119 160 164 167
-940.249586693865 353.16485295779 2530.38809699493 160 164 167
-941.859260792552 352.933032318518 2537.5089704062 154 158 161
-945.382234558767 352.976171325085 2544.0013338861 151 155 158
