ply
format ascii 1.0
comment KinectMotionCapture
element vertex 784
property float x
property float y
property float z
property uchar red
property uchar green
property uchar blue
end_header
-756.178082898013 -192.057715049066 2218.89228310634 16 17 9
-750.255032968142 -191.995207491181 2225.31554513281 13 16 7
-735.512396644617 -190.368710274372 2204.12913430045 14 17 8
-727.818372395177 -189.984808172216 2204.82026150166 17 20 11
-721.626567679342 -189.869911664702 2210.27856882728 19 22 13
-718.081405986948 -190.236946572968 2224.33865790702 21 24 15
-711.543485105823 -190.06659052689 2228.86009620174 26 29 20
-704.124091119991 -189.735704053304 2230.51425034345 19 22 15
-694.694165410746 -189.031941874917 2225.46038365425 17 20 13
-686.733289259754 -188.59591009361 2225.18609950813 17 20 13
-683.314672615926 -189.010237706757 2240.26319794672 22 25 18
-676.466020795182 -188.785975045178 2243.83504756393 18 21 14
-667.390881792134 -188.138346242436 2239.7148487304 12 15 8
-669.910445928702 -189.71006419118 2276.0128191924 12 15 8
-662.981870497168 -189.482862896855 2279.61418408869 13 16 9
-664.420803355826 -190.88635381788 2313.11755845679 15 18 11
-661.683960128459 -191.495953019695 2332.19894301661 16 19 12
-666.808751896888 -193.674480599447 2380.30424375663 16 19 12
-649.916537233093 -191.502136020342 2348.20690468387 17 20 11
-996.875494174452 -217.49380563883 2330.04574871414 20 23 14
-987.039732249774 -216.840172829664 2327.26892200212 19 22 13
-957.163963843124 -212.940463772887 2273.35364192998 19 22 13
-954.05279545332 -213.355796438132 2287.25214649636 12 15 6
-947.641745008657 -213.239194827962 2292.79024268164 15 18 11
-941.929516007022 -213.239517758792 2300.19897542959 14 17 10
-939.737756080807 -213.825273926594 2316.95048866541 13 16 9
-924.442077796445 -212.242094325204 2299.16167338092 13 16 9
-901.570038765965 -209.377706716665 2260.75603200605 13 16 9
-882.393430810477 -207.105606341305 2231.62959231955 11 13 8
-880.954207562115 -207.810535202402 2250.23205572931 6 8 3
-871.368319049388 -208.107588147557 2269.69217098749 7 9 4
-879.815680928058 -210.54245122693 2316.57091630637 7 9 4
-835.234987395762 -203.829700844175 2214.87885547213 11 14 7
-825.040174415352 -203.028421340957 2209.04395695916 20 23 16
-821.799658136851 -203.439346521529 2222.98979102285 18 21 14
-815.886571229339 -203.387635021538 2229.40861852933 18 21 14
-810.600773999162 -203.450052492928 2237.72428370549 15 18 11
-799.501920131698 -202.479296220491 2229.03072147287 14 17 10
-793.563753796782 -202.4267497362 2235.45872427806 13 14 6
-790.45031306612 -202.887678157445 2250.4214247413 13 14 6
-781.313055479949 -202.26240100011 2247.38866569195 13 14 6
-767.231360473604 -200.727433628709 2229.15487269708 15 16 8
-757.272361011692 -199.935794381562 2223.23356690429 17 18 10
-746.442373321744 -198.975803820193 2214.44124889691 20 23 14
-735.674403291432 -198.018277944691 2205.62621158026 21 24 15
-723.465029464829 -196.78055539028 2192.02299618837 21 24 15
-720.585546438327 -197.295747249067 2207.96315300595 20 23 14
-719.408052645581 -198.146207916246 2229.65946268578 20 23 14
-714.026401449645 -198.205463622288 2238.01019376769 23 26 17
-706.87189823231 -197.926777866769 2240.63072075527 17 20 13
-700.581542283659 -197.816266594915 2246.12450457177 15 18 11
-691.994029448963 -197.257753159604 2243.9537757221 17 20 13
-685.977349383694 -197.202811920393 2250.41048620215 19 22 15
-685.544084046243 -198.261820927252 2276.08713368481 16 19 12
-679.436370776642 -198.203426188455 2282.57718051876 13 16 9
-670.833535783648 -197.644503761578 2280.41204964368 15 18 11
-661.16718785256 -196.864902216297 2274.38324999028 13 16 9
-659.914808003815 -197.802555955742 2298.23355651014 14 17 10
-667.907125617578 -200.669115953941 2355.91138956762 15 18 11
-653.366955191794 -198.89301758011 2332.52933613719 15 18 11
-656.534080614854 -200.809766332905 2373.89927993754 16 19 12
-1012.67408964214 -228.327906165648 2370.42011020826 13 16 9
-971.503367561194 -222.394493395639 2288.76292699896 14 17 10
-950.861581063803 -219.876818316972 2258.0540039241 14 17 10
-947.065196739694 -220.203269928694 2270.07506691488 15 18 11
-946.813408409203 -221.143440106858 2291.42826431005 15 18 11
-945.387478723358 -221.895204961264 2310.02236381883 16 19 12
-938.556800300272 -221.723061156506 2314.6505611174 15 18 11
-929.604173995441 -221.182933601801 2313.67766069645 14 17 10
-900.316494222137 -218.089935895186 2280.82023455383 13 15 10
-884.281663393487 -216.275330157796 2260.11751960111 8 10 5
-866.838070673788 -215.213464757195 2258.00233854564 6 8 3
-859.829626407018 -214.987129517425 2261.63240313874 6 8 3
-849.810769185986 -214.215550058617 2256.79788861213 9 12 5
-828.23537272651 -211.329322485528 2218.9895866994 18 21 14
-821.019149233463 -211.047465322018 2221.63277826882 17 20 13
-814.455548998107 -210.88619294888 2226.16311576494 17 20 13
-804.645216687866 -210.122901869426 2221.25195663048 14 17 10
-796.48165257 -209.661586842628 2221.05296999056 12 15 8
-788.01524673097 -209.140969571125 2219.90193533261 12 13 5
-777.989845315849 -208.321866085459 2214.0065737785 13 14 6
-771.771590674272 -208.221793419122 2219.47337287296 15 16 8
-759.943632240952 -207.047231928848 2207.86017612182 18 19 11
-754.666110050225 -207.126533137656 2216.17130645518 20 21 13
-748.135519462132 -206.966846729786 2220.68953064318 22 25 16
-734.320395476672 -205.382101590519 2202.36263819757 22 25 16
-724.826319061524 -204.631500330431 2197.33586825773 19 22 13
-722.82305862955 -205.361610391765 2216.14136759664 17 20 11
-719.846775809212 -205.911184467811 2232.11410122139 17 20 11
-714.456439524052 -205.986317463885 2240.46678995549 20 23 14
-709.326086262063 -206.119168910695 2249.78721838192 17 20 13
-698.694027161803 -205.134203641076 2240.92512417168 16 19 12
-692.686326404856 -205.090282415119 2247.37774065421 18 21 14
-688.91931444977 -205.514126212906 2261.51414994441 19 22 15
-688.731356756167 -206.6956252762 2288.15898211474 16 19 12
-683.421916156254 -206.821673123461 2297.54499303901 13 16 9
-676.153158590283 -206.538557494065 2300.20736716327 17 20 13
-664.800574125032 -205.383073084476 2288.42000980092 15 18 11
-653.79535384782 -204.288693534502 2277.56813345692 14 17 10
-654.351391029084 -205.689578355994 2308.19282490335 14 17 10
-646.556558297321 -205.291002946995 2308.92194104169 13 16 9
-651.613111412347 -207.723262338361 2357.03289097678 12 15 8
-650.201931235174 -208.762296118641 2381.99980257108 19 22 15
-999.988743786161 -234.420269971521 2339.3705952831 14 17 10
-974.705522848629 -231.019788429032 2297.61499673408 16 19 12
-962.06498758523 -229.821982577207 2287.36534972282 13 16 9
-952.754282559012 -229.206595945903 2285.46142062361 14 17 10
-952.455579935807 -230.199718494701 2306.82766840224 14 17 10
-948.841924507852 -230.611064668404 2319.84274423518 15 18 11
-939.856590073097 -230.058728538499 2318.8823947574 14 17 10
-919.283837961765 -227.395299625773 2287.09283001964 13 16 9
-905.186351319421 -225.889479189677 2272.06249855392 11 14 7
-896.732267369027 -225.40824962813 2271.97057126291 14 16 11
-887.261460976102 -224.736575473357 2269.0627580541 11 13 8
-865.86959486354 -221.84024713382 2233.32164726778 9 11 6
-861.295027062664 -222.06348737658 2243.50012852766 5 7 2
-861.051722514432 -223.109276982019 2265.90883052911 5 7 2
-854.025156924692 -222.88498222417 2269.54532532176 5 7 2
-839.044709997076 -221.143849700006 2250.58708190459 17 20 13
-822.868039984674 -219.154994814039 2227.81568305041 18 21 14
-812.699351398892 -218.305476932419 2221.97467792122 18 21 14
-801.606665143914 -217.269128977015 2213.28382376059 13 16 9
-789.933867808702 -216.109619538054 2202.67941738638 16 19 12
-782.153623545787 -215.705288744131 2203.4036672391 18 19 11
-771.857551103091 -214.800647803782 2196.54654833433 19 20 12
-762.866011494861 -214.148019824976 2193.46290813439 20 21 13
-756.390859697758 -213.99577783271 2197.9604276346 21 22 14
-752.370434557786 -214.341503907518 2210.06143877849 22 23 15
-745.243838670186 -214.063348652961 2212.67178595799 19 22 13
-737.208806665538 -213.598963385333 2212.42633042895 17 20 11
-731.592621826104 -213.631143959954 2219.79750871054 15 18 9
-729.524997148994 -214.40506805696 2238.62308815791 15 18 9
-724.713398422074 -214.619521187436 2248.88835465644 17 20 11
-716.934416686367 -214.21549961008 2249.61186814948 19 22 13
-704.234347785628 -212.764887892023 2234.06963675304 16 19 12
-691.632503368951 -211.318145375635 2218.49167908058 19 22 15
-687.962942698491 -211.778332840428 2232.58968416639 20 23 16
-687.621425397584 -212.971670554984 2258.22311513158 18 21 14
-686.877502198094 -214.099061829226 2282.94092049339 15 18 11
-682.411597310301 -214.427724026746 2295.20507865621 12 15 8
-682.565168806291 -215.791272704153 2323.84545129204 14 17 10
-665.707808048295 -213.374279840919 2292.82046382754 15 18 11
-655.500849435166 -212.423321183158 2284.86790503017 19 22 15
-640.544726345926 -210.38218596865 2259.52361349599 18 21 14
-644.289335789834 -215.405733347622 2361.24760577527 17 20 13
-983.98766275015 -239.725737922875 2299.9854149656 23 25 20
-982.004496942729 -241.555376220272 2338.96674635432 15 18 11
-959.885369863933 -238.571319121021 2304.56330660662 11 14 7
-951.265557928275 -238.075347046725 2304.53270686261 14 17 10
-949.795567324735 -238.918540212163 2323.13591694541 14 17 10
-939.738166422007 -238.154477621551 2319.38139586357 13 16 9
-914.949608047974 -234.589298852952 2276.39193825973 12 15 8
-900.534412617632 -232.96614434669 2260.41933913359 10 13 6
-895.229739109813 -233.076701295439 2268.73823056987 14 16 11
-884.735831427599 -232.189675591933 2263.0182197769 13 15 10
-871.557624452812 -230.773878434993 2249.78045386486 10 12 7
-854.062945360082 -228.500573864454 2224.3092220668 5 7 2
-873.366144677239 -233.440907648113 2301.18718914938 5 7 2
-860.90399548997 -232.159113597809 2289.81225427847 5 7 2
-848.519007779365 -230.880350953209 2278.40905502093 16 19 12
-835.554308017618 -229.472984517458 2265.09307780888 19 22 15
-814.203600861326 -226.360255248449 2227.22022774887 19 22 15
-801.480701288435 -224.962370366811 2213.81568004914 16 19 12
-786.9207260894 -223.174786538988 2194.70816828743 19 22 15
-780.115869557656 -222.961966610031 2198.26324205898 21 22 14
-775.199906347749 -223.140905169619 2207.50229718193 22 23 15
-765.23937613561 -222.274939343368 2201.58715562726 22 23 15
-759.051245864183 -222.192250463971 2207.04169777226 21 22 14
-751.924281464438 -221.913927275257 2209.65219151696 21 22 14
-743.270872711916 -221.311025012282 2207.50850003159 19 22 13
-741.910494500289 -222.264852402374 2228.19690306718 17 20 11
-738.651635889144 -222.826580124342 2243.20483383928 15 18 9
-732.647588618479 -222.804154746723 2249.65450097696 15 18 9
-722.197277983717 -221.813183804416 2241.79338009877 16 19 10
-713.559014681791 -221.210954401877 2239.64413493402 16 19 10
-697.698260058493 -219.001802634094 2213.57465088892 15 18 11
-688.601910587374 -218.275731138351 2209.46807724144 20 23 16
-688.940988349231 -219.667011623877 2236.97239983766 22 25 18
-687.171496990017 -220.604997271895 2257.81064432853 18 21 14
-684.466019489855 -221.347449014473 2275.80354375744 14 17 10
-680.29360278096 -221.7676690334 2289.02096900192 12 15 8
-675.790882900745 -222.122003430558 2301.29656642559 12 15 8
-676.133294791297 -223.619492255754 2330.92477649368 14 17 10
-663.400649217348 -222.062578202195 2314.33584586955 19 22 15
-647.035441252082 -219.621869404864 2284.20064076071 19 22 15
-640.359935606321 -219.467448194506 2288.7711207638 15 18 11
-639.432919067774 -220.703450108538 2314.61381220289 12 15 8
-638.124559877853 -221.871587252974 2339.53362401615 13 16 9
-993.572617292867 -250.816311393049 2346.86429921424 18 21 14
-982.983495584024 -249.956638466681 2342.24362998483 19 22 15
-967.009518926191 -248.050693937513 2323.65880855907 12 15 8
-950.07602441412 -245.940093243241 2302.23813462083 14 17 10
-942.546731122432 -245.64579101111 2304.99601520556 13 16 9
-947.761331631175 -247.855521257284 2341.33344923896 11 14 7
-931.001933895288 -245.751745929858 2319.849004419 11 14 7
-903.561248744181 -241.503176059267 2269.34176851239 12 15 8
-889.226226682926 -239.828495079848 2253.34392714508 13 16 9
-888.742925048154 -240.924024240727 2274.76951993471 14 16 11
-894.297610858129 -243.258513945868 2313.10708738091 11 13 8
-883.74351875718 -242.344562825671 2307.4112297184 8 10 5
-878.947920476932 -242.602918998814 2317.66711579383 5 7 2
-865.775079198934 -241.140857826512 2304.43089101648 6 8 3
-853.682321187139 -239.888180051223 2293.98635613249 14 17 10
-833.125426429607 -236.855943221828 2259.01867964602 16 19 12
-824.82673317562 -236.364487498263 2258.87106465965 17 20 13
-805.555740730353 -233.549697059834 2226.61994221716 19 22 15
-791.925323561231 -231.902617775158 2210.36400883955 24 27 18
-782.532371907703 -231.145532801126 2206.36754192013 20 21 13
-776.961265808832 -231.206480693911 2213.72042516753 21 22 14
-775.432384521696 -232.149780299738 2233.40403549393 21 22 14
-765.742828592955 -231.325405200633 2228.45385695647 19 20 12
-756.402393499961 -230.570384085405 2224.43789877169 18 19 11
-751.981473658839 -230.899193964106 2235.61914479744 16 19 10
-742.975311068733 -230.212980433475 2232.5433517595 14 17 8
-737.601119905695 -230.337381992998 2240.88645697262 15 18 9
-730.411603176585 -230.056510879359 2243.5198705727 17 20 11
-718.798809207201 -228.766958043775 2231.83717277206 18 21 12
-709.602362679105 -228.017614200184 2227.76872408028 16 19 10
-696.675040962727 -226.398068115043 2211.2549979912 18 21 14
-691.893303497169 -226.657103902529 2221.50605093938 21 24 17
-693.048799287656 -228.318339834867 2251.89329265368 23 26 19
-692.081430997646 -229.506554736876 2275.62088422571 18 21 14
-698.269426469337 -232.423209640736 2324.35100078968 14 17 10
-678.454752609871 -229.141478981709 2283.79943679268 13 16 9
-675.060839420915 -229.789124243869 2299.91676589189 13 16 9
-675.945012798556 -231.495517675731 2331.46573826012 13 16 9
-666.174858256505 -230.6123582849 2325.4824690517 16 19 12
-644.926589641175 -228.3892486574 2306.70455980027 19 22 15
-635.576959470762 -227.578270030926 2301.62986268383 16 19 12
-991.259107239876 -258.606472780321 2341.78406869001 17 20 13
-987.504185210021 -260.330425476186 2377.15064054408 10 13 6
-980.11828958669 -260.100259189095 2380.91813644864 12 15 8
-936.669330538721 -253.784167497906 2312.91728809331 11 14 7
-909.374424309293 -250.671479845991 2285.73714415762 11 14 7
-890.150512798787 -247.932661031085 2256.66310628068 11 14 7
-884.156662693481 -247.932243590837 2263.10740787121 13 16 9
-896.556069108358 -251.8073397212 2320.17469494245 11 14 7
-897.150880838168 -253.233546117979 2345.45009778826 8 10 5
-882.844680343154 -251.505295702471 2329.44582636306 6 8 5
-868.641300698752 -249.781059028867 2313.40389341821 7 9 6
-846.272737053652 -246.2762835913 2273.79708257498 9 11 6
-840.543116519279 -246.344634330408 2281.20700151314 13 15 10
-827.29949235998 -244.774800729584 2266.93781587393 16 19 12
-818.347774558491 -244.132651035606 2264.90572685548 16 19 12
-793.079244975644 -239.871505376248 2214.67677035759 18 21 12
-783.674569777439 -239.094726976885 2210.68604894262 19 22 13
-780.296889302423 -239.664158292039 2224.66976036906 19 22 11
-775.919715849292 -240.019165292324 2235.83313507452 19 22 11
-772.11692152558 -240.513521253129 2248.91041464505 16 19 8
-764.874391685106 -240.230423146382 2251.56325792956 15 18 7
-753.056773575661 -238.891675590644 2239.95869225125 16 19 8
-746.760950262368 -238.820939721332 2245.45146144901 16 19 8
-732.05297066913 -236.784645103756 2224.28312408806 15 18 7
-724.609825833865 -236.435239581891 2225.94730509708 15 18 7
-715.698453400787 -235.736158892613 2222.83804208296 17 20 9
-705.649651927937 -234.758799351192 2215.8965670833 17 20 11
-698.548998623787 -234.481219940182 2218.49744489965 18 19 13
-698.051314313978 -235.806192841371 2243.11087457622 23 24 18
-695.729208543282 -236.709117557832 2262.01918325905 23 24 18
-691.62886597912 -237.19179975411 2275.20545408377 18 19 13
-702.278954569304 -241.349153640446 2339.28688325208 16 17 11
-685.752064653341 -238.774097416876 2310.28711623308 15 16 10
-668.57253093514 -235.998162764927 2278.33971279776 11 14 7
-663.803399491418 -236.337787016993 2289.64666121389 11 14 7
-667.599981846394 -238.88276165876 2331.80705526287 17 20 13
-654.661922637569 -237.149433639312 2314.23951360449 19 22 15
-648.167688898152 -237.07088496902 2319.80496224957 19 22 15
-639.567593810502 -236.442374901456 2317.64383205734 25 27 22
-633.323642780906 -236.432052171151 2324.17975207602 25 27 22
-991.797755171128 -265.685060557651 2321.85472881112 6 9 2
-1009.4724024453 -270.598227536789 2388.65988019372 24 27 20
-998.403765915862 -269.615083945781 2383.15619652793 14 17 10
-979.430439809235 -266.976748492283 2357.18319864538 8 11 4
-960.257330750886 -264.269399686008 2330.22144034218 12 15 8
-943.029686083304 -261.944032471511 2307.85729044156 12 15 8
-922.683379342687 -260.231148990493 2299.37974678619 11 14 7
-906.468270068279 -258.067681442227 2278.76860163854 10 13 6
-899.030884898247 -257.777058120082 2281.49281097148 10 13 4
-884.038511151079 -255.844921609848 2263.61986880895 13 16 9
-904.946955681707 -261.741039341693 2344.1089538512 13 16 9
-886.8664486833 -259.137450521479 2317.80893956834 11 13 8
-892.779797752967 -261.816222272337 2358.12358133289 7 9 6
-866.507377284551 -257.362651688711 2308.27389486212 6 8 5
-850.770158388276 -255.21777029491 2287.4879661434 9 11 8
-850.576955904098 -256.556372226943 2310.92292726323 12 14 9
-826.51520397767 -252.495126413088 2265.57371015801 15 18 11
-817.889701298575 -251.913168703999 2264.48510959082 15 18 11
-803.519805303099 -250.00523115731 2246.38417203385 15 18 9
-791.169484920113 -248.543362225881 2233.91563625858 17 20 11
-779.21681854437 -247.158224593265 2222.36363889247 16 19 10
-781.407446348427 -249.079446652936 2253.42171814138 16 19 10
-772.593936468824 -248.428868145095 2251.3397946568 16 19 10
-765.958629007853 -248.291760103169 2255.89436284353 17 20 11
-759.313348587849 -248.154231862683 2260.45233198021 17 20 11
-742.379940966512 -245.534114090384 2232.67047861862 17 20 11
-732.505181968533 -244.597244079544 2226.72926868946 16 19 8
-724.162993387207 -244.026221930822 2225.53690436535 16 19 8
-715.547195954578 -243.383290301702 2223.38256755459 18 21 10
-708.41777723886 -243.104401293195 2225.99399573646 19 22 13
-700.999477877126 -242.753020581218 2227.64929848314 18 19 13
-697.603445106645 -243.415496651369 2242.69946815508 21 22 16
-699.827974468649 -245.521436647882 2276.93121544908 21 22 16
-697.375448238519 -246.465511474168 2295.8838059412 17 18 12
-686.181092734536 -245.171015253373 2285.11600295559 15 16 10
-681.145240022429 -245.463376617391 2295.45661674279 14 15 9
-667.572920684489 -243.52520305277 2276.00161475198 12 15 8
-663.893493044613 -244.176508711912 2291.15559524805 12 15 8
-661.223862672324 -245.112021548556 2310.18771384404 16 19 12
-657.668754031553 -245.829351967936 2326.3583534481 18 21 14
-637.950202598254 -242.18236006678 2283.66605732773 17 20 13
-646.165530987325 -246.113207393513 2343.31592679713 25 27 22
-637.523636244698 -245.469082503243 2341.17141645787 26 28 23
-633.518362559801 -246.107555903717 2356.44475727348 44 46 41
-1001.28234655563 -275.891543032372 2346.43783232924 9 12 5
-984.071998225934 -273.557111509453 2325.13463817349 2 5 0
-987.003577073118 -275.525819220158 2354.85310867154 20 23 16
-986.896184126471 -276.864340739513 2377.19059609894 13 16 9
-958.705330452834 -272.118945906976 2326.99341082548 12 15 8
-948.255364004245 -271.199291132846 2322.32645268506 12 15 8
-933.957626038624 -269.426037534091 2307.3890583046 11 14 7
-926.074502326592 -269.054152442211 2309.21479628217 11 14 7
-916.802882858059 -268.372269022416 2307.30193752615 10 13 6
-902.023756091859 -266.452257551008 2290.41715611096 9 12 3
-910.693072920247 -269.795709208252 2337.1467024021 11 14 5
-890.844874507747 -266.718631120364 2306.19164682359 13 16 9
-890.115644497949 -267.968690443104 2327.69518938535 12 14 9
-883.579408053579 -267.904979626603 2333.27452534551 7 9 6
-881.02353890387 -268.763952191963 2350.13797282791 6 8 5
-861.209941977086 -265.624198649734 2318.10851795588 8 10 7
-839.291703556039 -261.954660787223 2279.41707487254 12 14 9
-830.284923880327 -261.282896943727 2277.40722633569 15 18 11
-812.268620043886 -258.469021375891 2248.96663862902 16 19 12
-804.025740142519 -257.954906817339 2248.80045420088 15 18 9
-793.575642588011 -256.907016520298 2242.01010679627 17 20 11
-786.012067996031 -256.547262580285 2243.71882526326 14 17 8
-785.327062810066 -257.86269397938 2266.26766879031 13 16 7
-771.520910396958 -255.98037722472 2249.0267794318 14 17 8
-764.583112951291 -255.77284847445 2252.62975640202 16 19 10
-750.936917521632 -253.896742138787 2235.3302800783 16 19 10
-738.003244457435 -252.176305096139 2219.89328459894 16 19 10
-727.863787970206 -251.14039507633 2212.98916569759 17 20 11
-721.637290771704 -251.088432691275 2218.45532962498 18 21 12
-715.101347635709 -250.960415289632 2222.97285481229 19 22 13
-709.139475256684 -250.982664390973 2229.4038274672 19 22 13
-700.843135182524 -250.402257861647 2228.19551272513 17 18 12
-695.722061020234 -250.649096902664 2237.50396916015 18 19 13
-705.911028373576 -254.946242344255 2298.54247047732 17 18 12
-705.368013015751 -256.45866846167 2324.22478321894 15 16 10
-689.634311588082 -253.925429241258 2298.13358889228 13 14 8
-677.37298319164 -252.294993500133 2283.51232514636 15 18 11
-672.326311633614 -252.60852797179 2293.85527228179 14 17 10
-668.324769951222 -253.218593791694 2308.06284428062 14 17 10
-663.456037854296 -253.602950093804 2319.40235194465 15 18 11
-651.087991419316 -251.904343832471 2303.75845020704 17 20 13
-648.836836430346 -253.030187784872 2324.7572726689 18 21 14
-644.661524656563 -253.633354468968 2339.02850241858 21 23 18
-643.269252988064 -255.048410030573 2363.96017239771 17 19 14
-982.73145065757 -280.083627853342 2300.59669977059 7 10 3
-975.904794832962 -279.95054470845 2305.22023401365 13 16 9
-973.431291935399 -280.787527047934 2320.98885770366 10 13 6
-991.466201126692 -286.225723353892 2389.75661057608 13 16 9
-974.361932626335 -283.824323362818 2368.41992651242 12 15 8
-941.374316485576 -277.802323973836 2305.12910249033 12 15 8
-932.779651496267 -277.266648661937 2305.09236158901 12 15 8
-935.074705344181 -279.223073194577 2333.9764760716 11 14 7
-928.520291866157 -279.16704760797 2339.5620908731 9 12 5
-920.913398356923 -278.869861056347 2342.34838415761 10 13 4
-909.189411738697 -277.611768263616 2333.9033818239 11 14 7
-918.63901685938 -281.314266108704 2383.52250678974 12 15 8
-883.222896803931 -274.463762906134 2309.44342554395 12 14 9
-882.101129856306 -275.686473307015 2330.02484449387 9 11 8
-878.219295763601 -276.26796623032 2343.1242675578 7 9 6
-859.090088704707 -273.187030570211 2312.97482271661 7 9 6
-834.898193933628 -268.841613427697 2267.69433257483 10 12 7
-820.721398859855 -266.887438096651 2250.59327915331 18 21 14
-806.65275180616 -264.937471408186 2233.4528682511 18 21 12
-792.372184684152 -262.912518053993 2215.32830318924 18 21 12
-787.726761549475 -263.263979066866 2225.52285439096 16 19 10
-791.22588746679 -265.666914501265 2260.33564034702 13 16 7
-775.503028268195 -263.252189685416 2237.43148754785 11 14 5
-766.732276305142 -262.575690169017 2235.33598428792 11 14 5
-760.1374853195 -262.450846757014 2239.87490593168 13 16 7
-747.7462781929 -260.832858470037 2226.36644906309 15 18 9
-736.650717438523 -259.53211733639 2216.62977766085 15 18 9
-728.915910479346 -259.095963220516 2217.33966524996 16 19 10
-723.566679455857 -259.286299710419 2225.66872661123 17 20 11
-717.892842636515 -259.397264880145 2233.05516190395 17 20 11
-708.401503160917 -258.492392882883 2228.03878319941 18 21 12
-702.421592977503 -258.524650791738 2234.47555448555 18 19 13
-702.726467449654 -260.269028634425 2261.96566266195 18 19 13
-710.818227171267 -265.916529109514 2343.93036617035 14 15 9
-698.939783559512 -264.384906458857 2331.29564287253 13 14 8
-685.762580641227 -262.469199321858 2313.82849759511 14 15 9
-677.07386880865 -261.79545077823 2311.70323281478 14 17 10
-674.106431534979 -262.74508924951 2329.77593380288 14 17 10
-664.610789239492 -261.839745749239 2324.76115405005 15 18 11
-654.624901966833 -260.781909484316 2317.80289205604 17 20 13
-648.906975889933 -260.957367842839 2326.26703675513 20 23 16
-647.594797288621 -262.438144430778 2351.16464715872 18 21 14
-633.505880463861 -260.153353243805 2328.72357427097 28 31 24
-977.627442310165 -288.489244115757 2310.34991902162 10 13 6
-976.953633436517 -289.781941474365 2330.76329735272 10 13 6
-975.820953792307 -290.987255991559 2350.28318329965 14 17 10
-952.378794845381 -287.0179704038 2312.16830852314 12 15 8
-939.835462298733 -285.556514107357 2301.90323696155 12 15 8
-933.72139912234 -285.595428320746 2308.38824883927 12 15 8
-936.703005882405 -287.794127284338 2339.13799965319 11 14 7
-935.353677845871 -288.990754060419 2358.73751190635 9 12 5
-920.782968620649 -287.033457410966 2342.84637403517 11 14 5
-899.456593840704 -283.424136568607 2308.20207475381 10 13 6
-902.841164555364 -285.777197531525 2340.92713355071 11 14 7
-892.549951871892 -284.819807789733 2336.20559567433 12 14 9
-877.606800929305 -282.708964878336 2318.3282527017 11 13 10
-869.762365745086 -282.332889701854 2320.14024983277 9 11 8
-859.282497862583 -281.298569614225 2314.4262514498 7 9 6
-834.438656297403 -276.649321401845 2267.2721958211 13 15 10
-826.439137503193 -276.197631630006 2268.07943535103 17 20 13
-807.167162514824 -272.876429586586 2235.86687946763 18 21 12
-787.765618323349 -269.480721749171 2202.64021198006 17 20 11
-786.641883930082 -270.754979279788 2223.21845646361 14 17 8
-787.623446464677 -272.597250462275 2250.45531224547 12 15 6
-779.733016201955 -272.149596993806 2251.22261126962 11 14 5
-765.66269813762 -270.072451374015 2233.02584712435 12 15 6
-757.537944498613 -269.54615974338 2232.81766176847 13 16 7
-746.689399275021 -268.288801212265 2224.05452329816 15 18 9
-738.619343818877 -267.764561663565 2223.82630920542 16 19 10
-732.360676574978 -267.727458247157 2229.30304058552 16 19 10
-726.9771358263 -267.932694770496 2237.64344372712 16 19 10
-716.857339158856 -266.842449003755 2230.7362813938 15 18 9
-708.83027644135 -266.319718464718 2230.49233256736 14 17 8
-703.997975379516 -266.685146521934 2240.75347539705 16 17 11
-703.421520659664 -268.257775232119 2265.3768392955 17 18 12
-694.495904332011 -267.49162422193 2262.27806649127 16 17 11
-689.559981629545 -269.656034432383 2300.17361949356 12 13 7
-682.267589214949 -269.369923829143 2302.84480702148 15 18 11
-675.796644102901 -269.324051579599 2308.39932854552 16 19 12
-666.600848786461 -268.477724598675 2304.33796077667 16 19 12
-658.247125188227 -267.872442004813 2303.1523725627 14 17 10
-652.663338495171 -270.010914859827 2341.28527589784 21 24 17
-648.177299533656 -270.59751156731 2354.60384419252 17 20 13
-653.705569543887 -274.28164759033 2405.64886859112 17 20 13
-984.104530757171 -298.184160529266 2327.53114696304 21 24 17
-979.382404479655 -298.57724615767 2337.75017234813 12 15 8
-963.796673353347 -296.381744625726 2320.11294482136 12 15 8
-951.188986195125 -294.879594262785 2309.874071834 11 14 7
-950.743684606127 -296.305255709606 2331.26094877178 10 13 6
-946.665069021044 -296.867530931199 2343.36676371076 10 13 6
-934.123687997008 -295.367814391963 2333.10386988413 11 14 7
-934.178508688171 -296.957117425767 2356.43005337677 12 15 8
-928.249502550411 -297.086225451106 2363.90757805293 11 14 5
-886.990391366628 -288.404767402967 2275.02370636134 9 12 5
-888.758784158367 -290.421523280479 2303.02806825036 10 13 6
-887.687492727066 -291.750180170194 2323.58315371785 12 14 9
-883.167983187561 -292.222667248737 2334.78912610409 11 13 10
-867.962809805946 -289.969213165493 2315.95118972689 10 12 9
-847.727792142531 -288.02381969684 2306.3841975828 9 11 6
-819.809206432647 -282.3879850945 2249.75517189543 16 19 12
-818.313610749061 -283.627575434958 2269.40458700822 18 21 14
-803.940017709479 -281.478479572152 2251.32318850627 15 18 9
-790.948049618243 -279.671869565157 2236.98068622993 12 15 6
-783.080812471734 -279.219599083545 2237.73990668496 12 15 6
-779.279308197724 -279.863893078571 2250.80540446787 12 15 6
-765.52193371663 -277.810812015028 2233.55967669463 13 16 7
-755.55432551198 -276.771373480776 2227.65994132803 15 18 9
-748.067195816989 -276.405890219166 2229.34131677956 16 19 10
-740.58562772572 -276.040564761582 2231.02065958502 16 19 10
-731.614116788237 -275.256289219112 2227.93967523574 17 20 11
-729.494015894864 -276.39874067729 2246.7565152853 16 19 10
-712.883042302224 -273.440404360987 2218.88277435624 14 17 8
-708.675438104515 -273.996246487681 2231.03594108957 13 16 7
-704.705917779828 -274.633474217727 2244.16327287967 15 16 10
-697.817835531701 -274.435269121502 2247.74748296702 17 18 12
-687.520940722459 -273.238253913634 2239.84616672683 16 17 11
-681.216904207765 -273.207037255755 2245.3389383015 12 13 7
-674.619503400404 -273.092155448369 2249.87780226726 11 12 6
-672.70447090679 -274.386400972247 2270.74204694143 16 19 12
-667.958348421674 -274.848660784523 2282.03138228996 17 20 13
-651.519663799331 -271.752436929373 2251.97207936265 15 18 11
-653.232161075517 -274.198028478211 2286.36423989051 14 17 10
-662.216660427117 -278.947255891553 2347.80625935916 15 18 11
-648.782965141138 -276.761727433281 2328.31955336605 20 23 16
-644.589231190309 -277.461641939185 2342.59017680684 18 21 14
-642.399118785396 -278.816779851095 2364.61633015277 18 21 14
-982.89522588787 -306.11019451564 2325.23913413548 17 20 13
-974.908712078321 -305.72389559235 2327.10352516483 15 18 11
-964.402963928425 -304.714998487803 2322.46382239294 15 18 11
-958.234186012052 -304.77392021511 2328.9672045916 11 14 7
-971.949595830048 -309.802520677599 2387.60241693569 10 13 6
-950.774603779928 -306.130367550449 2355.04096789459 10 13 6
-934.348777441113 -303.617054642173 2334.53303486613 11 14 7
-925.353758705092 -302.9662978634 2333.58388435907 12 15 8
-914.653307366121 -301.874476127746 2327.95437082089 11 14 5
-889.60977081949 -297.0775291172 2283.01712846344 10 13 6
-873.669164350925 -294.582881576205 2262.33148850219 10 13 6
-897.677571765978 -302.483951177115 2352.20903477577 10 12 7
-890.397921043456 -302.274220813783 2355.93638599481 10 12 9
-873.808139330783 -299.604240612059 2333.36647812828 10 12 9
-856.697627360228 -296.764103897623 2308.86524292065 7 9 6
-845.952807942696 -295.595190715816 2302.19111040692 7 9 4
-808.915957139206 -290.702474446194 2266.95200526253 15 18 9
-798.101648700826 -289.45571509528 2259.24243810002 13 16 7
-785.772354037315 -287.775348608012 2246.78274888076 14 17 8
-773.213803220157 -286.011092997919 2233.34613036256 15 18 9
-767.236213480335 -286.076180229428 2239.77958151957 15 18 9
-758.478750875728 -285.358773120472 2237.68259058509 15 18 9
-746.098394422434 -283.601285546848 2224.18046239808 13 16 7
-737.122403421496 -282.800356464173 2221.10261666556 13 16 7
-729.373319989183 -282.346748422246 2221.81900836009 14 17 8
-720.44952258959 -281.547715183502 2218.72180138239 15 18 9
-712.144648209425 -280.922549431433 2217.51996462902 17 20 11
-700.657224567399 -279.349422186185 2205.81285691702 17 20 11
-705.124075856192 -282.517310938542 2246.61641529422 18 19 13
-718.25509503684 -288.344464127923 2317.13658815243 14 15 9
-687.794480518446 -282.958751633765 2268.87896146101 12 13 7
-674.172705337055 -280.703023182145 2249.46588865874 13 14 8
-670.323890018792 -281.44935725376 2263.60768777673 17 20 13
-671.05971872123 -283.647436204618 2294.10690464146 17 20 13
-664.067816253795 -283.447298914238 2297.72898230053 17 20 13
-639.91074911432 -277.785236306571 2239.7354889049 15 18 11
-663.08398784581 -287.222997631101 2352.19974429871 14 17 10
-661.476589103659 -288.805115087017 2376.13041669854 13 16 9
-634.458842219678 -284.22682024752 2336.16071500181 35 38 31
-964.287331030354 -312.881022954962 2322.95625281853 14 17 10
-962.767517844657 -314.141514087942 2341.54607951846 11 14 7
-952.278062930907 -313.111297720541 2336.90206537442 11 14 7
-959.818000593659 -316.743391551804 2379.7536997617 10 13 6
-935.273433499442 -312.059554297845 2337.82655176946 11 14 7
-918.622108558401 -309.391399112835 2316.34542340603 12 15 8
-907.279444616409 -308.094683869368 2308.83159689195 11 14 5
-900.737363696744 -309.779292607569 2337.74716022754 10 13 6
-908.66962574227 -313.659054407603 2383.63748450686 10 12 7
-895.277379886115 -311.816291082455 2370.50970223774 10 12 9
-876.325761804412 -308.436911037502 2341.3850613 10 12 9
-862.163241095178 -306.331068684906 2325.35707552743 7 9 6
-849.738693758911 -304.681078779119 2313.9962594572 6 8 3
-828.306588195458 -300.506091507532 2276.23313355799 12 15 8
-803.029661261089 -296.956235990759 2250.48613375393 13 16 7
-787.509551480538 -294.331352463744 2228.59072752482 13 16 9
-786.575694740811 -295.846178277544 2250.14838730241 14 17 10
-772.763218975058 -293.67590818475 2232.93152199457 14 17 10
-763.694605081583 -292.854998581883 2229.88858289421 15 18 11
-759.254375500177 -293.378935234495 2241.06212224708 14 17 10
-746.258773037293 -291.395573859337 2225.66746610474 11 14 7
-730.046415861767 -288.432839303164 2199.78259149587 12 15 8
-722.354229209835 -287.975838388493 2200.47856645103 15 18 11
-720.300776997592 -289.21356352273 2219.26425628604 17 20 13
-708.763964635761 -287.597363198842 2207.57834328328 18 21 14
-693.811877374667 -284.916447999349 2184.41422458281 19 22 15
-691.404665681919 -286.062505109834 2202.26855447842 16 17 11
-703.212814112222 -291.643929553993 2267.95488109371 14 15 9
-703.06445900841 -293.5764235044 2294.52866039243 12 13 7
-699.980448037344 -294.618130680561 2311.57021401442 12 13 7
-685.13403383132 -291.94100292072 2288.36741455619 13 14 8
-678.145711673969 -291.743610948243 2291.98798421552 15 18 11
-674.430272874913 -292.60520401022 2307.13918239776 15 18 11
-661.720978498008 -290.55460387079 2290.57901681034 15 18 11
-660.370090518668 -292.206775629102 2314.41094920268 14 17 10
-655.722271524301 -292.79891592501 2326.72157805408 13 16 9
-655.492342733944 -294.882672484035 2355.44694991133 12 15 8
-647.0559725462 -294.240278648861 2354.29419040949 22 25 16
-981.210460272899 -323.806142593546 2344.78217955576 20 23 16
-967.773923244718 -321.996424904857 2332.73455282417 16 19 12
-964.434777709812 -322.830715645146 2346.68453329839 12 15 8
-963.164425340172 -324.22777753359 2366.23997327132 12 15 8
-960.743820675736 -325.338802607392 2383.03525632218 11 14 7
-966.995599218163 -328.797130804943 2423.16811517098 11 14 7
-918.844650446561 -317.596344875018 2317.77885610063 11 14 7
-919.913169016146 -319.646819888487 2343.90159763518 12 15 6
-906.819752820271 -317.849834478581 2331.72834154873 11 14 7
-907.736692479734 -319.894228038596 2357.90687055441 10 13 6
-910.210851525435 -322.401058448569 2388.81774717019 9 11 6
-897.140556536042 -320.604701223029 2376.63604288361 9 11 8
-870.208431031083 -314.892278325211 2324.98792196995 9 11 8
-865.975917181346 -315.529938921352 2337.14396598116 7 9 6
-853.520465535976 -313.837669053496 2325.79756869767 4 6 1
-827.84608639724 -308.33481524503 2275.80976144761 12 15 8
-827.554436793352 -310.090297771488 2299.24929210185 15 18 11
-808.957814392348 -306.551003432836 2268.94092314778 11 14 5
-793.390584909186 -303.853080423386 2247.06814822177 13 16 9
-780.155408875094 -301.808585775783 2231.76540506319 13 16 9
-772.312767357808 -301.340494069422 2232.51688273912 13 16 9
-766.025188997621 -301.33478352356 2238.00174997129 13 16 9
-761.866783255789 -301.974536426533 2250.13070985591 13 16 9
-747.937368751669 -299.661575972408 2231.90028845623 13 16 9
-727.19423634401 -295.234551207921 2191.77273689196 14 17 10
-720.120244484925 -294.956763875287 2194.36394329209 16 19 12
-719.263667545254 -296.608905108662 2216.94971998586 17 20 13
-716.245391282547 -297.614125600806 2232.90333215555 17 20 13
-700.064759189359 -294.489840134739 2205.95256366955 16 19 12
-687.503921678237 -292.470949011216 2190.40262186912 15 16 10
-689.044343712697 -294.939396794568 2221.65565623754 13 14 8
-697.277962729405 -301.683922098383 2303.48579035618 12 13 7
-691.355065989614 -301.852050841758 2310.95840538839 14 15 9
-689.539872142709 -303.385567817074 2332.83487775716 14 15 9
-671.518786826222 -299.546219057886 2298.07355489649 15 18 11
-655.5912380207 -296.350963366492 2269.96937602181 15 18 11
-648.934484645168 -296.249136320663 2274.5290743072 14 17 10
-659.244423119875 -301.951173952423 2340.7506564062 14 17 10
-648.726926172506 -300.573669764862 2331.87630084644 12 15 8
-639.052256578629 -299.470043931094 2325.87522722091 15 18 9
-979.279050860438 -331.567276322407 2340.63186393986 20 23 16
-971.617075594019 -331.2687503475 2343.43827155694 17 20 13
-958.949417673826 -329.611463571483 2333.23314779493 13 16 9
-964.811475080935 -332.998035839079 2371.37965428733 12 15 8
-976.116529737306 -337.926439988076 2424.4986074232 12 15 8
-952.161384519325 -333.169349470915 2384.49619418372 11 14 7
-926.706126450776 -327.938127418539 2339.74131246255 11 14 7
-905.30441587472 -323.77903480923 2305.16586666286 12 15 6
-907.714366620093 -326.28255359657 2335.03376619524 11 14 7
-893.337329736099 -324.059258391836 2319.09258421025 10 13 6
-900.966759331061 -328.095712249132 2364.01430568293 9 11 6
-897.329499898856 -328.950324153298 2378.07106886728 9 11 8
-874.715534344167 -324.327955398807 2338.63774595416 9 11 8
-848.381621513397 -318.56322689949 2287.84277468902 7 9 6
-848.150417379672 -320.38137543076 2311.25561498382 5 7 2
-849.751092272167 -322.769442685236 2340.35945528529 11 14 7
-838.023861989447 -321.230508498082 2330.87026519096 14 17 10
-783.44377076722 -308.711728203735 2218.31663074264 13 16 9
-785.040307628207 -311.099230565917 2247.42227147364 13 16 9
-774.975366693192 -309.957202748006 2241.56564126854 13 16 9
-770.822794793678 -310.624503063116 2253.69040300292 12 15 8
-763.557654360045 -310.339342126787 2256.35161720884 12 15 8
-754.167762927585 -309.389558521958 2252.3685778156 14 17 10
-742.406013744005 -307.682415532968 2240.77125457687 14 17 10
-720.57431146943 -302.757277755398 2196.81007118791 15 18 11
-725.624574678069 -306.358921677789 2238.43548282211 15 18 11
-721.078564892086 -306.927184607789 2249.64411160741 15 18 11
-705.147495843912 -303.810752542446 2223.66863118076 14 17 10
-700.322013401481 -304.284827748717 2233.91909894906 14 15 9
-700.597218160731 -306.453354287528 2261.38798454995 13 14 8
-695.644562610626 -306.922236056874 2271.6850509373 11 12 6
-700.188077940478 -310.586367049999 2314.55642459467 12 13 7
-693.399900022095 -310.484904837475 2319.1638468248 14 15 9
-684.399276662832 -309.632380310885 2316.09858960649 16 19 12
-664.245900792508 -304.938331570362 2273.64353794949 16 19 12
-656.22417054765 -304.373118191256 2273.4008570336 16 19 12
-632.159071584237 -298.197163963745 2215.41246778388 16 19 12
-646.591441877944 -305.486399427296 2296.01607406419 15 18 11
-648.795372462749 -308.559833044507 2333.38222974643 15 18 11
-636.777379547955 -306.592198141782 2318.6979952969 17 20 11
-970.777060016973 -339.307850330031 2342.07036159377 22 25 18
-965.619090759809 -339.707810591103 2351.38067016176 14 17 10
-960.779702276728 -340.205922359363 2361.63437691989 13 16 9
-959.421447592214 -341.698061363604 2381.21483568998 11 14 7
-948.179901912673 -340.401190933294 2374.73083706025 11 14 7
-933.86572560787 -338.211838777177 2359.83081064636 11 14 7
-913.79212357926 -334.338510328937 2329.0177310277 13 16 7
-897.66493432473 -331.563199223961 2308.42080580843 11 14 7
-898.975052729375 -333.845502427933 2335.50508378526 10 13 6
-884.321054203607 -331.470782881758 2318.60940133681 9 11 6
-879.802437440605 -332.066312944588 2329.80576555416 9 11 8
-865.031946620841 -331.574223543021 2336.27637904051 7 9 6
-862.377857558082 -332.757115422506 2353.15081897115 8 10 5
-848.955716461108 -330.687409433823 2338.98446571466 10 13 6
-825.01971631331 -325.375004996789 2293.68370587654 11 14 7
-796.244571870322 -318.500483493538 2233.19313609948 13 16 7
-803.552400316998 -322.732313468306 2279.28377644952 12 15 8
-788.978749468149 -320.188149857182 2260.23831871779 13 16 9
-779.190584898677 -319.118028763211 2255.34251033044 13 16 9
-777.157948276977 -320.496035338037 2274.10979831572 12 15 8
-770.448355691656 -320.404054825071 2278.68769782849 11 14 7
-751.591779604845 -316.405041706933 2245.30879761461 13 16 9
-743.160042036172 -315.730741633804 2244.15676228489 12 15 8
-740.715098554225 -317.006376642186 2262.01477039194 11 14 7
-728.133861689922 -314.968440197606 2247.54048798518 13 16 9
-715.352329075449 -312.836790100642 2232.0792408485 14 17 10
-707.318366992733 -312.263431380558 2231.84161879765 14 17 10
-706.50100240226 -314.117055031248 2255.46475654491 15 16 10
-701.860326717724 -314.705714446935 2266.70624205887 12 13 7
-702.83182096668 -317.229563849717 2297.09499857419 11 12 6
-695.806090635207 -317.038372292769 2300.72894650203 12 13 7
-683.220628512301 -314.913811740566 2285.19592467496 14 15 9
-667.981408497039 -311.827505749918 2260.03335268963 15 18 11
-664.614736844157 -312.894383976884 2276.10889781382 16 19 12
-654.965594053448 -311.742342611596 2270.10220237122 16 19 12
-635.733372667243 -307.127078624779 2229.43962873608 16 19 12
-652.274226805462 -317.805215483575 2347.4202675362 15 18 11
-636.843247066179 -314.53935958187 2320.20754960743 13 16 7
-964.900355710013 -345.904708046243 2327.70823042799 24 26 21
-958.351068423235 -345.915351982066 2333.28695236977 14 16 11
-951.076830699247 -345.720441983085 2337.01121862301 12 14 9
-955.415754896387 -348.9012129353 2371.46043969917 8 10 5
-950.143169799065 -349.315556888273 2380.8113072337 21 23 18
-930.957106896153 -345.644271624569 2352.86042985628 11 14 7
-919.172155002463 -344.121503761863 2344.45754865335 11 14 5
-916.335536300512 -345.250463472274 2360.33582148756 10 13 6
-915.462347649854 -346.987302442293 2381.85468702286 10 13 6
-891.256880078845 -341.702624315387 2338.78310960505 9 11 6
-873.31687322453 -338.256484407924 2312.49587247368 9 11 8
-862.166632721807 -336.846447469325 2304.92068160062 9 11 8
-870.481174092146 -341.421057007633 2352.75279454836 8 10 7
-864.514786220721 -341.630058189233 2360.23812765125 7 9 4
-842.655811201552 -336.879187943826 2321.60674020345 10 13 6
-829.696801836039 -334.866720620223 2308.33435128501 12 15 8
-818.737421539594 -333.463539824623 2300.68929642443 14 17 8
-805.938121629839 -331.457083424701 2287.35842552912 15 18 11
-784.133700286098 -326.530869152374 2246.58733419427 11 14 7
-780.602277814617 -327.454098300498 2260.60021125025 10 13 6
-777.934835104241 -328.676605057618 2277.47676836204 11 14 7
-759.593001399571 -324.770827723178 2246.03692059597 10 13 6
-756.599876679755 -325.89180994595 2261.97265985814 8 11 4
-744.213554069774 -323.900845697172 2248.49056989315 8 11 4
-732.511267786065 -322.113613078363 2236.87793874552 10 13 6
-721.477578416909 -320.529465226751 2227.14017063492 11 14 7
-709.632101680175 -318.647892227579 2214.51987354597 17 20 13
-697.288427718734 -316.569686704053 2199.96205967612 19 22 15
-699.718864561092 -319.584104545362 2234.05044694565 12 15 8
-705.11882851441 -323.688285174374 2278.71080498704 11 14 7
-697.00505035783 -323.10305299764 2278.50307898453 11 14 7
-686.665948188009 -321.722469686114 2270.63069446483 13 16 7
-675.273613700904 -319.946546502286 2258.90459287449 15 18 9
-664.783996727955 -318.471380030919 2250.02747624827 15 18 9
-667.98017964843 -321.957491614194 2289.13533896205 15 18 9
-662.615069756393 -322.364438014969 2298.52038238635 16 19 10
-663.363630244215 -325.046309717383 2330.04502661708 15 18 11
-661.84090305172 -326.931047646634 2353.92210146517 15 18 11
-653.388659712001 -326.243128835319 2352.77828990244 14 17 10
-637.428100896214 -322.694491806918 2323.64621175292 15 18 11
-946.090442349612 -350.545582190909 2302.19344111232 18 20 15
-937.483025148107 -349.936278816564 2302.16688892348 5 7 2
-941.911555899379 -353.213550601873 2336.57601712619 14 17 10
-938.479764691627 -354.175428249356 2350.55003261672 13 16 9
-932.558714066624 -354.400896897809 2358.01739619344 10 13 6
-926.611965015697 -354.625270688412 2365.49443388742 11 14 5
-911.415209422427 -352.023464025263 2347.74627900745 10 13 6
-915.997426082209 -355.488653572504 2384.21875543291 10 13 6
-904.915727377826 -354.142736299815 2377.68037905672 9 11 6
-879.86034662325 -348.41686616816 2331.75097264025 9 11 8
-871.640327314043 -347.912749867336 2332.64253825864 8 10 7
-865.732138591346 -348.137775792577 2340.10526202741 8 10 7
-868.932708596995 -351.274433221686 2373.90460782468 8 10 5
-833.405575722761 -344.133896879994 2320.15383951125 11 14 7
-822.414691749154 -342.699329298842 2312.52259930277 15 18 9
-798.210653997933 -336.914620781971 2265.22175121416 15 18 11
-791.515064953829 -336.834256750955 2269.7936862324 11 14 7
-786.985272406578 -337.477340207434 2280.99077735763 10 13 6
-787.649724038777 -339.87497450373 2308.30094840547 11 14 7
-766.172263341359 -334.835318176308 2267.4196193732 10 13 6
-752.509180543174 -332.382849117517 2250.1697663525 8 11 4
-744.063494202332 -331.685799701369 2249.02426130455 9 12 5
-726.699639366718 -327.901953724125 2219.3532439524 11 14 7
-719.259254656854 -327.517811486678 2221.01904304487 14 17 10
-706.5533530421 -325.2848865169 2205.53795767658 17 20 13
-696.848241367352 -324.081833916677 2199.55519240531 18 21 14
-694.670230168777 -325.545861456814 2218.36881001464 11 14 7
-699.248918586764 -329.464248291025 2260.14166372152 11 14 7
-692.879961452857 -329.486413635676 2265.65399563786 11 14 7
-687.896230750626 -330.018918030964 2275.95755236626 13 16 7
-677.878186713081 -328.711756166314 2269.02978614722 14 17 6
-669.011653259753 -327.81455272767 2265.91918012567 16 19 8
-661.810481380663 -327.529904235829 2268.55711348866 16 19 8
-675.380402347255 -335.084101844282 2345.18760892638 16 19 10
-668.784792974457 -335.09658299446 2350.78302280085 16 19 12
-662.96834649686 -335.413150760784 2359.27206242598 15 18 11
-653.715403579621 -334.408936685512 2355.24337136005 15 18 11
-644.758709508175 -333.507471482527 2352.16609993918 19 22 15
-930.633093223873 -355.999122449133 2284.9987370979 8 11 4
-928.419313752556 -357.323624936878 2301.70276557711 8 11 4
-925.429928263584 -358.429643694451 2316.57171901621 13 16 9
-927.919461536761 -361.253840436187 2346.38650756382 6 9 2
-922.690907762654 -361.70798861572 2355.7183735726 11 14 5
-925.621733220068 -364.737173042945 2387.49046992384 10 13 4
-906.025470265158 -360.68097334467 2357.58456356403 10 13 6
-899.389845801896 -360.7036298054 2363.19374868018 9 11 6
-891.403699389815 -360.297303513653 2365.05926301191 9 11 8
-884.416450160707 -360.211911813927 2369.73780277938 8 10 7
-882.348462238098 -361.72881121769 2388.50745553415 8 10 7
-878.236876609573 -362.601594897257 2401.66837760652 8 10 5
-863.070135922081 -359.845770794331 2382.85438180843 9 12 5
-837.752150600977 -353.6847253097 2333.85355545596 11 14 7
-817.492242448381 -349.131418394401 2298.89299405496 16 19 10
-801.22748940314 -345.862233415034 2275.18339148192 16 19 12
-796.382807661504 -346.423642931726 2285.43424556346 11 14 7
-792.429374577415 -347.301772529227 2298.53755582432 10 13 6
-782.258013291054 -346.056543452275 2292.72737882921 10 13 6
-753.802217715004 -338.456078950101 2230.04218439421 11 14 7
-751.451896453505 -339.866499277837 2247.85589723275 10 13 6
-738.206068866678 -337.466669578813 2231.51702423766 10 13 6
-735.189029332774 -338.662720238521 2247.45578861646 15 18 11
-726.786177584084 -337.956028812537 2246.29570196285 20 23 16
-717.233654500667 -336.828255091118 2241.31862615703 17 20 13
-704.531452025922 -334.543217930305 2225.84012870029 13 16 9
-701.364757476389 -338.08010604575 2268.3225888203 10 13 6
-692.430609920134 -337.163972711381 2265.23797783241 11 14 7
