ply
format ascii 1.0
comment KinectMotionCapture
element vertex 751
property float x
property float y
property float z
property uchar red
property uchar green
property uchar blue
end_header
-946.567176942124 313.25517314866 2492.5459296057 206 208 207
-956.324465749264 313.631272406901 2498.8675258875 209 211 210
-961.250277785393 313.999153090343 2506.68680697303 190 192 191
-974.900502149434 314.385404342828 2511.92914846918 192 194 193
-994.382906034358 314.78643902492 2515.52320980349 189 191 190
-1020.67923502293 315.206698553256 2517.23393555243 185 187 186
-1031.47348850281 315.594544615635 2523.56167951045 183 185 184
-1047.13645499247 315.996078878642 2528.55043307221 186 188 187
-1065.73279096074 316.407946550658 2532.79000392633 180 185 181
-1090.18631170201 316.839031794534 2535.4877877126 186 191 187
-1106.88199973793 317.252516370825 2540.46495800809 188 193 189
-1118.72692106932 317.654180723683 2546.85692893795 191 193 188
-923.258505469652 296.687308088917 2303.88815052764 213 218 214
-916.693973841659 297.088909826307 2315.73575271076 185 189 188
-903.433585966744 297.510382351822 2329.96288858169 174 178 177
-897.798703593094 297.903422712574 2341.35460318473 206 208 207
-891.197744608041 298.297268375798 2353.04624735148 194 196 195
-894.15464195987 298.660424139643 2361.30494894972 161 163 162
-895.1977201099 299.028857984424 2370.24214282691 154 156 155
-894.323731011326 299.401952653027 2379.84170645005 164 166 165
-895.363738274468 299.76906071669 2388.765061604 159 161 160
-896.402719628056 300.135586115872 2397.68423871464 161 163 162
-900.320296435564 300.494655510657 2405.62333041432 172 174 173
-896.556091024191 300.871065621592 2416.15529301458 175 177 176
-899.513162165776 301.231445687402 2424.41639300538 175 177 176
-903.433153333581 301.589776255558 2432.36655831881 170 172 171
-911.205680625405 301.940847725184 2439.06968634629 170 172 171
-912.244516760208 302.304802501152 2447.98973549606 181 183 182
-915.209470306875 302.664940937745 2456.28679842609 188 190 189
-920.104478222143 303.021932117569 2463.97674368894 168 170 169
-927.898090269375 303.37503595089 2470.77158790539 181 183 182
-933.768150614105 303.731603481934 2478.20201815555 202 204 203
-940.609607753936 304.087506252899 2485.35587996874 213 215 214
-947.457156365591 304.444043134321 2492.53729775774 188 190 189
-954.311261298165 304.801240000417 2499.74613187547 180 182 181
-963.107555482654 305.157549048781 2506.40107908342 183 185 184
-976.755876061846 305.511420766573 2511.65407599343 195 197 196
-999.142218608747 305.862140616055 2514.40385041973 184 186 185
-1020.58489826167 306.217506387215 2517.5489768023 183 185 184
-1032.34762810513 306.580549459173 2523.6014805412 180 182 181
-1048.00722258082 306.944313937218 2528.59867643462 191 193 192
-1067.57133118515 307.310025196227 2532.57246542719 186 191 187
-1090.07465929626 307.679128589312 2535.82693293202 177 182 178
-1107.73938831488 308.051969868582 2540.54066779598 186 188 185
-1120.55597487885 308.426908834795 2546.67366759884 184 186 181
-922.206905539756 287.825481158816 2304.4664336088 213 218 214
-915.64530746399 288.251136621903 2316.31281509433 199 203 202
-901.435502450263 288.721498271776 2330.88392400241 193 197 196
-893.891931731403 289.147246468529 2342.95952069276 207 209 208
-889.20397741292 289.553533029404 2353.95974795595 191 193 192
-894.072906447014 289.902477995566 2361.53950718954 172 174 173
-897.031378849164 290.262621902711 2369.80800725169 169 171 170
-896.160261481893 290.643879332818 2379.41542430486 164 166 165
-898.160835486799 291.008546339587 2388.01661874845 164 166 165
-900.16160649536 291.372813583681 2396.6189164308 165 167 166
-904.081928455397 291.726820797148 2404.5719958505 171 173 172
-900.322800823216 292.119788233785 2415.11659558806 175 177 176
-902.321686811963 292.482514080163 2423.71149338876 177 179 178
-906.243809694215 292.835618358412 2431.67303978453 173 175 174
-912.092665043512 293.179719415796 2439.01736100173 186 188 187
-913.1331283851 293.546385815215 2447.9429856721 195 197 196
-917.062346696592 293.899459257206 2455.9369031574 193 195 194
-920.994429123479 294.252668839574 2463.94227509847 178 180 179
-929.751948557459 294.585455616988 2470.44019348651 184 186 185
-936.587798073662 294.927383316699 2477.57865097594 209 211 210
-944.395959881182 295.266114736532 2484.44606318854 200 202 201
-948.345966128237 295.620664530514 2492.52962952121 169 171 170
-954.232563814831 295.968063459964 2500.03832548286 177 179 178
-961.092083267872 296.312284902754 2507.27865081208 191 193 192
-975.704256032614 296.629920821301 2512.24384153038 195 197 196
-994.208307303154 296.936827634039 2516.1384874796 186 188 187
-1014.67248050623 297.240601578114 2519.55958868922 184 186 185
-1025.45890689205 297.578975426395 2525.88085349924 181 183 182
-1043.05204159654 297.898022658669 2530.31074254028 191 193 192
-1064.55066639358 298.208669597924 2533.72869756034 186 191 187
-1089.96222090813 298.512291680293 2536.16669283921 179 184 180
-1102.75943536629 298.854965377868 2542.23221896894 190 192 189
-1105.8374738233 299.224828187534 2551.02187949449 187 189 184
-917.342811275886 278.99756371387 2306.45143983468 214 219 215
-910.781676985058 279.446816174752 2318.28598603993 197 201 200
-896.574895694257 279.962391917967 2332.84382575721 208 212 211
-892.851950907158 280.380659952642 2343.53298693477 193 195 194
-889.12182077572 280.797162709772 2354.19152363122 175 177 176
-895.902965343299 281.12130010158 2361.09829692176 171 173 172
-898.863022888035 281.478826001601 2369.37532186011 165 167 166
-897.99477725207 281.868246193212 2378.99059234331 167 169 168
-899.039268342974 282.240903680087 2387.9304418317 171 173 172
-901.04133194997 282.605105564491 2396.5384738886 171 173 172
-904.962087635703 282.953647014864 2404.49776574711 172 174 173
-903.12612952864 283.347654828705 2414.40244620783 173 175 174
-905.127548231431 283.710587974277 2423.00838267665 170 172 171
-910.012664162632 284.051113558335 2430.66442269415 172 174 173
-912.978022046399 284.406404648991 2438.96611841657 181 183 182
-916.907355919792 284.754394310431 2446.96244883718 178 180 179
-920.839326122282 285.102406738311 2454.97038304955 177 179 178
-924.773712318497 285.450503404019 2462.99000038444 207 209 208
-931.603768441769 285.77828243211 2470.11016422862 203 205 204
-939.404992296681 286.100047537913 2476.95698286358 172 174 173
-946.24811951977 286.429322547192 2484.13495201452 168 170 169
-949.233141737196 286.785098302083 2492.52301503703 191 193 192
-951.252851639917 287.147005529238 2501.21015646437 194 196 195
-961.979021112477 287.452408756404 2507.2852869012 191 193 192
-975.620434426664 287.74098448936 2512.54625139477 190 192 191
-995.088276180574 287.995793485014 2516.16214877787 184 186 185
-1014.57876246665 288.254078119591 2519.87470032549 180 182 181
-1025.36278020373 288.567923507477 2526.20086449376 180 182 181
-1042.95149464549 288.84356847471 2530.6368031098 187 189 188
-1065.41566802611 289.094454676823 2533.78717743313 182 184 181
-1084.01896508056 289.371345522489 2538.13681179761 179 181 178
-1096.8094235384 289.683560015269 2544.19156862441 189 191 188
-911.528269197656 270.2016216944 2308.78691184436 209 214 210
-907.827234482326 270.640085814323 2319.56074272164 199 203 202
-898.394993675454 271.144661993649 2332.38022067917 208 212 211
-896.585277064713 271.55681036173 2342.38986658356 187 189 188
-896.68124518098 271.945607172571 2351.69797808432 176 178 177
-901.554526966355 272.278818405642 2359.30617211144 175 177 176
-902.605762611149 272.655768138928 2368.27321742414 164 166 165
-900.784346654782 273.064340865514 2378.23449876912 169 171 170
-900.873999356205 273.450439970547 2387.51528121173 169 171 170
-901.919456943233 273.825215756713 2396.45923013402 170 172 171
-904.882166088731 274.178675673263 2404.74924461846 173 175 174
-904.967253656639 274.562810928525 2414.01215194011 172 174 173
-909.851286326088 274.895338912904 2421.66812241025 172 174 173
-913.778447666266 275.238179503304 2429.65790791543 176 178 177
-914.823624389525 275.610968611916 2438.60178768928 182 184 183
-916.829982953216 275.973253277434 2447.2298734411 185 187 186
-921.724635774656 276.306058844972 2454.93247914359 191 193 192
-926.623168053807 276.63907358238 2462.65205694108 201 203 202
-933.453552935308 276.953430140801 2469.7815641414 185 187 186
-938.361074612761 277.287249911435 2477.54028090369 175 177 176
-943.272455651262 277.621304296669 2485.31586623776 183 185 184
-947.221717890458 277.964804129815 2493.40373968057 194 196 195
-948.274536955612 278.335433057209 2502.38148014565 198 200 199
-958.029457342794 278.62498108118 2508.74354641631 203 205 204
-973.600659294915 278.862867390065 2513.42418503069 186 188 187
-996.93527231011 279.033726021006 2515.90196703848 184 186 185
-1015.45286843827 279.252007420648 2519.90842599412 179 181 180
-1027.20501317649 279.533034712286 2525.96252467488 180 182 181
-1044.79055072161 279.765521710613 2530.40984816504 186 188 187
-1064.33763404736 279.984522776137 2534.3949041328 185 187 184
-1083.90688718597 280.207029748264 2538.47667739748 172 174 171
-1093.7787283641 280.513519873102 2545.34291271742 177 179 176
-910.479352961877 261.36039196808 2309.3649062227 210 215 211
-908.686561573636 261.786521697784 2319.44091101144 210 214 213
-899.259229567577 262.323519048522 2332.26403730496 208 212 211
-899.360824378967 262.718628901127 2341.59214372498 180 182 181
-902.324819281125 263.071601245661 2349.88919717727 176 178 177
-906.246026605559 263.41080718728 2357.85488364642 176 178 177
-904.432528602945 263.831482892787 2367.84393747261 170 172 171
-902.614532583136 264.250932725423 2377.81280505586 171 173 172
-901.749141432549 264.655801989041 2387.43156740375 169 171 170
-901.838462732586 265.046471815764 2396.70820115202 171 173 172
-902.883884712869 265.423237313439 2405.65082288719 174 176 175
-905.847142864953 265.77346586122 2413.94515719599 171 173 172
-911.691349334869 266.084914371326 2421.28819793881 168 170 169
-914.659113993861 266.435155379568 2429.60346959064 172 174 173
-913.783753650511 266.835925909561 2439.18071268283 186 188 187
-914.828485174376 267.210563070745 2448.12045727735 197 199 198
-918.759311409084 267.547269844252 2456.13000012642 202 204 203
-925.581574743397 267.847100177611 2463.23334938058 178 180 179
-931.446640749431 268.159847821094 2470.66754512879 179 181 180
-935.38847974843 268.49733407109 2478.72515808854 183 185 184
-936.438327208985 268.870745809806 2487.68816719595 196 198 197
-943.279778538689 269.172308884303 2494.87505065176 195 197 196
-946.263425854814 269.521614581624 2503.25977413436 197 199 198
-958.915426523095 269.75425067297 2508.75121172515 205 207 206
-973.515955750052 269.965765850199 2513.72751107364 184 186 185
-1000.71624018329 270.031181369319 2515.0738860856 184 186 185
-1018.26305826259 270.21504809167 2519.37918619883 180 182 181
-1030.01455781113 270.469294052848 2525.44619370673 181 183 182
-1041.77855892475 270.725300518593 2531.56725482921 187 189 188
-1060.34812009374 270.906128261341 2535.82473065951 191 193 190
-1081.85204445153 271.057588948177 2539.35966674705 176 178 175
-1097.5507070752 271.277561927415 2544.61359283355 177 179 176
-914.071786186155 252.02890173512 2298.78669625993 215 220 216
-910.382688388627 252.500949760772 2309.59228869527 210 215 211
-904.780567957022 253.005025567283 2321.06415024518 208 212 211
-902.982524231122 253.440167054577 2331.11170979187 200 204 203
-904.995775906812 253.807666398412 2339.76710345616 178 180 179
-907.963825481358 254.158419571016 2348.08332937143 180 182 181
-907.112415807183 254.574533008212 2357.75708868996 170 172 171
-903.389890755659 255.038489710223 2368.42122688187 172 174 173
-901.573227543898 255.468496911115 2378.38975808471 173 175 174
-900.708858296388 255.881179591427 2388.00842792877 177 179 178
-899.840980370073 256.292936330353 2397.61218112452 176 178 177
-900.886383099371 256.671970770908 2406.55229710009 173 175 174
-906.725448576835 256.9719708697 2413.87941725506 174 176 175
-910.650635054604 257.303680065484 2421.86704750342 175 177 176
-913.618121788505 257.651009280083 2430.18280707938 183 185 184
-913.704780503526 258.044284038848 2439.44617581078 200 202 201
-915.71188489979 258.406177230044 2448.07777838228 188 190 189
-919.643138359214 258.737474965956 2456.093471659 174 176 175
-927.427943544305 259.008697483619 2462.89766769146 193 195 194
-931.367187193425 259.340556463165 2470.94715382367 186 188 187
-933.381148426009 259.702104298487 2479.60917468666 188 190 189
-930.572418599807 260.136687703457 2489.76089063088 183 185 184
-939.339654642038 260.394764550961 2496.34556792409 186 188 187
-948.115699806341 260.654020166031 2502.968369963 191 193 192
-960.766327811371 260.856930256504 2508.47015626235 192 194 193
-974.397442789593 261.047643559958 2513.74438626029 178 180 179
-1000.62313203672 261.05669383663 2515.38569253327 181 183 182
-1016.2289115079 261.225259625692 2520.26055805983 178 180 179
-1024.10119653869 261.507787884139 2527.44359093774 181 183 182
-1035.85897277359 261.735988678912 2533.553576052 186 188 187
-1056.36039765437 261.842593734428 2537.25371146879 184 186 183
-1084.65130754483 261.84426946513 2538.88709318404 177 179 176
-1095.49136439023 262.09401916182 2545.49681047538 182 184 181
-941.557072725661 242.573819502516 2288.76080357342 211 216 212
-915.044136556179 243.536745500638 2308.06624017869 210 215 211
-904.686191497039 244.160455448728 2321.29395459446 218 223 219
-900.984095107565 244.645004066281 2332.03491531781 185 190 186
-903.950381518529 244.992732807754 2340.3451505919 180 184 183
-906.918152693011 245.340458401304 2348.6619304395 173 177 176
-904.158026874895 245.802596786566 2359.01053024717 173 177 176
-899.480757092567 246.301185004338 2370.00355090157 177 181 180
-899.575747732102 246.703667951914 2379.29930533901 181 183 182
-898.711777198117 247.124085028579 2388.91518302483 182 184 183
-897.844294259862 247.543488741196 2398.51617906497 179 181 180
-896.973309143783 247.96190978693 2408.10232046795 174 176 175
-903.768083190435 248.232002736211 2415.10094025816 173 175 174
-906.732021541692 248.576113995104 2423.40295631584 179 181 180
-910.657432881628 248.901903428849 2431.39505924694 191 193 192
-912.664409959458 249.263948121221 2440.02601167216 176 178 177
-918.516008822577 249.553767887281 2447.41434887196 167 169 168
-919.564147844884 249.933391999491 2456.36617570265 173 175 174
-927.347483478381 250.188232239594 2463.17461797682 182 184 183
-929.360720919366 250.549799331876 2471.83343807143 183 184 186
-933.301409093372 250.875949813938 2479.89264716287 193 194 196
-931.459365887603 251.306593891595 2489.74896492505 194 195 197
-940.225658972185 251.54573456984 2496.34062464086 200 202 201
-948.035379432691 251.803165259525 2503.26272360925 205 207 206
-960.682950618883 251.976199049413 2508.76969848159 207 209 208
-978.177888820316 252.066442523565 2512.90145215193 188 190 189
-1007.30048697008 251.957530635849 2513.70836871606 183 185 184
-1022.90704125546 252.088845661295 2518.60747179164 187 189 186
-1025.93952952205 252.438958897614 2527.2080280347 186 188 185
-1033.81937144569 252.706308430134 2534.4332885596 187 189 186
-1058.19332232386 252.695509321076 2537.04034371064 186 188 187
-1086.47751862726 252.624112653084 2538.68712029855 182 184 183
-1099.2585834814 252.817290267131 2544.77049710935 185 187 184
-949.053922594962 233.426779293725 2286.16639947651 214 219 215
-917.799019021337 234.583433881021 2307.24408549885 210 215 211
-906.495465172771 235.26477577233 2320.82849889953 197 202 198
-902.797189481964 235.765577192329 2331.57673645104 196 201 197
-908.625162443954 236.044535951136 2338.86735243211 176 180 179
-909.688297423875 236.433625867032 2347.88077901077 171 175 174
-905.022991244971 236.95303027557 2358.91427477897 170 174 173
-898.438940433747 237.513858889285 2370.58112575548 184 188 187
-896.622841757659 237.964542969067 2380.54106957288 192 194 193
-895.758633033224 238.392555194623 2390.15143043606 183 185 184
-897.762193381425 238.755570048649 2398.76675616804 177 179 178
-897.850705265783 239.160678267516 2408.03133097459 175 177 176
-904.64492363996 239.417208409518 2415.03656576317 179 181 180
-905.692101496019 239.800542087943 2423.98197529689 189 191 190
-908.657202054456 240.14152819395 2432.29095082069 173 175 174
-909.703504310315 240.523987060179 2441.23301649229 178 180 179
-914.591901409646 240.823109679878 2448.92786709516 189 191 190
-919.484192156084 241.12261748198 2456.63964879485 187 189 188
-926.304318128908 241.381552566596 2463.75763285475 179 181 180
-929.28043318744 241.722495668239 2472.11408348399 180 181 183
-932.257734588019 242.063338938695 2480.47690694662 188 189 191
-934.272581736084 242.424172454817 2489.14325180197 190 191 193
-941.110276556631 242.684489107889 2496.33675530539 198 200 199
-948.919151130069 242.925732325767 2503.2657341617 202 204 203
-958.667433906106 243.128294949226 2509.64862686131 202 204 203
-973.257539020511 243.233842756988 2514.64131812058 182 184 183
-1002.36874313793 243.048444424014 2515.44301285426 182 184 183
-1018.93595229193 243.121651521797 2520.05308499245 184 186 183
-1028.74398778092 243.333188666564 2526.6950904015 183 185 182
-1036.6244711036 243.584537637251 2533.93258830739 186 188 185
-1059.05455389873 243.549906117659 2537.10175851418 182 184 183
-1081.51100109787 243.519452428235 2540.38356177438 179 181 180
-1093.31549307618 243.701075383259 2546.72679888616 182 184 179
-923.404645534132 225.532163785634 2305.37234669161 207 212 208
-911.158208087043 226.276803447336 2319.3210489706 199 204 200
-905.560660515305 226.843819996269 2330.77495507138 198 203 199
-908.530702745702 227.18624059243 2339.10486272371 170 174 173
-907.687616448258 227.627109950495 2348.80073900303 169 173 172
-903.978189114909 228.140484410248 2359.493527363 166 170 169
-899.306732987971 228.676612909758 2370.49008635899 188 192 191
-896.537976947077 229.162306135801 2380.78680225347 188 190 189
-895.675403326313 229.598237993933 2390.39971025459 182 184 183
-897.679615880995 229.96101871085 2399.01804769524 178 180 179
-900.64136655969 230.299573315346 2407.31369185204 176 178 177
-903.604557608143 230.637972453305 2415.61577454675 177 179 178
-906.569437028057 230.976333000286 2423.92423346453 173 175 174
-906.657767954561 231.385356640716 2433.18679435419 170 172 171
-908.663610594889 231.746626315169 2441.81320363555 190 192 191
-912.590698060345 232.060788656597 2449.81953121567 194 196 195
-919.40351905703 232.305210396275 2456.91386162486 186 188 187
-925.261059954637 232.573584080369 2464.34099673109 183 185 184
-929.199190507489 232.88853115072 2472.39552495363 188 189 191
-934.102851126224 233.180665363094 2480.16174575455 194 195 197
-938.046878239281 233.495910664783 2488.24208220274 195 196 198
-942.957417424426 233.78849714101 2496.03943432712 201 203 202
-945.942553970118 234.1265772595 2504.43732273056 202 204 203
-958.583202441039 234.239576881158 2509.94910227502 200 202 201
-978.966212157598 234.175458987711 2513.22784603644 181 183 182
-1006.13962529398 233.959226665093 2514.62146672208 183 185 184
-1017.86859520534 234.102978625697 2520.65418465353 184 186 183
-1033.4816956951 234.160291226254 2525.62674629062 184 186 183
-1039.42688383142 234.439739314143 2533.43359193705 187 189 186
-1062.82211505538 234.326591687414 2536.3444494313 184 186 185
-1079.45628928859 234.369918603281 2541.26718276966 181 183 182
-1092.22737263793 234.502647922307 2547.34212904258 183 185 180
-923.300463316144 216.608431905595 2305.60550159426 209 214 210
-915.817041854175 217.25512075102 2317.81620043054 215 219 218
-911.177839882277 217.816650334523 2328.93994969612 185 189 188
-912.246606633381 218.21164921045 2337.97363122974 169 173 172
-911.407614742965 218.66080633912 2347.68267522526 171 175 174
-905.795238196 219.24513915255 2359.06213788185 178 182 181
-898.264160714306 219.88154842906 2371.06888299325 192 196 195
-894.541684369242 220.407443673012 2381.6968055863 196 198 197
-897.502952059108 220.743558768214 2389.99066984565 181 183 182
-901.421812879368 221.052866817874 2397.96468764207 175 177 176
-904.386612164634 221.38892834729 2406.27414564755 173 175 174
-904.479569213518 221.804538461039 2415.55321794457 176 178 177
-907.445172573721 222.140057909455 2423.86762441159 184 186 185
-906.576588522239 222.580762750227 2433.45123968565 189 191 190
-909.542803924581 222.91568113548 2441.76761027748 186 188 187
-911.550129666016 223.276542413066 2450.40079516101 183 185 184
-917.400696707858 223.533150205406 2457.8041197611 185 187 186
-922.295071167409 223.816155206505 2465.53478990777 182 184 183
-925.269193153187 224.150980779532 2473.88714245329 190 191 193
-930.170100958173 224.434394313077 2481.64636199207 193 194 196
-935.074861623227 224.718099186721 2489.42238809149 197 198 200
-940.94730435927 224.976673865166 2496.92095272356 206 208 207
-943.931335944889 225.311740720021 2505.31683075125 204 206 205
-958.498222886381 225.344134153405 2510.25023640096 200 202 201
-975.012926643395 225.328816294608 2514.68100705066 191 193 192
-998.310824443516 225.141449173467 2517.20661098222 190 192 191
-1008.09827130937 225.306928070571 2523.78498103356 185 187 184
-1026.60418668173 225.250792066279 2527.90137121602 185 187 184
-1037.38565294999 225.395284983167 2534.31481332723 180 182 179
-1063.67981128948 225.148515959385 2536.40829835804 186 188 187
-1081.27965712099 225.12680682087 2541.06926866379 185 187 186
-1091.13912520757 225.302810026676 2547.95772917033 182 184 179
-930.800102624823 207.434295738651 2303.03823991865 211 215 214
-923.325494845162 208.108718011977 2315.27146501169 206 210 209
-914.886816458094 208.810875855089 2327.79761977205 170 174 173
-911.197134101464 209.359562733044 2338.55555983377 171 175 174
-907.50004979059 209.906633227506 2349.28291974253 171 175 176
-901.888415620804 210.511892271472 2360.65334561456 192 196 197
-895.313142237853 211.144964816108 2372.31638346748 187 191 192
-894.456057205347 211.597467306894 2381.94373104019 191 193 192
-898.372860921969 211.901038838232 2389.9120580876 179 181 180
-902.292576160749 212.204812573107 2397.89200963605 174 176 175
-905.258102874281 212.538062533913 2406.20741319226 177 179 178
-903.438417125006 213.017529940395 2416.13353447881 180 182 181
-903.529792667934 213.437465312491 2425.4030937753 185 187 186
-904.577641714919 213.827654959481 2434.34742850546 187 189 188
-909.461262335425 214.101594707953 2442.03604293791 184 186 185
-913.389028232481 214.404680285577 2450.05187506857 187 189 188
-920.20060253468 214.621782618032 2457.15678020795 194 196 195
-925.096533549552 214.896842315848 2464.89898260051 198 200 199
-927.111259405192 215.257654822235 2473.56480532891 204 205 207
-932.013113815397 215.532988473867 2481.33294847737 202 203 205
-934.992878020927 215.865204569815 2489.71169869736 203 204 206
-939.901228714994 216.140940334252 2497.50823169914 205 207 206
-940.956796617328 216.529169467601 2506.48773325545 199 201 200
-956.483056485109 216.497910576567 2511.12972002569 192 194 193
-977.819350482585 216.302498554033 2514.12999953475 190 192 191
-999.180575743209 216.111144682057 2517.23775365647 187 189 188
-1008.96699605777 216.254941046864 2523.82326667919 184 186 183
-1026.50155829822 216.180142082012 2528.2266992272 186 188 185
-1043.08802394478 216.135961337728 2532.99175665228 179 181 178
-1072.28415052468 215.740188505399 2534.29031759698 186 188 187
-1089.88514194934 215.676012268881 2538.98131380512 185 187 186
-1092.96005499992 216.020589303996 2547.77098784863 182 184 179
-932.452972697436 197.97197022792 2293.10405060717 208 212 211
-935.443229217096 198.309809099945 2301.52464245389 214 218 217
-925.123006600344 199.110888846825 2314.81426052334 173 177 176
-915.738358396379 199.875809879297 2327.69141893196 173 177 176
-910.147606400042 200.506338593816 2339.13791446476 170 174 175
-905.499627534462 201.102055160767 2350.20396643228 190 194 195
-897.983473466122 201.793838961859 2362.24390319902 192 196 197
-890.455171765432 202.483142568849 2374.23176928025 201 205 206
-891.505808134309 202.878153891069 2383.18555060185 198 200 199
-896.376090906338 203.143448569826 2390.82047555051 176 178 177
-901.250324721194 203.409167298603 2398.47256165388 175 177 176
-903.259222024937 203.771486752405 2407.11181409316 176 178 177
-900.483037170112 204.293336017368 2417.35561497018 182 184 183
-901.53167880379 204.686324124903 2426.30179633005 193 195 194
-905.454121340092 204.983570230217 2434.29760525848 190 192 191
-913.214537696266 205.154402848443 2441.05446255467 187 189 188
-918.104251686671 205.420807105293 2448.77436000949 186 188 187
-921.077734525928 205.75041817053 2457.12587670044 189 191 190
-923.091719387567 206.111160176798 2465.78847564897 193 195 194
-925.105868035496 206.471612369767 2474.45196679282 190 191 193
-930.968119993442 206.707363875589 2481.91904884027 188 189 191
-935.87294136185 206.974678344025 2489.70498273464 197 198 200
-939.818234548278 207.273147447412 2497.8018518528 198 200 199
-943.766378254422 207.571721410408 2505.91013391469 194 196 195
-957.361881233334 207.563983610571 2511.14307300916 195 197 196
-979.658087795677 207.283810137168 2513.86672729547 184 186 185
-995.220485023552 207.220802317869 2518.68662974091 181 183 182
-1008.86783671443 207.221119896419 2524.14330616986 181 183 180
-1024.46395399338 207.163316547268 2529.10873745455 181 183 180
-1045.88304521774 206.927663336583 2532.49753771758 186 188 185
-1073.13625942042 206.516149301869 2534.3576661232 179 181 180
-1099.45307030442 206.13981155441 2536.62717938511 185 187 186
-1106.41203915319 206.363729932529 2544.37758069311 168 170 165
-930.443823458214 189.068445609246 2294.04375191002 211 215 214
-925.833793969601 189.690421198541 2305.26049954856 215 219 218
-925.017419884063 190.167330929534 2315.05288742636 176 180 179
-917.5396391687 190.893125384725 2327.2419153002 172 176 175
-912.905036713275 191.509745374075 2338.35353030316 183 187 188
-905.404874458141 192.230910927993 2350.4466548089 188 192 193
-896.939416827803 192.984922247263 2362.8243063005 193 197 198
-893.229015407669 193.559987374138 2373.47543142761 194 198 199
-892.373913535105 194.028106193443 2383.10233292919 185 187 186
-896.289494960359 194.320156023051 2391.07205054651 171 173 172
-901.16341829991 194.577490346657 2398.72769995043 174 176 175
-902.216944432805 194.974390658629 2407.69310419221 179 181 180
-900.399283907672 195.474804024205 2417.61583005205 183 185 184
-899.53414807002 195.939449257575 2427.20055918236 192 194 193
-903.455140811452 196.230874418948 2435.19448958046 189 191 190
-911.21327841969 196.385014246201 2441.95003714657 183 185 184
-914.182978589023 196.711350707294 2450.28789764408 184 186 185
-918.114069710707 197.003470877423 2458.32483212148 187 189 188
-922.047817851864 197.295733101027 2466.37339140361 190 192 191
-928.867172394428 197.486443264539 2473.52810376857 188 189 191
-934.731293429765 197.711642428562 2481.0096285888 200 201 203
-938.676074906848 198.004774469336 2489.10629549663 209 210 212
-937.808820236146 198.465870851534 2498.68377514827 204 206 205
-939.828612202427 198.825622859515 2507.37254582439 197 199 198
-953.418461201526 198.784798081306 2512.6000309121 194 196 195
-980.53009777648 198.28087178212 2513.89064073949 182 184 183
-997.054628489949 198.146764145189 2518.43566928974 180 182 181
-1010.70005606183 198.114669741069 2523.90293061343 183 185 182
-1027.26017338203 197.986089890764 2528.60152295648 181 183 180
-1049.64280659226 197.663600943857 2531.72982492943 180 182 179
-1074.95500856327 197.247319530328 2534.15343948545 188 190 189
-1102.23415993641 196.770731704625 2536.16613626017 185 187 186
-1114.03976795906 196.818968701755 2542.59274456941 170 172 167
-918.129366572976 181.041477220067 2308.2944024194 205 209 208
-918.259773908056 181.486859562735 2317.72099116367 165 169 170
-917.437223379293 181.969930883874 2327.48253803423 168 172 173
-915.659848431036 182.490367867008 2337.57100807756 191 195 196
-909.117386262421 183.200525520793 2349.33437847862 187 191 192
-901.611430516402 183.946518277776 2361.38737098146 196 200 201
-896.000013380597 184.614108196282 2372.72100583468 191 195 196
-894.194539821807 185.128231773714 2382.68937057853 181 183 182
-898.111371781295 185.414886613058 2390.667771926 173 175 174
-902.986207796238 185.664077326006 2398.33223290843 178 180 179
-901.174611908655 186.176214795736 2408.27478731413 184 186 185
-897.445398083411 186.761918557634 2418.83784327754 187 189 188
-897.536966654319 187.196899847482 2428.09940364889 191 193 192
-903.372316373514 187.408135519136 2435.46127196238 189 191 190
-911.128967227758 187.545803311751 2442.2210427587 185 187 186
-914.099232996922 187.869245528154 2450.562011504 187 189 188
-916.11126972883 188.229476533338 2459.21632642664 190 192 191
-919.083542745711 188.552671854337 2467.56737188621 193 195 194
-926.860984979078 188.692655443181 2474.41631297052 190 191 193
-933.684530891411 188.870149388874 2481.59726826899 201 202 204
-937.628730276901 189.157626851651 2489.69469598459 201 202 204
-934.837453764372 189.699208778816 2499.85930181996 200 202 201
-940.708857449403 189.913780913512 2507.37916865484 198 200 199
-954.295914744971 189.840406733044 2512.61458279716 195 197 196
-981.400504757906 189.265953679351 2513.91562295326 181 183 182
-995.991514535225 189.162785096875 2519.03506084198 181 183 182
-1006.73605515803 189.205137569898 2525.34586299542 186 188 185
-1020.39083389356 189.142208202265 2530.87246704284 183 185 182
-1042.7628381876 188.761919627713 2533.98901416186 176 178 175
-1076.77172976627 187.96098549768 2533.95057201313 189 191 190
-1105.98090528492 187.343384889815 2535.43710593987 180 182 181
-1108.09853951019 187.716729308107 2544.54903126985 178 180 175
-910.42943066708 172.429497394426 2311.32635627411 200 204 205
-915.305664037633 172.672971439438 2319.00033716641 177 181 182
-916.383715746907 173.081335342732 2328.06815910382 188 192 193
-920.314383338576 173.366237482032 2336.10747267439 190 194 195
-911.874986192204 174.182903709954 2348.56311007561 206 210 211
-905.327253638671 174.915305145147 2360.28908665318 208 212 213
-896.862361542795 175.726745329226 2372.63545243215 190 194 195
-896.012962227057 176.211066882882 2382.27795275966 193 195 194
-898.022744095685 176.573163521881 2390.92123415296 181 183 182
-903.852262085034 176.773641057731 2398.26373209485 181 183 182
-902.042994607383 177.296521208999 2408.21131473001 185 187 186
-900.22921238511 177.81820151573 2418.13862210256 188 190 189
-900.324165566845 178.258731448261 2427.41074707482 186 188 187
-904.245809548518 178.539017284294 2435.41409899934 185 187 186
-908.170371315842 178.819390705658 2443.42917044016 184 186 185
-912.097363028802 179.099966484677 2451.45591700941 187 189 188
-916.986360749294 179.341139091242 2459.18749859971 189 191 190
-918.999870593352 179.700988895102 2467.8485291119 192 194 193
-925.815712282085 179.863887480437 2475.00303327392 196 197 199
-928.793634138441 180.184445545212 2483.38052191705 206 207 209
-932.734758080412 180.465807616864 2491.46799433305 208 209 211
-931.867058064376 180.942273227397 2501.03447185884 210 212 211
-940.62468533977 181.028862404536 2507.67767084617 200 202 201
-955.172236639118 180.884004785779 2512.63012581606 187 189 188
-982.269769744844 180.238965334063 2513.94158579438 180 182 181
-996.857907831708 180.1005594626 2519.06909478592 180 182 181
-1007.60085673306 180.118483194409 2525.38725108693 187 189 186
-1020.28693284426 180.061313384712 2531.19929904354 185 187 184
-1045.5527418108 179.50928864127 2533.49831913307 181 183 180
-1079.55358393605 178.619054760723 2533.47692965989 177 179 178
-1099.0777980762 178.305822920014 2537.67425285645 176 178 177
-1095.38089701727 178.905772565365 2548.37131848911 200 202 197
-918.729876224339 162.649304233414 2298.97515249039 213 217 216
-915.069945536531 163.281864483189 2309.81595034866 197 201 202
-917.100242938576 163.64922135303 2318.54654108543 184 188 189
-919.130822406333 164.016395674761 2327.27848213478 196 200 201
-917.358528221254 164.558221106529 2337.37676095583 192 196 197
-908.921680133745 165.404097167413 2349.82536429608 213 217 218
-904.279549777844 166.07333087013 2360.87286137207 209 213 214
-897.723608972517 166.827521847366 2372.55093818495 192 196 197
-895.923236629797 167.36309526776 2382.52916572358 192 193 195
-897.93366047846 167.724927072486 2391.17543181702 184 186 185
-903.762313048781 167.914304691412 2398.52173124415 184 186 185
-903.865327042733 168.361971046953 2407.82626579073 190 192 191
-903.010404603361 168.851670656543 2417.4412648621 193 195 194
-900.239392315768 169.425890927986 2427.67596971905 188 190 189
-903.204129453827 169.743123866192 2435.99731464121 187 189 188
-907.128071949241 170.017807343563 2444.01300385305 186 188 187
-913.92917681504 170.165496647724 2451.11260111061 187 189 188
-918.819107663814 170.39858703796 2458.85304829649 189 191 190
-918.915718805998 170.842759546069 2468.13033675205 189 191 190
-922.850109474743 171.118079711971 2476.19277855589 202 203 205
-925.826733744513 171.435420799183 2484.56535499678 204 205 207
-930.727289183203 171.669049873359 2492.35230340011 207 208 210
-932.745849716654 172.02818361703 2501.03601131781 208 210 209
-944.39025184334 171.970976141947 2506.81427272905 196 198 197
-962.789489036378 171.62515365931 2510.63096162475 184 186 185
-983.137665663455 171.199967050436 2513.96857958655 179 181 180
-997.722698010071 171.026325134252 2519.10421400167 180 182 181
-1006.53409852441 171.102170244499 2525.98960170539 185 187 184
-1026.94196610512 170.686497049169 2529.58574327074 182 184 181
-1053.17154730579 170.029077172469 2531.63619570763 180 182 179
-1087.16744280468 169.050023147753 2531.64524966177 184 186 185
-1098.95113605671 169.014542222336 2538.02452903567 187 189 188
-1098.16133405308 169.508926625514 2547.92373075741 199 201 196
-917.673055725801 153.732828911481 2299.56257314291 205 209 208
-919.70681273748 154.100640410606 2308.30814151137 185 189 190
-920.791674737388 154.514943857124 2317.40139365021 197 201 202
-921.875561959968 154.928818124982 2326.4906027884 189 193 194
-913.453535449276 155.806489415723 2338.9869040153 213 217 218
-904.067355526064 156.727794321439 2351.76424649043 203 207 210
-899.425013474903 157.415185673874 2362.80013097879 195 199 202
-896.678787457363 158.008608951592 2373.13385022649 179 183 184
-894.879717243354 158.554647648749 2383.11166035912 174 176 175
-897.843666544457 158.870239980529 2391.43049856966 184 186 185
-901.763448020442 159.140095243165 2399.43069173497 190 192 191
-902.821259182712 159.547035825349 2408.4101593322 198 200 199
-901.011965213401 160.090117651866 2418.34465685366 195 197 196
-900.153922582303 160.586595019259 2427.94192010997 187 189 188
-903.119218581725 160.900932545566 2436.26634427285 187 189 188
-908.957617824927 161.079560352402 2443.66191583475 191 193 192
-915.759004042192 161.213761123734 2450.77068640318 195 197 196
-920.64987452023 161.438712572143 2458.52006119579 198 200 199
-917.871563849882 162.023007557791 2468.71667956288 200 202 201
-917.966329706927 162.471646047845 2477.98429629668 203 205 204
-919.019336384956 162.874877906375 2486.94368751266 207 208 210
-926.798294470089 162.965805601269 2493.8281613864 213 215 214
-932.661502822899 163.146619149544 2501.33177057211 195 197 196
-946.227717652628 162.973514346916 2506.53399911758 180 182 181
-960.771984518192 162.758463449157 2511.51326637751 174 176 175
-979.186652068956 162.36956921923 2515.42219728842 182 184 183
-994.729969002229 162.116048716956 2520.27007432032 187 189 188
-1013.1849895282 161.733665371295 2524.35408056954 186 188 185
-1034.5572897292 161.223385046449 2527.69821937202 179 181 178
-1057.88655324631 160.629808112165 2530.60095803802 176 178 175
-1078.34342325603 160.171382475446 2534.43709166782 184 186 183
-1086.24998389663 160.28144642172 2541.87368688225 194 196 193
-922.302326961956 144.517863294884 2298.04113779026 210 212 211
-927.184711511502 144.737526644875 2305.75622898815 193 195 194
-922.581933665795 145.451296037907 2316.95094141852 193 195 194
-921.768870325319 145.966238132745 2326.73554894886 199 201 200
-909.550443788188 147.070070583417 2340.59641793947 210 212 211
-903.969307958955 147.827108654803 2352.01087916305 206 207 209
-899.329860646312 148.533195739611 2363.04852331498 197 198 200
-897.538047541214 149.091107243943 2373.05132924586 179 180 182
-893.836173841716 149.74527024482 2383.69459603901 175 177 176
-895.846648510794 150.106358782028 2392.3415232421 192 194 193
-901.672781737096 150.273345340726 2399.68989068088 196 198 197
-901.777130127177 150.731135452832 2408.99435088129 206 208 207
-900.924197586215 151.236452558148 2418.60893288858 194 196 195
-900.067993904218 151.740872007769 2428.2085419283 182 184 183
-905.902454615288 151.908172910769 2435.59342016735 183 185 184
-907.914256376435 152.267755773882 2444.24708088969 194 196 195
-913.756565265417 152.43589543926 2451.66604938175 197 199 198
-916.729377269124 152.747671658819 2460.0261862698 198 200 199
-916.827353961748 153.202175800397 2469.30341539658 207 209 208
-915.96341870438 153.703417630208 2478.87191005129 211 213 212
-919.896168465534 153.966941103045 2486.93405950214 207 209 208
-927.674477058102 154.041528930458 2493.8252819145 209 211 208
-940.2670329271 153.881456523411 2499.28466343365 184 186 183
-949.02549610623 153.911640582826 2505.96472154173 173 175 172
-961.642940047486 153.755371372488 2511.53262371576 171 173 170
-973.311064557718 153.648008211019 2517.44491952921 180 182 179
-995.593322059542 153.028809185796 2520.30650998974 188 190 187
-1016.9376499515 152.46050516989 2523.56042794024 190 192 189
-1042.16674526897 151.710285246598 2525.81423850862 180 182 179
-1057.76926438857 151.428779596495 2530.93945437279 177 179 176
-1073.38925168046 151.149981521942 2536.14005254308 192 194 191
-1076.45737005202 151.473943485572 2544.91191043471 196 198 193
-926.124979991193 135.794282476101 2306.34656656599 189 191 190
-921.524466718497 136.526609521252 2317.54034300257 195 197 196
-923.560027665395 136.893431829705 2326.29444235676 202 204 203
-911.348289181914 138.037848599973 2340.16091238694 210 212 211
-903.870614566712 138.920005300123 2352.2584406332 201 202 204
-900.185040333116 139.593190061537 2362.96234426921 187 188 190
-897.444144238875 140.213325505366 2373.3027525901 172 173 175
-896.601783271998 140.729238284561 2382.95768700356 181 183 182
-897.661891613706 141.141741629888 2391.9429190484 182 184 183
-898.72078090185 141.553786343659 2400.92413540479 187 189 188
-895.962268715354 142.169626597517 2411.18944338203 199 201 200
-897.016884893777 142.580281915396 2420.15156074608 190 192 191
-900.9364965267 142.837885011156 2428.15929822018 193 195 194
-907.727114459925 142.943480263486 2435.23635595737 195 197 196
-910.697386550654 143.252473542037 2443.58693736306 200 202 201
-912.711901539562 143.61194786271 2452.2526179685 203 205 204
-913.768806110444 144.021524350739 2461.22545383835 201 203 202
-913.865989906383 144.480966022161 2470.49737132309 207 209 208
-914.920159534852 144.889461334137 2479.45879137615 204 206 203
-919.81220502718 145.097174065074 2487.22348320813 211 213 210
-929.509833089607 145.055432698169 2493.5279401453 201 203 200
-939.21778812081 145.015120153943 2499.87597684889 176 178 175
-947.012283061221 145.075834390334 2506.84777202293 179 181 178
-954.814604880013 145.137515469069 2513.85240184896 186 188 185
-975.141516395122 144.556351155099 2517.18805448922 185 187 184
-995.492142879893 143.979034310735 2520.62594596917 182 184 181
-1021.65080289481 143.10978365169 2522.48955723097 175 177 174
-1036.26427012202 142.836053640861 2527.80827422189 173 175 172
-1050.89397923908 142.564847720171 2533.19707773332 178 180 177
-1060.71031350459 142.541109785692 2540.01294703193 191 193 188
-1063.77049085897 142.860903300035 2548.75335039101 194 196 191
-916.396700371151 126.867697711786 2300.62551179335 202 204 203
-926.960627678321 126.740355268623 2306.24023680858 187 189 188
-927.104861700793 127.217521205985 2315.70905981733 199 201 200
-926.298056722015 127.748733383439 2325.51167575749 205 207 206
-911.245303365617 129.097563066381 2340.40798923135 206 208 207
-904.721530179238 129.95208684659 2352.16880259609 193 194 196
-899.137560830464 130.750097617456 2363.54776530978 180 181 183
-898.301109797348 131.27488904303 2373.22243374999 170 171 173
-895.55689803781 131.907103589548 2383.54221321949 172 174 173
-896.617349076934 132.321893580827 2392.52761045576 199 201 200
-897.676578049488 132.736311196005 2401.50892799393 201 203 202
-896.827243600261 133.257784693213 2411.12986260073 190 192 191
-896.929048783311 133.724695857513 2420.41666485266 187 189 188
-900.848657595408 133.976686862413 2428.42769074514 194 196 195
-906.682682840479 134.121944805729 2435.82252860896 198 200 199
-909.65265956623 134.427878640853 2444.17360793138 204 206 205
-908.796355091829 134.946727457817 2453.76537234976 209 211 210
-908.894022202882 135.411546265551 2463.0362569429 208 210 209
-908.989631097151 135.87567751494 2472.29738983792 212 214 213
-911.000417976485 136.233262260293 2480.9477536349 212 214 211
-920.686671472235 136.168203412319 2487.21580227022 210 212 209
-932.30318581094 135.999313489525 2492.93686201669 195 197 194
-941.050265441524 135.990037924162 2499.58996652539 179 181 178
-943.077216762727 136.349323422488 2508.31055982264 183 185 182
-952.799697048649 136.289485430336 2514.73408738331 187 189 186
-970.232333822069 135.813070521754 2518.92459508448 179 181 178
-996.353103229067 134.870727314967 2520.66422918504 178 180 177
-1019.61393051411 134.08957201809 2523.37572591927 178 180 177
-1039.04468957996 133.520675732439 2527.31160578594 179 181 178
-1050.77772357863 133.369857245108 2533.53548914069 184 186 183
-1060.59192965852 133.32430060301 2540.35589989128 192 194 189
-916.28585653132 117.884381849947 2300.86435711099 203 205 204
-928.742268528604 117.617044911006 2305.7868999247 196 198 197
-932.680740390378 117.869526414215 2313.88075876778 212 214 213
-930.930739053522 118.466585507872 2324.04478606344 212 214 213
-914.938155773932 119.921804594245 2339.29458598475 208 210 209
-905.570931342421 120.97243538986 2352.08047840404 183 184 186
-900.941364679643 121.734903690176 2363.12850079236 176 177 179
-900.107514147719 122.267823755527 2372.81093394661 181 182 184
-898.318605697555 122.856697242659 2382.80832863059 192 194 193
-897.477212444998 123.387732275763 2392.45863293405 199 201 200
-893.773614535124 124.087762169095 2403.06732445644 192 194 193
-891.969948528085 124.673182718471 2413.00171976245 193 195 194
-893.024017674143 125.0883714074 2421.95876020649 193 195 194
-898.850760178046 125.221678185828 2429.32962181962 209 211 210
-902.772047564823 125.467959448978 2437.35031635058 211 213 212
-905.739869108411 125.770511691407 2445.69388764326 212 214 213
-905.839252674233 126.240921234425 2454.96904763541 214 216 215
-904.979405176006 126.766461708548 2464.5401772283 215 217 216
-903.157788350547 127.346847728888 2474.39951846034 210 212 211
-907.082550575137 127.592371376118 2482.43597073015 206 208 205
-917.723673070931 127.449503481518 2488.39999370769 185 187 184
-930.295426951136 127.197530285004 2493.82284915384 182 184 181
-935.198345775705 127.390089159 2501.64436814506 193 195 192
-940.105154759403 127.583003685442 2509.48282023163 194 196 193
-949.82362635214 127.500905549367 2515.90286228484 192 194 191
-971.098688782529 126.760801576597 2518.95369030907 187 189 186
-994.32444819612 125.915084042014 2521.54863123258 182 184 181
-1017.57763547528 125.073857108367 2524.2617938817 184 186 183
-1033.14560118482 124.674278854069 2529.30419399795 190 192 189
-1042.94290774795 124.604592352521 2536.0643281534 197 199 196
-1055.64641770585 124.373085510221 2542.05465260381 200 202 197
-936.203847353308 108.11461635732 2303.24609913762 196 198 197
-933.514092348402 108.783701371113 2313.78307397276 213 215 214
-925.128689668748 109.812229699915 2326.35203167989 212 214 213
-916.73017395922 110.838068827415 2338.86370112542 205 207 206
-907.368678387549 111.921163204521 2351.65574417763 181 182 184
-904.64352169765 112.583016915922 2362.04097204381 176 177 179
-900.961550843886 113.303193871789 2372.73311496971 184 185 187
-898.223910392273 113.962292222869 2383.06495281489 185 187 186
-893.576076406075 114.739008057687 2394.02518534612 206 208 207
-893.683072763856 115.2172895483 2403.32817524496 190 192 191
-892.834461143556 115.75410321352 2412.9432724659 191 193 192
-893.890096375213 116.17187723562 2421.90569337526 205 207 206
-893.035754919677 116.707177740114 2431.49643163844 219 221 220
-893.132905403943 117.182710840669 2440.75873787971 218 220 219
-897.050693024036 117.422441641012 2448.76786319412 213 215 214
-900.970929298667 117.662421428359 2456.78871865329 214 216 215
-902.980154359912 118.019692253845 2465.43238481893 215 217 216
-903.074630101985 118.493621082288 2474.68276177763 203 205 204
-909.873674989091 118.558544005242 2481.82196206669 197 199 196
-923.390770609152 118.216669284119 2486.90592166782 182 184 181
-935.004033637135 117.993457612707 2492.64460454777 187 189 186
-938.949566447201 118.23625716114 2500.77527259963 200 202 199
-945.77991718006 118.305505167113 2508.04879416703 204 206 203
-953.577816115617 118.317810352337 2515.06297551378 207 209 206
-973.887781520557 117.581329674216 2518.41530585929 197 199 196
-995.183902019996 116.791201492929 2521.58835045273 190 192 189
-1018.4310751794 115.890255262401 2524.31122278194 187 189 186
-1033.03215807515 115.509972472525 2529.63803815053 193 195 192
-1042.82779270055 115.418448259033 2536.40256260517 198 200 197
-1057.45826828187 115.042721612527 2541.85621927639 193 195 190
-948.393168377267 98.2472309030413 2298.96890257883 188 190 189
-936.240627616348 99.5603586921655 2312.99591509935 208 210 209
-924.069586881771 100.870005599756 2326.94453984735 197 199 198
-917.571794855007 101.799841645485 2338.77445851848 206 208 207
-911.062900186016 102.727521531239 2350.5578071559 188 189 191
-912.141539494354 103.153127346661 2359.61699085253 179 180 182
-906.566180112879 104.014979026907 2370.99634489609 181 182 184
-898.12831570912 105.061640935798 2383.32237408402 206 207 209
-886.822139520197 106.292149037 2396.57114390466 193 194 196
-886.92583080172 106.774831668627 2405.85806753981 190 192 191
-887.027298945336 107.256854423229 2415.13558286885 213 215 214
-890.940693113268 107.490906825897 2423.12868795427 218 220 219
-891.040147805528 107.97208908106 2432.39782521294 215 217 216
-891.137559501929 108.452600877271 2441.65726778834 212 214 213
-890.277202851429 108.993975199478 2451.21792722174 203 205 204
-894.193099744804 109.227504958884 2459.22345456715 205 207 206
-897.155389071362 109.52253438546 2467.54598599383 207 209 208
-904.905086087918 109.511723635324 2474.36135800106 191 193 192
-914.577948487462 109.379898592668 2480.60966746001 175 177 174
-930.011720653119 108.883951545042 2485.11741461933 163 165 162
-937.79048631505 108.877496180551 2492.0583181009 169 171 168
-941.73812202296 109.115021058916 2500.2002687082 171 173 170
-949.529634729086 109.110253016654 2507.19635056995 174 176 173
-956.367641288104 109.167114705483 2514.51197974835 181 183 180
-973.789318066778 108.560385333759 2518.7308381205 198 200 197
-993.155218297371 107.836376032 2522.47323147731 191 193 190
-1013.50654464239 107.055817684389 2526.03374695863 188 190 187
-1029.06436103629 106.579505776572 2531.07655558191 192 194 191
-1044.63990696237 106.105991707927 2536.19475871263 194 196 193
-1074.70252660656 104.737479882975 2537.32840018661 179 181 176
-986.88085910697 85.9565467382332 2275.29970970634 209 211 210
-952.056387071881 88.894883424727 2297.82769362195 193 195 194
