ply
format ascii 1.0
comment KinectMotionCapture
element vertex 778
property float x
property float y
property float z
property uchar red
property uchar green
property uchar blue
end_header
-674.206750599182 -247.150667257324 2282.70832942323 20 23 14
-693.700850691792 -250.21948259724 2283.83837745701 22 25 16
-697.480539468094 -250.251291845635 2291.39867082862 22 25 16
-688.293159282141 -247.786249274746 2304.14514961526 23 26 17
-721.734760318646 -253.520767127169 2299.95117949855 20 23 14
-740.376129797764 -256.398465678035 2301.7676033405 21 24 17
-745.116290234371 -256.602396643566 2309.10511764098 20 23 16
-708.989940622486 -248.978544031804 2332.25322471384 20 23 16
-706.274958115356 -247.763184715143 2342.35881837115 20 23 16
-745.409302343593 -254.544220155661 2336.5263540295 19 22 15
-732.472468709029 -251.37262772195 2350.56172525623 21 24 17
-731.623745614133 -250.511300523473 2359.9854629939 19 22 15
-766.186481148552 -256.390298807798 2356.26042897026 19 22 15
-742.972557831761 -251.271622010169 2373.98754592212 19 22 15
-787.849303508325 -259.090803259163 2366.72939977638 19 22 15
-789.827507695584 -258.755812852836 2375.24947474492 16 19 12
-774.986007117554 -255.235597274093 2389.80063760049 17 20 13
-882.615365713882 -274.885231244949 2360.7228658397 16 19 12
-827.576951334009 -263.758754476034 2389.60913389181 13 16 9
-820.335265143821 -260.961590357286 2410.73411641434 9 12 5
-860.767913363706 -267.85643057679 2406.13217002388 12 13 7
-815.052204736725 -257.831147817522 2440.29282071969 18 19 13
-802.009136919657 -254.675628271184 2453.86951658665 20 23 16
-760.746313713245 -246.243302478585 2476.69205203616 19 22 13
-700.677014082914 -269.480821978481 2161.86569054671 16 18 13
-684.738662076228 -262.06243966089 2223.97085180441 17 20 11
-651.663893828576 -254.828270032628 2247.12487589307 17 20 11
-629.603798559163 -249.782705715397 2265.42301922189 20 23 14
-636.106037786852 -250.373193462018 2271.639814223 21 24 15
-647.229908552906 -251.870242184492 2275.97118268151 23 26 15
-659.290277059883 -253.546485180809 2279.97720262811 22 25 14
-675.061210632865 -255.945604613787 2282.53365472288 21 24 15
-670.504346273741 -254.354488903137 2293.41466193053 19 22 13
-691.852310581532 -257.836062237233 2293.84277431988 19 22 13
-679.887531756395 -254.796502740022 2307.68174317028 19 22 13
-713.313006959222 -260.624656868161 2303.47287356576 18 21 12
-734.725803522161 -264.095070958215 2304.17902424516 21 24 17
-713.479363209652 -259.248447732782 2321.6232039484 18 21 14
-722.84483195354 -260.366678418631 2327.09713175208 19 22 15
-750.804244192023 -265.093083383723 2325.4931544177 23 26 19
-732.308744832904 -260.793754463667 2341.71115840964 21 24 17
-761.237476436351 -265.69359777561 2339.92416447808 18 21 14
-766.926561083253 -266.082584602906 2346.99562244278 17 20 13
-735.355128569867 -259.267323065087 2367.90778449495 16 19 12
-753.149508322135 -261.998121417647 2370.46188854805 15 18 11
-841.078554932451 -277.515508199967 2356.94770141288 14 17 10
-788.085949808094 -265.881127376596 2394.55024908565 14 17 10
-810.63983039281 -269.494547746931 2395.81237788612 12 15 8
-807.013868190271 -268.081355407404 2406.34371812617 11 14 7
-871.752230501968 -279.754069645587 2393.18166978306 12 15 8
-848.475628511267 -274.573387320817 2410.59720523346 12 15 8
-849.549733852849 -274.053111769181 2419.58072801786 13 16 9
-844.05378775784 -272.280340728096 2430.77316324577 13 16 9
-820.705665010446 -267.111309303491 2447.880389787 14 17 10
-868.740839819173 -275.530425409365 2441.22265665992 14 17 8
-652.238212115466 -266.348743089329 2210.86429954458 22 25 18
-609.199641018651 -255.600852688951 2256.39694370094 15 18 9
-622.128706207808 -257.500492094455 2259.80701574959 15 18 9
-615.722420907254 -255.523935682515 2271.42560536084 20 23 14
-627.747037339839 -257.236193978409 2275.29526412838 21 24 15
-644.398850861255 -259.867269897226 2277.3123167397 22 25 14
-649.991052580808 -260.285085944067 2283.97380921106 22 25 14
-662.979784129157 -262.174245579032 2287.64064169581 22 25 16
-690.776498005239 -267.003865917251 2285.38042971462 21 24 15
-699.179765778956 -267.966906755585 2291.07947502833 21 24 15
-708.517940079694 -269.11210758875 2296.44790436674 20 23 14
-692.853727233111 -265.297459314641 2311.756954081 16 19 10
-699.414448673398 -265.891180744829 2318.2333572931 19 22 15
-739.376272782521 -273.086861399175 2311.73363360153 17 20 13
-746.900642060111 -273.857749919243 2318.00313491798 18 21 14
-708.99257597423 -264.957949304297 2350.77730027735 22 25 18
-693.252667689664 -261.155313477786 2365.75985768605 17 20 13
-690.51970246278 -259.917092089854 2375.77167600336 15 18 11
-779.271822573415 -275.196585600519 2370.30199542802 11 14 7
-827.108005617334 -283.1016070999 2371.57891485234 13 16 9
-810.423090813792 -279.11751782269 2386.84691101851 14 17 10
-799.324018774117 -276.230409876636 2400.03394290731 13 16 9
-809.7277617645 -277.533492422366 2405.63542203588 13 16 9
-882.099097338242 -290.135540490166 2399.31463898325 14 17 10
-858.820843683052 -284.883509553361 2416.68093132652 13 16 9
-869.282333466576 -286.176240743416 2422.529701298 13 16 9
-909.795247408859 -293.276203733531 2418.40209835876 13 16 9
-884.755498969562 -286.959060544181 2445.60647767674 21 24 15
-777.177718639624 -299.770662318866 2165.9179536026 13 16 9
-644.100594023566 -271.1843873709 2241.64455782191 18 21 12
-637.719148826408 -269.180458349915 2253.35542112989 15 18 9
-648.828362556174 -270.734426374481 2257.65568033131 18 21 12
-660.871927869239 -272.473269905632 2261.62556174214 20 23 14
-656.326925222498 -270.844318366091 2272.53658467777 20 23 12
-660.08032025718 -270.898371820315 2279.99518242731 20 23 12
-633.357978252788 -264.788923798626 2299.9061598816 21 24 15
-673.141365597679 -272.124779628425 2292.70258764172 21 24 15
-683.380745058904 -273.482307849074 2297.61180969733 22 25 16
-688.151173794045 -273.023569004261 2313.80575475074 23 26 17
-728.994980317401 -280.522624167142 2306.81566824381 18 21 14
-730.017281333525 -280.009022330682 2315.57483663703 19 22 15
-760.731900614213 -285.448423217198 2312.8620291218 21 24 17
-743.201500208645 -281.212996989961 2328.81290725157 20 23 16
-723.787108767451 -276.610035562873 2345.35956349857 17 20 13
-671.848749417784 -264.819277871129 2382.95825623079 15 18 11
-803.293172623383 -289.578078614409 2352.46813906828 15 18 11
-793.16542357776 -286.833558112077 2365.46175159777 14 17 10
-853.141384415594 -297.270101132701 2362.48484889243 13 16 9
-814.062245973765 -288.789297211262 2385.78863011617 15 18 11
-798.297205146583 -284.939669860771 2400.63171379718 16 19 12
-808.697980818073 -286.267650828869 2406.23476165098 14 17 10
-829.405811889261 -289.625010065191 2408.32542614152 12 15 8
-869.806823038569 -296.854028472883 2403.78062131898 11 14 7
-900.454349245162 -299.900216517298 2431.26156818434 13 14 6
-1004.9210767125 -319.615040619765 2406.51356417776 12 13 5
-706.457423822639 -293.386863330633 2205.9546591463 15 18 11
-678.977037692305 -286.978970746129 2226.90721524975 20 23 14
-667.177567236532 -283.106958604097 2250.09890476377 17 20 11
-700.423385470718 -289.238958875892 2245.27707560674 18 21 12
-692.219502438823 -286.828355247983 2257.83193531554 19 22 11
-667.394334685341 -281.007550550517 2277.1599122671 20 23 12
-655.459890084614 -277.845124452808 2291.0602850348 20 23 14
-665.680513521297 -279.2304016484 2295.90317829983 21 24 15
-697.176621341846 -284.96674609248 2292.25121886463 22 25 16
-691.70737785949 -283.129907255751 2303.52363857649 22 25 16
-701.040384143303 -284.319393550366 2308.89642833272 25 28 19
-712.236443327494 -285.884973701888 2313.58620842811 21 24 17
-718.810388368726 -286.50407050848 2320.13472098844 21 24 17
-733.739078224839 -288.820608527726 2323.48759715245 22 25 18
-749.613803179834 -291.322715707326 2326.56090138905 19 22 15
-735.784435464067 -287.788213632216 2341.00729491818 17 20 13
-705.273962203939 -280.164249512681 2370.67540716935 16 19 12
-799.34049027857 -298.47449937529 2344.83933745518 16 19 12
-854.415095967565 -308.862781987334 2333.90507776544 16 19 12
-807.048760622815 -298.556730007295 2360.62806493262 16 19 12
-804.503589524003 -296.570514900957 2380.14136508099 13 16 9
-803.691858930923 -295.672002990679 2389.70624222429 16 19 12
-836.514969120873 -301.52761055703 2387.41555912797 17 20 13
-822.628606506741 -298.001171420067 2401.61445630141 13 16 9
-840.532924933211 -300.849441925278 2404.72210666643 10 13 6
-912.761193780008 -314.556752311345 2389.30815656955 12 15 8
-970.092640569757 -325.253180473409 2379.3872659471 11 14 7
-895.311592404221 -309.558629854484 2414.28038705365 12 15 8
-933.940327421034 -316.505112071813 2410.87363410421 14 17 10
-876.224472500507 -302.761623048306 2458.3193327894 20 21 13
-681.46909530824 -297.651614381558 2207.71144773078 13 16 9
-630.118561057301 -286.141349969256 2238.95260095195 9 12 5
-704.636129186214 -301.056546274496 2216.11034886579 19 22 13
-709.340563394665 -301.310300124868 2223.3197370513 21 24 15
-704.944799114758 -298.928115901231 2243.55926157064 18 21 12
-692.139283200798 -295.525685099718 2258.03752261081 18 21 10
-683.926224583422 -293.087817355633 2270.53591355003 18 21 10
-662.778358105411 -287.961444556966 2288.24992669867 19 22 13
-689.626291541991 -292.828264323259 2286.387127893 20 23 14
-700.796403108316 -294.425702798258 2290.98130588608 20 23 14
-710.129484358314 -295.637130778215 2296.36733136918 21 24 15
-707.442464957976 -294.353708910455 2306.55502797729 20 23 14
-724.196232552986 -297.096120938262 2309.08791954812 19 22 15
-715.023929858456 -294.471267930548 2321.80575674325 18 21 14
-719.74621299254 -294.720599483233 2329.09119650957 19 22 15
-704.058800296222 -290.759194130819 2344.21169662225 18 21 14
-695.776482346231 -288.331602096385 2356.41093494528 17 20 13
-719.071278147006 -292.405165870545 2356.65219765619 16 19 12
-760.989764411053 -300.294718980033 2350.06995392119 16 19 12
-810.404552464846 -309.702635641477 2340.96035844905 16 19 12
-871.57060757399 -319.218640403784 2356.3565693822 9 12 5
-882.940042728316 -320.780408760707 2361.80701533306 12 15 8
-870.035986211138 -317.391503315989 2375.85900497435 13 16 9
-873.002224624773 -317.239321193543 2384.28404287964 15 18 11
-867.708335168313 -314.653577324443 2405.0025901725 19 22 15
-913.753048545654 -323.23678737008 2398.78415226165 19 22 15
-902.689128058866 -320.232298671269 2412.05704258411 19 22 15
-892.545896109189 -317.420171995099 2424.94375120063 19 22 15
-905.07800352867 -318.435261122091 2439.75355336847 20 21 13
-891.15050181637 -314.869348477625 2453.74795098685 23 24 16
-862.157991812154 -308.278384181613 2472.48594880437 20 20 12
-730.407686910238 -319.797425943014 2149.31425317937 14 16 11
-643.758622614635 -298.329165469172 2224.20629239275 14 17 10
-717.294733864343 -313.269967039553 2201.61064298739 9 12 5
-695.356930259635 -307.861317127402 2220.23411863617 16 19 10
-713.958381878533 -310.340461250842 2230.7530366916 18 21 12
-685.521952384985 -303.57391850937 2251.8381755535 18 21 12
-673.630695512407 -300.32582522902 2265.87847165117 17 20 9
-660.799118601214 -296.885633563184 2280.21968324174 17 20 9
-671.014074244897 -298.320907251013 2285.06700725498 18 21 12
-678.470926445688 -299.169803140736 2291.08487088677 18 21 12
-711.804066020567 -305.468677432421 2286.74489321652 18 21 12
-737.783477748785 -310.20360933398 2285.53480850254 18 21 12
-742.517622753099 -310.459782508377 2292.87762892031 17 20 11
-751.88476671807 -311.687133197477 2298.42203312319 17 20 11
-721.429257635928 -304.558593022936 2319.51092937724 17 20 13
-732.644115958703 -306.174964700076 2324.31342320588 17 20 13
-767.988674078634 -312.83495221756 2319.93649552822 17 20 13
-718.995614637363 -301.123328623379 2356.89011334293 17 20 13
-901.64237718756 -336.922764748664 2317.01270682654 18 21 14
-779.840045234986 -310.848307025136 2370.99197317046 16 19 12
-868.48308010434 -328.497669544556 2348.20876950334 9 12 5
-884.505170914529 -331.0545341812 2351.96365900124 10 13 6
-885.615939646261 -330.517798398251 2361.09906039858 11 14 7
-865.567697816099 -324.08660126123 2396.5615014704 20 23 16
-853.560873812332 -320.854187138112 2410.10176428948 19 22 15
-879.921062649187 -325.521991026587 2410.53012000973 20 23 16
-881.018673179611 -324.986205466046 2419.60918410472 19 22 15
-867.116084591608 -321.371822270416 2433.68485448197 18 21 14
-896.344676026982 -326.606781120883 2433.41631944536 19 20 12
-899.32563261272 -326.45377066626 2441.90572688394 20 21 13
-893.854360264003 -324.571464817648 2453.14246403224 23 24 16
-880.853788326007 -321.154630396449 2466.75272430809 20 20 12
-702.057027607777 -321.785457460094 2171.37009351824 12 14 9
-792.873885052738 -340.729510757291 2140.69970045049 16 19 12
-751.794112141345 -331.065058523953 2168.16165663724 20 23 16
-678.548212209495 -314.465105099303 2209.28699541909 13 16 9
-658.446359393747 -309.384714326205 2227.07989909788 15 18 11
-687.002433234185 -314.81494306104 2223.96271611774 13 16 7
-697.209762375099 -316.276643755638 2228.79089046524 17 20 11
-671.553883359703 -310.013507540965 2248.75560326397 17 20 11
-670.714551595275 -309.1001922233 2258.18906048055 18 21 12
-631.235418275037 -299.168564948318 2292.54721165722 22 25 14
-634.050060101794 -299.051173216209 2300.32360397289 21 24 15
-674.706394545884 -307.031108975371 2292.79024592462 20 23 14
-690.479164659207 -309.672379078604 2295.49612957774 18 21 12
-710.891528815363 -313.296834301584 2296.44189404339 18 21 12
-765.546023330698 -324.213310326279 2283.96813542734 17 20 11
-789.73304643917 -328.613766426155 2283.77583980654 18 21 12
-731.533934224257 -315.476660399054 2315.77837923568 17 20 13
-676.96144542767 -303.140316673168 2346.00617914677 17 20 13
-807.765504254479 -330.173613303044 2304.91704765044 17 20 13
-849.730225043308 -333.708533840669 2355.21491055415 11 14 7
-868.532066870796 -336.89639049093 2357.92089272116 12 15 8
-868.700415618291 -336.163232485265 2367.3443264928 12 15 8
-865.453505327689 -333.182452807761 2396.85069412036 16 19 12
-853.45178137067 -329.909571944073 2410.390715874 17 20 13
-854.679965568899 -328.643700515146 2428.72856194453 19 22 15
-871.691838497459 -331.425519262758 2432.42090539565 17 20 13
-874.657231381113 -331.278372056887 2440.84517878304 19 20 12
-891.700008111651 -334.054548527392 2444.67038355642 19 19 11
-877.775775770792 -330.398312866746 2458.62606285741 22 22 14
-714.900847572401 -332.667477065656 2175.13017636992 13 16 9
-693.137609764748 -326.386919985458 2203.12287396039 10 13 6
-625.333645519028 -310.786245575279 2241.47673221297 13 16 9
-648.420005268438 -314.375349196625 2249.62737412422 14 17 10
-663.2013732086 -316.868947850023 2252.43520647887 22 25 18
-656.836809931327 -314.74503357021 2264.15097623516 21 24 17
-653.22383673397 -313.22438825366 2274.67635317067 20 23 14
-634.86185054844 -308.498011512855 2291.23043100171 21 24 15
-640.444935119037 -308.984297669041 2297.89201995335 22 25 16
-658.949921239564 -312.272632476797 2299.34898311389 21 24 13
-679.324223462608 -315.957379734813 2300.16140020684 21 24 13
-686.789233102106 -316.837550369401 2306.23469139933 19 22 11
-726.618691493956 -324.713236952302 2299.5516455083 23 26 15
-753.547726342648 -329.782939218695 2298.16664143999 22 25 16
-706.454345783506 -318.870368960072 2325.73460372465 19 22 15
-648.179976146969 -305.573250181668 2357.31140139636 16 18 13
-763.162884334677 -329.595871725593 2322.19982025073 15 17 12
-839.339667602464 -345.218423109282 2302.52757510499 15 17 12
-813.949133062619 -336.702761702575 2349.67620881445 12 15 8
-817.811514101984 -336.76550335824 2357.62017169873 9 12 5
-848.683491531039 -342.592195646803 2355.82748043121 12 15 8
-860.956349786398 -344.438713409707 2360.87108888701 12 15 8
-847.133377820907 -340.722735156784 2375.23784099867 14 17 10
-861.283110729496 -342.964010605307 2379.67032384058 15 18 11
-881.051693490864 -346.392482408947 2382.22035215321 15 18 11
-825.293160865344 -333.025016241322 2420.28559262575 13 14 9
-871.42426019216 -341.259284151936 2423.35539648585 18 19 14
-849.370723733464 -334.304145580101 2458.78600282854 17 18 13
-872.971896798611 -338.507827040934 2460.45387094866 21 22 16
-926.659321970809 -349.023972408793 2452.59708556475 21 22 17
-766.823626143545 -353.862883899655 2142.99433324893 9 12 5
-735.081789940497 -345.24930328132 2175.76819043991 18 21 14
-695.906552664417 -335.020988034339 2211.28989378235 14 17 10
-654.703443727765 -325.128036986947 2238.07287855629 11 14 7
-662.128684246721 -326.032435656518 2243.98408785937 13 16 9
-620.842943584599 -316.152859224782 2270.41190264913 21 24 17
-660.445306415257 -324.176816797206 2262.8153512584 21 24 17
-685.371109549849 -328.940293394749 2261.53674256224 20 23 14
-682.696323184627 -327.604436172371 2271.74750419561 21 24 15
-667.112016045151 -323.426899541737 2287.19522533215 21 24 15
-693.008162706667 -328.385011636958 2285.74949414669 21 24 13
-672.790976129446 -323.196110129531 2302.97034846974 20 23 12
-676.55620641771 -323.282795549675 2310.50029221008 19 22 11
-708.139257210997 -328.719884252597 2316.16933943546 20 23 14
-725.810025601251 -331.838379625408 2318.40568504928 18 21 14
-688.867911278832 -323.01642247411 2341.81187006177 16 18 13
-700.984978233796 -324.920196547597 2346.20264873883 16 18 15
-843.913005605655 -350.669098563761 2357.78434302631 11 14 7
-862.700889254196 -353.956099208732 2360.48604427822 12 15 8
-869.392823578828 -354.622359598317 2367.58331197088 14 17 10
-861.166744988191 -352.06845511927 2379.95608040176 15 18 11
-935.067779723533 -367.211425060698 2363.64380856887 16 19 12
-823.191832091696 -342.3441914542 2411.95075802732 17 20 13
-814.911696553045 -339.798652539914 2424.09024080715 14 15 10
-855.252230418841 -347.695036663495 2419.67146100962 15 16 11
-815.15732674308 -338.325593682387 2442.53293391738 16 17 12
-863.038692996676 -347.817713161541 2435.82853737692 18 19 14
-861.313390660352 -346.675304549472 2445.78064589785 19 20 15
-829.575590676867 -339.122225908541 2465.52573726892 21 22 17
-861.602007720897 -345.193022364825 2464.40842543363 17 18 13
-753.292551818684 -358.268600963927 2167.98067616897 16 19 12
-725.9497458907 -351.331081075357 2189.22798028793 15 18 11
-691.335808453027 -342.014962653393 2222.60280215183 11 14 7
-627.215278065439 -326.118306029379 2267.89891660346 19 22 15
-674.165427881711 -335.901545604119 2257.26227219683 22 25 18
-699.092984047863 -340.731768518455 2256.03064636965 22 25 16
-718.527424308745 -344.32162992214 2257.20317473979 22 25 16
-734.300243021974 -347.084423291886 2259.98074856863 22 25 16
-688.319123130149 -336.065724484703 2287.83114372734 21 24 13
-678.255539843619 -333.073608324536 2300.96296622621 20 23 12
-661.713818582307 -328.645870334531 2316.60101581128 19 22 11
-682.100922121943 -332.435513989771 2317.53262591328 20 23 12
-769.997566263693 -351.202976484456 2292.11802531411 20 23 12
-731.275806429529 -341.848016925598 2316.48138601669 18 21 12
-755.562826648734 -345.70645427029 2325.52592223043 17 19 16
-847.358881331029 -361.307790459062 2347.32808334868 9 12 5
-859.787400037945 -362.468416002584 2361.76810024916 11 14 7
-826.406811668901 -354.376968118365 2383.07028192223 12 15 8
-873.17213187467 -363.828134990427 2375.98135002238 14 17 10
-842.550695428447 -356.354338478888 2396.13491996711 17 20 13
-847.51596777447 -355.882157193836 2413.18063803787 19 20 15
-832.703598459357 -351.881079327014 2427.57625608816 15 16 11
-893.224121382761 -361.903664137211 2444.98224076308 21 22 17
-838.982986304114 -349.382088103589 2472.00482215395 23 24 19
-862.576934950417 -353.709912142811 2473.7138719399 17 18 13
-708.19693082973 -357.695030450828 2178.53596340836 18 21 14
-754.095356823643 -367.422849343143 2167.78971471237 17 20 13
-729.512488260433 -361.026840673622 2187.84599864966 15 18 11
-714.061388640369 -356.72820094374 2203.80947984123 14 17 10
-706.843437287373 -354.314907163511 2216.15093333127 11 14 7
-650.117034005143 -339.886018558398 2258.43969698188 18 21 14
-676.932199979309 -344.471398392265 2265.38195689718 24 27 20
-712.914115960328 -351.869797518168 2259.69041172392 23 26 19
-711.178848976114 -350.713540006367 2269.59155121527 23 26 17
-719.577411145806 -351.8498659203 2275.37178155349 21 24 13
-667.114950738939 -339.239783468752 2305.62159114122 21 24 13
-677.336467912236 -340.795813854659 2310.56885417378 20 23 12
-712.504365976358 -347.96719157383 2305.71424370202 20 23 12
-756.034221063274 -357.002529187454 2297.79263240977 19 22 11
-804.243542896114 -367.067614661542 2288.31399067552 18 21 12
-725.740686076948 -348.661405596353 2327.99488968457 18 21 14
-729.542583923215 -348.752774811925 2335.68916662981 18 20 15
-767.631478249421 -356.522433219017 2330.38773046683 18 20 15
-871.231444773395 -376.540611988642 2329.33931125304 7 10 3
-861.186626796943 -373.509044765188 2342.5306206737 8 11 4
-820.426176551843 -363.65149211611 2366.72862843244 11 14 7
-813.122282592231 -361.248615898569 2378.69749663922 11 14 7
-866.693115634606 -370.777801132398 2387.97206548046 14 17 10
-844.456863850008 -365.071148812679 2405.10513151661 15 18 11
-858.615177426528 -367.415360039103 2409.6359691793 18 19 14
-865.312951727842 -368.107030954933 2416.77283039908 17 18 13
-857.053027972964 -365.499765043846 2428.96615852971 17 18 13
-865.625479302296 -366.602369390005 2435.49281059033 17 18 13
-873.426465813234 -366.744497647094 2451.72424223894 16 17 12
-891.396820330065 -369.899585621252 2455.3033456128 20 21 16
-863.409735427686 -362.977775897254 2473.72082622838 22 23 18
-756.570382545406 -377.762614776012 2157.43700515699 15 18 11
-795.16526748844 -385.918953572483 2150.03628146079 21 24 17
-753.219639942566 -375.412569862484 2177.74290711603 12 15 8
-732.292600502056 -369.788980958434 2196.13756492267 12 15 8
-676.582729643741 -355.381316718553 2238.36183257487 12 15 8
-666.819273162361 -350.09411725959 2278.80581564473 26 29 22
-700.042639464326 -356.957027230096 2274.31494757569 25 28 19
-691.848058124769 -354.314780100873 2286.77455074835 23 26 17
-709.454990540054 -357.581572846873 2288.8179084244 22 25 16
-702.173759892187 -355.151341105499 2300.87055459148 22 25 14
-734.577751128034 -361.78572624159 2297.19104386575 20 23 12
-737.460889785477 -361.67197561682 2305.27250060341 19 22 13
-761.732966240077 -365.652318712907 2314.32180056672 17 20 13
-708.16818699775 -352.703617013564 2344.07248699109 17 19 14
-795.464748421869 -370.973525091436 2329.39123590366 15 18 11
-845.859872486575 -380.807762986963 2329.40871892969 12 15 8
-828.38209657137 -376.06410696288 2345.29256666181 11 14 7
-789.629642736327 -365.750324256681 2378.07062185423 10 13 6
-812.088076484681 -370.0290121455 2379.30453203702 11 14 7
-837.3679280246 -374.931225638581 2379.66657834107 15 18 11
-847.769609321639 -376.478782859017 2385.40167807189 16 19 12
-889.134761008148 -384.167995704989 2389.93359469877 15 18 11
-870.639894610388 -379.227258034612 2405.77713220309 15 16 11
-862.395656758188 -376.588868357159 2418.02018904895 16 17 12
-860.682582660149 -375.414070790212 2428.00713209519 17 18 13
-837.716300004245 -367.931291265594 2463.66280495499 23 24 19
-858.470427825575 -371.761970706281 2466.23587103979 17 18 13
-912.08043347044 -382.878269818774 2458.38983511351 12 13 8
-722.627305017386 -378.781542290465 2172.50614940322 13 16 9
-743.804947387269 -382.969436405769 2172.59807378134 21 24 17
-763.177499741312 -386.723514037986 2173.59556147313 13 16 9
-756.007262938514 -384.250380681117 2186.112077029 11 14 7
-706.656364165593 -371.912596822695 2216.56415594346 12 15 8
-646.442932235551 -354.785602758488 2278.35354901026 28 31 24
-650.189027237912 -354.899336314246 2285.81508050554 27 30 23
-690.754346415388 -363.567762706862 2278.28451814128 26 29 22
-735.976979769181 -373.296427636949 2269.11615558244 23 26 17
-716.743071457095 -368.057727136665 2286.08420333813 23 26 17
-719.615242841715 -367.949260530981 2294.12043985152 23 26 15
-710.491632159169 -365.065260673035 2306.90150675263 21 24 13
-729.981840406303 -368.798016782898 2308.4038269438 19 22 13
-720.848449112012 -365.915233803611 2321.14251057266 18 21 12
-781.979675512388 -379.235517147663 2306.72469750505 17 20 13
-784.893718861938 -379.119190224788 2314.94082279612 17 19 14
-784.105532166126 -378.150605967255 2324.56823362554 17 19 14
-819.450391703921 -385.483991395831 2320.58870482739 16 19 12
-813.266500961725 -382.477262936227 2341.6941911772 14 17 10
-795.908211051731 -376.924465468246 2366.74255076947 10 13 6
-848.100982023358 -388.0600238972 2357.22018386286 9 12 5
-828.729409480891 -382.84123507647 2373.59331524349 11 14 7
-824.22414177973 -381.021172502922 2384.56702793356 17 20 13
-862.560236607918 -388.956118496113 2380.45211611626 18 21 14
-859.161455203312 -386.583270505941 2400.53291946092 16 19 12
-878.922410541529 -390.267351675314 2403.20076445201 15 16 11
-885.63162700279 -390.984476737909 2410.40301770714 14 15 10
-843.747708532052 -380.701052899504 2433.95630077256 15 16 11
-854.178367332094 -382.266458201846 2439.83067611707 17 18 13
-834.673601577226 -377.067616532776 2455.62861386283 19 20 15
-850.726359540526 -379.899358755741 2459.68031449426 13 14 9
-890.224909192756 -388.005268545251 2456.2319965418 21 22 17
-657.633815425653 -372.20609188552 2201.21122227732 17 20 13
-737.292427023891 -390.378709791282 2175.59866481143 21 24 17
-719.133659872947 -385.27191917713 2192.82558198148 10 13 6
-711.937580811203 -382.777055340513 2205.21544052313 13 16 9
-668.341866562615 -369.345424760977 2260.38480754692 19 22 15
-671.183483773319 -369.246010965555 2268.29172936458 24 26 21
-662.993193628604 -366.545863183894 2280.73618673692 26 28 23
-711.835066140584 -377.276562359928 2269.87892694751 27 30 23
-717.466981693642 -377.821526976795 2276.79020604654 26 29 20
-736.924065361372 -381.611306195538 2278.18009942007 23 26 17
-731.512486615449 -379.557154970295 2289.5798934865 21 24 13
-705.79541834038 -372.74831539097 2308.95291990723 22 25 14
-681.887907582208 -366.377439044152 2327.44468119713 19 22 13
-690.278990570929 -367.571579848704 2333.22487238237 18 21 12
-747.672166225364 -380.20559819918 2320.1592159291 18 21 12
-797.739650951028 -391.100978380485 2310.24316245487 16 19 12
-823.041591699819 -395.397391141567 2319.46013268392 24 27 20
-808.665495133653 -389.659709721775 2352.98460263212 19 22 15
-828.312516787498 -393.415576324073 2355.19152571916 8 11 4
-833.113861065899 -393.726217816588 2362.86141486255 10 13 6
-826.75963969432 -391.456461749597 2374.5369776271 11 14 7
-855.756678915093 -397.352811514286 2373.6370988946 14 17 10
-852.197964959168 -395.726473715484 2384.339408388 14 17 10
-853.451200591595 -394.407551966862 2402.75644302009 20 23 16
-899.3284028688 -404.148591829267 2396.48085254548 19 21 16
-918.18783017303 -407.66376128926 2399.63201773699 15 17 12
-877.27533143323 -397.463626345673 2422.95851666218 13 15 10
-811.063812079644 -381.491052419619 2454.43947306833 14 16 11
-827.088252991584 -384.367980355053 2458.39405565627 16 18 13
-918.959278770711 -404.569535205374 2437.66604829559 20 22 17
-880.739483626534 -395.029410867918 2459.57604026371 19 21 16
-648.503612309323 -377.935538463305 2214.47189462224 13 16 9
-707.26275607035 -390.50864510473 2207.38965298587 14 17 10
-644.325936329513 -373.069582972156 2261.55217718572 14 17 10
-674.780263060467 -378.808847256344 2266.98155281193 23 25 20
-673.030495632516 -377.614719448072 2276.79543452627 25 27 22
-662.99816134678 -374.447453969724 2289.96194098624 27 30 23
-715.536119558298 -386.188355373822 2277.76030457557 25 28 19
-706.43550843277 -383.238136205499 2290.60268630646 23 26 17
-738.793073977356 -390.145089295396 2286.87891285268 22 25 14
-714.013186053403 -383.473370503724 2305.90593889469 20 23 12
-692.889231452976 -377.682465666348 2323.33446548609 19 22 11
-710.520658239833 -381.081673873014 2325.56255548975 18 21 10
-753.123391725495 -390.379090273272 2318.26715177614 16 19 10
-757.868164084501 -390.709163188625 2325.69918143445 16 19 12
-795.928419605102 -398.900385897729 2320.5194965775 17 20 13
-793.295902525916 -397.478675075099 2330.86711112251 4 7 0
-809.338498262197 -399.653436163844 2343.60151466234 24 27 20
-837.319865942085 -405.42498830147 2342.70900706395 15 18 11
-823.557894691362 -401.385972985652 2357.15456355813 14 17 10
-826.497564701465 -401.27006665835 2365.48386203499 10 13 6
-851.75008609405 -406.377818559432 2365.84745338091 12 15 8
-856.568317655081 -406.693576280058 2373.59476680234 14 17 10
-861.390593246898 -407.008402105362 2381.35935243888 14 17 10
-860.794089879145 -405.245344875931 2400.47695916178 17 20 13
-894.536207334346 -412.290402693933 2398.37914044149 20 22 17
-957.254649871819 -426.056818291311 2386.66150897927 16 18 13
-833.398974218516 -395.649738778015 2447.27096572111 14 16 11
-829.794771137999 -394.013491045604 2457.76699526982 15 17 12
-876.71804705534 -404.076845029417 2451.73308913651 19 21 16
-917.145718627443 -412.614087171608 2448.07630635656 19 21 16
-734.185438785776 -408.318019527021 2167.90239782625 17 20 13
-642.941711771384 -385.257281128593 2217.05357464686 18 21 14
-668.631869349855 -390.737981472759 2215.00750643082 17 20 13
-712.657117556457 -400.667718177225 2205.23853249675 15 18 11
-731.098121751349 -404.354567611245 2206.64794778286 13 16 9
-679.197287195693 -389.381098933227 2256.21033403345 16 19 12
-680.210383861402 -388.842320619629 2264.91413478336 23 25 20
-665.602493382651 -384.527586713517 2280.02632195105 25 27 22
-641.778055102023 -377.996072153395 2298.78966620412 27 30 23
-649.201837298544 -379.015081517244 2304.76185956716 25 28 19
-703.587995848339 -391.344997780014 2291.93699774432 22 25 16
-711.979942751563 -392.577620930059 2297.74471630315 20 23 12
-726.834432802391 -395.359871993118 2301.04345624234 17 20 9
-724.17821503356 -393.93032014952 2311.2820200852 20 23 12
-706.746000171988 -388.959080906736 2327.23277900674 19 22 11
-729.933766781247 -393.729218660116 2327.41211160893 18 21 12
-756.847753520736 -399.37918987816 2326.30209216333 21 24 15
-894.705407826537 -428.204428955942 2321.90661353999 19 22 15
-826.230631434514 -411.098426398235 2356.41801640285 11 14 7
-821.742798606564 -409.221397244797 2367.43505128987 10 13 6
-850.702003327319 -415.279329880362 2366.46457616847 12 15 8
-855.519162728666 -415.603661793312 2374.21220809759 16 19 12
-851.965510078249 -413.945509567487 2384.91702199646 16 19 12
-867.959146369144 -416.909777942366 2388.7872325013 16 19 12
-838.758055904499 -406.766132860712 2436.41354872301 19 21 16
-861.324219030663 -411.26054437616 2438.24797168481 17 19 14
-863.350344693783 -410.92196812764 2446.97710716208 14 16 11
-865.376778263378 -410.583020361296 2455.70738093772 15 17 12
-887.061990582958 -414.847975282131 2458.08236149557 16 18 13
-956.547410154237 -430.284856882432 2445.26942163582 18 20 15
-682.036002123022 -404.374857519241 2190.95995167428 24 27 20
-683.976401988901 -404.058274981244 2199.32426596717 14 17 10
-717.000011857428 -411.409559122354 2194.24040190285 13 16 9
-724.450980786818 -412.441822233488 2200.34019106828 15 18 11
-685.222583637088 -401.980866647262 2226.3769116111 14 17 10
-719.222941847707 -409.547025704942 2221.16713893254 13 16 9
-708.35026286166 -406.074728772292 2235.00759977194 13 16 9
-707.550748478278 -405.080280041503 2244.5698816565 15 18 11
-665.442415008748 -393.964484520856 2271.20218172023 22 24 21
-653.586489096205 -390.277454850868 2285.13999829859 24 26 23
-666.528887613584 -392.660779686217 2288.89222622262 26 28 23
-680.406101698751 -395.266069292267 2292.33793563243 25 28 21
-715.467796003587 -403.032509203523 2287.36641287371 23 26 17
-730.313077724876 -405.854161293221 2290.647750014 21 24 13
-713.841572694081 -401.045818576073 2306.37135342413 18 21 10
-730.545411709887 -404.313115888221 2308.9918649309 20 23 12
-749.114848531903 -408.025128154515 2310.98202819448 20 23 12
-707.683062514781 -397.172228115873 2336.19271958545 20 23 14
-816.840043923114 -417.928652679015 2360.06591605627 14 17 10
-806.778448962727 -414.694777510016 2373.06430551021 11 14 7
-824.571139687051 -418.156172179841 2376.0406796283 13 16 9
-824.08776143185 -415.595691075089 2404.30166035107 17 20 13
-878.257431960718 -427.732668349616 2394.96575336712 18 21 14
-908.262264697939 -434.070529243477 2394.21006893241 17 19 14
-855.451630940705 -419.818719236953 2431.07391433255 14 16 11
-871.649016092298 -422.031491074676 2444.51276574235 17 19 14
-881.162916134951 -423.468387081251 2450.82819575104 14 16 11
-886.175022300685 -423.008254722047 2468.08737735192 19 21 16
-703.847700469061 -418.631055294611 2181.54102841333 17 20 13
-693.930848192403 -415.34410828142 2195.14602225298 15 18 11
-739.745256165765 -425.982181790674 2184.56492387467 16 19 12
-728.005762199708 -422.237727885471 2198.98203151369 14 17 10
-776.645655084371 -433.546510750634 2187.5758296777 14 17 10
-692.786818410017 -410.248356661279 2250.90164375128 14 17 10
-643.414845257761 -396.416489435495 2289.49598416015 22 24 21
-714.346342385761 -412.387891134141 2278.81327499062 25 28 21
-721.818815679364 -413.431557540303 2285.01453179842 24 27 18
-726.537052422539 -413.792375746566 2292.34771364781 23 26 15
-728.495490366131 -413.471222443659 2300.7888257108 20 23 12
-697.266129182739 -404.980321513375 2322.22279441387 20 23 12
-717.653240961043 -409.19884635255 2323.4066947259 21 24 13
-716.833456257742 -408.198305395959 2332.87607067445 20 23 14
-828.624842749777 -430.692619687091 2346.59593834018 0 3 0
-793.543852374388 -421.318847620798 2368.76484797856 17 20 13
-781.615247518874 -417.600774131365 2382.36522678376 13 16 9
-823.532095783744 -426.982443855166 2376.65337934436 14 17 10
-824.613273761137 -426.423860356887 2385.64553674674 14 17 10
-841.502129790633 -429.700415864707 2389.08678499407 14 17 10
-861.372708515565 -432.861677605176 2401.04300032361 17 20 13
-883.903257872007 -437.480680142476 2402.79376890334 18 20 15
-849.585403462393 -428.357858354293 2423.91668929079 14 16 11
-863.124960380304 -429.146274689398 2447.59006422714 16 18 13
-910.960804122362 -439.822184841679 2441.38133633216 16 18 13
-926.115541599606 -442.623862208534 2446.01565144324 14 16 11
-893.546820845644 -433.968776363613 2466.00746934081 19 21 16
-729.440406576846 -433.163417426169 2179.83301883714 20 25 19
-709.487382549086 -427.299796591357 2197.82107740951 12 14 9
-738.870973956423 -433.906556323894 2194.48600389221 14 17 10
-756.399445698829 -437.507350597074 2196.38006750826 14 16 11
-735.50176771875 -431.417352952677 2214.62978240758 14 16 11
-693.505236496003 -420.029595524653 2241.59370194952 13 15 10
-686.282317421337 -417.408231287599 2253.79088455337 14 15 10
-691.889061241243 -418.013411730652 2260.62665950137 17 19 14
-658.950194025579 -408.947277931002 2283.30312661294 19 22 15
-692.197068808928 -415.682037079404 2287.95328826689 26 29 22
-716.208287905132 -420.883790011181 2287.4586820947 25 28 21
-754.975177872497 -429.757905703151 2281.23699797969 22 25 16
-726.561644704712 -421.852551647414 2301.75321959837 23 26 19
-722.990241852494 -420.153812163886 2312.35703021045 23 26 17
-762.754665486122 -429.244396212645 2306.10305319398 21 24 15
-748.247264426049 -424.007471860541 2330.22955060493 21 24 15
-813.838106400181 -435.328029982913 2361.62780427943 7 10 3
-826.977473062189 -437.740166519608 2366.26601964449 15 18 11
-847.55900890247 -441.977774718126 2368.31788840257 16 19 12
-847.72817495694 -441.185726873281 2377.71028661866 16 19 12
-852.543072678645 -441.535297793459 2385.46279704629 14 17 10
-848.059852042808 -439.601729749317 2396.46690157536 13 16 9
-873.354829102356 -444.9688812557 2397.17014738389 14 17 10
-873.53209280671 -444.174273740532 2406.59672298813 15 17 12
-846.676876028143 -436.770273803212 2425.16185101847 15 17 12
-926.719749453126 -452.941540362475 2436.51886333159 6 9 2
-948.427169825853 -457.371372605673 2439.0886808006 21 24 17
-858.802768089632 -434.749021608107 2477.40667094679 14 17 10
-740.283670572132 -444.887072642664 2175.27252407615 6 11 5
-723.085723510585 -439.658587584929 2192.10538448394 17 19 14
-702.207132635427 -433.499953268749 2210.39775188588 14 17 10
-701.416518450347 -432.482123917646 2219.98550144569 14 16 11
-716.179146448956 -435.431671615222 2222.97892917697 14 16 11
-702.572419810305 -431.147346916611 2237.96429975119 13 15 10
-664.204346915962 -420.57102575305 2263.16784352078 14 14 12
-724.940260537837 -434.387277563141 2256.41366581895 19 22 15
-692.930029089097 -425.451587534742 2278.70255299657 23 26 19
-667.306281121172 -418.152374110717 2298.19838048192 26 29 22
-697.729782582298 -425.050812933578 2295.0598124748 25 28 21
-673.910304047371 -418.222094603226 2313.67020666858 25 28 21
-672.152113704636 -416.977677545846 2323.41739368212 29 32 25
-738.562103331856 -432.927703131938 2306.46805360504 31 34 25
-755.277798531131 -436.321840065668 2309.21541319809 14 17 8
-787.695832059783 -443.658974565459 2306.01111511557 19 22 13
-766.614759200307 -437.530338407002 2323.42996078721 0 3 0
-900.421208749349 -467.73107584289 2311.1043791866 16 19 12
-836.728437893479 -450.95144641817 2344.0968944475 16 19 12
-881.385033677768 -461.264198609185 2337.33527825177 13 16 9
-843.557884989034 -450.978301734129 2360.53685727692 12 15 8
-819.598690582251 -444.169400506542 2378.54215234576 14 17 10
-846.681466467847 -450.078062080447 2378.32806817345 19 22 15
-854.283151648767 -451.129285164884 2385.10315146253 17 20 13
-874.911072958684 -455.411908567757 2387.38589775084 15 18 11
-883.467329751846 -456.689339701627 2393.94401477797 12 15 8
-852.924923298877 -448.274509371863 2413.89343737754 13 15 10
-851.223970587971 -447.015810072727 2423.88444596818 14 16 11
-950.214351125376 -470.653571848038 2400.09496788125 15 17 12
-891.65851175194 -455.329276747239 2429.23912910083 15 18 11
-874.101205054658 -450.151670535394 2444.51836954848 15 18 9
-862.588747534145 -443.964705566168 2485.83993381105 16 18 13
-752.031121011635 -456.916647279375 2170.3199206496 5 10 3
-707.460685783388 -444.539605332875 2199.03017830698 13 16 9
-696.6288434037 -440.914175717801 2212.96160748849 14 17 10
-687.608706087265 -437.763793031403 2226.04087346135 14 17 10
-735.290139906266 -449.251510463184 2215.07279918709 14 17 10
-681.529587160631 -433.750392201095 2256.129851249 14 15 10
-670.632584447367 -430.134873791345 2269.77888956142 14 17 10
-698.242589926725 -436.419724811102 2267.55293857319 15 18 11
-652.459104655282 -423.853655885286 2295.36411296728 23 26 19
-653.454038464659 -423.306366569688 2303.98287183267 27 30 23
-642.499912481345 -419.699412212852 2317.38522925985 29 32 25
-657.280490625909 -422.682239303165 2320.47732950993 28 31 24
-650.911300259304 -420.253265258894 2331.9932834588 32 35 28
-717.285317158016 -436.39568823205 2314.99858871033 17 20 13
-731.217557524758 -439.130984415912 2318.76324118758 31 34 27
-872.520853282976 -470.01105490191 2321.64592686948 15 18 11
-861.980679539605 -464.78652966027 2354.14770391197 14 17 10
-789.801363411488 -445.7346259506 2389.41805532158 14 17 10
-834.49479547497 -456.163180039943 2382.8868718525 12 15 8
-864.382005863465 -462.842086204525 2381.81346739064 12 15 8
-858.053262483335 -460.402590026784 2393.50037883858 15 18 11
-890.781787138998 -467.773096022757 2391.68391126044 18 21 14
-860.255990146673 -459.262855090499 2411.6504072959 17 19 14
-864.150385310749 -459.39278368423 2419.77387357829 16 18 13
-931.426857585489 -475.381519593567 2406.66552253931 16 18 13
-845.051349373543 -452.087750802223 2454.34869410901 12 15 6
-926.850474259964 -469.929297483235 2456.20045432883 21 24 17
-761.03386310371 -468.303578893785 2166.56487637947 18 23 16
-745.690011159871 -463.438144658501 2182.66649608654 19 22 13
-713.105280795891 -453.240181770095 2215.35060089919 14 17 8
-665.684773108203 -440.028559892806 2244.6823182262 14 17 8
-755.459348067002 -462.628413004655 2216.12674351941 14 17 10
-729.975626763127 -455.148687694676 2236.13343782488 15 16 10
-729.195554779865 -454.113470198003 2245.75741524975 15 16 10
-705.489219283943 -447.119293860057 2264.76797933898 14 17 10
-650.552361035832 -432.02922746372 2296.32691412367 19 22 15
-664.400994107602 -434.814237337581 2299.7523847426 27 30 23
-676.428331287295 -437.120204969248 2303.98431953884 31 34 27
-658.130106036615 -431.570692434799 2320.3352231287 27 30 23
-699.605008234243 -441.486953894673 2312.99033653812 12 15 8
-743.895153535297 -452.107546039955 2304.79499016191 20 23 16
-745.865583265361 -451.785790788104 2313.2885908863 15 18 11
-754.289293124586 -453.12670613739 2319.29996923221 23 26 19
-792.988164702789 -458.055365725035 2360.58277997944 13 16 9
-824.620851377935 -465.306877014902 2358.42492359497 12 15 8
-847.200208012768 -469.376585481063 2369.18158665301 12 15 8
-848.47158580556 -467.998173799275 2387.64357604205 11 14 7
-900.678987239643 -480.426449655165 2378.94492712908 12 15 8
-882.282614080553 -474.888284477715 2394.87109514148 17 20 13
-861.998525002931 -468.88192960642 2411.31633919801 16 18 13
-808.164987440466 -454.382513656168 2438.97064241314 16 19 12
-899.607533706011 -476.70206807365 2417.60024605611 15 18 11
-842.925597551026 -461.502965304665 2445.96163827372 13 16 9
-876.663841354758 -469.182891930764 2444.22015911615 12 15 6
-944.053564038786 -485.338235309869 2431.70884758742 12 15 6
-935.859702211782 -482.400762693506 2443.99797935633 7 10 3
-922.978287534891 -478.288001472317 2457.72399364049 9 11 6
-930.657159028585 -479.355272209753 2464.84864292167 28 30 27
-707.392649493889 -461.459003221566 2208.681808559 20 23 12
-655.452771833268 -446.888886052815 2240.08267628475 20 23 12
-697.597010815192 -457.202771631818 2231.36473606548 19 22 11
-694.972912692916 -455.680081748985 2241.68897038072 19 22 13
-705.157933756396 -457.535987155752 2246.65178725696 20 21 15
-723.59852377099 -461.560600803366 2248.2569528954 20 21 15
-749.394379869243 -467.509958106449 2246.95230186606 15 18 11
-710.100023768077 -456.344183420107 2272.28490416782 13 16 9
-688.189469825866 -449.763889432721 2290.33933472106 20 23 16
-688.388621746678 -448.170769033654 2308.50660156809 29 32 25
-712.396662195485 -453.629499638725 2308.1491343222 26 29 22
-734.594163959565 -458.602188755799 2308.64033055768 12 14 9
-737.479780275831 -458.522170313807 2316.75254545336 34 36 31
-879.854618689042 -489.584222602034 2329.02159250002 10 13 6
-842.615020209891 -476.509242946275 2380.5113305617 17 20 13
-817.718654298147 -469.239729487949 2398.67348429907 16 19 12
-830.873182080306 -471.777381109375 2403.4523321529 13 16 9
-773.736810466698 -453.738393898554 2460.03790778311 16 19 10
-830.699704859477 -467.485826863888 2450.28746471554 17 20 11
-881.207343210963 -479.551609062569 2442.99937350769 18 21 12
-953.465882790075 -496.264358514388 2438.60041314445 19 22 15
-891.073107620685 -479.485011673045 2468.20772490806 25 27 22
-731.628425507792 -478.534860415687 2179.70726898374 10 16 6
-694.516270560354 -466.89906555433 2214.37836770363 22 25 14
-702.071901101153 -467.245346633956 2229.64978226823 22 25 14
-697.624045426651 -465.220755650011 2240.7561884361 21 24 15
-694.082874306058 -463.44137003933 2251.44578402687 22 23 17
-703.353993185796 -465.077299754188 2256.80844572664 17 20 13
-746.68329560825 -474.923310355816 2257.59379379817 16 19 12
-692.693263991829 -459.74337485735 2288.71464081369 16 19 12
-674.435396066103 -454.07138721399 2305.17243253963 21 24 17
-672.688338702236 -452.784574578565 2314.94374216661 32 35 28
-826.656161475171 -486.65863573626 2329.82726619172 8 11 4
-830.525648736014 -486.812766846697 2337.85629546752 8 11 4
-834.398143757463 -486.966216271045 2345.89709131034 11 14 7
-843.251985763276 -486.695580488351 2371.08272786787 14 17 10
-847.133638408171 -486.846187001563 2379.16329176957 15 18 11
-873.290319736426 -492.801048281637 2379.45188148666 14 17 10
-870.692311822153 -491.255239889287 2389.8774867115 14 17 10
-872.167391705029 -489.036177643489 2417.85655983092 13 16 9
-881.437163073781 -487.103458834164 2462.12414775667 16 19 12
-716.793856938867 -484.338958905134 2176.98903254822 14 19 12
-722.406755389556 -485.011032798398 2183.89018647137 14 20 10
-713.57787403482 -480.915898143984 2206.3715487393 19 22 11
-721.018668334567 -482.081131019037 2212.50471110726 26 29 18
-701.975568868333 -476.084904252607 2229.86802016881 28 31 20
-689.303331573226 -471.82055422509 2244.42663071733 28 31 22
-688.5032985289 -470.766232182587 2253.95141155689 29 30 24
-692.276764042927 -470.945281387336 2261.57088338937 28 31 24
-696.968951567364 -471.370112062823 2268.826927443 23 26 19
-726.412817363411 -478.44685969306 2266.03388908058 17 20 13
-704.530948667923 -471.724633383743 2284.13124337235 11 14 7
-675.274985086091 -463.037796515379 2305.03199538747 11 14 7
-690.980316980674 -466.416179327163 2307.87533949533 25 28 21
-734.276038920543 -477.171315491155 2299.93353223988 20 22 17
-781.306192736038 -488.90066491697 2290.7940697241 14 16 11
-834.846164273647 -497.9849498464 2327.01157790304 14 17 10
-827.050106454338 -493.314789111939 2358.26234910206 11 14 7
-821.66237832433 -491.024708209269 2369.62739015786 10 13 6
-870.190184032905 -502.108251182284 2371.26509336337 13 16 9
-885.419276248064 -504.36929657485 2385.02188810457 12 15 8
-881.89830478677 -502.564804507707 2395.78572821401 11 14 7
-906.256326793098 -508.089549948291 2397.00930876779 13 16 9
-941.806294337033 -516.539116526411 2394.59010510887 12 15 6
-929.000793239662 -512.28894072086 2408.56981551427 12 15 6
-841.038335216354 -486.635868614187 2466.09793226845 20 23 16
-763.101668627175 -506.009105880375 2156.84306328765 20 25 18
-693.660333804563 -482.682436089534 2233.56018551638 27 30 21
-675.505316586895 -476.8790126209 2250.39389035524 29 32 25
-692.985814059519 -480.806502897045 2252.2687036664 31 32 26
-648.265574882075 -467.777736039048 2279.93551565751 32 35 26
-712.444703058638 -484.414069576451 2262.67327927586 28 31 22
-696.993294772625 -479.364611724637 2278.19270719853 23 26 19
-681.518656657672 -474.318499487974 2293.61282532673 13 16 9
-730.245524211999 -486.699392608453 2283.22046414604 11 14 7
-741.393110449566 -488.868762919518 2288.05177421295 22 24 19
-839.52112640732 -507.544910095779 2335.00829587163 13 16 9
-805.814426721884 -495.901717567647 2375.56862604754 12 15 8
-827.267293884713 -500.770623978006 2377.27498475662 12 15 8
-892.303705002596 -517.262612020367 2363.70444435195 12 15 8
-896.218147892421 -517.41881980912 2371.932795419 11 14 7
-872.296143477855 -510.158540274776 2389.83648500421 11 14 7
-879.912220143194 -511.304576870245 2396.73075166141 11 14 7
-876.385320479686 -509.485115700962 2407.45966436538 13 16 7
-911.904521456732 -518.035726948942 2404.96431669262 14 17 8
-910.453591844798 -515.872353247117 2424.63886928869 16 19 10
-874.318884979862 -505.420818472059 2446.08699919784 16 19 10
-803.917870020053 -526.442826392057 2139.11128368405 14 19 13
-745.859615748457 -509.438400086451 2174.01629871838 5 10 3
-689.668705112712 -492.13360358992 2216.97323585192 17 20 11
-663.441425906147 -483.180213677583 2246.50692935333 21 24 15
-679.07265331213 -486.652669002826 2249.07797043383 26 29 22
-681.925126515855 -486.592333691786 2257.05571468868 31 32 26
-705.817613185899 -492.327767423136 2256.35179877656 32 35 26
-666.582460230726 -480.676384343309 2281.6585787811 32 35 26
-648.358783538126 -474.825237721398 2298.1616612847 24 27 20
-719.931361142376 -493.646091376711 2278.30957163035 17 20 13
-674.199228111696 -480.245035956267 2305.85592174514 13 16 9
-712.840327537126 -489.993312693454 2299.59517154419 18 20 15
-841.787755053649 -514.708084927189 2362.87981515628 13 16 9
-818.979206886284 -506.790216577479 2389.86075348149 11 14 7
-882.175795326278 -522.960517012279 2377.10758843752 11 14 7
-925.973375210403 -533.869096844701 2371.46750647546 11 14 7
-923.412620700125 -532.277888617377 2382.03165533442 13 16 9
-861.396527790191 -514.706476354532 2412.83297876352 14 17 8
-864.361866044684 -514.620674134572 2421.29200613008 17 20 11
