ply
format ascii 1.0
comment KinectMotionCapture
element vertex 765
property float x
property float y
property float z
property uchar red
property uchar green
property uchar blue
end_header
-844.201109337002 39.0143356010015 2102.514215613 196 202 202
-840.638959429398 39.8687432624553 2113.65540842377 203 207 208
-838.000486153169 40.639938873783 2124.35830193075 217 221 222
-837.218398011059 41.2464596563963 2134.22554040673 230 234 235
-831.774165309236 42.2605557850493 2146.09208239345 228 232 233
-824.455504208961 43.4359683587202 2158.71783211339 232 236 237
-821.789857600726 44.2019493216422 2169.30513778766 231 232 234
-820.052173289556 44.8854605784059 2179.47259264353 225 226 230
-816.441312191004 45.7304906158032 2190.40465154364 204 205 209
-816.562830962618 46.2497139161521 2199.74864132538 207 208 212
-818.55329381372 46.6064538587359 2208.3099426503 211 212 216
-820.544106590188 46.9631387106975 2216.87281835013 212 213 217
-817.851736834673 47.7236391014838 2227.34450355101 201 202 206
-815.153305286017 48.4829721889136 2237.79124998524 205 206 210
-814.325055950984 49.0800219197791 2247.46064625957 212 213 217
-816.309173547293 49.4350119353646 2255.99501599239 219 220 224
-817.354498888325 49.8702791595811 2264.90171666389 222 223 227
-819.338665954454 50.2250174120459 2273.43645246803 213 214 218
-821.32314576563 50.5796652078943 2281.97261961035 201 202 206
-826.131131433346 50.6942405751598 2289.42167586484 192 193 197
-830.001520805121 50.8892713840339 2297.24822831187 194 195 197
-831.047616528748 51.3239906912133 2306.15973240965 195 196 198
-833.035830564341 51.6787357229113 2314.71229750148 189 190 192
-836.911486011745 51.874259274127 2322.5617654915 188 189 191
-842.678068455541 51.9112068876656 2329.72420259341 188 189 191
-847.505219996093 52.0282776973954 2337.25624696884 184 185 187
-852.336363485257 52.1458953458016 2344.80556053312 179 180 182
-856.225584344497 52.3431611958979 2352.71378076633 181 182 184
-862.010669990716 52.3827497991393 2359.95620027609 176 177 179
-866.853814535596 52.5019978674266 2367.55743843436 177 178 180
-878.335910296403 52.0702612062633 2372.84077048496 182 183 185
-884.139782635678 52.1126556073345 2380.16432469057 182 183 185
-888.050822817671 52.312919907376 2388.16692981857 186 187 189
-894.813536180285 52.278133823132 2395.20467809683 191 192 194
-908.235214193864 51.6958601768558 2400.00956764239 187 188 190
-922.622900422772 51.0378499949075 2404.55938474659 174 175 177
-930.365966721702 50.9294376719635 2411.40294405599 173 174 176
-939.068850090312 50.7441730219309 2417.96480544761 174 175 177
-943.969447377717 50.8718686581821 2425.81424484899 184 186 185
-953.641023409975 50.6111299801937 2432.13270862401 185 187 186
-966.184912497936 50.1188887429291 2437.57409358424 184 186 185
-984.470948838402 49.1634170940264 2441.24944373635 176 178 177
-1011.37548666266 47.5143126196397 2442.30210017152 206 208 205
-1022.06226952609 47.1857824592543 2448.57652947104 215 217 214
-855.986640026841 28.4157928346337 2087.77383108781 189 195 193
-845.936583918303 29.8819582733709 2101.86277649174 184 190 190
-838.659746192328 31.0911402507459 2114.65296199257 205 209 210
-833.231487024473 32.1289310492672 2126.57595612593 220 224 225
-830.586067317675 32.9114756180096 2137.24265098915 212 216 217
-826.072032840666 33.8616675903661 2148.68936170158 183 187 188
-820.61771086642 34.8945100186011 2160.50041859012 187 191 192
-814.221011015937 36.0097115276694 2172.66786803051 214 215 217
-815.280218930014 36.4505797287212 2181.63244899156 214 215 217
-813.536515892412 37.14301177795 2191.76922136899 228 229 231
-813.65761434094 37.6668643151739 2201.10754978894 234 235 237
-812.841265727864 38.2739155641398 2210.82350492243 223 224 228
-816.700377442166 38.4622908639258 2218.60536248812 222 223 227
-814.944069535314 39.1519771042532 2228.68711914665 219 220 224
-814.120103284415 39.7573472875343 2238.37049533465 218 219 223
-812.355202643346 40.4452558747742 2248.41543302173 219 220 224
-815.276859080056 40.7164540313076 2256.57401575164 226 227 231
-814.444851884261 41.3199412628467 2266.22197999192 223 224 228
-813.609261145071 41.9227338511152 2275.85564805606 221 222 226
-814.650362380339 42.3591479671672 2284.74414673439 226 227 231
-822.275833378007 42.2162649885832 2291.08978802703 225 226 230
-826.143712268889 42.4050179345855 2298.90897028529 221 222 226
-827.188236727515 42.841634508082 2307.81243457569 212 213 215
-830.117318354131 43.1131369496798 2316.0024715817 212 213 215
-833.99084595942 43.30251962813 2323.84726134694 212 213 215
-839.755121878349 43.3279039660981 2331.0052493042 205 206 208
-841.746706342663 43.6822927204773 2339.57287599411 197 198 200
-847.518760806881 43.708791413874 2346.76557167875 189 190 192
-851.404620921837 43.8997606849388 2354.66377239249 189 190 192
-859.078610878297 43.7641249134146 2361.21895355205 182 183 185
-866.760292439823 43.6297346701883 2367.80729576818 179 180 182
-877.292320332822 43.2519955211522 2373.42872878286 178 179 181
-884.991284877498 43.1203097016236 2380.09163910912 173 174 176
-890.800314985648 43.1523887668968 2387.44398855445 182 183 185
-897.56389023951 43.1040556165294 2394.49350276312 172 173 175
-907.18419983997 42.8134527415075 2400.60253588926 173 174 176
-918.715790446437 42.3625784557588 2406.11522682187 178 179 181
-923.601306217471 42.479663759265 2413.9044490394 176 178 177
-931.346415479639 42.3550742233308 2420.76652572815 176 178 177
-940.051612158758 42.1510035535686 2427.34964198297 182 184 183
-954.484409628725 41.4652430879552 2432.11456697094 184 186 185
-970.84087015851 40.6213849017421 2436.33643372229 165 167 164
-984.353316564308 40.0214823231859 2441.55166977035 187 189 186
-1006.47540757973 38.7023915098395 2444.11912806658 218 220 217
-1016.20130176857 38.428732479066 2450.68346179878 204 206 203
-864.2107260478 18.6182816490784 2084.20914112826 202 208 206
-849.527675792843 20.5577580353965 2100.38717999537 210 216 216
-838.539708007333 22.1436472879111 2114.83022187816 218 222 223
-830.324809480646 23.4645019465791 2127.97749573548 223 227 228
-828.610384812989 24.1725939055291 2138.23298839187 223 227 228
-823.166638437419 25.228107616567 2150.07839935303 202 206 207
-819.577211852756 26.1078894156359 2161.08338478724 196 200 201
-812.251044269353 27.3337499786335 2173.64638476552 196 197 199
-816.108701616679 27.5164063861098 2181.42519721953 199 200 202
-816.234991669603 28.0459887960376 2190.78303271034 214 215 217
-816.358936550753 28.575134456602 2200.13187731781 203 204 206
-812.741413226473 29.4494838071323 2211.01733395722 217 218 222
-813.794280153267 29.8908734944906 2219.95366616015 223 224 228
-811.101740411389 30.6768409169376 2230.41070983763 215 216 220
-812.150334199482 31.1172590239193 2239.32878358566 213 214 218
-811.323298176624 31.7293867727076 2248.99465801353 217 218 222
-814.244607878641 31.9973141072873 2257.15363662161 225 226 230
-814.352021189228 32.5226577579948 2266.43078342873 228 229 233
-814.45706063018 33.0475452255305 2275.69882432357 228 229 233
-815.499912375115 33.486346816938 2284.59254610866 222 223 227
-818.422528946543 33.7539943203962 2292.75744812252 219 220 224
-824.169792251394 33.7658578312645 2299.84950763709 220 221 223
-828.039164580428 33.9489252152143 2307.6786149047 213 214 216
-830.968902287678 34.21745910076 2315.87437539761 208 209 211
-832.957387850723 34.5710941338455 2324.4287898605 204 205 207
-836.833262883019 34.7548973890654 2332.28611896317 205 206 208
-840.711908457217 34.9390214534266 2340.15546797744 208 209 211
-845.537768822511 35.0388731096095 2347.69303684643 220 221 223
-848.477286138959 35.3083649714382 2355.93024206113 218 219 221
-855.201960452389 35.2402191183003 2362.81998953764 206 207 209
-863.826372596542 35.0044093413867 2369.06579057559 197 198 200
-875.301388290588 34.5173695478643 2374.35045127637 189 190 192
-883.945778752517 34.2847037460955 2380.6813526786 179 180 182
-892.598886863245 34.0535029846937 2387.05089377696 179 180 182
-900.311925312169 33.9075792693941 2393.78419608504 181 182 184
-908.032436299804 33.762861533347 2400.55080378938 187 188 190
-917.66156961696 33.4519625587035 2406.71065678908 192 193 195
-922.546117793309 33.5605207079552 2414.50063062157 185 187 186
-932.192247880066 33.252332828595 2420.73487299646 181 183 182
-940.896436754886 33.0291122766315 2427.32481162122 178 180 179
-959.137400309371 31.9749469008811 2430.86067999283 180 182 181
-977.399892504259 30.9243097434116 2434.4882543426 178 180 177
-988.051103886851 30.5414260883785 2440.63899060013 171 173 170
-1003.4872660819 29.7457896172278 2445.3324507244 202 204 201
-1013.20914472034 29.4498403289711 2451.89328644413 219 221 216
-868.717564865385 9.12738837214466 2082.3104897625 179 185 183
-856.828798658746 10.8450287744043 2097.26300997775 157 163 161
-844.922130827891 12.5593385339282 2112.13751790553 168 172 171
-834.856364969836 14.0903245071315 2126.11911179643 166 170 169
-825.705083700475 15.5285355683669 2139.62861193042 155 159 158
-818.401099157508 16.7845031916442 2152.27165515351 159 163 162
-814.810861302617 17.6795169173571 2163.26519315329 189 193 192
-810.281585944462 18.6627344246429 2174.62531923673 190 192 191
-812.272711710718 19.0181573680972 2183.19031636296 171 173 172
-809.597845413256 19.8203344785842 2193.71461898145 161 163 162
-805.049254436718 20.7998446479717 2204.99180987628 174 176 175
-801.426841272441 21.6886776680814 2215.84720024691 175 176 178
-803.408265232768 22.04198622105 2224.37068925178 181 182 184
-806.325695179771 22.306348943227 2232.51466801648 174 175 177
-809.244730151188 22.5708884403545 2240.66561546861 183 184 186
-810.291477428616 23.0129970450063 2249.57455813313 185 186 188
-813.212415186057 23.2776636537805 2257.73381559192 181 182 184
-814.258586999763 23.7194267099927 2266.64042567263 178 179 181
-816.242648083226 24.0725412235555 2275.17564948638 179 180 182
-816.348225332572 24.6021226509969 2284.44221302981 185 186 188
-815.511446316989 25.2193313955175 2294.06216575245 191 192 194
-820.315514549069 25.3076144195622 2301.50942383008 190 191 193
-824.182139096925 25.4844335476567 2309.33118422409 187 189 188
-829.935514576666 25.4859590230953 2316.45625799137 188 190 189
-830.981472191569 25.9268027403068 2325.36246491413 188 190 189
-834.856061637657 26.104583692147 2333.21767110675 179 181 180
-839.677147121209 26.1952213902886 2340.7385320392 172 174 173
-847.335272590188 26.0243234572929 2347.24563160503 176 178 177
-853.111434903965 26.0291322771663 2354.46809970205 176 178 177
-857.94702514035 26.1219208518328 2362.05161184235 174 176 175
-865.625221336781 25.9541379087538 2368.6453224414 169 171 170
-874.258174879924 25.7006153768154 2374.93917985979 164 166 165
-883.847740592482 25.3616890030574 2380.9411600377 163 165 164
-893.447255349507 25.0244265036595 2386.98708920161 175 176 178
-904.005867026676 24.6021760970299 2392.75184572667 160 162 161
-915.525174674995 24.0953144005805 2398.24334084781 158 160 159
-925.157301902443 23.7632686049709 2404.42882460762 180 182 181
-933.848834855617 23.5191264048478 2410.97529939291 195 197 196
-940.646750697018 23.4487558816844 2418.18909964374 204 206 205
-950.306879591343 23.1211409865085 2424.49536874165 193 195 194
-962.834360081925 22.5373132171973 2429.91831619171 190 192 189
-980.141238463119 21.5265500923297 2433.86894625831 163 165 162
-987.931134792909 21.376439257846 2440.94339131997 142 144 141
-1003.36319567577 20.5425306407346 2445.64237554086 158 160 157
-1014.99310006369 20.0535822113444 2451.61068750619 146 148 143
-862.268527596789 1.26890364388577 2094.96784722254 179 185 183
-854.085254475435 2.65272470865463 2108.21853243157 159 165 163
-844.030385867717 4.21952820069232 2122.22707918003 164 168 167
-831.170184150759 6.06134136132874 2137.38226744913 172 176 175
-824.804339754425 7.25204860940037 2149.64018734623 179 183 182
-820.289842304475 8.25599127312559 2161.05324353237 192 196 195
-814.835184759124 9.35067515131882 2172.827534991 218 220 217
-813.100603235943 10.0748728485123 2182.98473207978 241 243 240
-811.361437335517 10.7981462942178 2193.12227138032 218 220 217
-805.883151552221 11.8883758217153 2204.79506313672 230 232 229
-803.198210140932 12.7012603161031 2215.26867127562 229 231 230
-806.116166341087 12.962590208756 2223.41675282566 237 239 238
-811.842054480192 12.9492304245133 2230.42945658476 232 234 233
-817.573228591264 12.9366994754924 2237.46496588268 235 237 236
-817.68982788229 13.473425659064 2246.77589656871 240 242 241
-819.678721003909 13.8271023618499 2255.33208246032 223 225 224
-820.730132399838 14.2719279661794 2264.25997986298 212 214 213
-824.596007106861 14.4432370142067 2272.08167687616 200 202 201
-825.647464722118 14.8878392181647 2281.00990934457 209 211 210
-823.878720204634 15.6047309156162 2291.02086178254 222 224 223
-826.807117230498 15.8669436965921 2299.21443232946 221 223 222
-829.7370721115 16.1293250820661 2307.41476851444 204 206 205
-834.551924956265 16.2107839704719 2314.9135635319 187 189 188
-836.544042004297 16.5640934823525 2323.48417186718 174 176 175
-842.307862731379 16.5560893294873 2330.66087841783 168 170 169
-850.907598696181 16.2782587086344 2336.82157089488 168 170 169
-857.62779636996 16.1821038054931 2343.70806573089 159 161 160
-859.631053456297 16.5368512069677 2352.32691776228 160 162 161
-862.579860752628 16.8016448134044 2360.60890974231 165 167 166
-871.205922302349 16.5279965548482 2366.88423436897 163 165 164
-882.680899338674 15.9867881365428 2372.19949852704 160 162 161
-891.32672386528 15.7163317267488 2378.56003285505 167 169 168
-899.03352360961 15.536784259533 2385.28670664594 158 160 159
-910.542132659111 15.0010687825833 2390.74694202833 141 143 142
-922.063173997305 14.4674762423093 2396.26179899351 132 134 133
-937.395487773996 13.5795396651187 2400.55301757813 120 122 121
-947.994093673227 13.139528722609 2406.50445781488 115 117 114
-957.653041136694 12.790259112467 2412.81934385566 112 114 111
-966.370689176083 12.5313903417629 2419.48955841839 125 127 124
-973.193099220186 12.4512641190624 2426.81594578711 171 173 170
-982.880034873596 12.106423074939 2433.25155915188 193 195 190
-990.670479176661 11.9401074782249 2440.33795001087 211 213 208
-1004.19264698944 11.2449151050998 2445.65207051436 196 198 193
-1018.68424294515 10.4639612146035 2450.73317152182 197 199 194
-855.055412912762 -5.90224750912749 2117.5253637441 187 191 190
-836.631096852585 -3.44429584890349 2135.13899384802 208 213 209
-831.202291435383 -2.32420617465268 2147.01226179223 88 93 89
-829.487342418038 -1.58635363132825 2157.24793965854 30 35 31
-825.904905308847 -0.65938521480513 2168.25705752482 15 17 12
-817.655365479707 0.740698856246169 2181.20508172724 7 9 4
-809.39239720533 2.1383829938752 2194.09643044981 5 7 2
-806.716062882599 2.96557249255758 2204.5995526348 0 1 0
-810.570822953378 3.12973520852816 2212.37647540739 5 7 4
-812.559540162367 3.4832078858012 2220.93200612792 3 5 2
-821.094632761246 3.17623157888297 2226.82498529668 31 33 30
-825.895595210407 3.24772034196202 2234.26843534435 68 70 67
-827.891543352183 3.60217073432678 2242.85525465342 187 189 188
-831.761613303984 3.76859486176501 2250.69831147869 232 234 233
-834.697000436281 4.02929941414776 2258.92357154562 228 230 229
-839.510446097855 4.10258889150272 2266.4209706854 226 228 227
-838.694938513332 4.7386103642354 2276.1235925349 231 233 232
-839.755051639146 5.18675110509925 2285.08788490908 232 234 233
-838.934027549821 5.82155670131934 2294.76691300454 229 231 230
-841.872520432416 6.08220784272495 2303.00480379753 223 225 224
-846.694801628817 6.15656335626141 2310.5415967883 217 219 218
-849.637634878887 6.41774937344897 2318.79829914021 212 214 213
-854.466934812475 6.49304744984286 2326.36437992849 201 203 202
-860.243352577174 6.47601655825547 2333.6019055048 191 193 192
-867.912651994389 6.27418157585957 2340.17535366461 180 182 181
-870.867624610113 6.53707821858607 2348.48562931989 179 181 180
-873.824131377594 6.80011043423123 2356.80258559058 179 181 180
-882.45597377336 6.50840141596715 2363.11400669872 175 177 176
-892.989363491573 6.03338933573461 2368.79865345985 169 171 170
-900.693542332597 5.83704642223559 2375.52257016581 174 176 175
-906.510377591907 5.82623547328298 2382.9345401018 175 177 176
-916.125041739547 5.44799306679417 2389.07024282614 151 153 152
-927.647193578062 4.887590662355 2394.60576198095 141 143 142
-940.131267662027 4.23742364480356 2399.87645441815 128 130 129
-954.529244168377 3.40612258658091 2404.57354043705 121 123 120
-960.388285072783 3.40202933334582 2412.16754159009 115 117 114
-969.10615995403 3.12418115168467 2418.8499188182 102 104 101
-971.170220152115 3.48746471885142 2427.73168363612 104 106 103
-977.996830404676 3.39422504957709 2435.08429243999 100 102 97
-983.876645375244 3.39316613497098 2442.76805137756 213 215 210
-999.298459791228 2.48223224127991 2447.46718752443 203 205 200
-1016.64655020095 1.39232206485884 2451.64597320214 187 189 184
-857.884520814894 -14.6550316064472 2126.02624366196 207 212 208
-850.613416681966 -13.3153846688655 2138.76495944257 23 28 24
-896.367477960755 -17.5538841248864 2128.71032434456 21 26 20
-884.982095379806 -14.0514934815724 2172.17083282016 15 17 12
-873.018109265556 -12.2303548134697 2186.73101656095 18 20 17
-856.365211499995 -9.9267169049459 2203.12848482443 9 11 8
-845.296768294796 -8.20981853614194 2217.13876402956 13 15 12
-843.565530204724 -7.4654734109153 2227.29884414836 39 41 38
-840.893506975109 -6.62517299418858 2237.81433848586 75 77 74
-844.772395264734 -6.46313511309987 2245.69774741559 107 109 106
-848.653859208262 -6.300667154924 2253.59333961105 104 106 103
-857.227677157733 -6.62036089651386 2259.66553133719 99 101 98
-858.302553540108 -6.16737779295035 2268.69203099105 108 110 107
-859.376541713713 -5.71464978120995 2277.71476672291 112 114 111
-855.750814780311 -4.7812809960921 2288.52936023841 117 119 116
-856.819898143206 -4.32961951725452 2297.53110985317 114 116 113
-859.769856878225 -4.07016575151076 2305.8213164542 121 123 120
-862.721393683786 -3.81053987964658 2314.11837571444 119 121 118
-866.616853298557 -3.64651382368564 2322.073638054 116 118 115
-867.686574916023 -3.19520460178391 2331.07840737151 111 113 110
-869.698740420302 -2.83969511992666 2339.7360667851 115 117 114
-872.655228099995 -2.57967449220076 2348.05471026169 119 121 118
-878.447323176258 -2.60541551453009 2355.36644210378 118 120 117
-890.861778988681 -3.2967263763346 2360.35455586208 126 128 125
-900.452578700343 -3.7004786293392 2366.40010221481 122 124 121
-910.053335938929 -4.1025510757976 2372.48962556133 111 113 110
-913.981487038445 -3.93373011965525 2380.58612518102 108 110 107
-920.755538715841 -4.04883162621367 2387.7210755037 122 124 121
-924.691048779037 -3.8790107780371 2395.84941484593 133 135 132
-933.374293831768 -4.18152897879698 2402.39370323229 132 134 131
-942.066471874189 -4.48263001280724 2408.97652197771 134 136 133
-951.718000567196 -4.87662959480539 2415.28393894708 140 142 139
-961.379466571723 -5.26895287187978 2421.63524588908 124 126 121
-970.099650006487 -5.56553558279371 2428.33881496998 117 119 114
-977.876702787249 -5.76671230737935 2435.38669925666 112 114 109
-987.566992499158 -6.15448961625681 2441.86125983032 102 104 99
-995.36037842916 -6.3530412691446 2448.98065979547 0 1 0
-1013.65560535722 -7.58080475853556 2452.85666213024 43 46 39
-907.424626608946 -24.9602880228161 2172.67678716843 22 24 19
-862.785834322774 -19.6023732259026 2200.65783968738 18 20 15
-842.381837637661 -16.8494559825381 2218.48935403264 22 24 19
-840.650599567506 -16.0950519122023 2228.64351789621 9 11 6
-833.300446636072 -14.7442285127812 2241.02732557695 38 40 35
-839.983100261636 -14.887267024689 2247.77595515112 85 87 82
-843.861645638122 -14.7312617160486 2255.66140117044 99 101 96
-850.555694120117 -14.8725201072604 2262.45810961619 109 111 106
-851.62693295889 -14.4180064837683 2271.4687663696 111 113 108
-853.636222087253 -14.0627638286879 2280.1139077554 108 110 105
-853.767144109049 -13.5097808203308 2289.47839089731 113 115 110
-857.655775362419 -13.3524061194593 2297.40856206972 113 115 110
-864.369415903148 -13.4906902851927 2304.28985505205 117 119 114
-868.265505928204 -13.3321971637411 2312.25223604386 119 121 116
-870.280738864001 -12.9764239185355 2320.92325718793 129 131 126
-873.238955520006 -12.719059863365 2329.24999562717 129 131 126
-876.198490114881 -12.4615197441477 2337.58352451854 122 124 119
-881.990824828278 -12.4981965929232 2344.90274443563 134 136 131
-884.010999521243 -12.1419940138249 2353.59528928379 130 132 127
-894.536392867928 -12.6671022115793 2359.27416433323 130 132 127
-898.454028501929 -12.5056636797733 2367.32866886494 120 122 117
-908.051572412239 -12.930023220497 2373.41714097995 122 124 119
-911.031441091376 -12.6695972888222 2381.8385762008 124 126 123
-917.802847750557 -12.7989601811266 2388.96917272273 125 127 124
-919.840210297705 -12.4404673856884 2397.73611011131 123 125 122
-925.672581426038 -12.4710770781117 2405.22818499576 146 148 143
-935.307632710101 -12.8895166705663 2411.47736784055 132 134 129
-944.00276358299 -13.2092623293772 2418.08416461469 138 140 135
-952.706810718143 -13.5275647931045 2424.72940272821 125 127 122
-961.41977411556 -13.8444240617479 2431.41308218111 110 113 106
-972.997075406029 -14.4500230023237 2437.21820466615 75 78 71
-986.49192984578 -15.2467538467879 2442.47168835191 18 21 14
-1002.86080564728 -16.3304618617553 2446.889335767 22 25 18
-888.09213646032 -33.7445317807978 2151.89094545627 25 28 19
-840.541361843317 -25.0212937914019 2228.85587163047 16 19 12
-828.518185781361 -23.1324728440335 2243.11433550257 13 16 9
-836.132869566949 -23.3922766445424 2249.48121114366 2 5 0
-836.262179689914 -22.834360572776 2258.83677627604 30 33 26
-842.012872079303 -22.8885770250493 2265.98281238552 98 101 94
-844.017448246599 -22.5346207721459 2274.60794237401 125 128 121
-845.083954713787 -22.0789583123218 2283.59598345787 129 132 125
-845.210307602847 -21.5219377461205 2292.93904402398 127 130 123
-851.912694031756 -21.6759255097612 2299.77998126043 136 138 133
-859.561858165037 -21.9302629788879 2306.29558202674 142 144 139
-865.336793662626 -21.9807429602381 2313.54624954386 144 146 141
-867.350747640086 -21.6256829888539 2322.21205438628 138 140 135
-870.30715148143 -21.3717368351467 2330.53390123012 133 135 130
-873.265098828981 -21.1176317938457 2338.86245619754 137 139 134
-879.055101570143 -21.1659197147492 2346.1771429466 131 133 128
-882.961953996497 -21.0118681990499 2354.18956167582 125 127 122
-889.705818712973 -21.1593727283054 2361.2094628762 131 133 128
-891.729665637173 -20.8032065861261 2369.91821111822 139 141 136
-900.375054119619 -21.1500013571365 2376.32172371584 140 142 137
-905.243380243665 -21.0941211726721 2384.0711973145 150 152 147
-912.009825066297 -21.2380270318035 2391.18956923959 150 152 147
-913.096369685334 -20.7804194875019 2400.26476590999 123 125 120
-920.820572771725 -21.0229377683314 2407.10407980073 133 135 130
-929.501405202796 -21.3640992972877 2413.66046553208 143 146 139
-942.9393636948 -22.2026194714093 2418.68781206808 131 134 127
-951.641131833686 -22.540328164793 2425.33442172382 66 69 62
-962.253416580404 -23.075682622469 2431.4033031822 4 7 0
-970.974512893641 -23.4103310298781 2438.13219751961 4 7 0
-991.1293053209 -24.9354160701071 2441.26566422155 13 16 9
-1002.7335921166 -25.5635164761809 2447.2029349901 23 26 17
-830.734950127532 -38.0972195959529 2147.76669506754 4 9 2
-826.52912973933 -35.8680168262871 2178.04601227411 22 25 16
-822.014332651244 -34.774405511593 2189.40500791024 13 16 7
-811.899328244602 -33.049156975309 2203.05536954196 17 20 11
-856.465778465702 -35.1737420188976 2232.09142070683 16 19 12
-859.419079850728 -34.922647321671 2240.40127347737 15 18 11
-839.902806692248 -32.1569894307289 2257.57962221832 8 11 4
-833.475490851883 -30.8615595004345 2269.50506911701 31 34 27
-836.412538736498 -30.6135621887295 2277.74512139778 50 53 46
-837.474998939429 -30.1565034854238 2286.71451108936 79 82 75
-840.413966574981 -29.9083471977003 2294.96292939237 108 111 104
-848.990887811202 -30.2853115826407 2301.08248070677 123 125 120
-854.756749036094 -30.3484636390977 2308.30061506017 138 140 135
-858.646749880831 -30.2027675236818 2316.24260399182 141 143 138
-858.774372667453 -29.641086883503 2325.58851955364 139 141 136
-863.609284359975 -29.598804560284 2333.19874776707 145 147 142
-870.333270675458 -29.7632751422179 2340.14103217799 152 154 149
-873.291159298455 -29.5124054979268 2348.47123132611 158 160 155
-879.081780749599 -29.5717459734618 2355.79623162945 157 159 154
-881.100333935463 -29.2168655928706 2364.48240885872 146 148 143
-884.06430266711 -28.9652882852484 2372.83789782739 131 133 128
-890.81183831867 -29.1260573943741 2379.8828634823 112 114 109
-899.458337413819 -29.4918375852992 2386.3024366822 93 95 90
-910.954264010488 -30.1649071931256 2391.78865950784 140 142 137
-912.988486357192 -29.8077971770139 2400.54257267286 150 152 147
-917.867156477516 -29.7588391441432 2408.34169925183 117 119 114
-924.647259571231 -29.9144933578777 2415.52608096257 96 99 92
-939.97731754962 -30.9914095597761 2419.91851084592 47 50 43
-946.775895938313 -31.1440443511632 2427.18252940652 11 14 7
-950.729055554124 -30.9888415837555 2435.39832711675 23 26 19
-953.733850423084 -30.7311342453864 2443.9312004537 30 33 26
-961.499105308429 -30.9835211516806 2450.9572165842 31 34 27
-989.272271742387 -33.3753496969076 2451.71690390382 44 47 38
-875.550750800231 -51.1222879302969 2147.85832893043 20 23 14
-807.007374823728 -41.9516417603402 2195.84865841169 18 21 12
-812.725631396789 -42.033494750914 2202.8669321581 20 23 14
-864.132184437036 -43.8716960687162 2248.20566442464 17 20 13
-853.977815923061 -42.1199435041208 2261.66697635587 11 14 7
-840.058900162453 -39.9419864799367 2276.5155587826 21 24 17
-846.751562166239 -40.1251325327315 2283.33188097308 17 20 13
-843.127799330263 -39.1297031421008 2294.11862741012 6 9 2
-846.070656693459 -38.8841834920516 2302.38465046384 8 10 5
-849.014862437376 -38.6384535791688 2310.65757799937 31 33 28
-849.139679376283 -38.0723632663887 2319.988535757 70 72 67
-850.203432879227 -37.6133522277607 2328.96247617238 120 122 117
-855.973851436874 -37.6870971796007 2336.2069231501 109 111 106
-862.691873100482 -37.8664129942636 2343.13165535545 118 120 115
-866.58779215304 -37.7257966971205 2351.10379750832 138 140 135
-872.373604491683 -37.7971556296746 2358.41358854942 149 151 146
-875.332358829265 -37.5494624954 2366.74947085335 162 164 159
-880.182026630193 -37.513518863472 2374.42845117839 109 111 106
-886.926064146676 -37.688648114677 2381.46644820484 1 3 0
-902.189771689647 -38.814442217664 2385.59416188377 5 7 2
-912.738286158063 -39.4090474999319 2391.41688421935 0 1 0
-916.668641349439 -39.2630866288655 2399.5365418909 28 30 25
-921.549430727959 -39.2221716794331 2407.34973781934 6 8 3
-907.467084693306 -37.0744975059387 2421.4959638478 13 16 9
-943.65963610148 -40.506113846595 2418.95695981747 13 16 9
-945.711593387296 -40.1467200907697 2427.78768010311 23 26 19
-943.96275614988 -39.3674382281216 2437.85074601944 20 23 16
-937.455378781086 -38.0647676085868 2449.41913704067 17 20 11
-945.208544448703 -38.3355426070832 2456.4037828108 25 28 19
-815.646044434286 -54.2341728227875 2154.56155666433 14 21 14
-828.794231684354 -55.2183626679854 2158.39768259369 17 24 17
-873.73797038 -59.4023198163343 2158.41052449793 15 18 11
-862.74520574717 -57.4887497112544 2172.63861112613 19 20 14
-795.855034295461 -48.9207423013646 2210.04165266402 20 21 15
-801.435696169583 -44.9166563283985 2282.40191094026 3 6 0
-827.774730198452 -47.4281928201701 2281.46880034764 26 29 22
-848.521119659819 -49.274855269263 2282.84083276867 14 17 10
-851.467992348723 -49.0316933759761 2291.12702282293 13 16 9
-847.845218232886 -48.0207403633617 2301.90899564208 15 18 11
-832.943086709309 -45.6965776194329 2316.89537648594 6 9 2
-832.118679725816 -45.0178773675562 2326.53368020117 1 4 0
-835.994031606918 -44.8865059378294 2334.41954268619 7 10 3
-848.343010680875 -45.7376850627519 2339.21315756808 10 13 6
-867.299018674325 -47.350287011538 2341.67088474848 4 7 0
-862.715754318168 -46.2338982688543 2352.71586369484 6 9 2
-875.099918291313 -47.0792053933686 2357.65998334919 7 10 3
-879.948288312621 -47.0518461088625 2365.33829394362 6 9 2
-875.357487365144 -45.9370938642191 2376.34993845818 6 9 2
-893.436744138863 -47.4295310070463 2379.4310108904 11 14 7
-894.51719029747 -46.9660247630663 2388.47695122478 15 18 11
-921.143619595887 -49.4282861245026 2388.78128745871 16 19 12
-927.919917280775 -49.6118548149583 2395.9653187331 20 23 16
-950.808471764553 -51.632634088305 2397.76656014661 16 19 12
-938.800604139756 -49.0770615898125 2420.81421868243 12 15 8
-936.103813849177 -48.1794666141841 2431.18578990593 16 19 12
-928.651485083916 -46.7444722761215 2443.06984550064 17 20 13
-933.543688528168 -46.7104170601922 2450.93737303856 19 22 15
-912.759072202271 -43.773669371023 2466.98353527395 22 25 18
-927.159971037837 -44.8151018011653 2471.81709116648 27 30 23
-814.604010541956 -63.0455232730966 2155.15230459186 12 19 12
-841.676436472569 -65.7744956347725 2153.02242321493 22 29 22
-838.119989793997 -64.7356744525623 2164.08028172274 29 34 28
-828.048276773984 -62.9009404856001 2177.8559279371 24 27 20
-844.011779408028 -64.254814926708 2180.64617110034 17 18 12
-780.857839314931 -55.9433190884056 2216.43627182926 16 17 11
-775.379038450892 -54.6879040780929 2228.00963713741 22 25 18
-819.300270245579 -59.4473621442214 2219.29772400894 25 28 21
-825.029641195731 -59.5498175100272 2226.37817814794 22 25 18
-785.023691041246 -54.1027331148524 2251.93754824158 13 16 9
-828.09752238348 -58.7339413153612 2243.97356135819 12 15 8
-809.766261229543 -54.7471537332979 2279.32583028339 17 20 13
-785.528128207317 -51.2432074189905 2298.04582792966 22 25 18
-833.419250587452 -56.4145488762571 2288.84416838266 21 24 17
-840.107906960871 -56.6262137681634 2295.65852690116 21 24 17
-840.233880004781 -56.0501679790931 2304.98872363633 19 22 15
-832.845434132045 -54.5764840057775 2317.13152801695 22 25 18
-831.082966378641 -53.777896144394 2327.1220884719 20 23 16
-841.539587797965 -54.4367882725661 2332.57660219486 23 26 19
-860.475610784226 -56.1011523679841 2334.97779515424 24 27 20
-877.55132568032 -57.5379928968697 2338.16039076902 17 20 13
-896.531514674684 -59.1948280838535 2340.75068989291 14 17 10
-908.934776724553 -60.0664631942353 2345.79553832934 12 15 8
-927.012278039518 -61.6047769837558 2348.89585834599 14 17 10
-898.855242231599 -57.681029767108 2368.32779998108 16 19 12
-840.431330233694 -50.2030911365037 2398.11078732641 13 16 9
-863.218649756855 -52.3004128775133 2399.50986264871 13 16 9
-889.816876282351 -54.8372633078426 2399.73379209907 10 13 6
-952.413470031591 -61.5850524714014 2387.90859033816 22 25 18
-939.3222118929 -59.4507165926772 2401.87355881489 19 22 15
-987.81281830631 -64.5183321892626 2395.25147612897 14 17 10
-961.446122569225 -60.8350581015258 2413.60022587346 16 19 12
-925.552977562518 -56.053034688583 2434.89103170466 45 48 41
-916.198415758951 -54.3714724392971 2447.36162966972 53 56 49
-922.982675543044 -54.5678789935292 2454.5882973447 25 28 21
-937.379764575383 -55.6448630687543 2459.42597536962 31 34 27
-903.270048083305 -51.1041861620431 2479.60473312109 27 30 23
-859.190380596799 -76.9963743698178 2145.66463842295 21 28 21
-837.071204453523 -73.6055252641625 2164.6756868887 34 39 33
-777.856696614167 -64.976723604037 2208.52466454236 20 21 15
-802.167341902255 -67.4237425423865 2207.72925781326 15 16 10
-815.332343521119 -68.4702185962395 2211.67611223583 19 22 15
-800.55437830391 -66.0289357381859 2227.14184142249 26 29 22
-870.616504418936 -74.1531996283811 2208.01275338125 27 30 23
-854.136963222447 -70.8922219916076 2233.72386639065 13 16 9
-858.958910220325 -70.8856018680595 2241.29794004418 19 22 15
-831.994149379237 -66.9469103688737 2261.4185351834 9 12 5
-798.442236982578 -62.2063103030634 2283.93662390888 27 30 23
-806.974970730047 -62.6674590435552 2289.91097422262 16 19 12
-841.879778038658 -65.7739520692017 2295.17650649924 14 17 10
-845.760584155876 -65.6530414749265 2303.09364261788 17 20 13
-836.50230403311 -63.9220055288692 2315.95832782032 21 24 17
-833.804671486564 -62.9976498371259 2326.31153421095 22 25 18
-835.801098248123 -62.6482002470449 2334.90340390264 28 31 24
-847.203656078603 -63.445299797688 2340.05114060644 26 29 22
-862.383878870085 -64.6984520963831 2343.88588038661 21 24 17
-873.814271330665 -65.490802570544 2349.15347922763 17 20 13
-884.314761246766 -66.1666483558118 2354.81236077574 8 11 4
-866.535254910039 -63.4139351453517 2370.53761827615 9 12 5
-875.406569070049 -62.7003189586161 2395.53970058742 13 16 9
-920.91572564612 -67.5825553477805 2389.34090553716 14 17 10
-939.043666013548 -69.1581098436711 2392.68539279552 29 32 25
-960.979981447016 -71.184290751329 2394.85010433232 25 28 21
-1004.73283395441 -75.815658883647 2389.87728288814 17 20 13
-961.323190315123 -70.008731335041 2413.89776467455 18 21 14
-916.905755157931 -64.0989770936806 2437.97326409443 41 44 37
-916.093387911504 -63.4042925324584 2447.65522036691 51 54 47
-923.82643346351 -63.7275802498433 2454.58100519154 24 27 20
-933.468228663626 -64.2754588408741 2460.93603740078 27 30 23
-947.875605799456 -65.3857116762397 2465.83861832495 22 25 18
-890.413009207063 -90.7187504845782 2122.72049258974 41 48 41
-850.710268740229 -84.9800645995317 2149.44555489148 38 45 38
-830.451580686729 -81.759024647748 2167.6409617404 33 38 32
-789.722467083517 -75.9181346061485 2194.33952653312 37 40 33
-810.436349599119 -77.3672348353168 2204.44837991363 31 32 26
-792.880852041521 -74.519039744219 2221.10458960648 21 24 17
-821.880238819996 -77.6196275753181 2218.57067969981 16 19 12
-882.78580589392 -84.1579052154855 2212.84091835493 29 32 25
-829.750845530946 -76.8058822878068 2243.66166917226 28 31 24
-788.786417413114 -71.0064827568909 2269.34770623911 28 31 24
-794.500315269782 -71.1342635769596 2276.37487263419 22 25 18
-812.378828721076 -72.7982790976244 2278.67118492088 37 40 33
-823.726961689049 -73.6316707037363 2283.60044018057 12 15 8
-850.072645362667 -76.3512321862615 2282.81898525291 11 14 7
-833.707029850012 -71.8865992642155 2326.55196636367 20 23 16
-830.066144203972 -70.8326685179925 2337.22885126484 35 38 31
-840.522157349307 -71.5406337465993 2342.70954777778 34 37 30
-854.752850878172 -72.7156719650723 2346.8727501697 36 39 32
-916.713727584691 -77.3816024046554 2372.03155883323 14 17 10
-888.530090437331 -73.2931784140957 2391.24942216706 13 16 9
-915.129495788056 -75.9691420802487 2391.56036806143 12 15 8
-933.249063192026 -77.5919167390184 2394.89464617428 25 28 21
-940.032262434333 -77.8154927404119 2402.13370708428 21 24 17
-903.522314671958 -71.5218202310399 2442.60162532408 26 29 22
-913.141192667647 -72.0952362266705 2448.87069141749 35 38 31
-936.063856645343 -74.2874532039364 2450.92198652674 25 28 21
-979.308486605993 -77.7191324108611 2465.78931553504 26 29 22
-840.214927681382 -93.2737849148336 2144.5285620354 31 38 31
-869.135298980493 -96.4656544771979 2141.70123982579 31 38 31
-853.538326561824 -93.7885680939224 2157.9745798802 30 35 29
-814.697443963089 -88.0647026596172 2183.94979455837 33 36 29
-799.038700021299 -85.3984008300752 2199.95836328776 32 33 27
-784.287093098506 -82.8579923115786 2215.48085339247 27 28 22
-804.879047772245 -84.9463491593746 2216.31451407013 27 30 23
-809.664168984176 -84.9631523535194 2223.74008896145 26 29 22
-866.640080551849 -91.7828757598532 2209.97235454005 23 26 19
-815.516558101089 -84.5091848698967 2240.14817410909 23 26 19
-792.316978974763 -80.886044428272 2258.81921186701 27 30 23
-785.892388848952 -79.4497944540393 2270.67384408082 23 26 19
-800.01315556291 -80.6787891415511 2274.38329472577 25 28 21
-829.110022522573 -83.8401845343652 2272.31578999425 34 37 30
-846.08033181241 -85.4243353428201 2275.1205509808 11 14 7
-859.325912179375 -86.5220670857704 2279.45262863362 11 14 7
-823.395012328512 -78.8699368713163 2339.89987488012 22 25 18
-840.423908833726 -80.4441383274223 2342.95695294912 25 28 21
-871.581160498573 -83.8145941249545 2340.97775235983 20 23 16
-890.174933999097 -83.1278188234868 2381.49776048598 10 13 6
-877.093200294059 -80.8651237644375 2395.4292024174 17 20 13
-893.283668281621 -82.30192303867 2399.26727273219 19 22 15
-933.289912269676 -86.1178471010613 2404.64681688933 23 26 19
-898.417330333581 -81.1233129132461 2425.75341269371 27 30 23
-853.075715261251 -74.8304681910528 2450.08752854975 21 24 17
-909.107257124013 -81.2479305173326 2441.03457319942 19 22 15
-906.395723486715 -80.3011680031385 2451.31334442799 20 23 16
-951.13982016725 -85.2790615541374 2446.35592386406 21 24 17
-945.597808111756 -83.9739998021331 2457.62154371556 16 19 12
-915.334143394356 -79.5960676346346 2476.61614198441 21 24 17
-979.186241637602 -86.9220518954572 2466.10599819142 18 21 14
-832.676715741118 -101.294427194146 2147.92644567404 37 44 37
-822.638330435157 -99.3180503094105 2161.76672963671 34 41 34
-860.834284424423 -103.836841649456 2155.02500608306 20 25 19
-782.087733696357 -92.6291375518845 2197.86597510099 19 22 15
-768.272368055479 -90.1648416790628 2213.00244375131 25 26 20
-814.868934520926 -95.7986703849063 2202.92465217497 25 26 20
-802.913233005099 -93.5834709523584 2217.28848253843 22 25 18
-817.006391114152 -94.8522950837244 2220.89970016957 19 22 15
-845.089591656129 -97.9813900686568 2218.90280614169 20 23 16
-802.360585833107 -91.6728054718053 2245.62642490285 24 27 20
-777.296087134821 -87.7303632698304 2265.00456353889 16 19 12
-792.33388705877 -89.121196453568 2268.29377206291 18 21 14
-805.521376631758 -90.2614451562567 2272.39487535454 25 28 21
-821.527842118734 -91.7700610224468 2275.46545140985 30 33 26
-874.964989788546 -98.217926375687 2264.11188355616 9 12 5
-860.148982745358 -95.6417099359115 2279.33061505231 8 11 4
-884.645451812665 -98.2499447300918 2279.4477902591 7 10 3
-845.023327194036 -89.9672797535884 2341.48522760262 28 31 24
-845.730243881735 -86.4063181203738 2397.18708517817 13 16 9
-815.634119697034 -81.9085962136026 2416.84950698019 20 23 16
-904.511855016485 -92.7833019033789 2395.67230256558 26 29 22
-913.162738075498 -93.2819598492682 2402.18934838751 25 28 21
-947.359345668983 -97.065802132827 2400.17613413956 29 32 25
-948.473528128343 -96.5855528439733 2409.35980189524 31 34 27
-879.505135252751 -87.1134572556385 2441.62965542047 13 16 9
-909.001500072625 -90.2837948085004 2441.32674110251 14 17 10
-926.206324164057 -91.8710019400991 2445.16670681222 16 19 12
-943.431233012806 -93.4547517736193 2449.09314404431 19 22 15
-962.575128935037 -95.2772046743661 2452.50332738709 20 23 16
-916.181689272903 -88.7485377697443 2476.62020223324 29 32 25
-992.373857548075 -97.8226870304307 2462.27918079457 29 32 25
-803.981533584245 -105.734853048901 2169.90545201591 29 36 29
-766.092993974211 -99.9015745611695 2195.45539205268 33 38 32
-802.406110355745 -104.274361512975 2189.44482647146 34 37 30
-781.179839580453 -100.743218815289 2207.75160744051 26 27 21
-805.464559466619 -103.452504387909 2206.99512873835 19 20 14
-838.149369659384 -107.300806856732 2202.91438501062 8 11 4
-852.262344898789 -108.601354028517 2206.63158677198 8 11 4
-857.078873867507 -108.629791958404 2214.20349188559 9 12 5
-851.649060151834 -107.262605070419 2225.92589576499 16 19 12
-788.39478894443 -98.0411419446203 2260.73866686004 19 22 15
-814.633551032049 -100.988409761151 2259.61998335913 19 22 15
-814.760113470691 -100.388206473972 2268.93856865503 22 25 18
-812.081493208924 -99.4092323693624 2279.34342934035 28 31 24
-827.161718996038 -100.830627794799 2282.83647991997 27 30 23
-908.686172129319 -111.207107155153 2260.86045928868 22 25 18
-876.098774036832 -106.185483882585 2282.90814452242 10 13 6
-841.59247655886 -100.919888708204 2305.46937109279 11 14 7
-798.601494443231 -94.53003816345 2330.99077366024 9 12 5
-819.339405783518 -96.7008417078612 2332.51609580998 11 14 7
-821.328827741197 -96.3546465344717 2341.07901244867 42 45 38
-881.605912108391 -99.4483724085735 2394.34785135525 21 24 17
-937.449472030014 -106.202776741115 2384.66471774113 23 26 19
-956.513831640149 -108.087139074311 2387.76083145491 22 25 18
-949.127243865702 -106.48305399529 2399.8351260136 19 22 15
-940.782511481332 -104.75677498333 2412.17181985786 18 21 14
-939.051250597725 -103.902452344446 2422.26820076401 19 22 15
-927.842067614851 -101.807749990779 2435.43608759888 18 21 14
-963.06612691404 -105.792935531787 2433.51134762755 20 23 16
-961.33895335499 -104.938067816761 2443.62433262989 25 28 21
-941.572132714322 -101.731795298453 2459.43946993154 28 31 24
-972.117724196535 -105.086297041767 2459.31196511709 30 33 26
-1003.65113691853 -108.557904692046 2459.04984070564 28 31 24
-820.54847722666 -117.003367064891 2162.95956018781 23 30 23
-783.739762543276 -110.57713697827 2197.47548111282 39 42 35
-800.577334466948 -112.313616186562 2199.78491951198 37 38 32
-808.144069834964 -112.747003717444 2206.04260312959 30 31 25
-841.750346781821 -116.814944206425 2201.59514981845 20 23 16
-861.44415686359 -118.929357651431 2203.04280048913 16 19 12
-873.714098662211 -120.002514606778 2207.61869178908 13 16 9
-842.214724869784 -114.98525974937 2229.90591481833 11 14 7
-807.874714633328 -109.587406160757 2253.12210853269 14 17 10
-811.731630484217 -109.499906830979 2260.95253540177 19 22 15
-842.946616338817 -111.943411319346 2276.90925270457 29 32 25
-855.245241960422 -113.011753663078 2281.60762321778 19 22 15
-866.621767609309 -113.948888733569 2286.72301147685 13 16 9
-795.598747552424 -103.560594757134 2323.0704223347 14 17 10
-824.75163283974 -106.945553676474 2321.38017292741 9 12 5
-819.244193290816 -105.571266239378 2332.75742283959 6 9 2
-827.80264482925 -106.123934204448 2338.89892915055 41 44 37
-817.590588528421 -104.110193946938 2351.95194290978 47 50 43
-863.453492620541 -106.631914087281 2391.49090334237 23 26 19
-860.748094908511 -105.645189182942 2401.77212200331 21 24 17
-925.999322261369 -113.831071912784 2388.82029799117 20 23 16
-942.217606686159 -115.384204981208 2392.84936726506 17 20 13
-954.673917667082 -116.425387231379 2398.22770189249 13 16 9
-936.879161354824 -113.398258963666 2413.72435725526 12 15 8
-929.469049334958 -111.772097932602 2425.68200610496 13 16 9
-956.139689647737 -114.714496653879 2426.46356260994 16 19 12
-978.104486225517 -117.017577144737 2428.91664174078 21 24 17
-952.682405261391 -112.984616789527 2446.66582743363 28 31 24
-958.537788481871 -113.13311741593 2454.32864642837 29 32 25
-963.448935135956 -113.154333961216 2462.31215768857 29 32 25
-992.117225566032 -116.332581530431 2462.92132974806 30 33 26
-829.529867229641 -127.926366715954 2149.72365833097 26 33 26
-765.896761114325 -117.517689251956 2195.83908859253 23 28 22
-797.549667604682 -121.427962900668 2191.80403907218 25 28 21
-815.31997019326 -123.339570175813 2193.77022385636 32 33 27
-802.462160939036 -120.869169470622 2208.56624002737 36 37 31
-836.983914943381 -125.163170408535 2203.72837413697 33 36 29
-896.659308816048 -133.026088839855 2188.79938021156 30 33 26
-851.251097337491 -125.919552204011 2216.91893938172 25 28 21
-829.061381328551 -122.130089683082 2235.38469723666 14 17 10
-799.385187254702 -117.289029535712 2256.69563228379 11 14 7
-870.866543279531 -124.866325460144 2266.2818950959 23 26 19
-823.344132571889 -117.539074423185 2294.0680714702 20 23 16
-835.764415725188 -118.02837149412 2308.07694430197 19 22 15
-842.451995556259 -118.337164915822 2314.94368678487 17 20 13
-818.211102775144 -114.316008948087 2333.34840393004 12 15 8
-875.694742858274 -121.09023192869 2330.90406345795 22 25 18
-914.079464068142 -123.245130133594 2364.61470516421 15 18 11
-911.413483011229 -122.238614175647 2375.05906223673 20 23 16
-861.59231820028 -114.722659696988 2401.71851510671 18 21 14
-866.432564387093 -114.764413809869 2409.40167765724 17 20 13
-947.933189461137 -124.717306789157 2400.74182157022 15 18 11
-939.596043269864 -122.931942610808 2413.07719257913 17 20 13
-945.436686621969 -123.09397284311 2420.68301690872 18 21 14
-911.521183998269 -117.813406932034 2441.28132770444 17 20 13
-934.397938811626 -120.308382965106 2443.30948003112 19 22 15
-946.875148402571 -121.375791441741 2448.79424495316 23 26 19
-952.726109746785 -121.536078729905 2456.44451114741 24 27 20
-958.582258294419 -121.695479264842 2464.11711358399 24 27 20
-773.210818789793 -127.419626338607 2192.88211623832 27 32 26
-770.55173460528 -126.39903449555 2203.34858592135 25 28 21
-797.577795907484 -129.715427368451 2201.35881047547 25 26 20
-801.425963898237 -129.641162675102 2209.15955983308 29 30 24
-808.064403723309 -129.972296469263 2215.82290306484 27 30 23
-841.670046708329 -134.222415151005 2211.47980741652 26 29 22
-852.990845181434 -135.223520800462 2216.38725509375 26 29 22
-828.018479523029 -130.958846846917 2235.9818586999 21 24 17
-794.627015729255 -125.486628436982 2258.77666223308 16 19 12
-830.16823842693 -129.993928939994 2254.00021159572 10 13 6
-841.502230425383 -130.992752542363 2258.96445530814 15 18 11
-895.784798136437 -138.178013507951 2247.2136004235 22 25 18
-787.725644819408 -121.349792156706 2307.95392690124 21 24 17
-846.092382207778 -127.827463153885 2313.78409125676 15 18 11
-858.691478503102 -127.718369156601 2337.34177551222 15 18 11
-876.669110233847 -129.639970240885 2340.22636336077 24 27 20
-945.967963157603 -136.889835491181 2353.67406900851 19 22 15
-845.352530360591 -122.030756140084 2398.24908283092 18 21 14
-902.027586540617 -129.394053640538 2388.03172504949 17 20 13
-857.843215882572 -122.532985871749 2412.57470914812 18 21 14
-905.157225069229 -128.555639072521 2405.88599028732 18 21 14
-927.973141504743 -131.120137792876 2407.68694470502 16 19 12
-992.402987267722 -139.509854929802 2395.79193572405 17 20 13
-966.121780065802 -135.175742911775 2414.13459550689 19 22 15
-950.381689875866 -131.681625935596 2438.41062400964 20 23 16
-946.917489215295 -129.911836469666 2458.55893822704 21 24 17
-958.462419111553 -130.874148108693 2464.43122049073 21 24 17
-814.482092137592 -143.740134731604 2156.50967802589 28 35 28
-773.90862336056 -137.020532310321 2183.37727351549 22 29 22
-847.211486354627 -147.337067871267 2161.5903618827 23 28 22
-788.990077019684 -137.995755347793 2195.72720915051 27 30 23
-793.759878350873 -138.06670731197 2203.11712437437 26 27 21
-793.893006521975 -137.44640227014 2212.45281886809 28 29 23
-806.097751450615 -138.620449504012 2216.80075562874 26 29 22
-813.669719507613 -139.102635545222 2223.11019917359 24 27 20
-824.039432601876 -139.996831963913 2228.3201431312 26 29 22
-816.739197574031 -138.273128073066 2240.70460167744 29 32 25
-839.22594415559 -140.95381440299 2241.12229574808 24 27 20
-808.625584022486 -135.794175161559 2262.7309381898 14 17 10
-892.673881086232 -147.537096700449 2239.00981777931 13 16 9
-775.488926094926 -128.385452183217 2312.85018288043 20 23 16
-811.112937149169 -132.97475701264 2308.48677762331 18 21 14
-784.388878518251 -126.547150982828 2355.5447556011 13 16 9
-818.249306695997 -130.844220790688 2352.35091875648 14 17 10
-876.556337524166 -138.677448499672 2340.4885655215 18 21 14
-806.553073715267 -125.998095120559 2402.76519890357 23 26 19
-853.732269126596 -132.172299829045 2395.57263707039 19 22 15
-843.488306838804 -130.061704725476 2408.42808784347 14 17 10
-886.977614444332 -135.679638036808 2402.87420140596 19 22 15
-896.552478369119 -136.41246942109 2409.0441655248 21 24 17
-954.291955673518 -144.045152339766 2399.11929712846 23 26 19
-950.69135536915 -142.875921001299 2409.90588637178 24 27 20
-994.355836626475 -148.463507895317 2405.10606702115 25 28 21
-892.512822457795 -132.630808414389 2457.3693040839 23 26 19
-941.112392207506 -138.260416655431 2460.67182061834 21 24 17
-955.496614397961 -139.654550814299 2465.63933725925 17 20 13
