ply
format ascii 1.0
comment KinectMotionCapture
element vertex 781
property float x
property float y
property float z
property uchar red
property uchar green
property uchar blue
end_header
-905.481797800013 -345.768407267857 2477.30341154069 12 15 8
-900.791882522299 -346.442562774344 2489.62289306888 14 17 10
-856.839070894358 -335.113550475012 2386.98444725483 10 13 6
-835.142932555489 -330.48924092646 2348.28460022441 16 19 12
-840.739590683242 -336.369218749423 2416.20526820654 16 19 12
-849.506781896566 -341.25839607459 2469.18247162315 12 15 8
-834.859744752023 -338.796885452304 2451.22425213131 11 14 7
-826.139973633277 -338.197230468398 2451.23779435353 12 15 8
-818.953130331701 -338.086389843917 2455.99051999993 13 16 9
-810.853942954789 -337.682381347962 2457.89718578324 10 13 6
-795.899590804065 -335.036849403272 2437.93114329671 11 14 7
-802.065575153267 -339.308675894351 2485.5001969251 12 15 8
-792.746429832785 -338.513406817252 2483.61290691956 9 12 5
-797.692658393567 -342.479865222474 2528.44851543056 7 10 3
-791.180494655981 -342.65206181407 2536.13467206177 7 10 3
-777.506890142471 -340.399244346547 2519.94013418144 8 11 4
-765.916842829923 -338.828377123742 2510.40350976074 11 14 7
-761.682714401429 -339.775667826981 2525.73670134057 13 16 9
-752.10511681703 -338.88383042561 2522.88404674538 16 19 12
-748.063004237509 -339.924191098909 2539.20726002106 18 21 14
-743.404477008 -340.768704660211 2553.63559578016 17 20 13
-731.663634689069 -339.105632845265 2543.09416159458 17 20 13
-736.045356385639 -343.220225320164 2590.25681217185 19 22 15
-729.85950054011 -343.57568182036 2599.94394841894 20 23 16
-726.524801320652 -344.986171544324 2620.24868428145 20 23 16
-709.548779319428 -344.058080698864 2623.28681351847 21 22 16
-967.738244379343 -352.481794985183 2404.04506723499 22 24 19
-968.666870240651 -354.732292727561 2430.20379931499 23 25 20
-963.915874544665 -355.34396128375 2441.48337785047 12 14 9
-944.655222923823 -351.669641876384 2413.55983028639 14 17 10
-937.185221449793 -351.466476974594 2417.35610201267 17 20 13
-933.780741749355 -352.484587668366 2432.38250757122 17 20 13
-919.199704541292 -350.143818835847 2416.52431013789 17 20 13
-909.064642497164 -349.127745030233 2412.81702091385 17 20 13
-905.264469424568 -350.041431272065 2426.92826518352 14 17 10
-902.060680223636 -351.155401221386 2442.9410758503 12 15 8
-884.424203010485 -347.809273670397 2417.60256514684 13 16 9
-892.847266885058 -352.564914456328 2467.5149554767 13 16 9
-869.852712476841 -347.503918920726 2426.11989740308 10 13 6
-830.910829146883 -339.427884279356 2361.94753948235 15 18 11
-851.231666048226 -348.10108115751 2448.84018111719 18 21 14
-844.351915431752 -348.096502451811 2454.54012136963 13 16 9
-829.746951077407 -345.57634847808 2436.57078568236 11 14 7
-817.702135023511 -343.864467311202 2426.14347931381 13 16 9
-823.925758676253 -348.178827509233 2472.62182494507 12 15 8
-812.472866967532 -346.666893193874 2464.09747639815 11 13 8
-793.926882591271 -342.752727923288 2432.73243712101 13 15 10
-787.388928227192 -342.849277448001 2439.36711590994 12 14 9
-801.844188511988 -352.528940059759 2543.24806121163 7 9 4
-791.260175383769 -351.315947480585 2537.58538383235 9 12 5
-771.646441745973 -349.393039398645 2530.99062802374 12 15 8
-761.470447080195 -348.284201112326 2526.23865414912 15 18 11
-753.001719966061 -347.773165068443 2527.22085245354 16 19 12
-743.168901877125 -346.766052368446 2523.40307052024 16 19 12
-743.181691305382 -349.330676642634 2554.13733827665 15 18 11
-732.790111440555 -348.124423028324 2548.40423420039 18 21 14
-726.722985786231 -348.503501840068 2558.04644896904 19 22 15
-728.564004159282 -351.847304299238 2596.59062076333 20 23 16
-726.02089030566 -353.603172845128 2619.78160756879 20 23 16
-732.45855919785 -358.808175872097 2676.78130739262 19 22 15
-714.187233236543 -354.637608710081 2642.13589731327 30 32 27
-970.416446323211 -361.721067326479 2411.97462709085 14 16 11
-964.680517381805 -362.045239588913 2420.43409220517 11 13 8
-943.65551796597 -357.755485068176 2387.86474421853 13 16 9
-945.887477025168 -360.490173235873 2417.77987271598 14 17 10
-920.297773571441 -354.743845271806 2372.04614937844 17 20 13
-912.606749379065 -354.443357738839 2374.86325956392 17 20 13
-903.569747787168 -353.725028851179 2373.93446142857 17 20 13
-893.551535326391 -352.694360892415 2370.18581751483 17 20 13
-890.527911686642 -353.853753159576 2386.1297400808 14 17 10
-880.856610354718 -352.927651460838 2383.31371687204 12 15 8
-879.698102749696 -354.707330941485 2404.93301711352 13 16 9
-868.080088694438 -353.157215943774 2396.47179881489 11 14 7
-859.41364467545 -352.543804268274 2396.46700326344 10 13 6
-845.985019495506 -350.374975089403 2382.31023061553 11 14 7
-850.974241984187 -354.219872873164 2422.87265620067 13 16 9
-831.001208247068 -349.878241018216 2388.85870187248 17 20 13
-832.345293028105 -354.856633458832 2445.59282344113 12 15 8
-825.473669897388 -354.860166237529 2451.28919864831 13 16 9
-824.346131977362 -356.822275254044 2475.01684862051 12 15 8
-820.401171935046 -357.852627089154 2490.23870737104 11 13 8
-812.516256057144 -357.542313892993 2493.12700704936 13 15 10
-799.969216133949 -358.051184936469 2509.38030424535 7 9 4
-805.990826693259 -362.664903423146 2558.04282853915 7 9 4
-784.146798282887 -357.427505906299 2515.17624043163 9 12 5
-778.517599837889 -357.934791889691 2525.71622260061 10 13 6
-769.174636782484 -357.110325980219 2523.84004372551 14 17 10
-759.017925304301 -355.980118989954 2519.08242154225 15 18 11
-751.677447087008 -355.872533198411 2523.89097724612 16 19 12
-750.37470163017 -358.008561146796 2549.80227670999 16 19 12
-742.958791375256 -357.89771470983 2554.63848572684 16 19 12
-738.770339797393 -359.00801807122 2571.00933786353 18 21 14
-723.556594794303 -355.945578474898 2547.96907587213 19 22 15
-722.506750374614 -358.273386774572 2575.90738353802 20 23 16
-734.42704009318 -365.670774573707 2652.08227296697 19 22 15
-720.269280561908 -363.014247490209 2632.89418430441 19 22 15
-720.618118947224 -366.034914103882 2667.73842298682 29 31 26
-970.981200947543 -370.362482965595 2414.31734493502 23 25 20
-961.046522179645 -369.410857689469 2411.59894243441 17 19 14
-951.835802760608 -368.675399954254 2410.73455490843 20 23 16
-931.636080686287 -364.501914187297 2379.98994678776 15 18 11
-903.992011723608 -360.03742508596 2351.97210612627 16 19 12
-895.35375479227 -359.417730573584 2351.9575431974 16 19 12
-890.736208065641 -360.083207640191 2363.18482907793 17 20 13
-883.422839680097 -359.891041201866 2366.923105964 15 18 11
-877.419021565339 -360.125988297477 2374.42008121932 13 16 9
-870.085330716546 -359.93272242325 2378.16582497369 13 16 9
-865.981611648855 -360.805672104243 2391.32387630401 12 15 8
-859.575108878852 -360.930375750833 2397.90866951877 11 14 7
-872.568151387753 -367.54781289595 2462.01975456714 10 13 6
-852.069644536049 -362.984980194992 2427.14660376972 9 12 5
-833.342946725909 -358.96132892611 2396.92204160054 14 17 10
-820.698778324408 -356.96146958196 2384.60086408144 19 22 15
-834.324392663388 -363.978946265511 2452.71840766107 15 18 11
-831.09810526395 -365.261131582016 2469.79351119289 11 14 7
-836.580676550082 -369.609719424921 2514.40515966816 12 15 8
-829.522133799422 -369.613673956201 2520.16941797103 11 13 8
-816.194562285295 -367.398345039566 2505.97969151604 11 13 8
-801.188473620765 -364.553250182964 2486.0475041883 10 12 7
-810.013165020148 -370.253775584491 2543.20907737492 5 7 2
-798.528009303389 -368.674038580935 2534.70156737489 5 7 2
-785.379839644516 -366.465170105485 2520.44617003794 10 13 6
-785.433690834088 -369.096246551019 2550.09369404927 11 14 7
-770.659081553199 -366.259543188438 2530.07676841675 13 16 9
-762.444818271204 -365.841136854941 2532.02633193782 16 19 12
-755.900046847523 -366.051809956809 2539.72143305181 17 20 13
-748.506291855038 -365.947189048608 2544.5491225037 17 20 13
-741.647275123803 -366.051297167748 2551.29988499992 18 21 14
-732.611953026178 -365.318220391559 2550.37158939296 17 20 13
-730.006446245532 -367.092176469671 2572.51707061606 17 20 13
-734.968412801446 -371.887457840396 2622.61746039854 18 21 14
-728.418664864624 -372.190961023526 2631.37417603146 21 24 17
-696.485931740876 -365.200312530011 2578.43923050035 8 11 4
-978.225112953434 -381.11901707648 2434.33952504161 28 33 26
-962.301765363639 -378.272336124373 2415.8075425447 15 18 11
-958.622166133176 -379.29008196837 2429.86712634628 11 14 7
-937.342778011226 -374.685749686419 2396.34738648699 16 19 12
-930.257662582292 -374.602629849433 2401.0613133045 17 20 13
-922.823442179514 -374.408933800051 2404.84361567857 16 19 12
-907.315840742507 -371.577638531246 2386.1591618116 16 19 12
-885.587843617612 -366.664869336008 2349.62576749044 17 20 13
-882.945051255481 -368.01242321477 2366.48393319996 15 18 11
-873.327335198792 -367.055535637773 2363.65076329201 13 16 9
-873.843624767678 -369.493690238301 2389.9451536225 13 16 9
-868.411573144953 -369.957758416672 2399.35020956218 12 15 8
-867.434475156974 -371.950210662408 2421.95409906958 12 15 8
-860.304021040059 -371.863845012317 2426.68474403689 11 14 7
-867.366840269522 -376.685524683493 2473.88645657265 8 11 4
-827.542409105572 -365.259633311768 2380.42165006779 18 21 14
-825.501428543702 -366.919638845474 2400.23750299081 20 23 16
-828.295076779792 -370.31627291652 2435.23163933334 17 20 13
-836.105561612085 -375.55339559964 2486.39683029374 11 14 7
-825.184416733244 -374.156962868819 2479.8039301552 11 14 7
-823.622019247836 -376.125132615293 2502.62256740922 11 13 8
-817.785024345104 -376.571685213576 2512.17607602844 11 13 8
-797.814284624643 -374.431322877972 2504.66088497008 5 7 2
-793.972688358894 -375.632509962679 2520.89885422387 5 7 2
-785.461588468684 -375.103247620965 2521.8978233524 10 13 6
-786.930168012208 -378.349584019967 2556.31819087508 11 14 7
-774.681860597808 -376.416384909844 2544.91496311462 13 16 9
-763.070587412135 -374.70140636751 2535.39692427994 16 19 12
-748.755506671394 -371.913337043437 2516.275921393 17 20 13
-746.639671488096 -373.858077360275 2539.29715682934 17 20 13
-741.968984051538 -374.832198084446 2553.72038608618 16 19 12
-736.159820720957 -375.374717702 2564.32309782262 15 18 11
-730.57737460798 -376.022673122111 2575.90228992268 16 19 12
-728.913965327339 -378.274480949966 2601.93589632147 17 20 13
-703.191509297664 -373.680800411119 2572.16305297913 23 26 19
-696.760787521055 -374.004803555969 2580.87497518324 33 36 29
-990.733478170209 -393.693382543553 2468.31164270739 33 38 31
-970.183671189616 -389.309783111585 2437.71008699197 20 23 16
-963.670352934285 -389.453790569059 2444.33223378059 28 31 22
-948.199578182037 -386.661055999845 2426.69804616712 16 19 12
-920.560268694572 -379.811261219223 2375.39268827702 17 20 13
-932.494779311094 -386.047690676123 2432.45046877518 15 18 11
-919.938147819539 -384.164173058684 2422.22207442036 15 18 11
-894.782391378359 -378.007765440978 2376.36162300123 17 20 13
-881.474669076285 -375.796113729838 2363.23096336848 16 19 12
-883.028424758806 -378.641751510367 2392.31758105934 14 17 10
-880.855247487707 -380.247239872651 2411.11876887635 13 16 9
-872.777716419546 -379.831126404683 2413.01822514361 13 16 9
-862.461377106593 -378.631011335845 2408.32413072887 13 16 9
-861.09136974043 -380.565790731661 2430.00857424006 11 14 7
-855.202328498614 -380.931084656708 2438.52056810806 10 13 6
-845.527925404156 -379.954480861032 2435.70948234996 10 13 6
-831.229701789845 -377.304861337226 2418.70527515754 19 22 15
-822.887162130344 -376.777913738225 2419.64282537303 21 24 17
-819.133286183375 -377.922294042168 2434.7866524656 12 15 8
-815.615654817069 -379.175163522917 2450.90301358579 11 14 7
-816.227511013607 -381.981906131412 2480.33479343526 10 12 7
-815.803495438886 -384.449505275848 2506.96835599395 10 12 7
-811.122715958438 -385.357942099848 2520.33365178705 9 11 6
-794.106817588012 -381.606217805715 2493.7334538638 7 9 4
-796.956691447905 -385.394875744271 2531.87775982167 7 9 4
-790.425881713423 -385.633585118433 2539.56567274814 9 12 5
-784.154739192525 -385.9817574165 2548.21779021453 10 13 6
-778.13556474748 -386.439033389353 2557.83668240738 12 15 8
-758.943371654751 -381.70640532562 2522.50171009469 15 18 11
-747.712049726769 -380.069830893087 2513.90626122138 16 19 12
-748.067732806409 -383.063496506663 2545.5501272203 16 19 12
-742.01823869487 -383.518931273904 2555.18042891379 15 18 11
-737.818425183245 -384.742698418032 2571.54684824412 15 18 11
-736.748078685109 -387.282074849818 2599.47664193163 15 18 11
-719.69697984316 -383.229167269841 2569.71203540393 17 20 13
-716.161463076757 -384.776722437806 2589.01283777878 18 21 14
-702.697221116669 -382.156749558248 2571.70312253975 19 22 15
-700.112431213391 -384.138901761439 2594.89217835588 16 19 10
-979.103954783729 -400.825154096644 2462.3992126891 18 21 14
-952.099062184161 -394.148625912982 2414.04994278932 14 17 8
-953.20522672737 -396.849960030968 2441.17670831178 16 19 12
-921.442351993536 -388.453858775964 2378.68657575645 17 20 13
-916.097781645338 -388.960605420001 2388.0566263054 15 18 11
-923.815684900552 -393.964085541358 2433.94004884157 15 18 11
-900.30153094127 -388.240747199573 2392.78375562054 17 20 13
-892.572692868781 -387.938260764171 2395.61475582913 16 19 12
-889.438049760412 -389.246146632728 2411.58781185798 14 17 10
-888.510693548719 -391.355589615994 2434.16480117206 13 16 9
-876.493162823448 -389.556159945161 2424.8007429308 13 16 9
-862.940427698199 -387.185489049218 2410.70454767203 13 16 9
-847.573097688579 -384.130440035719 2390.91945426759 8 11 4
-845.887533746897 -386.005054851628 2411.65628030415 11 14 7
-858.803532445069 -393.254153293744 2476.81425464619 9 12 5
-832.919462721216 -386.312359454278 2424.87809370881 18 21 14
-822.713790269393 -385.093732471359 2420.14493231561 21 24 17
-813.464808066814 -384.218970600735 2418.23840157787 12 15 8
-817.550532401741 -388.362392845975 2458.04002158788 10 13 6
-825.335183777661 -393.978845892313 2510.25278827418 10 12 7
-829.285246298615 -398.218649388202 2551.16298343407 10 12 7
-815.639160868784 -395.740310887661 2536.04201899669 9 11 6
-795.078356249404 -390.538663660713 2498.03977987635 7 9 4
-799.647424496018 -395.108630052716 2541.90007870951 8 10 5
-788.207624470739 -393.431481991814 2533.38343910328 9 12 5
-781.951109663114 -393.796379405649 2542.02897983541 10 13 6
-770.589602905795 -392.121978516828 2533.48368606615 13 16 9
-759.290450870783 -390.449879356506 2524.91581712074 15 18 11
-753.312804904526 -390.927343618156 2534.51809721905 16 19 12
-744.283394676645 -390.161223283814 2533.59014679702 16 19 12
-742.882085789161 -392.554496919763 2559.51784845882 16 19 12
-736.51455749471 -392.913954049138 2568.20413503792 15 18 11
-722.653894633762 -390.118980463344 2549.98510224485 15 18 11
-721.577877446973 -392.728719120634 2577.91164736423 16 19 12
-708.082995167238 -390.049990699585 2560.61775240869 16 19 12
-710.486542161917 -394.225885133101 2602.09467677863 16 19 12
-709.097899940969 -396.822706196722 2630.13578496646 29 32 23
-995.701154203226 -412.681747251787 2483.20672456944 11 16 9
-975.481098667256 -410.633806570372 2477.90825842325 16 19 12
-948.247071202622 -403.692847646002 2428.59563730921 16 19 12
-935.274874739141 -401.611978705078 2417.46656755008 15 18 11
-902.176179017105 -394.861131285362 2374.53693569672 17 20 13
-903.149875549242 -397.627619102252 2401.70691587174 16 19 12
-889.776038924221 -395.320348646731 2388.60749264236 17 20 13
-890.593226747624 -398.08031789144 2415.83483014554 14 17 10
-891.927791021966 -401.070155951168 2444.98995386001 14 17 10
-872.133239087539 -396.412419768983 2413.06811344126 13 16 9
-874.62865084606 -399.867055024089 2446.03312153937 12 15 8
-865.890740540727 -401.831278793724 2472.52549173574 11 14 7
-831.429681421023 -391.562215737699 2395.15741376764 8 11 4
-844.837554966665 -399.220523083405 2462.23916282039 11 14 7
-826.537122443989 -394.934966746002 2432.94629416246 16 19 12
-828.228696480784 -398.251919390594 2465.14694452269 19 22 15
-825.440476119578 -402.650031305568 2511.69338930072 8 10 5
-821.355489335495 -403.85159361474 2526.9532069215 2 4 0
-807.187620153504 -401.090897744297 2509.91001795615 23 25 20
-802.181378145642 -401.941209587185 2522.33114158799 6 8 3
-789.598010338451 -399.766812727807 2510.00104206389 4 6 1
-783.409396272533 -400.150770343369 2518.62047378393 10 13 6
-776.906212375904 -400.417283275201 2526.2962513832 11 14 7
-770.659844720989 -400.798596706029 2534.93686665899 14 17 10
-760.195254475336 -399.440848287696 2529.24172052083 15 18 11
-750.330826673998 -398.316262441414 2525.44428711962 16 19 12
-744.340183818952 -398.811903161733 2535.04991803288 17 20 13
-733.427177859867 -397.226296171916 2527.40177798163 17 20 13
-730.370860174272 -398.990424850561 2547.57843044932 16 19 12
-720.030760978327 -397.636736583955 2541.83799999794 15 18 11
-714.222558092 -398.243632080177 2552.43550550606 14 17 10
-706.284180572175 -397.927760626202 2555.34364918604 16 19 12
-984.725246238591 -420.050661171779 2479.17228553207 24 26 21
-968.409677318106 -416.829401642794 2459.7440094781 10 12 7
-950.844439147759 -413.128392614644 2436.53975810933 15 18 11
-940.577072993153 -411.973692441193 2432.89099951805 13 16 9
-921.216841472675 -407.556005181649 2403.99316512527 16 19 12
-903.373319960937 -403.628086915083 2378.7735241242 16 19 12
-884.35217548373 -399.223219939176 2349.75151936349 16 19 12
-892.59846107853 -404.713800323125 2397.53957504005 18 21 14
-879.289209986423 -402.362321840821 2384.41976672205 15 18 11
-886.558987652853 -407.598942323948 2430.44841930114 14 17 10
-877.13530128733 -406.691135043031 2428.60785847568 12 15 8
-858.133666411293 -402.1783810411 2398.52009484991 12 15 8
-848.20367558416 -401.035019898117 2394.74789958426 12 15 8
-837.679892563025 -399.652894171648 2389.07609971122 11 14 7
-831.264163878126 -399.831011390341 2395.66046921327 9 12 5
-826.377368032073 -400.606998706528 2406.97699093033 10 13 6
-836.501777280627 -407.245705907807 2464.66235103989 14 17 10
-830.788082609131 -407.773579076556 2474.16492428772 20 23 16
-822.621665968279 -407.343985916406 2476.09794739115 21 24 17
-817.756223605246 -408.227626030005 2488.46539855312 14 16 11
-803.335387141339 -405.29199871129 2470.46051041577 3 5 0
-808.756154380735 -410.345785834665 2516.1082167531 40 42 37
-804.606180681121 -411.57972063604 2531.3892040046 6 8 3
-789.396043700655 -408.289662579928 2510.49791773423 4 6 1
-787.792097564908 -410.591692272605 2534.37301714461 10 13 6
-768.740659184456 -405.643849341912 2500.0696979018 11 14 7
-757.493703209521 -403.907912031789 2491.48742655266 14 17 10
-764.168298478595 -409.76281159368 2544.08552713976 15 18 11
-749.287441633698 -406.484832044549 2523.07394399282 16 19 12
-735.357332625936 -403.566849636765 2504.88942480495 16 19 12
-738.093497119312 -407.867389803885 2545.16953578927 13 16 9
-731.760344526883 -408.260452609011 2553.84079678296 15 18 11
-705.293811867165 -402.908494770381 2521.19534033404 18 21 14
-694.043481466293 -401.063446163208 2511.55622572999 21 24 17
-675.104591305526 -395.688215256301 2472.97752703733 20 23 16
-989.446434669228 -430.4223071522 2492.67370400457 12 14 11
-981.737743844448 -430.232309625405 2496.55570703636 15 17 14
-952.409679235854 -422.240914027383 2441.68333934647 13 16 9
-929.855033792277 -419.151644617591 2428.77872879341 15 18 11
-898.867616127579 -410.321819603225 2367.10612495068 15 18 11
-908.504319262348 -416.439784352704 2418.60813182135 15 18 11
-884.519876824583 -410.0915352766 2375.53649579867 17 20 13
-877.498369925222 -410.037224476936 2380.22488325548 16 19 12
-871.116954170749 -410.228564490049 2386.7955335951 15 18 11
-870.520800504761 -412.633239202629 2410.29671942346 13 16 9
-862.452644410716 -412.206161184369 2412.19385100864 13 16 9
-849.946236057891 -410.059558794488 2400.90024832492 14 17 10
-843.184090026157 -410.124733435036 2406.55219541379 13 16 9
-832.347422579879 -408.595079566137 2399.9386531991 11 14 7
-828.066033547471 -409.640089893022 2413.14853075466 9 12 5
-828.335292229692 -412.518831518121 2440.56573562099 9 12 5
-822.684928408636 -413.06825003947 2450.0439270665 14 17 10
-820.622803388961 -415.082521593391 2470.90703456034 17 20 13
-801.097058272916 -410.010363042804 2436.78542857894 26 28 23
-805.223742848414 -414.584662792695 2477.60646634221 25 27 22
-791.274953358512 -414.694611949683 2489.06588129342 6 8 3
-802.495233355129 -422.415801664551 2554.80460818637 5 7 2
-782.13894448876 -416.868633677729 2516.75387660032 10 13 6
-771.944919248796 -415.582601341875 2512.02182348443 11 14 7
-771.08068096801 -418.304179012472 2538.79642670443 13 16 9
-761.722056775811 -417.381556288598 2536.93308989161 14 17 10
-746.310637301294 -413.79349850583 2514.00430919076 16 19 12
-736.239944414483 -412.511513207405 2509.22688513859 16 19 12
-731.906181110517 -413.771852483241 2524.57265779571 14 17 10
-745.773491924382 -423.249800453367 2605.2164295518 16 19 12
-723.839294603834 -416.646362662183 2558.21919386071 17 20 13
-714.557276128068 -415.725601123527 2556.32813719008 19 22 15
-692.254854064439 -408.776536458911 2506.29084645859 21 24 17
-694.522573680864 -413.163699472636 2546.7346252268 39 42 35
-963.267960409382 -432.20072558315 2447.65295962289 21 23 20
-979.006133889795 -440.623738667167 2514.89688116454 14 16 11
-956.951118555292 -435.123057868006 2479.59321994669 12 15 8
-909.097421314337 -419.901368975826 2372.26597500143 15 18 11
-926.546329133856 -429.069434024305 2445.23195318663 16 19 12
-908.682149635649 -424.976478067883 2420.03252467035 15 18 11
-897.243638515595 -423.284295988549 2412.58336163983 17 20 13
-867.06274172964 -417.011313366584 2376.02393046713 15 18 11
-857.142676888826 -415.830405609983 2372.25096166985 14 17 10
-861.010395867467 -420.053450883801 2408.92586051065 14 17 10
-853.907399531348 -420.000480098498 2413.64400933916 14 17 10
-849.94099286484 -421.201334800144 2427.79398519743 13 16 9
-844.977020861458 -422.023524372708 2439.13531618199 13 16 9
-834.395495333562 -420.589297073113 2433.48842747703 10 13 6
-822.632710914721 -418.656124629997 2424.04190144153 9 12 5
-803.327145131985 -413.59943149125 2390.90593969229 11 14 7
-796.290270270979 -413.547691225055 2395.59971695584 13 16 9
-796.72525402784 -416.616325293755 2424.00944483868 24 26 21
-803.252614328569 -422.298704833896 2472.40732477 31 33 28
-788.062663351786 -418.872867172814 2451.51920325969 97 99 94
-787.835954009786 -424.852180736456 2507.68197598902 6 8 3
-784.511870291993 -426.527985220466 2525.82921533342 9 12 5
-771.738878625177 -424.100855362738 2512.52052614962 10 13 6
-765.523610465215 -424.531904088552 2521.14608920354 13 16 9
-766.246632509822 -428.062103486019 2553.68281537318 14 17 10
-748.584179879712 -423.406981938984 2523.11921840383 15 18 11
-739.036527495896 -422.349562183395 2520.26817704573 15 18 11
-746.324725804027 -428.963661633479 2576.85252901629 17 20 13
-732.117190081045 -425.800561629343 2557.7207476493 19 22 15
-729.196581028104 -427.829533028093 2578.89491981082 19 22 15
-714.855630713082 -424.547774367519 2558.7540097231 18 21 14
-715.242259932064 -428.175994974763 2592.47186611472 19 22 15
-701.52208085235 -425.144417303435 2574.21989674948 24 26 21
-698.141744960789 -427.041278731803 2594.50426230179 21 23 18
-971.059776705648 -443.717632225125 2469.55206098297 22 24 23
-963.760619085231 -443.664796454009 2474.34147238575 16 18 13
-951.34823440938 -441.673632005586 2465.13534610841 14 17 10
-947.1055164199 -442.782699195231 2478.32608552396 16 19 12
-903.940040642488 -428.927978313879 2383.05854204578 16 19 12
-909.524394713829 -433.781211867728 2423.32865343304 14 17 10
-898.737469380802 -432.316132785155 2417.75897631252 16 19 12
-885.050627825391 -429.694540796496 2403.730185048 16 19 12
-862.037781628907 -423.347708649259 2362.43879149367 17 20 13
-859.243659414596 -424.975459002793 2379.33054544489 16 19 12
-858.610265131743 -427.4986008581 2402.83632365281 15 18 11
-854.059166380137 -428.477779498851 2415.08235344131 13 16 9
-846.940919092593 -428.429378807333 2419.80569869234 13 16 9
-844.491769633822 -430.301370117083 2438.68704949615 13 16 9
-828.343218584704 -426.539093357847 2416.03924147891 11 14 7
-817.242508138174 -424.827911567119 2408.46852203109 11 14 7
-813.196238850231 -426.05739995049 2422.64560882718 10 13 6
-799.736889222852 -423.326609032946 2407.475844198 9 12 5
-800.732588505322 -426.722490627752 2437.79026419947 20 22 17
-784.677244279703 -422.847002575732 2414.05057637831 28 30 25
-800.514908707357 -432.731830479964 2492.8809343875 22 24 19
-795.144149724918 -436.684653536404 2532.93290791535 9 11 6
-778.58006099107 -432.556618420725 2507.26375437877 9 12 5
-774.08610833237 -433.766512654244 2521.6047254606 10 13 6
-767.282235486024 -433.958968559594 2528.32904043624 13 16 9
-758.229831725625 -433.136388912536 2527.41345006814 14 17 10
-754.442922835879 -434.72073808282 2544.66944969593 15 18 11
-752.767300879766 -437.314180865858 2569.61516027801 15 18 11
-730.658598645957 -430.419518353077 2522.70330214564 15 18 11
-738.600284329642 -437.559103597255 2582.21049188656 18 21 14
-727.637733107552 -435.849776745541 2574.58968835115 19 22 15
-722.785653300204 -437.043590513126 2589.06199377218 19 22 15
-701.453883979612 -430.294700341076 2542.92365852195 21 24 17
-703.093534114941 -434.637982548812 2581.4655826162 18 20 15
-700.201073100425 -436.834425345306 2603.68344779131 25 27 24
-967.453390943472 -451.005237027468 2460.71276589373 8 10 9
-959.834685112027 -450.826795751734 2464.5612020605 15 17 12
-951.19061033091 -450.252168819103 2465.61190879152 16 19 12
-900.109031721659 -435.801317559109 2373.26556174606 17 20 13
-892.419877293548 -435.500456460392 2376.08202076211 17 20 13
-892.315208582283 -438.223942881921 2400.44713303386 15 18 11
-873.442750130637 -433.45265786656 2371.39875188245 16 19 12
-867.729891872784 -433.940010590525 2379.83752232463 17 20 13
-853.612993962048 -431.014693847168 2363.85479072741 18 21 14
-858.448557676956 -435.828036415405 2403.33316506746 17 20 13
-859.598062602432 -439.19230876354 2432.52753043344 15 18 11
-853.059607029739 -439.409118573808 2439.15331749969 15 18 9
-834.341454507176 -434.52388363838 2408.99091267537 14 17 8
-827.244199383342 -434.48114313787 2413.70594930926 14 17 8
-817.990563117812 -433.523690274437 2411.80734873482 13 16 7
-812.10777643466 -434.002363483882 2420.30826113346 11 14 7
-807.099204480213 -434.870808823766 2431.66230688365 11 14 7
-792.795447795805 -434.778883467063 2441.13281402677 17 20 13
-780.340359316137 -432.390452124282 2428.77250935434 20 22 17
-807.285931111069 -447.552919819692 2544.76748603861 15 17 12
-787.432682602434 -441.909727352144 2508.67459297973 11 13 8
-772.368339087747 -438.351204043244 2487.75084490533 10 13 6
-771.043111573257 -441.022076151601 2512.56340186166 10 13 6
-761.171010173007 -439.800777141362 2508.77579942451 14 17 10
-756.347127611625 -440.911248847798 2522.17784608657 16 19 12
-758.915344961725 -445.512307445289 2561.42949343706 16 19 12
-756.097020218531 -447.649268708856 2582.55835385986 12 15 8
-742.623936378753 -444.74458725186 2566.34014346728 12 15 8
-728.986120547205 -441.714723091335 2549.12467539117 18 21 14
-716.784779845289 -439.3337830539 2536.67135508552 20 23 16
-708.085649858621 -438.631113529014 2536.6851702209 20 23 16
-697.058596689915 -436.770046646813 2528.03244114996 22 25 18
-694.604728425594 -439.156908460641 2551.14339223157 21 23 18
-703.023545745323 -447.067047808465 2615.75211808551 23 25 20
-711.620865048782 -455.220758265388 2682.41097641621 14 16 13
-979.030214282185 -464.175574775423 2492.84501386694 66 68 67
-941.516393537121 -455.065738209472 2439.96467071262 14 17 10
-920.80962051985 -449.645419235925 2407.36500201791 14 17 10
-913.352724933996 -449.475266960832 2411.15402102743 14 17 10
-885.628542793019 -441.110526299447 2357.86018456022 17 20 13
-893.479604208818 -447.120140372245 2404.68612186533 15 18 11
-865.443142598674 -438.500033585754 2349.39190356381 16 19 12
-857.517409088152 -438.067832098267 2351.23767424973 17 20 13
-865.691533782154 -444.331865247606 2400.05989237742 18 21 14
-866.269799934744 -447.507831359299 2427.34265146827 17 20 13
-861.646636369715 -448.538668664006 2439.61096738115 15 18 11
-843.148068077741 -443.687844347687 2410.43273926077 13 16 7
-831.991689341511 -441.914651025808 2402.8871793675 13 16 7
-826.45506211047 -442.545039884696 2412.31768239202 13 16 7
-815.979047099066 -441.040600483797 2406.6377553692 13 16 7
-809.50058713644 -441.269581070523 2413.24082547269 13 16 9
-803.303394807051 -441.630694515704 2420.7985413897 13 16 9
-801.263945036944 -443.852734225044 2441.63798797997 15 18 11
-791.129476105261 -442.481995590001 2436.89043274095 18 21 14
-799.536711910062 -449.47984176026 2491.97268582386 21 24 17
-802.422580871728 -454.077460665015 2530.0426217075 14 16 11
-797.9061872534 -455.352117715227 2544.38711428003 10 12 7
-768.736766224126 -445.228514225874 2476.81829184007 11 14 7
-771.687162090112 -449.949125475055 2515.92231324999 11 14 7
-761.244592832582 -448.443506894571 2510.23032309973 14 17 10
-759.753059674846 -451.16993256714 2535.09911353664 16 19 12
-760.349846561575 -454.948204589941 2567.66298820411 18 21 14
-750.682631742068 -453.836073701327 2564.85951641136 15 18 11
-741.858651004149 -453.1206639744 2564.91965578196 20 23 16
-711.611151882414 -441.862391770108 2488.22863741867 23 26 19
-714.969141486974 -447.081935924946 2531.41314438169 23 26 19
-700.237571470024 -443.344827561032 2509.31515118333 23 26 19
-698.915786087719 -446.318546629586 2536.23697397713 23 26 19
-699.786326891404 -450.469319652947 2571.87294648286 18 20 15
-706.607863095471 -457.763600914397 2630.70890029735 28 30 25
-960.5494069326 -468.421311944392 2468.30701793138 9 11 6
-940.343558424205 -463.165216764865 2437.64632038326 12 15 8
-918.63692386948 -457.229813822851 2402.24913413 14 17 10
-903.497704291066 -453.908263865655 2384.53438003599 17 20 13
-916.359959097018 -462.103529040659 2445.37401250649 17 20 13
-879.351172415726 -452.590452547915 2390.20722982681 16 19 12
-867.745573961393 -450.646805318842 2381.77119310938 16 19 12
-874.540448088405 -456.494436133424 2426.85948373117 17 20 13
-871.848684741127 -458.372773317756 2444.76195022811 17 20 13
-850.079161362795 -452.06057583175 2406.21612057871 16 19 12
-836.700557007575 -449.302091011991 2392.08566394639 14 17 8
-833.070050621399 -450.770699197567 2407.16020273303 15 18 9
-826.284154029404 -450.874949593677 2412.81783096421 16 19 10
-818.870516040567 -450.706250880162 2416.59076888543 17 20 11
-809.93337357585 -449.857401197461 2415.63553618142 18 21 14
-801.017186754324 -449.009087621654 2414.67264905514 18 21 14
-794.212328858742 -449.111539935782 2420.33730230816 16 19 12
-796.866475273502 -453.553608562031 2456.37005573735 17 20 13
-796.112990232151 -456.497373118142 2482.02084324818 18 20 15
-816.765442012957 -469.458285351893 2578.06925082581 13 15 10
-793.661415167563 -462.098868681397 2531.55409794706 8 10 5
-781.685092413449 -459.888654520157 2521.13950541068 8 11 4
-761.598388620796 -457.231430900963 2512.63863592124 9 12 5
-760.652049056163 -460.289841061967 2539.41765507165 12 15 8
-749.107827416557 -458.219665631858 2529.9020540646 19 22 15
-751.006522943116 -462.753188017424 2567.26894707726 20 23 16
-730.007399083575 -455.971199936883 2524.21191524107 17 20 13
-721.040240401638 -455.117529623447 2523.26795228031 16 19 12
-706.258327455874 -451.307378634257 2501.1937617413 17 20 13
-703.169851826098 -453.412003780617 2521.35640739556 19 22 15
-706.493643491392 -458.867909804249 2565.60231641644 17 20 13
-706.506902339535 -462.70555823826 2598.37372868936 13 15 10
-701.771788386737 -464.124550199957 2613.85335651121 26 28 23
-938.152829680762 -470.8327556522 2432.53073086172 12 15 8
-917.813784028136 -465.346037925645 2400.86927344026 15 18 11
-911.041182081978 -465.461662420194 2406.5209587282 16 19 12
-900.271214494725 -463.899074827251 2400.95247739461 18 21 14
-899.425745942416 -466.528434723904 2423.46048528544 15 18 11
-895.205451691525 -467.757452215514 2436.63402687282 16 19 12
-888.659907879832 -468.007675275988 2443.26012258467 16 19 12
-879.842906774707 -467.281134142071 2443.31856587499 17 20 13
-855.729225465039 -459.86963196787 2398.24074455199 17 20 13
-841.054466343741 -456.50426891875 2380.36079460435 17 20 13
-838.419879584606 -458.427927619593 2398.23881281353 17 20 11
-833.524386199434 -459.375276732599 2409.54581945722 17 20 11
-823.025724236046 -457.82083685626 2403.87789353827 17 20 11
-811.961322787187 -455.990435694679 2396.3032312652 16 19 10
-810.668983587447 -458.599383393208 2418.97514417716 16 19 12
-800.238279051644 -457.046824025048 2413.28263919057 16 19 12
-792.241851440539 -456.603523641155 2415.15467882231 14 17 10
-786.91420563162 -457.405517014092 2425.56311375606 15 18 11
-803.178581527457 -471.852734104553 2534.82661154712 14 16 11
-802.390118582113 -474.986602914275 2561.54257471723 10 12 7
-787.763412602833 -471.493148797246 2542.58801939142 8 11 4
-768.683637469852 -469.340935322588 2537.94967033842 8 11 4
-755.990822056914 -466.683212703244 2524.6292487027 10 13 6
-747.516522279232 -466.091876504634 2525.61953053997 18 21 14
-753.239384443911 -472.647938029694 2576.37741524104 20 23 16
-733.033230712568 -466.145920505235 2536.21106636973 19 22 15
-716.538537441163 -461.436993787027 2508.42716127444 17 20 13
-709.487861643622 -461.534290667357 2514.18151838851 18 21 14
-707.93619481649 -464.508437697201 2540.12002291124 20 23 16
-709.122287537961 -468.983710946487 2576.68367003732 18 21 14
-705.238716139915 -470.851826881008 2595.01993636642 17 19 14
-703.312953927345 -473.810222211861 2621.09555228247 23 25 20
-941.393879597925 -480.757109226673 2442.33720891326 15 18 11
-893.842408211385 -466.592185834576 2359.35299291843 21 24 17
-897.464958615732 -471.137862982564 2393.95951514447 19 22 15
-892.026767336867 -471.831427410033 2403.34948599333 16 19 12
-890.471259403296 -474.230982991996 2423.99945017889 15 18 11
-886.550543012747 -475.630991901136 2438.11805284631 15 18 11
-873.890228001832 -473.191526977592 2426.90272148245 16 19 12
-852.379359424904 -466.778686048598 2389.33680847073 17 20 13
-838.680323457754 -463.779937556241 2374.27460302225 18 21 14
-853.312953130765 -473.546748478717 2443.95193092928 18 21 12
-840.823083238371 -471.112813322881 2432.67425322308 17 20 11
-823.473246322623 -466.416051562797 2406.26669230015 15 18 9
-809.955139841143 -463.423287246975 2391.13829685914 12 15 6
-806.85189698024 -465.241492581108 2408.1279958177 11 14 7
-802.167685723345 -466.349966864404 2420.41263481564 10 13 6
-797.730874040021 -467.597291089228 2433.66346404516 11 14 7
-825.641752330127 -491.47103600426 2609.44871187939 17 19 14
-797.858849857996 -481.571851140081 2547.75902846914 13 15 10
-784.69942399766 -478.720380137889 2533.55620631971 10 13 6
-765.387760134797 -476.399149484182 2527.94830752935 9 12 5
-750.779124427859 -472.713276576851 2507.93514866254 8 11 4
-749.779830547792 -475.905351981559 2534.72306854309 13 16 9
-739.382979333695 -474.326364484671 2529.02025741789 19 22 15
-733.894521768667 -475.270118531835 2540.54272716477 20 23 16
-727.558202116399 -475.791942681096 2549.2054236212 19 22 15
-715.892756835359 -473.515076080243 2538.68290665703 19 22 15
-709.810198875828 -474.175760604825 2548.30948096098 18 21 14
-708.369671001472 -477.348610621409 2575.25942261344 16 19 12
-705.000911964018 -479.539172747864 2595.51742167322 17 19 14
-710.964969819052 -486.885480071945 2651.46108110697 19 21 16
-683.365292030001 -475.826465397816 2580.19282155232 16 18 15
-923.575059652247 -484.759138591241 2418.64388677899 20 23 16
-878.055395638568 -474.1165107964 2364.52128512488 15 18 11
-879.866364166072 -478.022247368099 2394.50101782045 15 18 11
-876.671198206731 -479.747906299436 2410.46454242923 15 18 11
-869.870551316294 -479.877321523976 2416.12563127129 16 19 12
-845.208303570933 -471.90112205129 2369.15661957355 17 20 13
-848.004584998834 -476.373181247054 2403.00210039817 18 21 14
-847.182647294402 -479.248558459707 2426.54980679161 18 21 12
-842.205241199004 -480.241657930751 2437.88312346154 18 21 12
-832.864061096296 -479.212121621373 2436.02151535666 15 18 9
-835.171228453669 -483.663710694444 2470.04625419496 14 17 8
-809.710628379841 -474.993404782147 2418.08639552143 11 14 7
-808.605489559306 -477.856106166466 2441.7379559273 11 14 7
-807.089723060154 -480.5701541759 2464.48337268679 11 14 7
-806.648884315854 -483.854832240317 2491.06139782548 11 14 7
-817.214894193171 -492.595252294809 2553.76076574399 16 19 12
-806.255263303908 -490.838962142084 2547.20900083549 17 19 14
-791.029307002002 -486.931878209277 2526.37027221166 13 15 10
-780.497273531553 -485.324041132554 2520.7185003185 9 12 5
-771.425834597823 -484.43436070305 2519.81514331017 10 13 6
-753.689745238915 -479.105941345309 2489.32910272477 8 11 4
-751.403129206715 -481.654921750933 2511.30024214006 6 9 2
-745.989001317149 -482.626576411702 2522.79385428384 9 12 5
-743.799362845078 -485.310850561626 2545.78610621797 12 15 8
-729.895916478614 -481.850528007462 2527.63307422657 14 17 10
-726.800544798971 -484.10202140913 2547.78714403033 19 22 15
-720.965750661759 -484.923693627414 2558.37810589187 20 23 16
-711.157216400609 -483.606274724716 2554.57491383049 19 22 15
-709.954731215492 -486.988579933331 2582.4891181431 20 23 16
-707.848439794 -489.938462573985 2607.56441315906 18 20 15
-697.734331310676 -488.475989753581 2602.81663600056 30 32 27
-914.33699446911 -489.212431162882 2393.93191813924 21 24 17
-870.983418444677 -476.177045199825 2321.07010523448 17 20 13
-864.75486251797 -476.472947314023 2327.5773264806 14 17 10
-855.896077318044 -475.585711855727 2326.5965199077 14 17 10
-875.216427936586 -487.544846834266 2407.20490046975 15 18 11
-863.606929311729 -485.469467341242 2398.78022024042 16 19 12
-863.207609923049 -488.556972411157 2423.22492438041 17 20 13
-856.371257093777 -488.692510616185 2428.89852454231 17 20 13
-839.49122398592 -484.115134667032 2404.44462518279 19 22 13
-829.598528780773 -482.780610595305 2400.6733025653 21 24 15
-829.298025566926 -486.005684684264 2426.13827951324 22 25 16
-838.962424212183 -494.07479258389 2482.81604219086 23 26 17
-832.269129505796 -494.349344782184 2489.49398567916 22 25 18
-812.331129689524 -488.166052822985 2454.53919355969 22 25 18
-805.412530989797 -488.29617331607 2460.24308551004 24 27 20
-799.660683556192 -489.011558139606 2469.74537303537 21 24 17
-793.126350869942 -496.704303735602 2534.47050705712 13 15 10
-773.162742191412 -490.248605504993 2497.41271491761 12 15 8
-768.392679162394 -491.540671069339 2510.78125107058 11 14 7
-762.166723875667 -492.100618994696 2519.40097150855 10 13 6
-747.309264560069 -488.138500207037 2498.43225225332 10 13 6
-749.899429655936 -493.36169016066 2537.62923866449 11 14 7
-740.040375183131 -492.023984654055 2533.84593314992 11 14 7
-732.64584402447 -491.997079564815 2538.66778652424 11 14 7
-726.043582545871 -492.405770140046 2546.36908950487 16 19 12
-723.915281398967 -495.283422582277 2570.39102082176 19 22 15
-715.123156065646 -494.526127376603 2570.44274625382 21 24 17
-699.080859364085 -489.70630564869 2543.56964624345 22 25 18
-707.094923097406 -498.377677569162 2606.13488558756 17 19 14
-700.546354037485 -498.921786571677 2614.87301879694 22 24 19
-934.150872442129 -503.335455421015 2425.13256558208 25 28 21
-875.480695840959 -486.442110380067 2334.66117499144 16 19 12
-866.912838319493 -485.693297028418 2334.63077553577 13 16 9
-879.55494683331 -494.725996970656 2395.48720963119 14 17 10
-870.52770357619 -493.820819595625 2394.56870963784 14 17 10
-873.395750279778 -498.476468052406 2428.37426333978 17 20 13
-864.3150434388 -497.568589636356 2427.47564677735 18 21 14
-852.412869707185 -495.310548347498 2418.10427798705 19 22 15
-840.264521179276 -492.904816867838 2407.76694096852 19 22 13
-821.664314431128 -487.354293731252 2377.61162476687 22 25 16
-818.957145905928 -489.448916739818 2395.50336943266 24 27 18
-818.001376325845 -492.438018444918 2419.09112127795 24 27 18
-819.659676876567 -496.768479106004 2451.22739034693 23 26 19
-808.842994079901 -494.964164017108 2444.62731058618 22 25 18
-797.780259704148 -493.012267768684 2437.06120960116 17 20 13
-792.089190474795 -493.749024940411 2446.53980154459 11 14 7
-790.907362510492 -504.290612848909 2528.30475799408 19 21 16
-772.676069320639 -498.614026254533 2496.95835709412 13 16 9
-776.660027978195 -504.547198151507 2539.86158163954 13 16 9
-760.558489156454 -499.917334660047 2515.12904064408 14 17 10
-752.925491704172 -499.74957645682 2518.98160913328 14 17 10
-745.013343110948 -499.432869073284 2521.88028593143 14 17 10
-736.013221195149 -498.522557050947 2520.95257345883 14 17 10
-730.000110612466 -499.243393455108 2530.54937636735 12 15 8
-728.491705086631 -502.480827644446 2556.45229699804 13 16 9
-724.74523059347 -504.528818265401 2574.72517904067 13 16 9
-717.250640172118 -504.502244582285 2579.58361700292 12 15 8
-699.631657514299 -498.709718455356 2546.95667797188 14 17 10
-690.934315778179 -497.947164980802 2546.97436170831 11 13 8
-700.558038482222 -507.813660399322 2616.33097979464 24 26 21
-891.930331467275 -499.081697562864 2357.59633666465 19 22 15
-889.242409171035 -501.083235581436 2374.42155562639 13 16 9
-881.878817714498 -500.935162270895 2378.17475354335 14 17 10
-879.724744462065 -503.237796722929 2396.91639936721 13 16 9
-878.776939856638 -506.149153793015 2419.4405669575 13 16 9
-867.777448137328 -504.312816464454 2412.90932467276 13 16 9
-860.647932935748 -504.313002673004 2417.63284371565 14 17 10
-845.933133875797 -500.645293234832 2399.79025429927 15 18 11
-836.966731476807 -499.730255704911 2398.85039250174 19 22 13
-828.642270023325 -499.12093858518 2399.78784344319 24 27 18
-821.252139613747 -498.96917803434 2403.55096216662 25 28 19
-815.689459904053 -499.731289823647 2412.98099232958 22 25 16
-812.210870722915 -501.55771054379 2429.03989260078 19 22 15
-799.953944837785 -498.967459007122 2417.68937190921 18 21 14
-793.132527444576 -499.117530935291 2423.35644887368 13 16 9
-770.376141179493 -494.70651016117 2405.29157679078 62 64 59
-784.43786425147 -513.496368255921 2537.4271829966 14 17 10
-781.248310165986 -515.752415596644 2556.54857296596 14 17 10
-755.763490185601 -509.966789123956 2529.97899045903 14 17 10
-741.505457983468 -506.171776043365 2510.91323521 13 16 9
-737.702866802116 -508.121711614198 2528.14734872555 12 15 8
-731.668431779516 -508.860533015421 2537.75054260717 8 11 4
-727.467115246081 -510.653691212877 2554.07454657754 10 13 6
-720.551640614556 -510.936145477177 2560.83262015298 10 13 6
-714.925199403167 -511.970712947972 2572.39837252265 11 14 7
-714.956035808776 -516.31528383156 2605.12515010052 13 16 9
-687.36854576522 -504.555416395552 2534.97189897772 17 19 14
-937.570416910263 -522.035062454821 2436.34544975354 26 29 22
-911.538434096172 -513.28521854027 2388.86567641179 22 25 18
-898.121462382591 -510.326417492655 2375.83108480359 19 22 15
-880.821205729083 -505.497090956865 2351.54887851356 14 17 10
-879.100818272925 -508.006627176448 2371.18414947473 14 17 10
-881.522765479801 -512.539260505186 2403.02770278458 13 16 9
-860.193557824316 -505.689957924279 2366.49578211449 12 15 8
-856.393197321206 -507.25797781421 2380.55772396605 12 15 8
-851.577357858112 -508.356396524468 2391.82439090614 13 16 9
-851.132225887203 -511.629997294396 2416.27169925997 14 17 10
-836.488195094496 -507.904535203968 2398.40750029902 13 16 7
-828.16435875257 -507.28971907933 2399.34513902267 15 18 9
-825.391107569464 -509.468883851955 2417.25451518867 17 20 11
-821.315147294883 -511.024018794772 2431.41756497705 17 20 11
-818.388632267657 -513.196479162159 2449.38313351144 14 17 10
-801.576742424296 -508.239281317369 2423.86657707596 13 16 9
-778.671428535118 -500.036766846594 2378.40939363046 17 20 13
-781.098912128009 -504.994854056766 2413.41901151141 15 18 11
-776.915325017129 -526.269314932573 2573.32875312678 10 13 6
-755.551183718111 -518.554532300028 2530.47498097814 12 15 8
-750.076120051544 -519.621143017104 2541.98356879203 15 18 11
-747.274254536368 -522.223357469303 2563.07109055789 16 19 12
-741.413475575788 -523.130943795437 2573.66526563022 19 22 15
-721.90906993316 -516.203872032692 2535.40938312568 20 23 16
-710.771135657899 -518.326553971526 2558.49533698502 18 21 14
-713.164609387682 -524.136128047648 2599.85265761257 19 22 15
-712.789113493459 -528.405508077267 2631.66593370186 20 23 16
-684.075976554674 -515.678128001475 2556.6616372504 24 26 21
-929.293604033848 -526.741449046112 2414.46504872106 25 28 21
-908.703387809176 -520.391718546532 2381.89315615018 22 25 18
-882.642463731662 -511.347093819765 2333.37983800713 20 23 16
-888.613272213441 -517.562983335943 2374.47327766307 15 18 11
-886.169802360759 -519.801516690265 2392.25835243268 13 16 9
-871.923103120304 -516.3250365388 2376.36436869246 13 16 9
-853.351817785008 -514.13662465479 2372.61080797038 12 15 8
-851.734267174356 -516.843796200616 2393.26035878006 13 16 9
-846.866123634273 -517.964275601309 2404.54411093599 16 19 12
-824.437932994111 -510.226442142842 2363.14524333184 11 14 5
-819.001345281268 -511.032220284462 2372.52616484101 13 16 7
-819.989190307037 -515.153063849022 2401.72218281317 13 16 7
-824.189219059864 -521.004136540882 2441.3534267824 13 16 7
-820.022245906061 -522.587961896036 2455.5473802303 12 15 8
-805.29691047264 -518.65168152697 2436.66207263701 11 14 7
-788.877611315074 -517.56189874117 2439.51012347261 11 14 7
-791.638603428162 -522.916947453999 2476.50172627904 60 62 57
-777.47704857188 -527.159061911273 2516.52597556566 9 12 5
-785.897059673881 -535.943331677202 2574.66872140788 9 12 5
-760.213230130356 -525.740185545737 2517.57259013382 8 11 4
-745.096006861175 -521.34818006252 2495.66413227844 10 13 6
-748.214423511387 -527.2977457462 2536.74749132782 14 17 10
-739.445251371527 -526.508847157291 2536.79326152843 16 19 12
-730.961304605966 -525.876653561514 2537.79013123454 18 21 14
-724.087960435295 -526.182401449848 2544.53113969024 19 22 15
-718.250887260929 -527.111803246307 2555.11480124286 19 22 15
-712.373686445502 -528.039322949877 2565.71343898662 18 21 14
-711.37514968421 -531.928775682794 2594.58183232455 18 21 14
-698.448238837647 -528.64136353508 2579.26061065154 14 16 11
-700.845260974623 -534.704869751755 2621.66403866142 24 26 21
-701.274884860661 -539.669798537536 2657.39903779459 17 19 16
-967.9880244154 -550.251865548718 2496.76230857127 19 21 16
-925.421662335384 -533.425912858019 2404.70119178973 26 29 22
-902.849352979146 -526.003054304806 2366.53059128015 23 26 19
-896.826416243671 -526.510850358407 2374.01392615877 17 20 13
-894.414018572713 -528.794577110784 2391.78430132381 15 18 11
-896.183486786263 -533.173975199125 2421.74337412415 14 17 10
-859.564123738721 -522.077388680266 2366.55457757389 14 17 10
-858.000148693704 -524.838821471479 2387.18056827096 13 16 9
-863.328778883754 -531.139635753793 2428.50092770772 12 15 8
-831.258262279267 -518.437285462977 2358.98108409111 12 15 8
-815.525539693452 -513.954527249721 2337.30310769061 18 21 14
-820.078366719591 -519.926581183673 2376.79703857009 19 22 15
-816.437304953062 -521.713096440089 2391.85142592665 19 22 15
-809.985805405254 -522.051515069697 2398.43644302387 18 21 14
-809.258410219915 -525.437595128252 2422.9778214618 16 18 13
-822.202399681825 -536.19523704007 2491.06082351823 15 17 12
-806.856281913701 -531.87412848769 2470.29673858111 17 19 14
-801.950998538455 -533.163293195844 2482.64806800079 13 15 10
-796.118716656959 -533.969894445023 2492.17269795673 7 9 4
-774.144189405841 -533.983012761949 2506.55572518552 12 15 8
-773.687412474581 -542.124695478594 2564.77230268457 12 15 8
-749.039493525025 -532.235668855069 2510.47600838775 12 15 8
-744.435793526862 -533.830862278615 2524.82778336034 11 14 7
-741.129172722729 -536.219466328707 2543.98196075482 11 14 7
