ply
format ascii 1.0
comment KinectMotionCapture
element vertex 750
property float x
property float y
property float z
property uchar red
property uchar green
property uchar blue
end_header
-835.309287973925 285.912143415419 2458.86159094847 181 185 186
-839.700327200658 286.073604106199 2464.87076327848 178 182 183
-840.316318834309 285.772327989017 2472.25798614213 176 180 181
-841.869368499335 285.586705156488 2479.28860956415 173 177 178
-840.576423698988 285.053892479929 2487.32492114093 171 175 176
-842.113967418322 284.868181021162 2494.32699965175 171 175 176
-843.645733476219 284.682452464394 2501.31844684873 170 174 175
-848.023950300842 284.844100225453 2507.30409270094 166 170 171
-850.499872977455 284.774175958322 2513.95204146223 168 172 175
-853.925937265208 284.82010697913 2520.26701037168 181 185 188
-853.533207890687 284.402723060654 2527.87889472236 185 189 192
-855.997083221634 284.332812328148 2534.50418604603 186 190 193
-855.586278918529 283.915279647558 2542.08278257375 176 180 183
-858.039588449707 283.845292912676 2548.68912285495 168 172 175
-862.409432897577 284.007173348988 2554.65944035119 153 157 160
-868.702891563574 284.400933121124 2560.00827157786 148 152 155
-873.079175985669 284.562993650055 2565.99048751779 147 151 154
-877.457138822411 284.725079664632 2571.97630227613 150 154 157
-880.87229488228 284.771257480196 2578.27128318338 159 163 166
-886.219199135386 285.04946696795 2583.95877500614 167 171 172
-888.667995972575 284.97969978088 2590.55688164354 167 171 172
-894.020062815608 285.258059377948 2596.25391355089 164 168 171
-901.316660484028 285.768586204004 2601.36751097215 153 157 160
-914.451051999656 286.975683293383 2604.73754415639 165 169 172
-928.583366927443 288.299256360631 2607.86266358166 193 197 200
-937.873488238269 289.042674159442 2612.48315087924 193 197 198
-936.45135790661 288.509032201222 2620.2816173429 193 197 196
-987.678607405826 305.76937436074 2218.44467532701 175 179 180
-966.76450684753 302.777520552154 2236.18373474022 182 186 187
-943.031697218006 299.446976323478 2254.98172532086 180 184 185
-928.393583360788 297.241980156751 2269.6954890309 182 186 185
-923.807653861197 296.275688387005 2280.00525105422 182 186 185
-922.877488051159 295.759890487469 2288.71440024362 182 186 185
-913.643086452329 294.229780240469 2300.87972363972 182 186 185
-900.68180889736 292.248425335028 2314.51464567641 182 186 185
-887.673040609421 290.266525179491 2328.06256387776 185 189 190
-880.167697909631 288.960587542193 2339.24575650305 186 190 191
-873.557197866538 287.767128611862 2349.99324901385 186 190 191
-871.556023650279 287.137243586157 2358.81310947603 186 190 191
-866.75193557015 286.168872889464 2368.72050869837 188 192 193
-860.993250916081 285.087413452215 2378.95403048778 189 193 194
-849.618904196948 283.328740001924 2391.34446968295 187 191 192
-843.799620922056 282.246679018613 2401.46585442554 187 191 192
-842.624709266961 281.728660969034 2409.72420376535 187 191 192
-841.436437847916 281.210566964912 2417.95745497988 186 190 191
-838.360734061558 280.466536223669 2426.88203727782 185 189 190
-834.328529354214 279.609458814691 2436.12773962183 187 191 192
-832.153605995291 278.978007031933 2444.62757259533 183 187 188
-831.843955993715 278.572344406333 2452.39577989214 182 186 187
-832.465215246828 278.279565924685 2459.79524628724 180 184 185
-834.964724557243 278.212738513271 2466.48700221202 179 183 184
-837.460778068579 278.145897607363 2473.17290247854 179 183 184
-839.953875728579 278.079112023147 2479.85287878829 176 180 181
-841.496660618111 277.899329414594 2486.86587545326 173 177 178
-843.033447252036 277.719488263717 2493.86832687232 171 175 176
-845.514297791892 277.6527341064 2500.52578794735 171 175 176
-848.942870243739 277.699086456992 2506.84549653039 169 173 174
-850.466103944632 277.51924641118 2513.82302196849 178 182 185
-850.076388363469 277.11315477389 2521.44384506306 188 192 195
-849.675752399521 276.706962640643 2529.04455336265 186 190 193
-852.132483255463 276.640140960773 2535.65813788273 176 180 183
-855.543640238177 276.686529668146 2541.94582717809 166 170 173
-858.954150919842 276.732962381936 2548.23234104171 156 160 163
-865.244266006956 277.119076558607 2553.57221938067 149 153 156
-871.541493895707 277.505341909527 2558.92522491915 146 150 153
-875.920408235773 277.665238201447 2564.91213116937 153 157 160
-878.373488537381 277.598670381089 2571.51857375184 165 169 172
-881.788517357759 277.645393251737 2577.81348455212 169 173 176
-885.202887565019 277.692145210019 2584.10719279015 167 172 175
-888.616628538862 277.738919219706 2590.39975038459 164 169 172
-894.937090036892 278.125734522377 2595.79565214602 160 165 168
-906.116547486669 279.079458728299 2599.72411361495 143 146 151
-918.287850643396 280.146890617712 2603.39565083272 186 190 193
-927.562714914179 280.874477509091 2607.98281271968 194 198 201
-932.955438742685 281.148653245523 2613.75336205553 193 197 198
-929.572296305541 280.402047268618 2622.11173422933 174 176 175
-984.121737984546 297.358798702882 2219.94871063999 184 188 189
-964.10684793687 294.550034879381 2237.28133752882 181 185 186
-947.689127059336 292.180178204862 2252.9026054571 180 184 185
-933.96674560485 290.139514186506 2267.23518677689 182 186 185
-931.222131214755 289.417878395473 2276.7749331943 182 186 185
-920.176418654827 287.70629549525 2289.78445585996 183 187 186
-906.32396779137 285.664259871902 2303.87740336641 184 188 187
-892.421870922912 283.621694037944 2317.87837913427 184 188 187
-881.242155398828 281.908663147479 2330.64101049123 183 187 188
-873.722169731193 280.635352742632 2341.80708373231 187 191 192
-867.097389992771 279.47181467759 2352.53731112117 187 191 192
-869.723782783208 279.408778612109 2359.46407326692 187 191 192
-863.053785418708 278.244827657449 2370.11101303781 188 192 193
-857.285281634004 277.190699870842 2380.33419062067 189 193 194
-844.966689846896 275.365380969262 2393.08325292789 188 192 193
-841.935835232157 274.641053069933 2402.09574184324 188 192 193
-837.951535817062 273.806392269827 2411.4367961427 187 191 192
-837.68942459132 273.412286231402 2419.29591122133 187 191 192
-834.604944093433 272.687504405314 2428.20963586117 185 189 190
-832.440107878569 272.072769272566 2436.7330479822 183 187 188
-830.259117567132 271.457893478869 2445.22670747652 180 184 185
-831.826221446514 271.283932639006 2452.28618192438 180 184 185
-831.502582265249 270.889394865965 2460.03251029424 180 184 185
-833.055526752487 270.715390979007 2467.06593009485 179 183 184
-833.657587865754 270.431062534574 2474.43262871839 176 180 181
-836.143768302704 270.367355824008 2481.10080887728 175 179 180
-838.62649103835 270.303650368463 2487.76313431486 174 178 179
-840.157526437104 270.129644100281 2494.75625859368 171 175 176
-843.582776338878 270.176370506566 2501.06996888824 170 174 175
-847.007393202787 270.223148463291 2507.38253041313 171 175 176
-848.525975101521 270.049132346947 2514.35325171874 183 187 190
-848.130910552867 269.654270337221 2521.96761407497 188 192 195
-850.59065599655 269.590662458575 2528.58720518547 185 189 192
-854.960137001963 269.747979465785 2534.55598616877 172 176 179
-860.289324778281 270.015879320503 2540.20829808105 162 166 169
-863.704929622175 270.062882335586 2546.50435253891 153 157 160
-868.080435304778 270.220494554455 2552.48379853372 148 152 155
-871.496040096282 270.267608360182 2558.77988621233 147 151 154
-873.947818949123 270.204191785335 2565.38538708381 160 164 167
-876.396559518195 270.140807392318 2571.98480543163 167 171 174
-880.773156021412 270.298585821433 2577.96681187124 167 171 174
-885.151888244134 270.45645804459 2583.95227025003 171 176 179
-889.532366148527 270.614386098748 2589.94146028905 168 173 176
-897.792797545562 271.214961785728 2594.73949961664 157 162 165
-910.919074967089 272.36907050084 2598.07867477393 146 149 154
-922.126359693342 273.302186525277 2602.05211835678 189 193 196
-930.433899060481 273.903529985961 2606.93702871063 202 206 209
-931.931117458651 273.730027625104 2613.86861314333 198 202 203
-920.735729037832 272.116917532229 2624.51766819521 147 149 148
-977.819026723487 288.65406136319 2222.65857972916 190 194 195
-957.784395360446 285.915649382262 2239.97655927916 181 185 186
-939.515234467111 283.390943627566 2256.37572386345 181 185 186
-928.527238884239 281.723485586251 2269.50466784848 182 186 185
-927.609460548327 281.235488697684 2278.24496021428 182 186 185
-916.551834560821 279.56736587602 2291.2451370405 183 187 186
-899.920439233465 277.25499885386 2306.49070708207 184 188 187
-889.693808211465 275.693191436737 2318.93691130831 185 189 188
-881.276766927719 274.345630391789 2330.54560637587 182 186 187
-875.60291655907 273.319780988085 2340.9513727476 187 191 192
-867.121241873789 271.971568463709 2352.44099929941 188 192 193
-867.889224736477 271.696845646532 2360.11574686826 187 191 192
-857.492688964801 270.13334187255 2372.24845092758 187 191 192
-849.849444043122 268.89162380662 2383.19732842909 187 191 192
-841.242327151158 267.542146480728 2394.45586355376 188 192 193
-840.069675505421 267.051958452666 2402.72623429707 188 192 193
-839.818353344633 266.669126492363 2410.60858278671 188 192 193
-835.811151831637 265.856292138211 2419.91407963104 187 191 192
-833.657670686399 265.258266595721 2428.46340072273 186 190 191
-830.549342696901 264.552596650867 2437.3390128289 186 190 191
-829.302521655325 264.061850398793 2445.47280466931 182 186 187
-829.924699622851 263.78612255425 2452.87908823629 180 184 185
-831.48112596699 263.617919388243 2459.92116045012 179 183 184
-833.03196586416 263.44974760479 2466.9524633635 178 182 183
-830.795852111057 262.851107374574 2475.34962318348 176 180 181
-832.329691836126 262.682856828861 2482.35014024133 177 181 182
-835.753522053484 262.729883931131 2488.66132990324 177 181 182
-840.12576849483 262.884633967492 2494.63442508444 172 176 177
-844.500231185887 263.039515687273 2500.61113170869 174 178 179
-847.924741682386 263.086787245035 2506.92364604085 186 190 191
-849.442506785196 262.9186628838 2513.89463688582 188 192 195
-849.045974722618 262.535069336037 2521.50968888237 181 185 188
-851.505294120371 262.474654558624 2528.12945665013 174 178 181
-853.00433038465 262.30648443976 2535.06598798824 157 161 164
-859.288596412183 262.677239770641 2540.39049010979 151 155 158
-864.62032704797 262.940324634362 2546.04603083391 146 150 153
-868.996086782344 263.095746211382 2552.02528530369 150 154 157
-869.525396636753 262.819843136787 2559.26071479409 157 161 164
-871.97310279856 262.759622442362 2565.85918206981 171 175 178
-875.382118500765 262.807270830003 2572.14331197276 170 174 177
-879.756378249666 262.962857310198 2578.12036152982 170 174 177
-885.099749284535 263.226420548083 2583.79745492608 172 177 180
-890.44781175862 263.490130171862 2589.48271651123 170 175 178
-902.589084619643 264.509593758564 2593.08459745616 156 161 164
-914.752861510134 265.529413957042 2596.7279746524 163 166 171
-924.021854163851 266.225604657431 2601.29540030834 179 183 186
-930.384829130007 266.598035865529 2606.76516648116 188 192 195
-931.880239306924 266.430481815674 2613.69470980495 194 198 199
-932.39341572728 266.15482978866 2620.90054246585 129 131 130
-966.023756101459 279.365942520789 2227.78100044359 196 200 201
-951.456407268564 277.324888545116 2242.67421482569 181 185 186
-939.587576925017 275.596835967257 2256.28022467022 182 186 187
-930.429391360521 274.181999436366 2268.62038849501 182 186 185
-924.912910781901 273.185042294794 2279.32427510119 182 186 185
-911.081319314853 271.246630705009 2293.48674878592 183 187 186
-893.510925913504 268.889286897268 2309.10660410147 184 188 187
-887.886459233215 267.891265435997 2319.61156452739 186 190 189
-879.460922807195 266.579108138961 2331.2152821393 181 185 186
-875.631972423676 265.789877026311 2340.85520904123 186 190 191
-867.144372530126 264.477121010962 2352.34460058068 187 191 192
-862.337420985501 263.582737668184 2362.26948718265 186 190 191
-851.926491425469 262.059974014711 2374.38796986198 186 190 191
-846.132677330702 261.060364351473 2384.58099193043 187 191 192
-843.110287564801 260.374714771382 2393.62068063715 187 191 192
-841.93690176469 259.898401952851 2401.89437795096 187 191 192
-838.879668905622 259.212477795606 2410.86990128953 187 191 192
-833.93053536593 258.316814965446 2420.53290452707 186 190 191
-830.833241816426 257.630561485805 2429.43464992237 185 189 190
-830.534591067924 257.258606979986 2437.2332235972 186 190 191
-830.224956421675 256.886602924463 2445.01158098209 182 186 187
-830.846035854468 256.619392926168 2452.4184056408 180 184 185
-832.401667225876 256.457022686465 2459.46076983974 179 183 184
-833.00724541615 256.189797978782 2466.83908046561 178 182 183
-832.65894112573 255.817606728926 2474.5462610357 178 182 183
-831.352588791914 255.340419604428 2482.5751457443 177 181 182
-833.825594294605 255.282944969411 2489.220968916 175 179 180
-838.194232304009 255.435428824994 2495.1867460447 172 176 177
-840.663394188064 255.378063527809 2501.8255329816 177 181 182
-843.129349295799 255.320726518981 2508.45843057947 190 194 195
-845.592098578327 255.263410423753 2515.08543836982 187 191 194
-848.051375945256 255.206095414281 2521.70656524528 176 180 183
-851.463547168496 255.253892169243 2527.99654334357 169 173 176
-853.917884337114 255.196675326553 2534.60810957105 155 159 162
-860.20308546523 255.559848897742 2539.9320515168 150 154 157
-865.53541540656 255.818066082222 2545.58723065849 149 153 156
-868.950183936502 255.866144892876 2551.88207049719 156 160 163
-869.477282507592 255.598873864376 2559.11552463024 164 168 171
-869.995769295075 255.331498399399 2566.33361296184 170 174 177
-873.400809488373 255.37961647246 2572.61057242393 169 173 176
-876.80525928669 255.427786603752 2578.88646169709 176 180 183
-884.079270960094 255.896867053717 2583.94605555271 175 180 183
-891.362994748842 256.366144402817 2589.02357096981 168 173 176
-904.477326874483 257.467167418987 2592.32481255441 158 163 166
-913.731096623422 258.147483301922 2596.85896237601 172 175 180
-922.02684110327 258.722737106651 2601.71483831341 180 184 187
-931.3089929419 259.403531300097 2606.30133180748 182 186 189
-931.82813813294 259.136569910063 2613.52075558432 191 195 196
-954.218355612703 270.153844309995 2232.90815574975 203 207 208
-950.619092016712 269.388612852933 2242.97773571046 180 184 185
-939.659203812527 267.808593610175 2256.18466898989 183 187 188
-927.738627424542 266.12631872265 2269.70877050991 182 186 185
-918.533398142997 264.749181911439 2281.97374947371 181 185 184
-907.448644362178 263.167897347611 2294.95065169749 181 185 184
-895.399299622548 261.484318050721 2308.23753249281 182 186 185
-887.924668893273 260.3098122027 2319.51673435805 184 188 187
-883.193952198351 259.440814151297 2329.58946463532 184 188 189
-875.660078860534 258.265789379416 2340.75904825365 186 190 191
-866.238641616071 256.88648968998 2352.62623519975 187 191 192
-859.567810308672 255.812786757713 2363.29878069462 186 190 191
-852.867900306362 254.738818802272 2373.91776547313 188 192 193
-846.138663537493 253.664536666045 2384.48322274757 187 191 192
-841.246623670058 252.794084783108 2394.25830887447 187 191 192
-837.264643144633 252.025446261739 2403.62348233587 188 192 193
-835.132626987385 251.460780755953 2412.22231352303 187 191 192
-832.984632782624 250.896030275267 2420.79122837177 186 190 191
-830.820331154144 250.331128034664 2429.33060950353 185 189 190
-830.518867289284 249.970389036905 2437.12738208627 183 187 188
-829.265560063778 249.50743135702 2445.2581055104 180 184 185
-832.709053144328 249.555209631262 2451.60568465378 180 184 185
-833.321915481687 249.296521344162 2458.99995923631 180 184 185
-833.926365757526 249.037821518957 2466.37875903523 179 183 184
-833.576552261411 248.676890848512 2474.08655019642 178 182 183
-832.268390013235 248.213627099092 2482.11629319732 173 177 178
-835.689412937629 248.261558804756 2488.42259176941 168 172 173
-838.160081972224 248.207298838107 2495.06508446961 179 183 184
-841.578567090871 248.255370203436 2501.36675755315 186 190 191
-843.091738099714 248.098899966618 2508.33229942096 185 189 190
-844.598862503391 247.942414928233 2515.28722027299 181 185 188
-846.100180817043 247.78591245332 2522.23145742402 168 172 175
-847.595927849131 247.629434155465 2529.16495099969 163 167 170
-851.958412858282 247.780064694536 2535.11885430817 153 157 160
-858.240669535638 248.135602922117 2540.43508476251 153 157 160
-864.530035210183 248.491321822981 2545.76444429027 156 160 163
-866.980723387641 248.437451740779 2552.37030580008 169 173 176
-870.390870107628 248.48604424327 2558.6567997662 173 177 180
-871.87220291336 248.329746945309 2565.56434162774 168 172 175
-875.278468127389 248.378411404045 2571.84371843593 176 180 183
-877.717529858109 248.324617070165 2578.42821957091 177 181 184
-886.928533661876 248.988504795514 2582.87927897523 174 179 182
-897.123968215838 249.755252268684 2587.05601022325 158 163 166
-907.336640130478 250.522254820475 2591.26502506987 167 172 175
-913.679597186177 250.87924709263 2596.69333184205 173 176 181
-919.056395236625 251.133754192368 2602.42918023751 187 191 194
-927.361115788042 251.696242826182 2607.29722180404 185 189 192
-927.872668361502 251.437817969732 2614.50524849067 186 190 191
-946.114416432408 261.067145906294 2244.88017897326 179 183 184
-941.56529204784 260.224447986664 2255.29479960473 184 188 189
-925.963850357557 258.191823681646 2270.40346308285 182 186 185
-916.749769319008 256.852745362198 2282.66360704939 181 185 184
-909.34199288362 255.71167472498 2294.07582082032 180 184 183
-899.133909249645 254.272728605469 2306.59257982999 181 185 184
-888.886132823821 252.833374410522 2319.03671809021 183 187 186
-879.524593485921 251.492865140264 2331.0252290591 186 190 191
-871.052975768372 250.251235397092 2342.56540391282 187 191 192
-862.547049446572 249.009270966719 2354.04237834453 187 191 192
-855.865817995188 247.965542483658 2364.70481003308 187 191 192
-851.016845497989 247.120138134221 2374.56714147025 189 193 194
-843.347831834737 245.976562333989 2385.49813902431 188 192 193
-838.447141974329 245.130697240178 2395.26521425168 188 192 193
-834.457332984419 244.384000074409 2404.6220837281 188 192 193
-831.382048656773 243.736490181769 2413.57595911203 188 192 193
-831.099718651362 243.387006454881 2421.41130704758 187 191 192
-830.806221090243 243.037476490308 2429.22660615273 186 190 191
-831.441948219542 242.787371710102 2436.66501025257 187 191 192
-831.127847435215 242.437758895495 2444.44239136143 183 187 188
-831.745332993213 242.187597500828 2451.84773310673 182 186 187
-832.354645102604 241.937436682609 2459.23753832016 180 184 185
-831.065298885191 241.488223745384 2467.30611280765 179 183 184
-832.601236901573 241.337481048291 2474.31575398744 178 182 183
-832.236421980749 240.9876724497 2481.99929943845 172 176 177
-836.60484987484 241.13560397515 2487.96332114445 168 172 173
-837.174836527891 240.885373716602 2495.28077879613 185 189 190
-839.639007336138 240.834269586816 2501.91277334522 191 195 196
-839.241901185017 240.484379292604 2509.53690477243 182 186 187
-841.696001385676 240.433304850424 2516.14988232293 177 181 184
-844.146611651992 240.382260823772 2522.75695463888 164 168 171
-846.594266066973 240.331272118814 2529.35810299805 160 164 167
-853.828215747888 240.778729149163 2534.33751292844 151 155 158
-860.112701026646 241.126701020104 2539.65556682269 152 156 159
-863.522771762427 241.175661921999 2545.94203182553 155 159 162
-865.970415610391 241.124975920674 2552.54325177945 172 176 179
-870.340905109206 241.273810939843 2558.51133685193 173 177 180
-872.784712947434 241.223175278281 2565.10551682324 169 173 176
-876.190884106124 241.272348256835 2571.38487356923 180 184 187
-879.596420324724 241.321587535347 2577.66308248252 174 178 181
-888.810897724423 241.969896942664 2582.11534148761 165 170 173
-899.009766796931 242.718306848819 2586.29337918918 152 157 160
-906.313491230495 243.167392456466 2591.40160735088 173 178 181
-912.654805843875 243.516809205882 2596.82461525181 172 175 180
-919.976592789172 243.96625023815 2601.96617054742 182 186 189
-929.257539825811 244.615764788937 2606.54104173828 172 176 179
-931.72137914778 244.565892074978 2613.1722926926 177 181 182
-943.439025805668 252.97140886993 2245.98478951807 184 188 189
-937.963442728386 252.056820870371 2256.78866423128 181 185 186
-925.106116792966 250.370431747132 2270.70397895586 182 186 185
-916.805297372706 249.165929050675 2282.56894364626 182 186 185
-912.157965999185 248.347011872383 2292.81009510504 182 186 185
-901.023706140474 246.852433921583 2305.72202115117 183 187 186
-887.073589752606 245.067859043777 2319.71276787683 183 187 186
-875.851328191861 243.572351343018 2332.46256316288 185 189 190
-866.44144973387 242.269541138905 2344.37350659204 187 191 192
-857.923121240976 241.062919159239 2355.83829939684 187 191 192
-852.159894475932 240.145703585825 2366.11235479047 188 192 193
-847.301201932449 239.32488994251 2375.96420423903 188 192 193
-840.553959208234 238.310621411099 2386.51408840227 187 191 192
-832.843811834974 237.199431251489 2397.37917261871 188 192 193
-826.971987701198 236.281254870656 2407.45320872891 188 192 193
-826.691353416577 235.942907393694 2415.29502431082 187 191 192
-828.274741041917 235.797899987361 2422.39365869083 186 190 191
-827.974791328234 235.459529311968 2430.19994270304 186 190 191
-828.603968468179 235.217838644419 2437.62933472537 182 186 187
-828.283385200474 234.87939952998 2445.39764929109 179 183 184
-831.722801212658 234.927993426241 2451.73797523775 178 182 183
-829.497332863025 234.395939950502 2460.17473794554 174 178 179
-829.146468287253 234.057398758158 2467.88732897129 172 176 177
-831.624530629201 234.009283420587 2474.54526713127 175 179 180
-834.099173157167 233.961206719625 2481.19743149307 178 182 183
-839.418541112909 234.203790206206 2486.82356555255 182 186 187
-838.088846840918 233.768383377499 2494.82158016204 190 194 195
-839.600864021022 233.623523210847 2501.78899556721 187 191 192
-838.24767364425 233.187960266091 2509.74425385545 178 182 183
-840.69873522209 233.140025656236 2516.35258703919 172 176 179
-844.10215831873 233.189092049927 2522.62685754603 157 161 164
-848.461896410323 233.335191753127 2528.57434625405 158 162 165
-854.740223908996 233.67538661084 2533.8787361557 151 155 158
-860.066149043429 233.918786788985 2539.51717565804 157 161 164
-863.47481895987 233.968233263623 2545.80121032091 166 170 173
-865.920743261085 233.920724960479 2552.40022331638 172 176 179
-870.290195213077 234.06733918523 2558.36573231116 168 172 175
-873.69693283177 234.116976846451 2564.64627062025 181 185 188
-875.170837316585 233.972467915719 2571.54369545852 184 188 191
-882.443175681065 234.410686037905 2576.59042659276 171 175 178
-889.724930690796 234.849088267614 2581.65503626244 156 161 164
-900.89592784851 235.67634320778 2585.5299057187 161 166 169
-904.317487966075 235.726511907888 2591.83786499865 168 173 176
-911.62832246466 236.165504157947 2596.95613457845 172 175 180
-918.949051785437 236.604697369879 2602.09215872866 184 188 191
-927.254163803299 237.141315324105 2606.95364465454 188 192 195
-928.737447434076 236.997363132699 2613.86798263051 187 191 192
-941.677736914789 244.99149491893 2246.69063087371 184 188 189
-938.03165579564 244.291626761655 2256.69376101124 181 185 186
-926.086311397603 242.747876507582 2270.214471191 183 187 186
-916.859682829573 241.485006113639 2282.47445530622 183 187 186
-913.130319049453 240.784485983445 2292.32421739349 184 188 187
-901.066811836698 239.239640745096 2305.62677109794 184 188 187
-884.333870277546 237.225200930553 2320.77517215526 184 188 187
-868.469639294724 235.303990720514 2335.43402282697 186 190 191
-860.898060290267 234.226846004603 2346.56419770963 187 191 192
-855.152552468147 233.337155169584 2356.87911874118 188 192 193
-849.380550099415 232.447252241772 2367.14524769322 189 193 194
-846.376372223439 231.838841619024 2376.24165877863 189 193 194
-839.62238355685 230.854596550202 2386.78866886149 187 191 192
-834.707681385468 230.057979389903 2396.54427855134 188 192 193
-826.962868757405 228.97924451142 2407.35536704025 188 192 193
-825.742651785924 228.558079875242 2415.55951752659 186 190 191
-826.385027046296 228.324864989612 2423.01522790079 185 189 190
-827.018834064665 228.091649591184 2430.45568380655 185 189 190
-827.644257450104 227.85842299318 2437.88071731585 182 186 187
-828.261336041047 227.625215202427 2445.29040888333 179 183 184
-828.87004711558 227.391981631844 2452.68470331097 179 183 184
-827.581513128449 226.970579588874 2460.76313496447 178 182 183
-827.2252645512 226.643208518232 2468.46918292331 175 179 180
-830.645895556837 226.69230255827 2474.77511022403 181 185 186
-834.065930460818 226.741492905092 2481.07997014669 183 187 188
-837.485371165368 226.790764809182 2487.38376175433 186 190 191
-837.100760157446 226.463425301961 2495.03765552714 188 192 193
-838.609361227919 226.324411165531 2502.0005461097 184 188 189
-838.205387444879 225.996974035236 2509.61879885372 174 178 179
-840.654720017236 225.952180080504 2516.22489654304 168 172 175
-845.012706095212 226.095969234459 2522.16846814756 154 158 161
-851.28741922144 226.428424752015 2527.46388317577 152 156 159
-857.569283036628 226.761068825406 2532.77250632663 155 159 162
-861.938336238726 226.905255666102 2538.73655198176 165 169 172
-863.425876940017 226.766598288058 2545.6603117489 175 179 182
-865.869861100315 226.722226238771 2552.25720385384 176 180 183
-869.274539338939 226.772267769726 2558.53407603997 182 186 189
-871.713582349812 226.72800126198 2565.1214079654 186 190 193
-874.149348464004 226.68375482151 2571.70271911543 178 182 185
-882.387756335065 227.206084084004 2576.43722704836 157 161 164
-889.66949629611 227.634226863094 2581.49872380607 162 167 170
-898.901499529794 228.251509217151 2585.97388551935 167 172 175
-902.31915711215 228.302133699483 2592.27480438938 173 178 181
-910.600355330633 228.825358474369 2597.0877766235 172 175 180
-920.841923362051 229.537856058362 2601.33354589258 181 185 188
-932.076220864376 230.345191130609 2605.318845889 187 191 194
-940.400681584494 230.869196975903 2610.21162063079 190 194 195
-949.042989984487 238.252150097487 2234.94570414278 200 204 205
-951.841594805915 238.211470972273 2242.19541455441 183 187 188
-938.098726266063 236.532326027425 2256.5990328543 181 185 186
-925.226250651129 234.943742185775 2270.51539243915 183 187 186
-910.463658227798 233.17254045778 2285.13066858552 184 188 187
-910.411713378489 232.858143829478 2293.40028823649 186 190 189
-901.108776838315 231.632726193579 2305.53169517085 185 189 188
-887.142867609444 229.95138509679 2319.52393633067 184 188 187
-870.347093298931 227.996068668909 2334.57455616769 185 189 190
-860.916906306551 226.769373971987 2346.47103805123 186 190 191
-853.308075045653 225.724653731098 2357.54244997493 187 191 192
-846.598191325517 224.770849394929 2368.1792270213 189 193 194
-844.517984427659 224.272825045252 2376.89338528737 189 193 194
-839.622417457397 223.501044294202 2386.69216117833 189 193 194
-832.834363519211 222.546575003415 2397.18496898463 190 194 195
-826.01696384461 221.591828236371 2407.62422543566 189 193 194
-824.792538370654 221.184515983353 2415.82429718094 187 191 192
-825.430950643308 220.959746016484 2423.27576270906 185 189 190
-825.121505607799 220.643671650949 2431.0712880682 185 189 190
-824.801130678383 220.327570537043 2438.84670331715 184 188 189
-824.469573978963 220.011423016189 2446.6020435421 181 185 186
-826.014265357938 219.878010790635 2453.63249114747 181 185 186
-825.663364800866 219.561839732822 2461.35224741557 181 185 186
-828.139821798114 219.519880045422 2468.00908418888 178 182 183
-830.613109906364 219.477986027966 2474.66011254628 181 185 186
-834.031737385608 219.527602780198 2480.96251218756 183 187 188
-835.54987262482 219.394359917733 2487.94467338827 187 191 192
-836.111012666598 219.169689070132 2495.25405101158 185 189 190
-836.663785191965 218.944992442701 2502.54803149505 180 184 185
-837.208413648427 218.720289355489 2509.82652736533 169 173 174
-841.564712178862 218.861709639188 2515.76628289284 161 165 168
-845.922971278465 219.003271446764 2521.70968682353 152 156 159
-853.156224913881 219.419698633533 2526.67848526648 153 157 160
-856.563394353748 219.469961867997 2532.96000589656 161 165 168
-861.890499181801 219.703552601543 2538.5976651621 170 174 177
-866.260435616697 219.845637539628 2544.56270315653 178 182 185
-867.743968862262 219.712885624798 2551.48086838061 183 187 190
-868.257420529679 219.488415055177 2558.70259862218 186 190 193
-868.762494270839 219.263889037427 2565.90890365642 179 183 186
-875.059511974928 219.589637694867 2571.24332397209 171 175 178
-888.139637996853 220.557732254848 2574.44167988961 159 163 166
-895.429153293824 220.975700965404 2579.51441734833 165 170 173
-900.787314139248 221.210341034857 2585.20950984602 169 174 177
-901.290496270929 220.986132251644 2592.41243126493 175 180 183
-909.570511550624 221.496356316383 2597.21982251344 174 177 182
-917.863062657988 222.006834950433 2602.04984174354 180 184 187
-933.973736533762 223.252371060183 2604.56045777721 188 192 195
-943.278052208731 223.855358267827 2609.16431639168 191 195 196
-969.283153054857 232.386855783204 2225.99291838673 200 204 205
-962.929933180126 231.466353581945 2237.29618413444 183 187 188
-942.760912411 229.220686426208 2254.51467166939 181 185 186
-923.443993383888 227.062611164066 2271.21237525477 184 188 187
-905.905205857299 225.080561371161 2287.00321841317 184 188 187
-901.228652836965 224.33523092668 2297.21275503271 184 188 187
-894.679700734294 223.412946396595 2308.15499332146 184 188 187
-885.324755707011 222.22518601895 2320.20156726504 183 187 186
-871.29817264653 220.594852665098 2334.09806154891 184 188 189
-858.14989660407 219.052454689572 2347.52156720972 186 190 191
-855.179347738905 218.482763528815 2356.69147193793 187 191 192
-850.328553500726 217.736024848551 2366.57961947959 189 193 194
-846.385701359567 217.077602099438 2376.04990139246 189 193 194
-836.821233614291 215.88781942743 2387.71051673441 187 191 192
-830.024043653237 214.963347025131 2398.19554243142 188 192 193
-826.005594081371 214.304289958241 2407.52659614206 188 192 193
-825.715259232283 213.999433651255 2415.36064212448 186 190 191
-825.413966060698 213.694550257369 2423.17452560954 185 189 190
-823.221853261099 213.212388133141 2431.68763864038 185 189 190
-821.954733828735 212.818776418575 2439.81381270389 184 188 189
-819.731637566344 212.336437380398 2448.26988829949 181 185 186
-820.324020483488 212.120073115887 2455.63872098521 179 183 184
-822.797835237482 212.081064055656 2462.29208975198 178 182 183
-828.107849808247 212.308306055494 2467.89640772137 178 182 183
-830.57937007258 212.269522686335 2474.5451201297 188 192 193
-832.098568659609 212.14205363219 2481.53097332757 189 193 194
-832.661776202314 211.925857085169 2488.84670186395 183 187 188
-836.071322335125 211.976015671852 2495.13256219559 175 179 180
-837.574420724641 211.84865033938 2502.08883538799 167 171 172
-838.117889033631 211.632501295152 2509.36776991806 156 160 161
-842.474430254879 211.77170864346 2515.30730632154 153 157 160
-847.789575943671 211.999910960084 2520.92185438354 156 160 163
-855.025661968144 212.406062788089 2525.89226784345 161 165 168
-858.433960733129 212.456841724343 2532.17602059068 174 178 181
-860.880923157018 212.418738995669 2538.78027558287 179 183 186
-863.324842541578 212.380705322621 2545.37845039378 181 185 188
-862.875965314256 212.075807608644 2552.92089560322 187 191 194
-864.344923454492 211.948789113524 2559.81448295798 186 190 193
-865.808356760499 211.821765804223 2566.69740344422 168 172 175
-875.002096058873 212.406919092471 2571.0930331601 162 166 169
-890.021120212187 213.526659075346 2573.67287617983 166 170 173
-899.252590572571 214.112529452488 2578.13761159345 172 177 180
-903.644082318377 214.253275677701 2584.14189115277 171 176 179
-902.20442585613 213.859502110915 2591.95018526459 178 183 186
-905.618643055266 213.911193537725 2598.24509749588 179 182 187
-912.931387322675 214.319482417712 2603.35764633308 182 186 189
-930.990764536639 215.708757536235 2605.26590964819 190 194 197
-941.269476414313 216.385241604229 2609.56865894532 187 191 192
-981.285384670034 225.638362363253 2220.65868961218 199 203 204
-963.925692939393 223.720680397572 2236.79827934436 183 187 188
-939.149965060728 221.117326195996 2256.01163402103 181 185 186
-917.976327677065 218.855650128275 2273.49293787656 184 188 187
-903.186598969811 217.192863196993 2288.09090808416 182 186 185
-901.271790423767 216.729144694705 2297.11958055271 180 184 183
-894.717600819427 215.836873932494 2308.06121189898 180 184 183
-887.208191365246 214.858630597206 2319.33546965781 182 186 185
-875.958047986436 213.53714679032 2332.08631788082 185 189 190
-859.094356149424 211.700690939817 2347.04776891145 186 190 191
-849.612167448628 210.549808207518 2358.87140844595 188 192 193
-841.024178604699 209.484391115586 2370.25054648115 190 194 195
-840.794211538951 209.190963492828 2378.19905666458 190 194 195
-833.083085815519 208.210879455652 2389.1017679121 187 191 192
-827.210464119181 207.402207052814 2399.20726733114 188 192 193
-823.184178526323 206.765039548949 2408.52998758389 188 192 193
-821.949356087559 206.385373279306 2416.7197553948 187 191 192
-819.762290838424 205.919803205731 2425.24663712865 186 190 191
-816.618514418766 205.368137508138 2434.10386970455 186 190 191
-817.222328534141 205.160179894351 2441.49675874904 185 189 190
-818.760835050795 205.038186766778 2448.51926523095 184 188 189
-820.293315781974 204.916238174237 2455.53120683205 181 185 186
-823.710938539906 204.966359988131 2461.83191049054 179 183 184
-829.968179399912 205.274676531444 2467.08793173542 183 187 188
-832.440516919741 205.239049366202 2473.73909636306 191 195 196
-832.061736868295 204.945312118 2481.41381924017 188 192 193
-831.671746618257 204.651528124322 2489.06841470612 175 179 180
-836.030631373008 204.788224453487 2495.01100193395 166 170 171
-839.438143648612 204.838920163353 2501.29328315595 159 163 164
-840.935941081586 204.717444891042 2508.24157818958 155 159 160
-845.295297780988 204.854469940801 2514.18563650686 154 158 161
-848.699616438674 204.905423064336 2520.46212149337 159 163 166
-854.978419859851 205.215104288054 2525.75821060546 164 168 171
-857.42574640727 205.180124710108 2532.36357024093 179 183 186
-859.869879441551 205.145180964543 2538.96306719942 183 187 190
-861.348360337179 205.024022240492 2545.87593079406 183 187 190
-858.966989825868 204.557776196842 2554.04575071253 184 188 191
-860.428950628559 204.436540815364 2560.92770354968 181 185 188
-861.884877138155 204.315305551102 2567.79906250158 162 166 169
-873.97660469181 205.143721574756 2571.25236853931 159 163 166
-888.028238733407 206.145244137267 2574.13275793215 171 175 178
-899.197880680145 206.888172671628 2577.97927192345 176 181 184
-903.588348142311 207.026705646445 2583.98100206712 173 178 181
-903.118044419512 206.733296659429 2591.48749495152 179 184 187
-905.558129043167 206.699070970983 2598.08026632423 181 184 189
-912.871123401168 207.097127602951 2603.18969382533 182 186 189
-928.981536171368 208.273600713047 2605.67906092759 189 193 196
-938.280608511574 208.845177053055 2610.26433442309 188 192 193
-967.613432818623 216.504585581607 2226.6055641341 193 197 198
-961.247117807156 215.644005854613 2237.90276549992 186 190 191
-936.455305078994 213.124528528268 2257.11176076528 180 184 185
-920.793590326369 211.433647798019 2272.21284489413 183 187 186
-909.689323761746 210.157082034532 2285.24499072372 184 186 185
-905.932525817276 209.544009558912 2295.07109799491 184 186 185
-893.829365121933 208.183772631793 2308.35623735947 185 187 186
-881.681562030086 206.823077962318 2321.55913356988 188 190 189
-866.706195279596 205.212826105367 2335.83148000407 187 188 190
-854.465198463697 203.851169403492 2348.86268667188 189 190 192
-842.179333901564 202.48905038873 2361.81173859587 191 192 194
-835.438158809419 201.625101842498 2372.41798665193 192 193 195
-833.331894458276 201.176460776516 2381.09907111572 192 193 195
-827.473118811305 200.395207904846 2391.23828157772 193 194 196
-823.458770461653 199.780060132479 2400.58957839666 192 193 195
-821.296356635909 199.331104968669 2409.16729928998 189 190 192
-820.993959384328 199.048470086148 2416.98584277061 187 188 190
-818.801892532819 198.599398167787 2425.508991236 187 188 190
-815.653207592017 198.067012675726 2434.36248987042 187 188 190
-816.25328597163 197.867489801714 2441.75104472155 185 189 192
-816.845003440228 197.668000315205 2449.12423237424 182 186 189
-819.317429691632 197.635107057861 2455.77638233958 181 185 188
-823.678071952434 197.768897538934 2461.72183233502 182 186 189
-828.98792727217 197.98622551696 2467.32287605584 186 190 193
-831.456996116276 197.953659696661 2473.96945384868 188 192 195
-830.12451517456 197.587767056175 2481.98324765746 178 182 185
-830.680268260983 197.388528824337 2489.29036581601 163 167 170
-835.988742859106 197.606311183034 2494.88951102412 160 164 167
-840.348541177468 197.7408911986 2500.83314204144 158 162 165
-843.755313096685 197.792139434702 2507.11422776952 157 161 164
-847.161428252618 197.843512799565 2513.39414321913 153 157 160
-851.524271302973 197.978452172566 2519.34398636376 172 176 179
-856.847942393263 198.197052581946 2524.97082245108 177 181 184
-859.295887372811 198.165239725434 2531.5787760403 186 190 193
-858.856943862304 197.882884455148 2539.1462701565 188 192 195
-856.481750612895 197.43331588858 2547.33246645669 185 189 192
-854.090432646613 196.983599624833 2555.48896204885 179 183 186
-858.439370824699 197.118936647617 2561.41284693755 167 171 174
-864.723079628292 197.421600415814 2566.71584764379 159 163 166
-876.820186870421 198.226310193893 2570.17242318134 169 173 176
-887.002195789377 198.864136182442 2574.28569281202 173 177 180
-895.260646609138 199.334927664473 2579.04156487447 180 185 188
-900.616684128078 199.554903229732 2584.72834226003 173 178 181
-902.085429896375 199.440128333839 2591.6252209344 176 181 184
-905.49687008097 199.492820743699 2597.91532674682 184 188 191
-913.785275740033 199.964354892447 2602.72601030838 178 182 185
-930.876836792163 201.190132706046 2604.91991554591 190 194 197
-940.179383679415 201.746123353264 2609.50638817371 192 196 197
-948.424384560095 206.976593676601 2234.97725277418 192 196 197
-944.782215742254 206.386261537231 2245.02102239746 185 189 190
-932.837310030711 205.073717612218 2258.61156381089 179 183 184
-919.926370803215 203.680495617725 2272.51593126025 183 187 186
-912.504661170569 202.768441880542 2283.97138958817 184 186 185
-907.823558714584 202.097021511756 2294.194785296 184 186 185
-897.566505146959 200.943621785374 2306.7073495396 185 187 186
-878.003059295614 198.986555439455 2323.01209302637 187 189 188
-863.014141470795 197.43048902585 2337.27581127933 188 189 191
-847.972807932492 195.873857532791 2351.44295755332 191 192 194
-835.670745427147 194.557843497283 2364.37557901076 192 193 195
-827.051471526147 193.562915956836 2375.71837583078 193 194 196
-825.863326176315 193.211076830744 2384.00185528214 193 194 196
-821.858079996586 192.617868826157 2393.37699464814 194 195 197
-820.639026958607 192.265927549289 2401.60359851051 193 194 196
-817.532028517788 191.752959723031 2410.54010976242 190 191 193
-818.160123023089 191.561926590397 2417.98224017494 189 190 192
-816.900261715706 191.209837240075 2426.13424990951 188 189 191
-817.508823949834 191.018820756297 2433.54096616709 188 189 191
-819.99362288439 190.988896317583 2440.21676453794 185 189 192
-820.588066414643 190.797962834665 2447.59753888671 183 187 190
-823.063914941925 190.768227257573 2454.25693262246 182 186 189
-823.64422555401 190.57737660625 2461.61173886882 185 189 192
-828.953135805878 190.789683678002 2467.21003878848 187 191 194
-831.420674467868 190.760247995312 2473.85423935247 180 184 187
-831.034990799406 190.488911779924 2481.52300168629 173 177 180
-829.686880021184 190.136820375854 2489.51270394676 162 166 169
-834.993587569774 190.349634902884 2495.10660105234 159 163 166
-840.304615437212 190.562631938883 2500.70900313978 155 159 162
-843.709963815173 190.614321160648 2506.98760332987 154 158 161
-847.114698072734 190.666136018966 2513.26511182223 160 164 167
-850.518765157166 190.718046337748 2519.54142196863 176 180 183
-854.881449815596 190.850888063663 2525.48983875062 181 185 188
-856.364795059061 190.741353872816 2532.41514451125 185 189 192
-857.842581333033 190.63185877781 2539.32973382706 185 189 192
-855.462612729703 190.198896352873 2547.51214120074 182 186 189
-853.066517507277 189.765800980274 2555.66484880334 174 178 181
-859.344014526944 190.060664933909 2560.95407933723 163 167 170
-870.462555559088 190.760394906326 2564.69412295469 161 165 168
-881.601345074255 191.460515607127 2568.47102047816 170 174 177
-886.943526242561 191.675242657266 2574.13123941422 175 179 182
-892.2904879403 191.890087609848 2579.79978182673 176 181 184
-895.697927093126 191.943116451679 2586.08263018495 178 183 186
-899.104737012535 191.996167344915 2592.36432789959 179 184 187
-905.434630409098 192.292408617041 2597.75033910647 184 188 191
-917.626661920546 193.07526514859 2601.37442169179 177 181 184
-935.703903426174 194.345009793238 2603.27959534229 192 196 199
-947.948861257433 195.128777244445 2607.00129300614 206 210 213
-940.254091757622 198.23953052634 2246.93238234236 185 189 190
-933.81835696489 197.438261646471 2258.11974411302 180 184 185
-924.588296919615 196.40411220059 2270.44219836277 183 187 186
-916.244435054428 195.447267506521 2282.30298041916 185 187 186
-906.941959678236 194.412536407586 2294.49207476539 186 188 187
-892.048261467914 192.911817732929 2308.94756347954 186 188 187
-875.248003843544 191.255303670038 2324.0797939023 186 188 187
-857.461850773453 189.520504467215 2339.4900402579 186 187 189
-846.122808134592 188.328680968962 2352.11637815207 188 189 191
-836.603603392991 187.291841758658 2363.90623375197 190 191 193
-831.708458649976 186.643177292529 2373.74280987727 190 191 193
-825.856024227587 185.9166274136 2383.91013335833 190 191 193
-818.107619863949 185.034395361134 2394.77320432 190 191 193
-816.88000820411 184.696177031091 2402.98869834287 190 191 193
-815.639083175264 184.357964545908 2411.17920416804 188 189 191
-819.07799213171 184.408723912985 2417.51924874987 187 188 190
-820.636243923515 184.303966792372 2424.58375786781 186 187 189
-821.247566354562 184.12146240216 2431.99811039777 186 187 189
-820.908009753147 183.861148937352 2439.75502358773 181 185 188
-818.669633922905 183.445073166028 2448.20292404559 179 183 186
-820.195790526422 183.340480425058 2455.20845369678 181 185 188
-820.76976228459 183.158048287659 2462.55413326173 183 187 190
-826.074293861147 183.365326884075 2468.14236358636 179 183 186
-828.536187981216 183.33892614149 2474.77709548022 167 171 174
-830.044378405385 183.23466602889 2481.74968208245 163 167 170
-830.595247920643 183.052431498593 2489.05293183796 157 161 164
-833.996530905538 183.104293892052 2495.32410710587 156 160 163
-839.305781313597 183.312293428086 2500.92123302329 156 160 163
-841.752965226528 183.286367491284 2507.52905295011 165 169 172
-846.110474410079 183.416634431665 2513.4676810421 179 183 186
-848.553791930069 183.390884036258 2520.06844275685 184 188 191
-851.953280798543 183.44330117991 2526.33648514292 185 189 192
-853.430627686301 183.339545339387 2533.25249650712 185 189 192
-852.978369911863 183.07951476371 2540.80221677579 183 187 190
-853.478333814205 182.897589922096 2548.01193496379 173 177 180
-855.898938760677 182.872010342591 2554.57147972942 163 167 170
-866.043557962218 183.472239087882 2558.60467656763 156 160 163
-877.172503402369 184.151013071086 2562.35755387616 168 172 175
-885.416313373823 184.595455812857 2567.07807088116 171 175 178
-888.823655722753 184.648793717494 2573.36083414113 179 183 186
-890.28820372426 184.545594531506 2580.25347341932 179 184 187
-891.747001541806 184.442385960805 2587.1355342393 181 186 189
-895.147236638602 184.495860814574 2593.40526715112 178 183 186
-902.446675717567 184.86280833561 2598.48040885389 180 183 188
-915.612685187238 185.700231711402 2601.79742448018 186 189 194
-936.623543876521 187.165267849037 2602.81188081627 208 211 216
-954.744143345618 188.395852642752 2604.78451721889 226 230 233
-987.60342018331 190.803630611626 2602.49426732384 183 184 186
-932.043107916068 189.826588892945 2250.45044246249 186 190 191
-923.748818863634 188.905433187353 2262.41313039077 181 185 186
-914.497963478499 187.909131646818 2274.70922413438 183 187 186
-910.751314578269 187.361844204941 2284.57327605989 186 188 187
-901.434761340181 186.365072434709 2296.74789382929 187 189 188
-888.376909974424 185.068304498308 2310.41157311571 187 189 188
-870.635099681203 183.396445745124 2325.92230144739 186 188 187
-855.619093922019 181.948750387473 2340.16878953146 185 186 188
-838.690651925899 180.35053718538 2355.08279784552 187 188 190
-831.948586138457 179.576614403196 2365.71448040977 188 189 191
-830.772839676098 179.252487790969 2374.0290974158 189 190 192
-828.649543948807 178.853337491521 2382.69374100016 188 189 191
-820.899243264376 178.003816097202 2393.56366531594 189 190 192
-817.79958471652 177.529404289959 2402.52476633812 189 190 192
-815.618917085284 177.129925335952 2411.08379370419 188 189 191
-816.2392617166 176.955726936246 2418.51723749208 187 188 190
-817.791750013553 176.856678988902 2425.57235911851 186 187 189
-820.279832598824 176.832877898613 2432.25654238623 185 186 188
-821.822103514049 176.734018497884 2439.29292908595 181 185 188
-820.525702865347 176.409708878745 2447.38609026926 179 183 186
-819.215986046692 176.085316438096 2455.45423143955 180 184 187
-818.839459221567 175.836144111136 2463.14650002865 179 183 186
-823.192409989168 175.963121664716 2469.07575517467 173 177 180
-826.59798378884 176.015049925515 2475.35484184047 164 168 171
-830.953611442237 176.142354798925 2481.28911869924 160 164 167
-831.503294283658 175.968659223566 2488.59275379044 154 158 161
-833.951258620654 175.945623153049 2495.20287810348 156 160 163
-839.259781701677 176.148665351409 2500.79717555724 160 164 167
-842.661017924898 176.201221479975 2507.06847344279 177 181 184
-845.104302925187 176.178497104923 2513.67058958045 183 187 190
-844.669195666725 175.929646479802 2521.2552148215 184 188 191
-847.102432781342 175.906996379436 2527.83836915861 184 188 191
-848.57125307116 175.808974010672 2534.74042273232 186 190 193
-850.034248301096 175.710970909909 2541.63176875383 183 187 190
-853.418830763252 175.763949156012 2547.87256427807 169 173 176
-861.627408886222 176.194573998366 2552.52412815844 161 165 168
-869.848325915719 176.625449178029 2557.19846081789 158 162 165
-879.048694938104 177.132152562486 2561.58269225209 170 174 177
-882.451368183412 177.185818943671 2567.85696695964 173 177 180
-885.85344722929 177.239566882124 2574.13017335216 181 185 188
-887.312275277552 177.142180793083 2581.01353647183 180 185 188
-889.737686678818 177.120395807783 2587.58306229866 187 192 195
-895.081961677238 177.325606857162 2593.2437662623 186 191 194
-902.381152801276 177.682238564473 2598.31585399051 185 188 193
-918.478838089123 178.720292612777 2600.74018738221 171 174 179
-938.520635522331 180.06173101969 2602.04999433485 186 189 194
-963.501287516923 181.782567843009 2601.98234289933 190 194 197
-977.753556862596 182.671123709397 2605.1977656888 225 226 228
-938.543532626902 182.622272321403 2247.5501169011 186 190 191
-922.882695368134 181.159471445705 2262.72089911305 182 186 187
-916.39203158908 180.417732173415 2273.82463404268 184 188 187
