ply
format ascii 1.0
comment KinectMotionCapture
element vertex 778
property float x
property float y
property float z
property uchar red
property uchar green
property uchar blue
end_header
-684.218749485942 -198.504598680735 2513.28308907853 15 18 11
-691.237074927607 -198.732995233138 2517.66268321941 12 15 8
-677.905190678815 -197.440335096594 2529.48575857441 11 14 7
-684.916262816171 -197.668345312185 2533.85212874674 13 16 9
-705.546812230998 -198.908899480577 2533.35349856875 16 19 12
-738.877940694561 -201.088644431095 2528.43620067899 18 21 14
-737.199336372285 -200.663504291153 2536.05179512523 17 20 13
-734.53148095291 -200.16611653103 2543.98450224785 15 18 11
-738.688872689759 -200.174725551271 2549.51281069801 11 14 7
-734.041050281866 -199.53295051368 2558.07752092699 12 15 8
-712.71487088446 -197.663978306814 2572.2903430435 16 19 12
-723.701417849033 -198.177950457323 2575.42263951681 16 19 12
-730.77853034924 -198.402751626262 2579.91143497788 17 20 13
-760.491171337841 -200.286051655834 2576.88843227385 17 20 13
-792.243200249607 -202.311967780156 2573.34324502141 17 20 13
-788.562632118846 -201.741666362745 2581.55011492837 16 19 12
-792.764241962821 -201.747948514669 2587.16095251708 18 21 14
-812.790413343678 -202.906440746221 2587.68973383435 21 24 17
-822.958098718453 -203.34394999138 2591.45378795979 18 20 15
-778.6132446351 -199.822904622416 2612.47230447239 28 30 25
-771.868756601108 -199.038041438698 2621.4534928296 28 30 25
-801.877310103941 -200.91439058859 2618.97681743353 21 23 18
-638.352037718903 -210.920384459496 2308.8701291718 16 19 12
-638.794109282304 -210.64232859265 2316.11169876776 14 17 10
-629.000610284086 -209.530040442002 2328.04336548997 18 21 14
-621.032585399727 -208.569446864932 2339.0571953446 20 21 13
-618.627657103934 -208.063519658587 2347.47553710333 21 24 17
-612.472041108054 -207.254331184119 2357.54708356641 19 22 15
-618.444503982371 -207.429384991378 2362.13449072148 19 22 15
-580.420665122535 -204.046152982207 2386.27685687513 19 22 15
-579.784592978657 -203.69147187324 2393.67336588443 20 23 16
-562.238495438454 -201.974675909991 2408.4482867689 21 24 17
-581.300629042984 -203.208081517775 2407.18200316246 20 23 16
-587.226411053701 -203.381709844659 2411.68348013206 20 23 16
-592.216972337275 -203.479315456004 2416.6025767244 20 23 16
-584.940050928238 -202.594015710501 2426.74952579734 18 21 14
-586.142013984239 -202.388693316243 2433.25200250733 17 20 13
-586.391919982768 -202.107607782727 2440.1410557008 19 22 15
-592.321159827248 -202.279126829936 2444.64952656191 20 23 16
-598.257794699865 -202.450144196161 2449.17174909332 19 22 15
-608.954201523702 -202.99794292511 2451.7602526119 18 21 14
-613.960424197427 -203.092525783618 2456.70906236031 17 20 13
-609.440423982038 -202.43250653955 2465.51434731166 19 22 15
-617.30642103561 -202.752472728352 2469.31012352159 19 22 15
-612.761344515814 -202.092307041654 2478.06882837449 19 22 15
-607.238077235763 -201.356779936808 2487.16642850766 19 22 15
-625.647483660195 -202.503944599676 2486.84039446771 19 22 15
-626.825960014349 -202.295002033241 2493.30076351622 19 22 15
-625.116639311234 -201.860092069984 2500.86229869074 18 21 14
-626.280186641935 -201.650854569467 2507.2952992379 20 23 16
-640.926151350131 -202.494287521317 2508.59865017091 20 23 16
-658.496649039395 -203.562304998517 2508.86881489413 19 22 15
-650.989695603507 -202.675312831627 2518.59320210344 18 21 14
-658.930405190003 -202.990639097117 2522.52828784199 17 20 13
-668.820861678688 -203.455675950716 2525.77418939656 17 20 13
-686.488123564642 -204.520737064829 2526.22270590572 16 19 12
-687.683733491951 -204.308872392104 2532.71546545653 15 18 11
-706.378070547961 -205.447385198966 2532.91607256108 15 18 11
-733.877103403605 -207.259955138038 2530.0727098035 15 18 11
-744.864430425125 -207.796312607911 2533.19970920273 16 19 12
-743.179955636176 -207.357679635425 2540.80806012842 14 17 10
-734.63865293391 -206.394576659589 2550.76828225053 11 14 7
-726.06597267783 -205.431906417426 2560.67066520177 12 15 8
-717.462186665 -204.469693329646 2570.51519727866 14 17 10
-711.771315956071 -203.7324985543 2579.30504567163 15 18 11
-726.695249886326 -204.566948926115 2581.12233390436 17 20 13
-782.980270447437 -208.542064133335 2569.23811064308 18 21 14
-790.136461679431 -208.775673261586 2573.86969756014 17 20 13
-792.369507877855 -208.635155543545 2580.13373235449 15 18 11
-799.539078356057 -208.868191730535 2584.79009843872 17 20 13
-813.643348840256 -209.623825198481 2587.23837746117 20 23 16
-795.088567818044 -207.914668110984 2600.15584846146 17 19 14
-777.669771235455 -205.992079572036 2619.45638379621 29 31 26
-790.789590064332 -206.672485265465 2622.23200298264 21 23 18
-635.495368564587 -217.26816220849 2310.16698395336 16 19 12
-649.863496206408 -218.159574693004 2310.9449134332 15 18 11
-627.987391680281 -215.989413844057 2328.46750394336 19 22 15
-582.755944191722 -211.858539812592 2356.49799926301 19 20 12
-613.87179757941 -214.160947661603 2349.58482307494 20 23 16
-640.394917058502 -216.069548872045 2344.91820340149 23 26 19
-631.441091927129 -214.99778623296 2356.26719717869 21 24 17
-597.165169383966 -211.810102179507 2378.78415747347 16 19 12
-558.095994523113 -208.231972343739 2403.17736946795 19 22 15
-566.808244252544 -208.650028594186 2406.38576572264 21 24 17
-582.119266498906 -209.6154815758 2406.76078533367 20 23 16
-585.220524158026 -209.562302306337 2412.48055537352 20 23 16
-585.492203604829 -209.273925941369 2419.41184641349 21 24 17
-581.034095552804 -208.59411169812 2428.33641086306 20 23 16
-585.06570136386 -208.618194940515 2433.62922689346 19 22 15
-589.099785280798 -208.641803621409 2438.92623907883 20 23 16
-595.032440829848 -208.821318054264 2443.43858766075 20 23 16
-595.27524259696 -208.53145381674 2450.31721482094 19 22 15
-609.772315819307 -209.41320800689 2451.33570741629 18 21 14
-610.018251921033 -209.122479204133 2458.22035918206 18 21 14
-608.349392862872 -208.675446952981 2465.85995612343 18 21 14
-601.893571092217 -207.838043631427 2475.387854271 18 21 14
-601.147580875591 -207.468894754107 2482.58655468193 19 22 15
-596.561481320687 -206.787563458333 2491.27667989074 19 22 15
-612.084887112456 -207.743869437597 2492.04506223729 20 23 16
-630.521163453898 -208.933139802131 2491.7557847919 20 23 16
-624.968971559521 -208.173021711204 2500.80758232082 19 22 15
-637.680042666338 -208.893275283003 2502.81945686665 19 22 15
-659.090450741515 -210.313657847658 2501.58574710041 18 21 14
-658.353395460504 -209.942039025765 2508.80162325072 17 20 13
-645.043172685879 -208.558597091578 2520.69183801806 17 20 13
-646.203018355602 -208.342844827501 2527.11998966397 17 20 13
-677.394011088068 -210.538053827171 2522.49204469052 17 20 13
-691.195554541957 -211.332008663438 2524.37253374013 17 20 13
-701.13912502159 -211.814257814031 2527.71094549853 16 19 12
-707.209236554638 -211.98504477512 2532.47872521649 15 18 11
-725.949802393546 -213.165314580251 2532.75179825979 13 16 9
-744.731271955109 -214.344506415674 2533.10042487036 13 16 9
-757.693568005862 -215.056923120696 2535.57670457516 13 16 9
-744.276477730498 -213.673394728851 2547.27039653635 13 16 9
-747.462283006099 -213.609281765832 2553.14895304187 14 17 10
-733.978613977829 -212.226664373432 2564.71992058851 14 17 10
-742.050718509534 -212.550234703632 2568.89418640696 13 16 9
-744.236814054297 -212.40850341531 2575.07223534088 19 22 15
-760.201581128421 -213.351222145801 2576.65644747879 17 20 13
-795.913275941372 -215.842090792696 2571.79428476093 17 20 13
-798.152340134489 -215.698783333057 2578.07022667858 20 23 16
-799.400003635317 -215.478026389898 2584.66139633015 21 24 17
-776.892816652432 -213.400499402596 2598.88015070348 22 24 19
-786.025425337156 -213.799100935654 2602.86700987174 22 24 19
-793.188759765932 -214.042729166115 2607.50872147241 27 29 24
-805.329255539431 -214.672454560092 2610.61322706153 24 26 21
-781.682963670648 -212.520328209371 2624.87419290844 26 28 23
-644.698183130771 -224.648888557691 2305.83838917982 16 19 12
-652.57744854828 -225.003945028815 2309.64852017949 18 21 14
-649.303950256482 -224.384538791148 2318.61883255334 16 19 12
-640.835526981847 -222.982915335577 2337.30466707955 22 25 18
-639.372961310825 -222.525213209632 2345.32688380579 18 21 14
-606.085059541855 -219.310936071675 2367.55419213517 21 24 17
-585.812944894677 -217.232500898661 2383.76912559098 17 20 13
-581.425982374288 -216.532103834084 2392.8307293279 16 19 12
-590.17135256938 -216.965629107403 2396.09488404602 18 21 14
-604.576699903641 -217.884342399103 2396.9335616334 18 21 14
-588.865185591547 -216.211559715561 2410.83927677904 20 23 16
-582.535673436432 -215.348544114813 2420.60718348029 21 24 17
-577.124799754614 -214.566444354362 2429.92499706205 22 25 18
-591.556001550953 -215.483018021268 2430.81186914666 22 25 18
-592.756109430645 -215.266636704653 2437.31375525821 23 26 19
-601.539033902663 -215.696555423221 2440.64856794582 23 26 19
-597.988902101447 -215.075184454765 2449.11069172772 22 25 18
-612.492681468531 -215.988971596411 2450.13138091236 21 24 17
-626.074488691089 -216.820996265089 2451.59628658811 20 23 16
-630.147019182072 -216.844619832259 2456.96400455174 17 20 13
-607.479973430836 -214.607594057707 2473.05201773749 18 21 14
-601.000795200631 -213.743406251945 2482.54501376348 19 22 15
-610.775206654209 -214.250891603849 2485.56472218942 18 21 14
-621.526418966269 -214.838304752973 2488.24160584533 19 22 15
-629.417027379013 -215.18318107635 2492.07566006664 20 23 16
-642.127859216166 -215.930500111116 2494.07895539246 19 22 15
-643.310617958817 -215.710071003933 2500.55015053645 17 20 13
-674.374772621124 -217.986678286058 2495.66444904908 16 19 12
-670.759394527216 -217.362420774784 2504.00744105515 15 18 11
-658.425352510056 -216.013683527369 2515.5677943674 15 18 11
-664.441117788865 -216.194571833739 2520.23258373253 15 18 11
-672.402633455145 -216.536003889331 2524.19808507731 16 19 12
-702.699649158385 -218.726787227141 2520.0420836474 17 20 13
-708.772117712587 -218.905790878141 2524.81223166756 16 19 12
-704.147766093103 -218.200302768546 2533.43876458278 15 18 11
-719.96519418759 -219.182356414817 2534.7401646465 13 16 9
-741.670102604011 -220.64543940407 2534.03525374315 13 16 9
-744.860495501913 -220.58168543222 2539.92213976572 12 15 8
-754.898527933176 -221.079649999364 2543.42955830523 14 17 10
-762.994954811549 -221.416521093762 2547.64455752863 15 18 11
-780.912847162712 -222.555235704759 2548.53187995909 16 19 12
-778.243430537343 -222.008763845543 2556.47647637042 13 16 9
-757.856085659987 -220.019478738448 2570.33736757703 20 23 16
-763.994524227529 -220.195183660446 2575.22933422576 17 20 13
-792.819033604962 -222.213319519382 2572.64714696624 18 21 14
-810.849479786807 -223.348952606578 2573.742907323 23 26 19
-792.339922877497 -221.521225470856 2586.77870599462 24 27 20
-765.853750629257 -219.054227332936 2602.25670939499 23 25 20
-771.999318751727 -219.229138291832 2607.16202735585 25 27 22
-809.911540707801 -221.963518478795 2602.04370307257 28 30 25
-798.225202451582 -220.697891206827 2612.65550938422 21 23 18
-776.54961245951 -218.633655510971 2626.28442163023 29 31 26
-626.988663696153 -229.644478924428 2314.06408746351 16 19 12
-623.689481991683 -229.007179213435 2322.9925443092 19 22 15
-611.994589790878 -227.615318653454 2335.74137868681 14 15 7
-636.082790116249 -229.104887043193 2339.41231537669 22 25 18
-607.504389834724 -226.20485175272 2359.63175086716 17 20 13
-596.621450051278 -224.896772848539 2371.73341521795 20 23 16
-583.824508229961 -223.421512509122 2384.59576316989 18 21 14
-598.202229004468 -224.373731183523 2385.37305045603 17 20 13
-615.430344843801 -225.57596667808 2384.97264612086 16 19 12
-609.167750630439 -224.685859755224 2394.87177404576 18 21 14
-587.799556090004 -222.457624788874 2411.23066414237 21 24 17
-576.744962421719 -221.149848716201 2423.01703889863 22 25 18
-589.277497542895 -221.931966952411 2424.68194921806 22 25 18
-601.83559255734 -222.713249022441 2426.39412029131 21 24 17
-604.942854917732 -222.6582255885 2432.12548865032 22 25 18
-614.692260776784 -223.187457897377 2435.09266745996 22 25 18
-611.156360890318 -222.547068167056 2443.58668567182 22 25 18
-625.680858967752 -223.492575563448 2444.63594138563 21 24 17
-639.283056714518 -224.353665404492 2446.12960843609 20 23 16
-651.005269678076 -225.047105868861 2448.44565524914 17 20 13
-627.400659250801 -222.653901956885 2464.97108154616 18 21 14
-611.376913758129 -220.928762179254 2478.31829155028 19 22 15
-627.872503107048 -222.038143631279 2478.71336000887 18 21 14
-636.729428466615 -222.479885210118 2482.18071842695 17 20 13
-640.798961164039 -222.504548982614 2487.54261009018 19 22 15
-655.450829130891 -223.444848498749 2488.82819260243 17 20 13
-657.612598580777 -223.301929669499 2494.96185853427 15 18 11
-635.660395775896 -221.078167369362 2510.24530599679 14 17 10
-646.475588240196 -221.684258815115 2513.0342438498 12 15 8
-665.046930444372 -222.95514909828 2512.96933653694 12 15 8
-667.198143856063 -222.811292374525 2519.08387003596 11 14 7
-672.255193683833 -222.91661500737 2524.12293050346 12 15 8
-686.05491334651 -223.769502971655 2525.98234282557 12 15 8
-694.04974931085 -224.123151793313 2530.00494818466 12 15 8
-699.136383546715 -224.227149057903 2535.0993225795 14 17 10
-732.496307973999 -226.738570377096 2530.13524358597 12 15 8
-745.438522969522 -227.505233258137 2532.55827759415 10 13 6
-752.541988489357 -227.773209880147 2537.08255728435 10 13 6
-745.954570960522 -226.879643968709 2546.38531613854 10 13 6
-761.879220780173 -227.893451385007 2547.87436745832 11 14 7
-774.893398316668 -228.657898294065 2550.43042008122 11 14 7
-794.810436103597 -230.001605484203 2550.70329100695 12 15 8
-768.532665439271 -227.450610977029 2566.58933814032 12 15 8
-766.80411093359 -226.971526797394 2574.12928721638 14 17 10
-787.749119286801 -228.396856912476 2574.15293402726 14 17 10
-789.974500208288 -228.24845350152 2580.40524237599 16 19 12
-781.318348565372 -227.189930899099 2590.18293107816 17 20 13
-765.699274671489 -225.552922324655 2602.13310366366 14 17 10
-789.692108202872 -227.224322861015 2601.34335557066 12 15 8
-825.652340834744 -229.886425328633 2596.88680554061 13 16 9
-810.003843350817 -228.249767131316 2608.782757417 11 14 7
-807.246159614925 -227.688037885254 2616.56960274949 14 17 10
-691.907044435616 -242.23380006161 2283.74320126918 6 9 2
-618.02547537087 -235.001112747488 2325.57800882736 17 20 13
-643.561951684778 -237.026369437747 2321.17598687436 17 20 13
-643.051794898426 -236.628945028304 2328.81693098692 21 22 14
-604.247519994178 -232.686542196673 2353.80739113797 17 20 13
-584.027101324263 -230.474246461166 2370.15765762924 15 18 11
-579.659418103386 -229.731489591838 2379.26745800366 19 22 15
-586.522082544835 -230.025319176491 2383.3410861003 21 24 17
-574.616460278128 -228.591237869483 2395.71504616563 18 21 14
-573.951748118427 -228.193585807103 2403.0718032457 16 19 12
-595.872454330747 -229.867412748901 2400.58560932853 17 20 13
-583.903783137242 -228.433077723197 2412.84368722815 18 21 14
-581.334291303299 -227.861780485597 2420.97952905635 19 22 15
-592.929903931257 -228.584263834287 2423.05400097273 21 24 17
-603.601852124358 -229.219714538276 2425.57065755852 20 23 16
-607.658132705603 -229.250890037188 2430.90672219505 21 24 17
-618.361527379406 -229.884993199297 2433.48212406705 22 25 18
-626.233768670665 -230.259778411763 2437.27289932323 22 25 18
-628.407210345051 -230.117165641391 2443.42844480826 21 24 17
-641.062673610933 -230.921424084116 2445.31228010982 21 24 17
-642.290097366781 -230.69186758907 2451.86887139469 18 21 14
-634.91050596379 -229.687249541799 2461.86287318893 19 22 15
-625.587995259841 -228.510799526857 2472.56526873846 18 21 14
-625.814682667926 -228.19489180741 2479.42209048436 17 20 13
-643.306138704118 -229.426698907172 2479.49762818777 16 19 12
-652.188001192236 -229.883652424286 2483.00577173208 18 21 14
-635.105796375316 -228.019432626098 2496.56290579479 16 19 12
-636.275044783077 -227.788500781441 2503.01291561144 14 17 10
-623.931908024567 -226.35478414068 2514.58209714551 13 16 9
-651.156049369376 -228.442494496929 2511.15041824591 11 14 7
-640.717263512772 -227.180478210908 2521.94031129023 11 14 7
-677.926392042563 -229.805755667993 2521.90708597812 11 14 7
-692.707603824517 -230.773732416864 2523.42172795796 11 14 7
-682.233737672957 -229.511365715417 2534.14720732535 11 14 7
-704.832987391899 -231.164053940207 2532.91533541297 12 15 8
-739.184570042824 -233.843862923137 2527.61016377853 11 14 7
-757.019876268498 -235.065457877895 2528.32067139701 9 12 5
-759.250497831601 -234.915633021643 2534.58304569933 9 12 5
-754.625111724288 -234.166344864364 2543.22135185146 9 12 5
-750.959155527162 -233.502922959757 2551.48309907486 9 12 5
-764.942869703722 -234.379942029229 2553.67314985319 9 12 5
-776.988545965841 -235.085102434707 2556.58108441818 9 12 5
-767.40625313534 -233.908200593737 2566.80582917669 8 11 4
-770.600631218533 -233.84333556999 2572.70037879803 11 14 7
-784.64856975785 -234.718408080003 2575.00913525333 12 15 8
-786.868191910654 -234.567504774304 2581.25210819259 12 15 8
-769.299290227343 -232.708312426446 2593.91260617763 13 16 9
-787.33677990795 -233.924072630404 2594.99672064232 12 15 8
-809.379718194764 -235.480362652141 2594.88598317172 11 14 7
-817.567399088214 -235.840873814535 2599.26120184144 13 16 9
-821.789673187606 -235.859909404572 2604.90620953133 11 14 7
-814.06555001901 -234.855376023497 2614.26652917179 13 16 9
-829.243982212638 -235.812331601 2616.51555040909 6 9 2
-608.248179562873 -240.91724727066 2322.73607593154 18 21 14
-667.23834614272 -246.218674840498 2302.73845452263 14 17 10
-654.658890669438 -244.651155712814 2316.02803942895 15 18 11
-616.849928686809 -240.676900815301 2340.74333644579 20 21 13
-635.905573823063 -242.14059317077 2339.39586724833 20 23 16
-593.270135247356 -237.722253419364 2365.94294512071 15 18 11
-570.177528725069 -235.176235363977 2383.45599434763 17 20 13
-566.709571454998 -234.501356025151 2392.08534316835 20 23 16
-587.643954426198 -236.141367210014 2389.91008951072 21 24 17
-577.588957749264 -234.842518331917 2401.41691712795 18 21 14
-584.450557718434 -235.145755691872 2405.48575834829 17 20 13
-586.606640364305 -235.003613645397 2411.6087316163 15 18 11
-590.648527053754 -235.038919488581 2416.91708118091 16 19 12
-594.692684518098 -235.073784670566 2422.22973963049 20 23 16
-599.686271888412 -235.197116910023 2427.14666520429 22 25 18
-614.167881921437 -236.208841626754 2428.09712903548 20 23 16
-614.435919291237 -235.886650820257 2435.0318903529 21 24 17
-624.204892508738 -236.452639631703 2438.0240036391 22 25 18
-625.4217717607 -236.218481606873 2444.56258543778 22 25 18
-632.354110584133 -236.516858576117 2448.7629899229 22 25 18
-635.477390111165 -236.459694482884 2454.52446051149 21 24 17
-629.039546954445 -235.514653857899 2464.11779342894 21 24 17
-618.746088087765 -234.214922009201 2475.18631115789 20 23 16
-626.630648001703 -234.600669202222 2478.99644610535 18 21 14
-635.487677467866 -235.074581438531 2482.45381735054 17 20 13
-633.785982099546 -234.572723722373 2490.05001376019 18 21 14
-640.733885321824 -234.868374537137 2494.27986382326 19 22 15
-641.908981620845 -234.632023643327 2500.74175435663 17 20 13
-661.415622149527 -236.0782914401 2500.22898779495 15 18 11
-658.738374899297 -235.486887256913 2508.17269436441 14 17 10
-698.624031790166 -238.790496900548 2500.16829921801 13 16 9
-689.189122396252 -237.578482567699 2510.67416379861 13 16 9
-688.452440846092 -237.163165106357 2517.90437266096 12 15 8
-701.307265921677 -237.98605745323 2520.14977128885 11 14 7
-719.051968108384 -239.250329752118 2520.68080758731 10 13 6
-721.248467920552 -239.099197647245 2526.88081888988 9 12 5
-732.220837367513 -239.743215534583 2529.94793281022 10 13 6
-753.957729967875 -241.358484617218 2529.25608105861 12 15 8
-759.116646495653 -241.471134418657 2534.48079375698 12 15 8
-756.446088040935 -240.877078340584 2542.43709547726 14 17 10
-762.584978987003 -241.07759511968 2547.32243268016 14 17 10
-767.749206643488 -241.189590789251 2552.55711022329 14 17 10
-768.985722821338 -240.948313209382 2559.13344466406 14 17 10
-770.21650230756 -240.707135373633 2565.69970253248 13 16 9
-777.356335626034 -240.994828165249 2570.28494015991 16 19 12
-774.635651828704 -240.400868614801 2578.14952745804 15 18 11
-779.805972118568 -240.511992148894 2583.39516848974 12 15 8
-782.012176445271 -240.35861728998 2589.61370260655 12 15 8
-791.151628249425 -240.821634512152 2593.59428059658 13 16 9
-805.267511318523 -241.72437867832 2596.0196779674 12 15 8
-801.528428572262 -241.04244648137 2604.15249858084 17 20 13
-802.744766919443 -240.800672458412 2610.69237584944 16 19 12
-792.998953721713 -239.591505480068 2620.62607967018 17 20 13
-627.154982720116 -248.89439878598 2321.27092301732 13 16 9
-613.580491053086 -247.190443878852 2334.88678773984 17 18 10
-638.217530370897 -249.251492567315 2330.93507739597 19 20 12
-644.225377083923 -249.47501901516 2335.57248088117 19 22 15
-630.590708499591 -247.770685669275 2349.07727884873 16 19 12
-592.546581101681 -243.680907942474 2373.39530823034 15 18 11
-572.216347784757 -241.335579891006 2389.58310697544 19 22 15
-580.948664819159 -241.834021791015 2392.80373274441 20 23 16
-595.341397789103 -242.881875875317 2393.5803748385 20 23 16
-586.210275461257 -241.637026572216 2404.65533760242 19 22 15
-594.028021272066 -242.042005056887 2408.33680598245 16 19 12
-592.410404867621 -241.530105558048 2416.0906587037 16 19 12
-588.887536832344 -240.834844529758 2424.62514582898 20 23 16
-605.241014727972 -242.062618385534 2424.72324232124 21 24 17
-614.989564619246 -242.648408750504 2427.67183864158 20 23 16
-617.15616611877 -242.501327605098 2433.81614753399 21 24 17
-616.466312855891 -242.079334945837 2441.13398527885 22 25 18
-624.338686037034 -242.48053122605 2444.91706073559 22 25 18
-631.269623678247 -242.789679019703 2449.11164917565 22 25 18
-629.614399591036 -242.275272920638 2456.79708830385 21 24 17
-610.730529547035 -240.115284625161 2471.3596784476 22 25 18
-611.89884955289 -239.875291837077 2477.81020133811 21 24 17
-627.446521025195 -241.0056204548 2478.57088038943 19 22 15
-631.503842095201 -241.03879257853 2483.90825824688 18 21 14
-643.256197056019 -241.8022487244 2486.2586864826 19 22 15
-642.51403192425 -241.377983651545 2493.48099653204 19 22 15
-663.93677825676 -243.052863829285 2492.19395047611 18 21 14
-641.962788536095 -240.620541586527 2507.50004623472 17 20 13
-679.859792798703 -243.844892582778 2500.09158991441 15 18 11
-705.264836545275 -245.881610058132 2497.55969656287 15 18 11
-684.201072956134 -243.540644348476 2512.39708763463 15 18 11
-684.42593012595 -243.205909135837 2519.25620506591 13 16 9
-698.249426562386 -244.146792447837 2521.13288513743 12 15 8
-725.725972297036 -246.362201315807 2518.12702224604 10 13 6
-737.674481707244 -247.11898051706 2520.84072639783 9 12 5
-745.74298137729 -247.510868852458 2524.98731329984 10 13 6
-748.938507642587 -247.447290106996 2530.88358782608 11 14 7
-756.047072369892 -247.747409336039 2535.40757992338 12 15 8
-766.104560747904 -248.320066662618 2538.92831979495 14 17 10
-770.294267367657 -248.346549277085 2544.51068623339 15 18 11
-769.574640698339 -247.918206482879 2551.77617912333 14 17 10
-771.795176794256 -247.762592857091 2558.0217452198 14 17 10
-774.997472239601 -247.697633553121 2563.9308846648 12 15 8
-769.324452422053 -246.815163508479 2572.79725145826 14 17 10
-758.691063248082 -245.479003818389 2583.25153004014 13 16 9
-751.975894148292 -244.506539488663 2592.34305690813 11 14 7
-766.023768739974 -245.440378335784 2594.63452771048 10 13 6
-790.012487099535 -247.280880578585 2593.78635859235 13 16 9
-785.270887208461 -246.489723388027 2602.22351732872 12 15 8
-785.477647320249 -246.152426507996 2609.05012132068 16 19 12
-781.695893072136 -245.452566777768 2617.10985245716 17 20 13
-797.82397381777 -246.56558425476 2618.94321574407 21 24 17
-797.024381843282 -246.137689549367 2626.0609988738 16 19 12
-591.69565485003 -251.806589447496 2337.66222412406 15 18 11
-603.233220738457 -252.607288362046 2339.60641642824 19 20 14
-615.727188430166 -253.501543458706 2341.16667228226 17 18 12
-636.65975736242 -255.245158694724 2338.95692633806 18 21 14
-624.879038208945 -253.681781230332 2351.59948808716 20 23 16
-599.933713312601 -250.796609213748 2370.036640042 12 15 8
-565.523745391066 -246.968199808875 2392.50025042625 15 18 11
-576.127501922916 -247.671587277776 2394.87106009407 21 24 17
-586.751457833465 -248.374174756411 2397.27976491782 22 25 18
-604.93621120649 -249.830803002823 2396.44749071146 22 25 18
-608.060806730515 -249.777109470552 2402.21033798693 23 26 19
-588.502311380966 -247.459880050202 2417.69425431642 23 26 19
-592.541575037261 -247.500180577364 2422.99627763758 19 22 15
-603.21725263596 -248.199816262576 2425.50049149284 18 21 14
-613.913058541885 -248.898652803843 2428.04246953615 21 24 17
-607.524090841323 -247.901091221787 2437.74148749007 22 25 18
-611.576275456767 -247.939583402784 2443.06781861748 22 25 18
-613.725081711801 -247.78931467782 2449.17985314175 22 25 18
-630.183401056262 -249.050792917074 2449.46114078129 21 24 17
-614.19189006887 -247.111427370388 2462.93205815222 19 22 15
-603.888920663346 -245.737179775376 2474.00549273477 20 23 16
-605.045829959258 -245.492036316953 2480.43708241054 20 23 16
-625.384232155601 -247.127500433475 2479.28187821457 18 21 14
-627.516531043768 -246.975391606534 2485.36461028515 18 21 14
-635.417651561764 -247.386999701548 2489.19742627848 19 22 15
-649.110466660735 -248.361819766036 2490.82355405724 18 21 14
-658.008916033114 -248.866142150362 2494.3479590796 17 20 13
-652.435427858993 -247.961096778655 2503.4041715809 17 20 13
-661.344795397592 -248.464639173641 2506.94889165966 17 20 13
-683.826540585489 -250.281693215628 2505.45147921274 17 20 13
-685.026927863002 -250.032927977333 2511.96361772077 18 21 14
-680.395715576362 -249.22113429022 2520.6100052078 13 16 9
-687.410873559017 -249.535038444013 2524.95755561877 12 15 8
-717.800750219768 -252.098896919919 2520.86065503656 9 12 5
-731.690335718774 -253.067414894365 2522.85057460613 7 10 3
-731.942249703994 -252.723139654733 2529.76232333958 9 12 5
-737.073253520499 -252.847317258799 2534.93172857699 12 15 8
-750.03861444806 -253.720595932667 2537.36527053842 13 16 9
-766.949254880476 -254.967588260611 2538.48281529569 14 17 10
-764.270278682224 -254.341488181424 2546.43327156349 14 17 10
-762.557697719724 -253.80909306831 2554.0186306258 12 15 8
-775.589904042163 -254.68021670535 2556.57576151342 11 14 7
-789.632625486083 -255.644193052558 2558.84869175179 11 14 7
-779.042446970618 -254.26976114431 2569.39395187671 12 15 8
-749.648916747052 -251.119800364615 2586.07457348601 12 15 8
-759.730697124737 -251.709717758076 2589.63480030248 11 14 7
-782.704124624378 -253.51370801158 2589.04560977315 13 16 9
-793.82980821677 -254.195753653862 2592.38275634426 16 19 12
-783.131993741428 -252.822989441802 2602.73005705934 14 17 10
-784.328190139529 -252.571201497477 2609.23539676843 17 20 13
-788.505072571228 -252.599345471124 2614.7941818264 17 20 13
-807.635501194095 -254.026926892387 2615.70991170978 22 25 18
-612.082840412612 -260.341563498792 2328.17751437078 16 18 13
-606.865202793024 -259.416531627085 2337.89370700113 14 16 11
-642.711461945211 -262.766549742116 2328.79106953456 21 24 17
-616.93121535891 -259.703237186506 2347.86101831487 18 21 14
-602.307103421003 -257.806267218979 2361.71928313755 17 20 13
-579.194423592127 -255.035683441263 2379.26244133398 16 19 12
-555.069832740691 -252.168749686635 2397.08878880959 17 20 13
-563.779950931332 -252.699718348492 2400.25880537205 18 21 14
-571.563553568003 -253.132847431833 2403.86951699487 21 24 17
-588.788744594571 -254.535546545098 2403.40344972872 22 25 18
-595.666469046394 -254.870204335964 2407.4924980198 23 26 19
-583.645070308068 -253.264962764452 2419.70499558506 22 25 18
-576.31582320823 -252.144758651441 2429.82634891052 20 23 16
-597.398952292298 -253.932228901446 2427.88082662847 19 22 15
-604.291177717199 -254.265146277244 2431.99656398699 18 21 14
-600.73629126832 -253.531681619721 2440.48365205834 19 22 15
-598.114840590347 -252.895060147107 2448.54357648988 20 23 16
-612.635349521944 -254.001249499907 2449.53767920496 20 23 16
-610.960146513011 -253.460873595544 2457.19367888381 20 23 16
-612.138869645186 -253.210684194427 2463.66690560121 17 20 13
-605.65542994603 -252.186180466965 2473.20027441161 17 20 13
-616.396887977516 -252.903054882773 2475.820286416 18 21 14
-636.755269957705 -254.586351604549 2474.68794864674 18 21 14
-643.706222937631 -254.914701229352 2478.9135745432 17 20 13
-649.704959551083 -255.146017688494 2483.53188027353 15 18 11
-656.674620130727 -255.473494567113 2487.79217530784 15 18 11
-661.724661508785 -255.607263221433 2492.80979163657 19 22 15
-641.659882501507 -253.229233351522 2507.38084405777 19 22 15
-657.327629140703 -254.425079580227 2508.34266068244 17 20 13
-674.965880733912 -255.813023576433 2508.64122848167 16 19 12
-693.612659426669 -257.296412426603 2508.65065554041 16 19 12
-678.304705455961 -255.401794983383 2521.25050281034 15 18 11
-734.9193761916 -260.646081451414 2507.47559599079 14 17 10
-740.059790798043 -260.776114947772 2512.66054839443 7 10 3
-727.651762735962 -259.170395745462 2524.16210782069 7 10 3
-721.060911544118 -258.143684845871 2533.49859106851 13 16 9
-715.421576204296 -257.213542744281 2542.44124575397 15 17 12
-742.067110131444 -259.462806116093 2540.01212350675 15 17 12
-755.049552993576 -260.362234927313 2542.46921835665 13 15 10
-759.223010590815 -260.39452445995 2548.01995361839 11 14 7
-740.79145975274 -258.212608661162 2561.30623596509 11 14 7
-779.386616209096 -261.61312088428 2555.12883331485 11 14 7
-802.306350864037 -263.472348450917 2554.42428082781 15 16 10
-773.964674926107 -260.329010443915 2570.92266321646 16 17 9
-756.409089094262 -258.245004383227 2583.67525773639 15 16 8
-778.373301053957 -260.007060890052 2583.35734560986 16 17 9
-795.432743872305 -261.287439036422 2584.73852524299 17 18 10
-798.64097788233 -261.222054483761 2590.6587146718 19 22 15
-791.91661901008 -260.196106156779 2599.74942364761 16 21 14
-803.067270233915 -260.89898057247 2603.12673083169 14 19 12
-824.196473471663 -262.561367338746 2603.41785762735 14 19 12
-798.508431608329 -259.712283060061 2618.3633661048 16 21 14
-637.142182848673 -269.487081100652 2316.52714401442 20 22 17
-632.88769353307 -268.637325761198 2325.87730531757 17 19 14
-659.439098173064 -271.081938065543 2321.10151728956 17 19 14
-599.389694934961 -263.891764555923 2362.98330051092 17 20 13
-582.828314758542 -261.744985020946 2377.58329769866 16 19 12
-572.787336908251 -260.296742641294 2389.16133853497 16 19 12
-558.947618254602 -258.449847427141 2402.33188344499 16 19 12
-593.098839647308 -261.688334333427 2394.37490109129 18 21 14
-584.890456295075 -260.439118513226 2405.03346276662 19 22 15
-584.206902939437 -259.987270141607 2412.37186543553 20 23 16
-583.512722391502 -259.535311964257 2419.69075578237 20 23 16
-589.4375043024 -259.780331321307 2424.16892458727 21 24 17
-593.472865639017 -259.825641766234 2429.46226424285 22 25 18
-592.762214902786 -259.37269794293 2436.75115931712 23 26 19
-595.844749992281 -259.317791696157 2442.43701447881 23 26 19
-610.35400048865 -260.456672975423 2443.40057972357 22 25 18
-606.776498990381 -259.704214710224 2451.85178637968 19 22 15
-610.819521213815 -259.747511660008 2457.15931705874 17 20 13
-609.127662242991 -259.193656953916 2464.78924099477 19 22 15
-626.571464146434 -260.628319716919 2464.7156268152 19 22 15
-629.672678070567 -260.570827494886 2470.43661341487 19 22 15
-643.333666431829 -261.606178825719 2471.98600298666 18 21 14
-648.371147314218 -261.74653771657 2476.97853645117 17 20 13
-658.22627688515 -262.383056962153 2480.10789697017 15 18 11
-652.67678924005 -261.429982140883 2489.22269429288 13 16 9
-654.825347069476 -261.271384870824 2495.33677648757 15 18 11
-614.4457438093 -256.745036605713 2517.60552555022 18 21 14
-661.049046019421 -261.151892745051 2506.81922667425 18 21 14
-673.85093334411 -262.083784108788 2508.93448481346 18 21 14
-675.034023682449 -261.824738490062 2515.41840687145 18 21 14
-697.58775570338 -263.747058572947 2514.02173559291 16 19 12
-732.840907832747 -266.95688332804 2508.10002396034 14 17 10
-753.565640452399 -268.678152683222 2507.62954834721 10 13 6
-748.972882714091 -267.822116368896 2516.35996545286 7 10 3
-727.753701794821 -265.282336229542 2530.97130345771 9 12 5
-719.184625271791 -264.030915801706 2540.96714764366 12 14 9
-726.254470549997 -264.36417214127 2545.40996258627 14 16 11
-741.179724329804 -265.488791285473 2547.14241835065 16 18 13
-744.351994001954 -265.425253125622 2552.99590755964 14 17 10
-755.389783419174 -266.152870619417 2556.15820054816 12 15 8
-780.231635352043 -268.26459755335 2554.68273719502 12 15 8
-798.229058604306 -269.68297723127 2555.63223021878 15 16 10
-784.676734130427 -267.937222575815 2567.18663522241 16 17 9
-779.976154664212 -267.081552444813 2575.71813416154 16 17 9
-781.192622504048 -266.819036754479 2582.2644870506 16 17 9
-803.214453672294 -268.63080977064 2582.037596337 17 18 10
-818.339039854812 -269.750337178587 2584.13819190283 18 21 12
-805.67431453949 -268.104835445747 2595.17960176029 16 21 14
-801.921819932239 -267.348493048239 2603.31013224519 14 19 12
-823.054310773457 -269.059206634211 2603.59327688564 14 19 12
-814.310248392143 -267.809602157927 2613.26623985548 16 21 14
-637.989590872212 -276.104316979284 2316.09573841412 20 22 17
-643.064149842886 -276.25847471396 2321.15231563347 13 15 10
-628.519056637736 -274.259463063518 2335.18659640452 16 18 13
-624.218352777409 -273.388040706181 2344.45827647176 19 22 15
-607.714326073378 -271.184534481679 2359.18132030963 17 20 13
-604.293136062956 -270.415619950835 2367.92496102141 15 18 11
-596.155305629522 -269.134451908917 2378.72238683724 15 18 11
-610.569068467219 -270.310927971789 2379.49902732942 15 18 11
-622.186987510717 -271.179271991347 2381.57066140698 21 24 17
-605.521297420063 -268.976182211743 2395.99574734292 21 24 17
-583.131626055156 -266.159620682337 2412.76818127359 20 23 16
-588.110168379984 -266.310844667891 2417.64904862706 20 23 16
-594.040952997089 -266.563828604482 2422.13586238419 20 23 16
-589.54303861705 -265.691418013684 2431.04563779944 20 23 16
-591.674446232902 -265.534620363222 2437.12763644266 21 24 17
-601.413382332995 -266.195272385042 2440.03603875927 22 25 18
-620.696149836412 -267.877133631434 2439.04068095943 22 25 18
-619.990742822995 -267.412250541765 2446.34281058634 21 24 17
-620.229775457561 -267.049338494646 2453.23647265267 21 24 17
-617.591256716852 -266.379830610397 2461.27489544932 21 24 17
-622.599248882079 -266.527099496979 2466.21111580748 20 23 16
-634.325525076043 -267.388480682919 2468.48413230006 19 22 15
-642.233089012851 -267.840873756184 2472.3170382495 18 21 14
-657.846575593463 -269.108863413839 2473.15736567871 17 20 13
-659.049258880782 -268.845889552273 2479.67799980189 16 19 12
-666.031652316596 -269.194604908414 2483.95532601747 14 17 10
-638.265026252724 -265.872412050973 2501.56511535416 13 16 9
-665.524242349088 -268.361566823236 2498.07722245216 15 18 11
-670.580885055264 -268.505333375076 2503.10447748999 18 21 14
-669.826130939535 -268.037433503156 2510.31675601488 19 22 15
-685.562411547753 -269.301065580146 2511.38423445176 19 22 15
-709.107669302321 -271.378507609579 2509.64971189796 14 17 10
-745.359543455336 -274.777963150452 2503.39250249385 10 13 6
-761.232849026289 -276.038190869157 2504.71301856687 9 12 5
-769.332392726696 -276.483452569301 2508.90115483685 10 13 6
-782.330306491665 -277.436940557299 2511.37044675346 9 12 5
-764.043955506563 -275.135205107038 2524.95930615593 7 9 4
-743.740729659623 -272.631055521424 2539.13024251335 10 12 7
-740.052629632264 -271.855983353442 2547.38483880352 16 18 13
-745.186929093416 -271.995780212072 2552.55560829037 16 19 12
-756.227374435361 -272.744874357188 2555.71632752323 16 19 12
-771.227823292614 -273.899737808207 2557.5779856307 16 19 12
-790.203524874427 -275.460043142384 2558.16923139406 16 17 11
-792.433100108753 -275.293480993184 2564.43521881055 18 19 11
-787.73879990729 -274.416405076344 2572.98470363608 17 18 10
-772.133045304536 -272.423583152802 2585.06637345529 17 18 10
-787.209124994297 -273.576305127049 2587.06777443171 18 19 11
-810.256633574987 -275.539661710543 2586.5669076686 18 21 12
-810.495665867093 -275.170013558406 2593.46259479492 16 21 14
-792.813306788681 -272.975839519757 2606.01516006612 15 20 13
-819.91790798184 -275.342954370078 2604.3949057237 15 20 13
-799.19142004322 -272.84582258769 2617.78477132699 16 21 14
-636.97249936413 -282.510052550559 2316.5283796817 13 15 10
-672.851630410659 -286.141059502372 2307.40170030772 12 14 9
-642.447726765646 -282.302654782054 2328.77599295024 17 19 14
-616.631126072481 -278.991070893952 2347.85374036628 18 21 14
-616.044486675149 -278.518923736451 2355.37648973886 16 19 12
-617.324551695631 -278.256773413539 2362.0396995572 15 18 11
-611.079147077474 -277.153565295757 2372.03452633468 15 18 11
-624.574933388374 -278.256590466342 2373.25972827418 15 18 11
-629.615660082748 -278.413396446634 2378.25328538926 18 21 14
-616.727178826148 -276.574203977211 2391.05621351696 19 22 15
-594.342545727101 -273.685344658153 2407.8591509733 22 25 18
-592.71023283308 -273.10679087275 2415.60601853193 23 26 19
-592.012619172601 -272.633069855476 2422.92513930741 23 26 19
-596.99881138534 -272.788693485297 2427.81875313213 23 26 19
-599.13855370571 -272.629228114525 2433.91738729973 22 25 18
-606.033739450899 -272.993695023255 2438.02958585607 21 24 17
-614.844952934996 -273.567362725335 2441.37269457521 22 25 18
-622.717191996194 -274.035626250228 2445.13535481615 22 25 18
-616.268902564442 -272.930993327868 2454.75746792351 22 25 18
-610.751209314993 -271.931155286956 2463.94480362622 21 24 17
-611.91674624479 -271.664932610292 2470.3986000613 20 23 16
-610.198737925717 -271.084177069059 2477.98801598975 19 22 15
-621.917234998948 -271.969463625577 2480.23953640928 18 21 14
-646.164355587541 -274.215049282945 2477.63050383325 17 20 13
-635.789924138022 -272.691035624592 2488.61754453187 16 19 12
-634.06023584797 -272.109237395332 2496.18579242395 15 18 11
-652.600200154661 -273.724515600877 2495.95961067835 13 16 9
-657.641179353373 -273.874227933185 2500.95576540551 14 17 10
-680.118991115872 -275.906057064132 2499.38653124217 17 20 13
-690.041450749486 -276.577405012795 2502.62925028374 17 20 13
-711.634061350345 -278.50242147991 2501.57889002932 17 20 13
-735.219884678043 -280.635219252177 2499.90232830835 11 14 7
-752.044551186481 -282.035534536631 2500.8151396413 8 11 4
-752.331425860723 -281.659112364743 2507.80085471716 8 11 4
-756.514945045968 -281.700413171185 2513.36788943512 13 16 9
-764.610793433134 -282.158982396012 2517.54472325147 11 14 7
-769.782615826684 -282.304036374584 2522.7834275643 8 10 5
-760.258458336725 -280.883587796465 2533.18833348276 10 12 7
-749.719100178864 -279.359233632685 2543.87214631125 12 14 9
-757.813334604248 -279.81708535523 2548.04673176997 13 16 9
-763.952373520118 -280.065993998168 2552.91778865515 16 19 12
-765.17287332778 -279.79347196601 2559.4740619432 18 21 14
-785.13136168529 -281.500967250575 2559.71376921504 16 17 11
-790.316486954525 -281.64464961312 2564.9768481702 18 19 11
-790.560890484945 -281.267196883499 2571.88476098465 18 19 11
-779.90293413548 -279.744286422484 2582.35052022134 17 18 10
-786.067075076682 -279.992009819492 2587.26810073348 18 19 11
-806.139905393083 -281.696725387824 2587.71893962126 18 21 14
-805.377288080454 -281.215210578228 2594.92085059523 15 20 13
-794.648740670548 -279.693463818664 2605.25592581589 15 20 13
-797.839230642388 -279.628586006005 2611.14332833791 15 20 13
-800.031429355132 -279.459778515888 2617.34074449867 17 22 15
-804.219386156972 -279.498840198016 2622.91661415435 19 24 17
-682.583188658651 -294.298338229328 2295.35233427741 10 12 7
-673.709804777798 -292.844259376349 2306.96424477599 16 18 13
-646.098943832113 -289.23339166904 2327.06212450249 16 18 13
-618.402391007284 -285.623426206239 2347.00212992554 17 20 13
-638.446425741667 -287.512222583986 2345.22934794043 16 19 12
-629.425735695136 -286.058656995722 2356.5701812106 15 18 11
-615.669243769776 -284.066389421383 2369.93801603836 15 18 11
-612.224161323934 -283.259469940257 2378.6491431037 16 19 12
-621.961855728006 -283.960553402811 2381.54310312222 16 19 12
-605.278859767462 -281.645519394527 2395.97002441711 17 20 13
-584.758916256287 -278.900147053233 2411.92971760625 22 25 18
-587.84470625401 -278.846856529836 2417.62107325491 24 27 20
-604.203991542066 -280.299807264954 2417.66213513029 23 26 19
-613.003574774145 -280.8910169627 2420.97908269022 22 25 18
-609.459419945587 -280.082913691884 2429.50835358283 23 26 19
-604.944933706145 -279.1672388309 2438.40015656999 22 25 18
-605.175778387298 -278.789297585086 2445.28327909733 21 24 17
-600.625758500724 -277.873454973238 2454.10977967921 20 23 16
-612.30431062408 -278.785011289855 2456.28043842694 19 22 15
-612.519979621259 -278.406187160438 2463.13591560818 19 22 15
-613.68616861585 -278.134548218025 2469.59203585137 19 22 15
-609.088101265076 -277.218245592267 2478.33081097198 17 20 13
-624.651027682996 -278.55715284686 2479.05682262214 16 19 12
-635.435692756124 -279.358364090857 2481.73093837341 17 20 13
-646.240444497096 -280.158894864105 2484.44270604276 17 20 13
-646.451527040737 -279.778175424017 2491.29031786044 14 17 10
-649.553154348179 -279.719141973818 2497.01252822738 12 15 8
-674.906955585003 -282.127251090396 2494.27470520995 14 17 10
-682.881649871767 -282.60333514239 2498.22344748012 18 21 14
-712.210518486819 -285.437746651964 2494.20859803458 15 18 11
-751.322454093712 -289.342634772923 2486.71517056062 13 16 9
-754.541138874714 -289.280021117256 2492.65374759387 8 11 4
-764.577089805681 -289.967271501098 2496.10041561014 7 10 3
-755.125906373322 -288.511387069753 2506.65019043048 8 11 4
-747.594003167942 -287.270219036588 2516.4351986723 13 16 9
-746.878115254592 -286.77892993819 2523.72599286216 13 16 9
-763.775457685564 -288.214337141818 2524.76241981731 12 14 9
-763.061471477198 -287.722670865793 2532.05682501445 12 14 9
-776.080381072515 -288.728793199986 2534.54890382294 9 11 6
-799.937490130155 -290.910949414284 2533.35644285759 8 11 4
-801.210442768951 -290.632189347752 2540.01106236875 10 13 6
-778.824269527981 -287.787432080059 2554.6831055019 15 18 11
-784.00238994619 -287.936724534903 2559.93211842979 17 18 12
-792.15004368235 -288.406553683775 2564.20084562393 20 21 13
-786.458088580603 -287.380132751034 2573.07567606874 20 21 13
-780.742603219222 -286.354169283468 2581.90709250924 18 19 11
-787.899928038849 -286.716901327865 2586.50143005345 18 19 11
-794.07379532972 -286.972485874463 2591.4345350802 17 20 13
-793.292778968325 -286.480644719719 2598.60621644634 15 20 13
-798.476710744525 -286.62942292058 2603.86556792354 15 20 13
-817.625614275848 -288.271453502913 2604.75078711284 16 21 14
-857.782643847113 -292.152433405594 2599.18666757116 17 22 15
-823.054814751779 -288.034350422376 2616.922681497 19 24 17
-689.043584863385 -301.698683548789 2292.3189347483 1 3 0
-668.96272047393 -298.883408194879 2309.10669152175 19 21 16
-647.341900237623 -295.464343427452 2333.81927042491 17 20 13
-641.16352891624 -294.307452709585 2343.95352714696 15 18 11
-657.504845293912 -295.801388605742 2343.94921581377 15 18 11
-626.847045937864 -291.772669135552 2364.91377966926 15 18 11
-604.573583282617 -288.738754677015 2381.96530523268 16 19 12
-597.322819736117 -287.471903303434 2392.27510405853 16 19 12
-590.043275335973 -286.204921943842 2402.53200874002 18 21 14
-583.680820952743 -285.048450633155 2412.32757704557 23 26 19
-594.341028900684 -285.877647075273 2414.76488196733 23 26 19
-610.712450763103 -287.368006028478 2414.81752001271 20 23 16
-623.320811269681 -288.416124884124 2416.54189499645 18 21 14
-612.17876899595 -286.707201190323 2428.28756519845 21 24 17
-614.330290163362 -286.541832523638 2434.4091338144 21 24 17
-606.942420156187 -285.273986259497 2444.4675723061 21 24 17
-614.80476643461 -285.76919384702 2448.20393526514 20 23 16
-604.511658222557 -284.170941830157 2459.36286926608 20 23 16
-617.162064359018 -285.216019191908 2461.16548846597 19 22 15
-614.497237744351 -284.49860822289 2469.16993176385 18 21 14
-629.098077613538 -285.762730442619 2470.26428394286 16 19 12
-626.425052664174 -285.044794781494 2478.25330255152 16 19 12
-635.287898970283 -285.64724614165 2481.6832218249 17 20 13
-654.769920577446 -287.459416398806 2481.01463769633 17 20 13
-668.503701400089 -288.610364695435 2482.6631434053 13 16 9
-656.168815414694 -286.791468900878 2494.36333116606 12 15 8
-658.309975777918 -286.62220558102 2500.46701558022 14 17 10
-695.336657055613 -290.409663763988 2493.40384196461 18 21 14
-722.749373724588 -293.096237662532 2490.13889646057 16 19 12
-754.113097415923 -296.220804580142 2485.5491575305 13 16 9
-753.44227541025 -295.718874671712 2492.92603605343 8 11 4
-768.349245026316 -296.973915329608 2494.58614763426 8 11 4
-755.970673076652 -295.154062532117 2506.20627673797 9 12 5
-747.458149447464 -293.773892077573 2516.3443456233 12 15 8
-736.957665487979 -292.174536520428 2527.1227139415 13 16 9
-747.9689890484 -292.989475359322 2530.20956777022 13 15 10
-758.019701796192 -293.694158384469 2533.67814309187 13 15 10
-775.944481415886 -295.275601521663 2534.44499459402 10 12 7
-796.857384965161 -297.185045277272 2534.26451581195 9 12 5
-815.847308771064 -298.874171833027 2534.84317955969 9 12 5
-801.357410345799 -296.836394283836 2546.87583201869 13 16 9
-782.872343813486 -294.361295421934 2560.15135138219 18 19 13
-787.064972443234 -294.406446694106 2565.73398211157 20 21 13
-781.36218234155 -293.356282959703 2574.59602498198 20 21 13
-774.644930207569 -292.197123217781 2583.73986404584 18 19 11
-791.717932151032 -293.665328638141 2585.08899348646 18 19 11
-801.871183975593 -294.366781609421 2588.74712819936 17 20 13
-787.169046733283 -292.332595003578 2600.38835492961 15 20 13
-813.264863480353 -294.783866208917 2599.00225387878 15 20 13
-839.419693965037 -297.233961967217 2597.725043326 16 21 14
-871.626178579227 -300.338743627019 2594.6912451367 17 22 15
-862.904075656407 -298.960804837968 2604.44369264913 18 23 16
-649.258050731441 -303.078316894189 2318.13382968178 12 14 9
-615.97273706892 -298.612865305455 2340.74215273899 21 23 18
-604.140831634103 -296.751226844457 2353.38026700607 19 22 15
-660.774113279164 -303.148946126389 2335.06312870116 17 20 13
-666.808531350262 -303.435499222553 2339.73044830368 16 19 12
-646.501456831107 -300.554670165591 2356.12187682234 15 18 11
-619.532912592025 -296.883036567544 2375.3045683022 16 19 12
-597.199535481223 -293.777538689932 2392.2669226754 20 23 16
-590.859613901021 -292.59438641955 2402.11195644254 19 22 15
-585.439674698816 -291.524191480141 2411.50023746309 20 23 16
-593.261425890339 -292.035895506635 2415.1569778311 22 25 18
-600.14686083641 -292.433981807668 2419.24113282597 23 26 19
-618.443512417488 -294.186789051408 2418.52559249835 22 25 18
-617.753351135934 -293.680157418334 2425.86882072163 22 25 18
-614.194712147169 -292.83458713861 2434.38271972977 22 25 18
-615.387623419487 -292.553353064215 2440.89087257063 22 25 18
-619.440647870963 -292.610389088767 2446.21317178196 21 24 17
-621.582947384768 -292.44134855857 2452.31888430402 20 23 16
-616.059468999051 -291.369609399554 2461.51720228022 21 24 17
-621.063103839819 -291.538615717501 2466.43887181752 20 23 16
-634.715262038805 -292.721852977583 2467.92754867239 18 21 14
-632.04627128489 -291.987828588569 2475.92932936767 17 20 13
-638.028678909194 -292.268264917837 2480.50283172361 16 19 12
