ply
format ascii 1.0
comment KinectMotionCapture
element vertex 779
property float x
property float y
property float z
property uchar red
property uchar green
property uchar blue
end_header
-860.311511596323 -113.927677509742 2322.4142939426 18 19 13
-854.807108193415 -113.785303278204 2330.82458450671 22 23 17
-843.408707288115 -113.197412282906 2322.21097116571 25 26 20
-834.334318116536 -112.784257651913 2320.20592091443 24 25 19
-828.492020752508 -112.617259431956 2327.67453703111 22 25 18
-821.988173524142 -112.400650216219 2333.25389550637 22 25 18
-823.040589259679 -112.766744321801 2361.64294381464 22 25 18
-807.996441572104 -111.893636332307 2341.5757952011 22 25 18
-800.524015547805 -111.603820925525 2344.31267523383 22 25 18
-795.821854059425 -111.530162063412 2355.62621951584 24 27 20
-794.43116518522 -111.717774837515 2377.45000390721 22 25 18
-784.76705667631 -111.259065848817 2373.52954551194 23 26 19
-774.539276828571 -110.754540132568 2367.68423455282 25 28 21
-770.308152363959 -110.723984678038 2380.95674795375 22 25 18
-765.136274603159 -110.620953183916 2391.37661777202 20 23 16
-761.678171791142 -110.656927772489 2407.56342090098 19 22 15
-745.39746129658 -109.665011024472 2381.55468026909 26 29 22
-750.813971800557 -110.419494729605 2427.5280682414 22 25 18
-757.423540219332 -111.280801057094 2478.39320332886 23 26 19
-749.107841235426 -110.936102664117 2479.30750463055 6 9 2
-751.145983785963 -111.439575570448 2515.8609944286 17 20 13
-741.372453928197 -110.978376785764 2511.98048077771 21 24 17
-975.945845955438 -127.170578273695 2334.86553860136 26 28 17
-962.915340688733 -126.439510902394 2323.65580993629 23 24 16
-951.038506622357 -125.797832277296 2315.21983338731 21 22 16
-955.261582736488 -126.446935771344 2348.83535423245 22 23 17
-948.345916942535 -126.205256304849 2353.49967721123 18 19 13
-932.637998666462 -125.252668347497 2334.74625450796 19 20 14
-920.186476909954 -124.559829430546 2324.38983122973 23 24 18
-909.537435132749 -124.011090189727 2318.70066222563 21 22 16
-908.210872025073 -124.22367960252 2338.36589601041 21 22 16
-901.335921605097 -123.984454856437 2343.01524035221 25 26 20
-894.450711295249 -123.744992905958 2347.66833039475 25 26 20
-884.532424543527 -123.254882997393 2343.84233944491 22 23 17
-871.650684742761 -122.516872304116 2331.51252634655 19 20 14
-863.481275833781 -122.168937234007 2332.37366487738 18 19 13
-851.38447429963 -121.491308680862 2321.88721077481 25 26 20
-846.848176144525 -121.44737956692 2333.13824752196 25 26 20
-837.097614732499 -120.964672035715 2329.25101144144 25 26 20
-832.190032612445 -120.891888516263 2339.57282477521 22 25 18
-832.327652075661 -121.251648427241 2365.09480783143 22 25 18
-818.468518871099 -120.417765432104 2348.86061862017 23 26 19
-812.843826613646 -120.288085521185 2357.31391114101 23 26 19
-803.156356211982 -119.808655076234 2353.40350446569 23 26 19
-801.195429329344 -119.998931439269 2373.30090998833 22 25 18
-791.821469093397 -119.546796050038 2370.34109007799 23 26 19
-782.781281150106 -119.122575182806 2368.32470250652 22 25 18
-776.466370007145 -118.937362478504 2374.89960072708 24 27 20
-771.618147078319 -118.883169667354 2386.26500017628 22 25 18
-774.977878118706 -119.561753582664 2424.4584616193 21 24 17
-766.167773252352 -119.161917181501 2423.42319261586 21 24 17
-750.427377950902 -118.138350448753 2399.35363569984 20 23 16
-755.500707758255 -118.987509251183 2444.37826878773 25 28 21
-753.520627232169 -119.208170674038 2466.41370772719 18 21 14
-758.769079825862 -120.094124756506 2513.5050483424 14 17 10
-757.915274583921 -120.432860728084 2540.45539575364 16 19 12
-712.768739933922 -117.102649126989 2442.98044185496 0 3 0
-978.019141084359 -135.471779580533 2340.95255030271 28 30 17
-968.948036776505 -135.046290414813 2340.01379343486 20 21 13
-939.085939193782 -132.797332917203 2284.90243816035 19 20 14
-933.054509426616 -132.630449533145 2291.37295397461 20 23 16
-950.345291778051 -134.525693408266 2359.61184125438 21 24 17
-939.538466536535 -133.945865296658 2353.98234661328 22 25 18
-915.881677838908 -132.219037011461 2313.64289112096 23 24 18
-912.527704989242 -132.296863935768 2327.65533531836 21 22 16
-901.557074090028 -131.693700675469 2321.02056186113 19 20 14
-899.158694197847 -131.861482633356 2337.87868471169 22 23 17
-895.330291016356 -131.903842170764 2350.99962709916 26 27 21
-889.095454637654 -131.730274825675 2357.54455248974 26 27 21
-866.51669419622 -130.063969912016 2317.87539849959 22 23 17
-858.052879734613 -129.681588357652 2317.77954842874 19 20 14
-854.852531345324 -129.783975322299 2332.80087823357 22 23 17
-846.378762092688 -129.401517366917 2332.70865087673 25 26 20
-838.889170661307 -129.109988952471 2335.45189699565 24 25 19
-831.720153516025 -128.848568871686 2339.14320525828 20 23 16
-829.312027292696 -129.034889650688 2357.07028107598 21 24 17
-824.931090179528 -129.039683420843 2369.32800364538 23 26 19
-812.684457884421 -128.301347427594 2357.83375861568 24 27 20
-813.225959061047 -128.777812598562 2385.33355745976 24 27 20
-799.79908093517 -127.923906390275 2370.01038076615 23 26 19
-788.299494461817 -127.250083209401 2360.37320511993 22 25 18
-781.704142179436 -127.047078549945 2365.98478433224 20 23 16
-775.393563402353 -126.872784272171 2372.55728462885 22 25 18
-779.761468665517 -127.743847218473 2413.57009298786 18 21 14
-774.791467068098 -127.709506116443 2424.97798705229 18 21 14
-770.652038087938 -127.760157230746 2439.27786741753 18 21 14
-765.872622328008 -127.751060192655 2451.68142032761 19 22 15
-752.722030043442 -126.909098026369 2436.25695741505 26 29 22
-752.749542873764 -127.384768873492 2465.01012369832 19 22 15
-760.529015006498 -128.652111975349 2520.75284250608 14 17 10
-758.254451492176 -128.916149042456 2542.89200541268 16 19 12
-744.535461790733 -128.017711762585 2525.54521129016 6 9 2
-1000.92244697178 -145.353178294951 2377.75057601826 144 145 129
-1003.37282072183 -146.012291133737 2406.67614118641 25 27 14
-980.032095381971 -144.231728595945 2369.42582535935 22 23 15
-946.152302863811 -141.434468981994 2304.08248397467 19 22 15
-938.285741326989 -141.106019177921 2305.89892703018 21 24 17
-937.848043157841 -141.491547194543 2327.36152108826 23 26 19
-933.446945406942 -141.500468966814 2338.55944676743 23 26 19
-928.302865654466 -141.440210652732 2347.89968728842 23 24 18
-909.635891969526 -140.065118899103 2320.65351007434 21 22 16
-893.535982811182 -138.931654291066 2299.9227930316 18 19 13
-886.422184956838 -138.673858728315 2303.59376457643 21 22 16
-887.417756063023 -139.217106035265 2329.85673340125 26 27 21
-881.238642667979 -139.056629307414 2336.38042483126 27 28 22
-867.047787143089 -138.099216626119 2320.2760833087 24 25 19
-859.898280072629 -137.840628455783 2323.96008915629 21 22 16
-856.677722007486 -137.977711061573 2338.9861440538 21 22 16
-851.438953897844 -137.915085852853 2348.36071269165 23 24 18
-839.387749981928 -137.162865257116 2337.86306504545 22 23 17
-834.451621519092 -137.132535734536 2348.19204711574 19 22 15
-826.29898048489 -136.774975838139 2349.04781945647 20 23 16
-813.747052410429 -135.963260031247 2336.60348023531 23 26 19
-816.586374052987 -136.741488167014 2370.7120283857 24 27 20
-810.270825211565 -136.577189267322 2377.28583463135 24 27 20
-800.247562345223 -136.026084058118 2372.43603140168 24 27 20
-788.132847779721 -135.252198714851 2360.8967922672 23 26 19
-782.742883413686 -135.185004444592 2370.32664092608 22 25 18
-780.313318364866 -135.435419538515 2389.32322649323 23 26 19
-774.529781127347 -135.33300731597 2397.83217597004 19 22 15
-777.843910846056 -136.211712207225 2436.02710663854 18 21 14
-767.542015999992 -135.630417076432 2430.21426251133 21 24 17
-756.708330171828 -134.988129724674 2422.46612750463 23 26 19
-751.953446999323 -135.007243878122 2434.85863822494 30 33 26
-753.96829662486 -135.775379675913 2470.33406574215 19 22 15
-757.780736155083 -136.755262733835 2512.60704124839 12 15 8
-761.662465045003 -137.758279525143 2555.91939778317 13 16 9
-743.210562302173 -136.274101108136 2522.20371625204 12 15 8
-977.794868988248 -151.744795628526 2341.93932420556 22 24 11
-960.776225147235 -150.483173885778 2320.48553139865 22 23 15
-952.136346758899 -150.075874716556 2320.45553203819 20 23 16
-943.155781095684 -149.63251384691 2319.48548183447 21 24 17
-940.909446425445 -149.887592053056 2336.28202860984 24 27 20
-924.554201629581 -148.675373585239 2315.65002669769 23 26 19
-925.738477624816 -149.293794363082 2341.83901429644 22 23 17
-917.807149901569 -148.960693060066 2343.67908599751 20 21 15
-894.099087900374 -146.957745400212 2302.31253743223 17 18 12
-883.231558067658 -146.304069423836 2295.64411475073 19 20 14
-879.850289256358 -146.446909815689 2309.66157122613 24 25 19
-872.718199712572 -146.191393063807 2313.33876258349 25 26 20
-865.913918907899 -145.971753594255 2317.9609522597 25 26 20
-863.392534059286 -146.217319321154 2334.85789852072 23 24 18
-860.138922812651 -146.388603068439 2349.89338234962 21 22 16
-850.966883954228 -145.916530582823 2347.92851164823 25 26 20
-842.465746180146 -145.516596486201 2347.8475469058 23 24 18
-832.70040695286 -144.975799204763 2343.97006312495 19 22 15
-818.210266907897 -143.906930341344 2325.84950567481 20 23 16
-812.019030418655 -143.758001856799 2332.37673054681 21 24 17
-811.11608712913 -144.20524821958 2355.07051942406 22 25 18
-805.76986749265 -144.158328852551 2364.48294420606 24 27 20
-796.395428962953 -143.656359638202 2361.52705811948 24 27 20
-792.229707527824 -143.747501177191 2374.76662591113 26 29 22
-790.423910601061 -144.114252469358 2395.66116212246 22 25 18
-783.131359078094 -143.854422388043 2399.39698079051 22 25 18
-776.724759947047 -143.698059811371 2406.00301591223 18 21 14
-775.006873959239 -144.091640352151 2427.93039701103 17 20 13
-764.435080707147 -143.452061803565 2421.15320414487 24 27 20
-758.541779715031 -143.362019480867 2429.70110158714 24 27 20
-750.612171649395 -143.032155324639 2431.54055852937 29 32 25
-759.729725413083 -144.743397789567 2491.03008836887 18 21 14
-767.137805062171 -146.273517551079 2545.82111055209 11 14 7
-764.508431450493 -146.60960079294 2567.01719705539 13 16 9
-731.110167930857 -143.199711310183 2481.27902766111 0 2 0
-984.951650261382 -160.686960343362 2361.0637573156 18 20 7
-939.7324412328 -156.252588544149 2266.89818811037 21 22 14
-932.314343210734 -155.961829436984 2269.61539994333 19 22 13
-944.819076130031 -157.885410058238 2324.65829612141 20 23 16
-940.082327909885 -157.904768548877 2334.91083251672 24 27 20
-924.434825737471 -156.703158446222 2316.15424749261 23 26 19
-925.612395120062 -157.38971987714 2342.34053053452 18 19 13
-922.17003018539 -157.56258364103 2356.37792021461 16 17 11
-906.663586653316 -156.366880854525 2337.56963757266 14 15 9
-889.233150852681 -154.94230213078 2313.07783659619 15 16 10
-872.289487170175 -153.562516581142 2289.47234954965 18 19 13
-862.529351748904 -153.001920690621 2285.59446886733 20 21 15
-863.117424851518 -153.64058249768 2310.93199591163 26 27 21
-862.922036865231 -154.197468729999 2334.42673280431 25 26 20
-857.046157393957 -154.096682438164 2341.902554766 23 24 18
-849.1950246453 -153.765018048007 2343.71338020374 31 32 26
-843.605918241274 -153.701350100475 2352.14876233957 31 32 26
-833.508965782273 -153.102722229164 2347.32957327228 21 24 17
-824.087791473497 -152.581887233311 2344.39209150273 20 23 14
-814.697734682453 -152.062402348816 2341.44320170232 18 21 12
-810.332447712068 -152.149624564818 2353.68901862924 19 22 15
-801.892224862435 -151.744403813348 2353.58632009368 23 26 19
-794.08175881609 -151.41522082068 2355.38243687111 24 27 18
-794.191169941146 -152.06230742568 2381.95980036073 26 29 22
-792.965263098558 -152.55478771497 2404.76726674829 21 24 17
-785.946078605361 -152.333843599731 2409.46763744272 21 24 15
-779.510476316808 -152.187111534868 2416.08348386327 18 21 12
-765.407569472896 -151.074152003877 2397.82555676013 18 21 14
-763.37219847136 -151.484292168673 2418.80023209463 26 29 22
-767.597696520939 -152.703422982621 2460.9048219981 21 24 17
-770.181262511744 -153.730372613891 2498.28745236507 22 25 18
-764.348730422609 -153.684843933279 2507.8764677948 13 16 9
-765.232104306331 -154.517476926717 2540.55846781226 10 13 6
-762.333575993279 -154.869045909176 2560.78436935998 13 16 9
-954.059812546834 -165.873300931717 2304.69847534046 19 21 10
-950.834424111501 -166.086929018711 2318.65395357664 16 19 10
-933.253893152704 -165.200050631348 2317.64213481918 26 29 22
-929.221723809814 -165.325727677301 2329.76401612366 22 24 19
-925.13806988943 -165.449519175784 2341.90474597618 13 16 9
-923.765587121887 -165.906330165261 2361.56823718993 14 17 10
-912.36050125036 -165.148468307232 2354.03643355865 13 16 9
-887.063889466402 -162.684659492339 2307.94854769898 11 14 7
-869.462254931186 -161.145826197089 2282.46101410449 13 16 9
-866.422248547204 -161.396093898031 2297.41292779954 15 18 11
-857.663249952132 -160.94069048853 2296.36328258799 24 27 20
-858.492585906059 -161.682856581999 2322.67189645167 22 25 18
-852.646537842568 -161.596844943901 2330.13551046613 20 23 16
-846.450229015584 -161.468903799678 2336.66299478058 24 27 20
-842.489129516959 -161.627042084224 2349.82341503205 27 30 23
-833.996672691756 -161.211003494285 2349.74051128462 24 25 17
-826.788178131592 -160.958738776333 2353.44521808262 23 25 14
-821.776389970968 -160.991049931135 2363.79670951808 20 22 11
-813.292600568228 -160.575706191659 2363.71085844825 20 21 13
-802.349503562932 -159.837367218738 2356.00946957403 24 25 17
-794.531376906485 -159.504996572524 2357.80861025235 26 28 17
-793.411948332046 -160.058755873387 2380.57276548708 26 27 19
-790.375188539316 -160.367491826221 2397.65245483075 22 23 15
-789.056400067902 -160.913735268073 2420.48961208647 20 22 11
-779.030892538783 -160.296944761218 2415.64583479293 20 22 11
-773.456477636891 -160.279875440243 2425.13891925096 21 22 14
-764.641298832988 -159.824115086931 2424.10971335108 24 27 18
-773.754831317155 -161.828592968672 2482.51176864929 14 17 8
-777.132245773062 -163.06989899874 2522.78971354132 18 21 14
-773.217672784293 -163.316907933078 2539.12619224434 12 14 9
-762.203626795177 -162.577090222843 2531.45094767873 16 18 13
-755.70386804386 -162.467889127946 2539.15408332263 7 9 4
-953.124086110672 -173.163307184273 2281.02265422728 37 40 23
-968.374014171726 -175.718119611204 2342.48689274087 28 31 20
-957.522893783029 -175.013384795389 2336.88291660051 26 29 20
-946.006972573174 -174.220559335577 2329.3940216696 22 25 18
-938.781872245038 -173.968799456419 2333.10472387584 19 22 15
-934.354036238178 -174.075300388181 2344.30525636938 14 17 10
-929.532048977857 -174.135403430139 2354.58568906763 13 16 9
-916.384788037895 -173.123730739265 2342.37274370012 13 16 9
-904.690162095159 -172.293372807883 2333.8850545573 12 15 8
-887.956632406167 -170.799618641748 2311.27862759626 13 16 9
-869.674478379515 -169.089922351981 2283.91787739521 11 14 7
-868.301582955144 -169.596390911206 2303.57777179974 10 13 6
-873.1506088987 -170.937130181529 2341.18041010111 17 20 13
-850.769364255459 -168.663180204675 2301.48533899424 19 22 15
-846.287747417886 -168.768532130004 2312.70549877766 19 22 15
-846.629341221074 -169.529067749408 2338.12313112883 20 23 16
-839.762740243631 -169.323704454535 2342.76688690403 19 22 15
-833.205489759462 -169.161628288388 2348.36127987672 17 18 10
-824.097881853686 -168.651154288606 2346.37589644613 18 19 11
-820.045737727928 -168.836054949889 2359.56712306045 20 21 13
-811.884365949792 -168.456081237214 2360.42801307181 21 22 14
-801.259907860192 -167.731092995372 2353.67665392192 23 24 16
-793.446923520518 -167.396036250056 2355.47387456865 24 25 17
-791.72104147179 -167.921147553174 2376.32742618792 22 23 15
-791.707088964299 -168.69994300871 2402.939674675 20 21 13
-784.689577577282 -168.48965082118 2407.63837945692 19 20 12
-777.36600161238 -168.236378579055 2411.38522997565 20 21 13
-775.326252260624 -168.74970852871 2432.35345598991 22 23 15
-773.772076992009 -169.344367928346 2455.27273935279 13 16 7
-764.027868230526 -168.747941292175 2451.39177540382 20 23 14
-782.072341459453 -172.255584933768 2540.56781092637 20 23 16
-774.420656414775 -171.990101295707 2544.43454285981 11 13 8
-768.731387809517 -172.019226515196 2555.03268307238 17 19 14
-976.615329578992 -184.264985996587 2342.04756165575 33 35 21
-969.339211233021 -184.013711102371 2345.77676403093 26 29 18
-955.258514883591 -182.853671208624 2331.78105286985 24 27 18
-940.55949899786 -181.60186476722 2315.88355756938 17 20 13
-941.482623546251 -182.449644486552 2341.08331525509 14 17 10
-934.929211785231 -182.294699602655 2346.67602971413 13 16 9
-922.798985473023 -181.38045877834 2337.28612909981 16 19 12
-909.355449640362 -180.27964260103 2324.12100130822 15 18 11
-903.532891938184 -180.22121334806 2331.57399925725 15 18 11
-897.344785666191 -180.114763459084 2338.0968817259 16 19 12
-894.846551779236 -180.52485150511 2354.97325720669 13 16 9
-881.224950133915 -179.383610981649 2340.80906695078 10 13 6
-869.68900340592 -178.527013597139 2332.26570349878 17 20 13
-847.997245790405 -176.224569910018 2294.45563253749 19 22 15
-849.091554242115 -177.14768359761 2321.72087539433 19 22 15
-850.05246641609 -178.065673284653 2349.03497274251 20 23 16
-845.729728745825 -178.235839239504 2361.25907167324 18 21 14
-829.8602304313 -176.736569144548 2339.4056820887 17 18 10
-824.894186652486 -176.81410369844 2349.73714069467 18 19 11
-820.201592653905 -176.936259319152 2361.03268853817 21 22 14
-811.100378583017 -176.412436240288 2359.04573489132 22 23 15
-800.480016965429 -175.660124910395 2352.29494890993 22 23 15
-792.056750138517 -175.230659259607 2352.18791893091 21 22 14
-790.335438400663 -175.807751853462 2373.03588791321 21 22 14
-786.106190275441 -176.016191799997 2386.28968698492 21 22 14
-780.625900828754 -176.040473844299 2395.74570640895 21 22 14
-772.444195072126 -175.654674513325 2396.61416976528 20 21 13
-771.027110533138 -176.311765838637 2419.47867802398 19 20 12
-757.568662754326 -175.110720534365 2403.12660773256 11 14 5
-777.284403385623 -180.014501293786 2525.72241091973 16 19 12
-777.888973175744 -181.055740606324 2557.4234150174 11 13 8
-763.45724761357 -179.715508103793 2538.23555197441 11 13 8
-969.222220935454 -192.179462922813 2346.26970822236 21 24 15
-942.622405665275 -189.200864009015 2299.62761062791 19 22 15
-935.471553788474 -188.957498334251 2303.31095653255 15 18 11
-930.430672661558 -189.01612386339 2312.60447683624 17 20 13
-929.553499767669 -189.676447316703 2333.13920426884 21 24 15
-919.198379712118 -188.978930594726 2328.42127850642 18 21 14
-908.194553885352 -188.183003345695 2321.81311036376 17 20 13
-901.691732386878 -188.038525468139 2327.38665372818 16 19 12
-897.891153410796 -188.292336845279 2340.48127785267 15 18 11
-893.359838596622 -188.444526917569 2351.71596076439 12 15 8
-880.417937168279 -187.353755612783 2339.43436869087 11 14 7
-854.942141473975 -184.383377984164 2291.31669602604 15 18 11
-849.180607887712 -184.341432549324 2298.74627789162 16 19 12
-849.604122200155 -185.236231032054 2324.12426940311 16 19 12
-849.580158296189 -186.077053867311 2348.60210856153 18 21 14
-844.933948917106 -186.225261073707 2359.87858319182 19 22 15
-833.858590299023 -185.390793894746 2352.23275726044 21 22 14
-829.171867421372 -185.537602675204 2363.52431178495 22 23 15
-819.414803919552 -184.901123775894 2359.65104045311 23 24 16
-806.579386873953 -183.778644370639 2346.2663404885 22 23 15
-796.302889803703 -183.048865452698 2340.45572603964 17 18 10
-792.811999104443 -183.389043965539 2355.56467902481 18 19 11
-790.773464742044 -183.968957401806 2375.46088351998 20 21 13
-785.329947530986 -184.013548253713 2384.90175557263 22 23 15
-780.149623693172 -184.105098722197 2395.31026695332 23 24 16
-774.632645538922 -184.146989820912 2404.7780338261 20 21 13
-767.319366520556 -183.89929104176 2408.52046824552 17 18 10
-789.674885988836 -188.542333785781 2509.91071940262 15 16 8
-779.360344226195 -188.837871472383 2533.90217533433 11 14 7
-774.555715401972 -189.054434327877 2547.36441893563 12 14 9
-774.185833325711 -190.029741455521 2576.22452966244 8 10 5
-955.781033285741 -198.37572320877 2312.2870568332 21 24 17
-950.376659711631 -198.399885789085 2320.6486916408 19 22 15
-942.811462830623 -198.103817030958 2323.41975063508 18 21 12
-927.845791986188 -196.693090983165 2306.56457559584 20 23 14
-919.984442489519 -196.346279580486 2308.38051033336 22 23 15
-922.198566514268 -197.533279999137 2337.35208393806 18 21 14
-915.306892591514 -197.342442631733 2342.00385365147 18 21 14
-900.536033380363 -195.939625351301 2325.07704519543 15 18 11
-898.097023078027 -196.433967584916 2341.92554541082 13 16 9
-902.320617691926 -197.974972683226 2377.60694924534 11 14 7
-889.643670183204 -196.890062049833 2366.29520350304 12 15 8
-869.411439842142 -194.605840070691 2333.28649210666 14 17 10
-853.98449047514 -193.059812863654 2313.4092025487 15 18 11
-847.828754196975 -192.976863219532 2319.91855065195 16 19 12
-844.569915579167 -193.360989460029 2334.93987447511 19 22 15
-840.601398495396 -193.638853466284 2348.09395631693 19 22 15
-834.024559284573 -193.500359814001 2353.69394157659 21 22 14
-829.014700978684 -193.619736773059 2364.03816256939 21 22 14
-817.68677320217 -192.706042381572 2355.42327177538 22 23 15
-807.666055656164 -192.000762629794 2350.58443075593 20 21 13
-794.599459267739 -190.783380007896 2336.22433129019 16 17 9
-795.402957713097 -191.87717183933 2364.64916894773 15 16 8
-793.639374182237 -192.556218936405 2385.50454992459 17 18 10
-782.145935908029 -191.597088579511 2375.88666728876 19 20 12
-780.867317217503 -192.373881352376 2398.69208834459 21 22 14
-770.900508525036 -191.671119055895 2393.83321596286 19 20 12
-800.867097801589 -197.875773816643 2519.00619388659 17 18 10
-794.414312131072 -197.82163297759 2526.68810806195 16 17 9
-788.51281355744 -197.867731688066 2536.29526817252 12 15 8
-778.291778280042 -197.155375058555 2531.52974406943 8 11 4
-768.395459609588 -196.495072137833 2527.70861262522 9 11 6
-760.77974212612 -196.238507670388 2531.56185753251 23 25 20
-956.336631389998 -207.444606198433 2337.00030961367 18 21 14
-944.82221229065 -206.531750588079 2329.51967107088 22 23 15
-932.307508376482 -205.453739818798 2319.21526607464 21 22 14
-925.808938037336 -205.325667131385 2324.78602703543 21 22 14
-923.112901653614 -205.808765075394 2340.66195233558 18 21 14
-918.622260715256 -206.011559648812 2351.87803871031 18 21 14
-906.220245078558 -204.9382097253 2341.53233816265 14 17 10
-901.356708241197 -205.08450933362 2351.82136371404 12 15 8
-900.83086298151 -205.946986974734 2374.34680885231 11 14 7
-887.829741513401 -204.766311637978 2362.093517046 12 15 8
-868.608895432145 -202.543770570721 2331.9126008603 13 16 9
-859.441521512788 -201.975544095004 2329.95329018346 15 18 11
-845.728274856141 -200.6410844479 2314.77042045584 18 21 14
-838.916319974505 -200.459337614089 2319.39228504727 21 24 17
-838.201163972042 -201.314796348098 2341.98704347561 20 23 16
-832.276829033877 -201.294001350439 2349.474181352 20 21 13
-823.164446477482 -200.728232945665 2347.49470478244 20 21 13
-813.450608026354 -200.054924457902 2343.60850701766 20 21 13
-803.150758178555 -199.274668315524 2337.80993179182 19 20 12
-799.377443051578 -199.632522381017 2351.95361029176 16 17 9
-804.110805151323 -201.500203149911 2392.75818374606 15 16 8
-788.309319980381 -199.748279075583 2369.83258934103 15 16 8
-791.902149328212 -201.445388054541 2407.86450807255 17 18 10
-777.109411528063 -199.859135968199 2387.759566361 18 19 11
-775.748269518954 -200.690025994225 2410.59088951346 19 20 12
-783.660945395237 -203.228972146863 2464.05589913788 19 20 12
-791.883270078867 -205.864225331661 2519.53450198265 19 20 12
-958.075448319113 -214.945592223565 2319.80295566142 22 24 19
-960.147359805679 -216.235290565484 2347.75189546221 18 20 15
-943.284198973305 -214.411672677052 2326.28401334582 21 22 14
-936.412621982141 -214.232444279082 2330.92760517397 20 21 13
-924.637477442977 -213.234700442057 2322.48154668969 18 20 9
-918.127991719106 -213.114504927673 2328.0556792744 15 18 11
-916.768584405578 -213.867336956856 2347.69233872975 16 19 12
-912.240434481696 -214.093357313212 2358.92030110514 16 19 12
-903.93444304596 -213.679200056279 2359.83606176697 14 17 10
-895.30211442033 -213.207567284824 2359.80817336721 11 14 7
-890.026177534856 -213.314954163163 2369.18341913371 11 14 7
-882.725203802784 -213.074569869395 2372.9208306909 13 16 9
-856.339899159303 -209.491153045792 2321.97994855207 15 18 11
-844.282169632251 -208.393271700237 2311.51100686627 18 21 14
-837.801426544442 -208.274653574501 2317.07457715538 18 21 14
-837.409205915665 -209.24487403598 2340.60989831664 17 20 13
-835.629425854292 -209.981784649741 2360.40024196912 15 18 9
-827.435237737222 -209.572458362573 2361.27501578218 15 18 9
-810.472472590496 -207.566627672461 2335.59059264565 14 17 8
-820.407906963897 -210.463240866513 2391.49359461261 14 17 8
-809.084511312996 -209.483969700879 2382.88225930474 16 19 10
-805.163163168977 -209.868774523025 2397.0774359762 16 19 10
-803.910109838514 -210.760965555997 2419.86486119362 13 16 7
-792.9271286831 -209.839914807529 2412.1917496242 14 17 8
-784.982541305025 -209.485491890609 2414.03850211089 13 16 7
-787.09284557556 -211.046686320022 2448.35285359322 20 23 14
-787.862271883374 -212.376416419437 2478.90538149367 20 23 14
-780.641679528919 -212.184792314878 2483.67646468099 17 20 11
-782.911047891237 -213.841976797065 2520.05914638256 16 19 12
-951.848090317229 -222.005419262395 2304.46674213948 23 25 22
-954.313836347137 -223.431954951206 2333.32907300679 19 21 16
-959.825818670422 -225.405213051162 2370.64285549744 18 20 15
-938.753973926225 -222.775923729127 2337.96549773228 17 18 10
-925.912114935826 -221.561158037246 2326.72346829596 15 16 8
-911.06663174064 -219.983048415987 2309.83725392808 12 15 8
-906.999388526063 -220.299182435882 2321.9575086045 14 17 10
-904.247265281524 -220.856806106914 2337.84818928238 17 20 13
-900.745110081181 -221.290141127354 2351.88765003913 15 18 11
-897.181242164125 -221.721091572095 2365.94945895824 11 14 7
-884.205722388581 -220.453836469969 2353.69339767711 11 14 7
-871.312497743712 -219.189838527954 2341.40718972653 13 16 9
-860.80322203347 -218.351661399491 2335.68933131753 15 18 11
-845.446850224492 -216.611345860063 2315.80080334192 17 20 13
-840.247428183738 -216.741014799932 2325.14682147999 17 20 13
-838.865166582541 -217.59007480381 2345.85082613416 17 20 13
-832.607886544945 -217.535940640358 2352.39514902986 15 18 11
-820.011238364893 -216.283756674745 2340.00029232846 14 17 10
-841.969036194824 -221.608824181839 2431.88382178283 13 16 9
-836.714459921188 -221.784068604324 2442.31299701949 13 16 9
-819.397536618953 -219.634788853476 2415.70126575908 16 19 12
-806.82541859569 -218.383723609131 2403.29741192119 17 20 13
-806.763413663278 -219.569807059966 2429.89638912919 15 18 11
-798.158281773221 -219.091575458818 2429.85911702628 13 16 9
-791.654862159386 -219.028141215311 2436.4933190743 13 16 9
-789.56255701261 -219.849910112486 2457.45762267672 19 22 15
-787.958871314913 -220.785848035791 2480.36889072298 18 21 14
-788.860485097041 -222.247428621681 2511.93025216271 14 17 10
-949.939362051538 -229.749625954024 2300.30946278317 21 26 22
-965.972702794408 -233.692597053197 2364.58424227783 18 20 15
-955.801169589763 -232.943155718887 2360.87008655032 19 20 14
-942.499624020015 -231.619157653362 2348.73676403114 17 18 10
-930.676954719844 -230.554001706847 2340.31331373387 16 17 9
-918.222496086238 -229.363666473455 2329.99524011965 16 19 12
-899.647170606214 -227.029653884872 2302.78837008446 16 19 12
-895.919703630048 -227.436713373413 2315.84486705898 14 17 10
-896.880419790707 -228.730528222606 2342.06386847484 12 15 8
-897.040076086561 -229.892573958027 2366.45075473813 10 13 6
-865.540929056463 -226.199429998578 2325.90941548876 10 13 6
-862.632662088596 -226.78940509066 2341.85438807884 13 16 9
-851.827091863951 -225.864755434425 2335.18389854172 18 21 14
-843.0140743464 -225.319509824813 2334.16065917083 19 22 15
-837.110093274668 -225.340234455768 2341.63726900088 19 22 15
-828.952243161092 -224.921159280912 2342.49982972702 19 22 15
-825.857503503325 -225.503995617823 2358.51309347869 17 20 13
-832.087771681866 -227.958837738198 2402.99596173246 14 17 10
-831.258044255463 -229.032276865606 2426.68245753045 14 17 10
-810.906344749458 -226.176949677854 2390.56032155071 15 18 11
-809.707682125372 -227.185782751805 2413.31918375364 15 18 11
-803.383476272689 -228.447049647498 2447.52081651095 13 16 9
-802.786856317806 -229.630264298456 2473.24744534662 14 17 10
-799.410354637232 -230.25260837858 2490.42691344297 15 18 11
-808.508171918565 -237.746452596786 2638.01783308969 7 9 4
-940.845827627035 -236.131525565874 2277.5328309902 21 26 22
-955.85999375105 -240.056310758247 2338.97936403659 18 20 15
-954.258799473675 -240.894392104084 2357.63063103632 19 20 14
-937.45156936239 -238.859815583788 2336.15834435416 17 18 12
-929.50345015716 -238.496141341817 2338.00707811355 17 18 10
-919.135102881967 -237.666986842333 2333.30363627203 17 20 13
-911.902875798684 -237.437304313851 2337.01551642994 17 20 13
-908.419855925152 -237.936994980122 2351.04276365915 13 16 9
-897.422761229489 -236.977358463481 2344.44450196944 10 13 6
-898.243382473848 -238.334111848827 2370.70991062178 10 13 6
-876.583660007284 -235.26224106193 2334.01281082861 11 14 7
-866.395286747859 -234.440240917779 2329.24369216606 9 12 5
-860.846725695608 -234.541391059039 2337.65190686493 12 15 8
-855.919247544648 -234.77279718578 2347.95774327411 17 20 13
-843.514232678061 -233.493317648779 2336.56212903038 19 22 15
-832.790194812183 -232.544463601578 2329.86358768011 19 22 15
-827.845459709372 -232.775262960681 2340.17599427481 18 21 14
-826.016090278322 -233.657684096503 2359.97337660635 17 20 13
-819.398699936778 -233.558211640179 2365.58515140312 16 19 12
-813.387250041368 -233.588418001051 2373.10034758634 15 18 11
-804.887059644928 -233.097479159148 2373.02590507939 15 18 11
-791.21165166709 -231.503531633529 2356.78230967612 15 18 11
-801.862332360122 -235.099233702306 2416.63916767751 18 21 14
-803.198751440206 -236.741344260632 2448.02867244367 15 18 11
-801.405095645047 -237.731280782458 2469.93833324263 16 19 12
-799.214198701486 -238.652734919364 2490.93093753686 13 16 9
-817.402476176338 -244.079752461527 2578.84334751312 11 14 7
-813.098232566172 -244.600740337962 2594.23417980063 11 14 7
-962.286749415007 -248.311834956272 2333.88802308661 24 29 23
-954.313570225942 -247.944466604756 2335.74614080569 20 22 17
-936.433243322441 -245.629710630197 2311.48496745739 19 20 14
-936.273469614414 -246.79359396346 2333.85466351255 17 18 12
-926.586273039813 -246.08064642119 2331.0283328209 17 18 10
-917.276072455604 -245.438157353032 2329.1262653611 12 15 8
-912.116236402156 -245.626540170274 2338.45321606229 13 16 9
-900.779610012443 -244.570551308486 2330.91903268883 15 18 11
-901.01145615417 -245.861209079333 2355.26998568662 14 17 10
-887.78275175734 -245.67856854345 2366.49009734592 10 13 6
-866.586598733198 -242.565625494423 2330.69422057042 12 15 8
-859.06204634984 -242.271584379736 2333.45035890338 14 17 10
-854.469345665789 -242.593628695339 2344.69452983305 16 19 12
-844.982944679134 -241.888597870507 2341.79464523455 17 20 13
-839.695459029112 -242.072054757006 2351.16834749733 16 19 12
-835.644462598672 -242.526739700053 2364.33905576122 11 14 7
-831.537139287668 -242.979217056103 2377.53014195685 12 15 8
-824.244627934541 -242.750003784811 2381.26363594248 16 19 12
-811.051100602221 -241.231476265585 2366.97263142414 16 19 12
-810.876374561816 -242.56204903851 2392.53485195108 16 19 12
-802.643781403023 -242.128964049544 2393.42562669532 15 18 11
-799.263850713008 -242.777071359807 2409.53758626003 17 20 13
-799.113170324079 -244.164339213874 2436.15360290705 18 21 14
-806.271815927996 -247.230311863689 2486.65289203824 20 23 14
-816.123493855909 -250.958761887029 2546.79004170515 16 19 12
-812.219288415341 -251.586415571061 2563.09403323435 10 13 6
-939.912629522127 -251.981792733165 2276.67596893864 18 21 14
-943.857839484252 -254.006628687367 2309.22209154347 26 29 22
-947.992276593877 -256.097309555552 2342.76104895283 11 14 7
-943.526396252762 -256.44889747804 2353.95665787166 21 24 17
-928.204457491574 -254.56406633345 2336.20014409523 13 14 8
-928.917554982855 -255.994907845832 2361.43221955487 13 16 9
-914.04688738506 -254.186157108811 2344.57255786674 15 18 11
-903.375986436681 -253.243009281987 2338.92108987807 16 19 12
-887.33648007814 -251.154731716027 2318.24046839218 13 16 9
-895.271406839524 -254.153852833282 2364.19627022595 10 13 6
-888.638618887924 -254.069994866271 2369.81246141455 11 14 7
-878.352614378947 -253.200339437054 2365.08241151881 10 13 6
-865.810709493833 -251.833304767165 2353.74288642897 12 15 8
-860.183300367368 -251.96409855039 2362.17751293419 16 19 12
-855.817280392746 -252.378009220985 2374.39894702349 15 18 11
-861.333842523202 -254.990298650469 2415.92932881892 13 16 9
-855.196563973666 -255.042699818162 2423.48856864399 13 14 8
-850.295089813568 -255.377217982005 2434.84398740155 13 14 8
-825.645118090581 -251.257138782434 2386.51275438878 13 14 8
-814.920400783437 -250.253385526977 2379.81885644324 12 15 8
-809.784305662034 -250.520269829955 2390.19806865247 14 17 8
-809.182980371464 -251.841218571387 2414.8494586188 15 18 9
-795.45793265329 -250.135628377711 2398.63232281498 13 19 9
-794.131841223625 -251.311324321156 2421.42464031328 15 21 11
-810.240880586698 -256.617353236368 2500.50187531263 20 26 14
-818.57063357686 -260.157938309363 2555.87313668256 18 24 14
-814.054156735265 -260.682832301816 2570.27423031322 8 14 4
-797.022575920254 -258.204963585064 2543.58361597352 11 17 7
-955.592684930677 -263.29159862068 2318.12380969102 28 31 24
-955.854676887572 -264.648173281989 2341.39227980997 17 20 13
-951.759236625141 -265.100126215618 2353.51253177887 19 22 15
-944.101145627197 -264.800909012751 2356.3175802496 11 14 7
-936.44292791215 -264.501671969622 2359.12267625839 17 18 12
-933.628215894199 -265.248398141258 2375.02182970248 16 19 12
-919.409238505192 -263.530081795237 2360.05192784854 15 18 11
-905.969469259957 -261.964579831474 2346.92049279892 13 16 9
-900.735415038498 -262.18836370801 2356.27173868132 12 15 8
-890.429925854537 -261.296041506749 2351.55022423862 10 13 6
-887.494446689527 -262.037970684255 2367.49361886346 9 12 5
-880.851000482153 -261.961862690829 2373.11309784877 9 12 5
-879.440120856745 -263.069311467558 2393.8082589656 10 13 6
-875.328439837486 -263.581661881828 2406.99666526769 11 14 7
-876.326001067028 -265.272735673471 2435.30567244487 12 15 8
-864.879395925923 -265.620634373496 2453.3046527588 10 11 5
-853.276184172665 -264.432706350194 2444.81047433712 9 10 4
-826.106042099467 -259.576787146908 2388.91747564955 9 10 4
-810.415085934924 -257.372393122331 2367.05241772336 9 12 5
-812.074766835246 -259.272823101361 2398.3049787175 10 13 6
-802.91023589791 -258.608502630902 2396.35188552388 11 14 7
-832.91717880561 -269.020707884654 2545.72530865205 12 18 6
-813.016712905341 -265.795044421814 2510.53397556355 14 20 8
-822.193155513645 -269.702496722588 2568.76959079236 13 21 8
-970.899661528712 -274.769047859964 2358.62825309526 19 22 15
-963.567178397119 -274.546583637857 2362.37576110259 13 16 9
-949.512557353445 -272.846772346464 2348.41130241758 14 17 10
-940.46345366769 -272.237521059749 2347.47841704298 12 15 8
-934.221964376688 -272.249414299134 2354.01202069445 15 16 10
-927.959741382009 -272.260455627804 2360.55296765187 15 18 11
-916.871506042855 -271.18787903615 2353.99634228969 13 16 9
-909.241360912203 -270.88970003118 2356.79115864365 11 14 7
-887.748834235413 -267.428684363682 2321.12922818121 12 15 8
-882.908384023484 -267.750909819367 2331.3968459137 11 14 7
-885.352121677324 -269.764180241187 2362.35601565287 9 12 5
-884.337822980199 -271.003003073279 2383.96372788024 9 12 5
-872.07471462888 -269.628641001051 2373.59026894653 10 13 6
-880.700326380675 -273.161979018467 2423.52129072177 11 14 7
-875.193510304341 -273.394081383131 2432.97101358626 12 15 8
-843.400850018052 -267.356815070666 2364.98043557983 9 12 5
-852.958321439726 -271.182201835458 2418.81757575742 11 12 6
-843.969449745094 -270.574945998211 2417.86290958387 11 12 6
-823.754360296511 -267.227528653723 2382.79482326552 11 12 6
-810.871669167846 -265.63699503438 2369.46286949378 10 13 6
-793.467450494145 -262.910819040021 2341.85982742553 11 14 7
-842.601621096295 -280.108405229297 2577.63545772882 10 16 6
-842.222919927082 -281.755234683759 2605.3812947887 13 19 9
-799.32861126491 -274.260569583074 2524.46815429419 10 17 9
-954.543634593398 -280.783522526977 2339.58463660665 23 26 19
-938.433409450312 -278.554215839928 2320.00716132607 10 13 6
-936.82869477153 -279.624943179747 2338.64215390809 17 20 13
-933.743646123442 -280.371136638697 2353.57301475885 14 15 9
-927.480808246052 -280.393126367419 2360.11335905199 11 14 7
-915.364951505624 -279.053061377813 2350.75036654587 11 14 7
-895.143541917199 -275.79627503085 2318.877915641 13 16 9
-889.98179084472 -276.061170888196 2328.19978910946 14 17 10
-892.497750920669 -278.159337503529 2359.12631217704 13 16 9
-882.878573297319 -277.383335556404 2356.28002520152 11 14 7
-875.601970637627 -277.165485688051 2360.00688157448 10 13 6
-877.495124164499 -279.172539379842 2390.10001202864 10 13 6
-879.564510701509 -281.253095041044 2421.19012080834 10 13 6
-859.870393260158 -278.016655529502 2389.12454966305 13 16 9
-860.524207478385 -279.77516176822 2416.48680891542 12 15 8
-842.001100490994 -276.784405771188 2387.17715149961 12 13 7
-836.875529661127 -277.11702864261 2397.54732545327 12 13 7
-822.653795376852 -275.160928332926 2380.46299968256 12 13 7
-815.35336475851 -274.941845750599 2384.19860665798 11 14 7
-804.055619620181 -273.699899345924 2375.5975165166 12 15 8
-801.347385347808 -274.660151721509 2393.57523848408 12 15 8
-834.191540780351 -284.875885128908 2523.79989230391 13 16 9
-844.789992430646 -289.422503365793 2585.7373457147 13 16 9
-854.476879385856 -293.800099087901 2645.88539105104 19 24 17
-955.13345057538 -289.138497983256 2341.93986108763 23 26 19
-944.67051793854 -288.174673789955 2337.28094670355 17 20 13
-935.30050578482 -287.461726112182 2335.40618155301 14 17 10
-931.524956672459 -288.077731236031 2348.46438329147 13 14 8
-934.257148271167 -290.266585906014 2379.30549876782 11 14 7
-922.775347401573 -289.054564724264 2371.83583562256 13 16 9
-899.437633653465 -284.950200321791 2331.55983711509 16 19 12
-886.469791217623 -283.333004011542 2319.3273899911 15 18 11
-890.009747223705 -285.761428295288 2353.05686143074 11 14 7
-892.049637413438 -287.853593727092 2383.09025512796 10 13 6
-875.126162016222 -285.248870963803 2359.56985638808 10 13 6
-855.399155173092 -281.909967470917 2327.52396626861 9 12 5
-891.305871737373 -294.277584237461 2482.07264341593 14 17 10
-848.847774804085 -285.122905760419 2382.99353391607 15 18 11
-838.599095461968 -285.83186827668 2403.72994297582 11 14 5
-833.101463099326 -286.102282700906 2413.17343834616 10 13 6
-821.377649483861 -284.741374620447 2403.66957449426 10 13 6
-828.138652518473 -288.266668165324 2451.07901689681 10 13 6
-814.873086616769 -286.498415141129 2436.83277457897 11 14 7
-810.151515614462 -287.007145288112 2449.17623942825 13 15 10
-827.851062220035 -295.469667642056 2561.56976359572 17 19 14
-957.144645663761 -297.853823910919 2348.01793539663 18 21 14
-949.842429011687 -297.640915168237 2351.75372547913 20 23 16
-931.670417449439 -294.767003373049 2326.57416508354 11 14 7
-928.264225622676 -295.499709813928 2340.55617069109 15 16 10
-928.594890623167 -297.171871660762 2364.84243399465 14 17 10
-918.524474986716 -296.273467859997 2361.10277791316 15 18 11
-896.243049081448 -292.30096808095 2323.63296398523 18 21 14
-894.102280024901 -293.3714092606 2341.39593630247 15 18 11
-897.24029754864 -295.802252963443 2374.20470830086 10 13 6
-886.24954290579 -294.651241221275 2367.61858259824 9 12 5
-880.588940731317 -294.862614601669 2376.05918952506 9 12 5
-876.207010152063 -295.412436573808 2388.27614980981 8 11 4
-855.045511181747 -293.286293320118 2376.92579989255 14 17 10
-834.704085538767 -291.336264851748 2367.39781948166 12 15 6
-854.158770478325 -298.299433521085 2451.5342679936 12 15 6
-845.721619994647 -297.82479319229 2452.5022472075 11 14 7
-839.15132919684 -297.855841110966 2459.15361723796 11 14 7
-830.10652693281 -297.213076433598 2458.2219519394 11 14 7
-826.254563930999 -297.999434925012 2473.42843106008 11 14 7
-802.124897760745 -293.160433674428 2424.96264962225 25 27 22
-806.687021551677 -296.295171563339 2466.80039513928 26 28 23
-820.824574454649 -302.184384366252 2540.15035132222 11 13 8
-962.530304386511 -305.840228100312 2340.12524658006 29 32 25
-942.803040415956 -302.524209719728 2311.27764618393 18 21 14
-935.600904700828 -302.318007506998 2314.97656708516 18 21 14
-922.788618717608 -300.694597680989 2303.75487982247 11 14 7
-919.789923196799 -301.550949883582 2318.64605368602 17 18 12
-921.556700981611 -303.641646998857 2346.64542338325 15 18 11
-917.703061575568 -304.314710396731 2359.72769312014 15 18 11
-904.272017541478 -302.517082220094 2346.61060216709 16 19 12
-895.990298417976 -302.043672876515 2347.52226875615 15 18 11
-896.091186326128 -303.769506967921 2371.88796904995 11 14 7
-885.771844538943 -302.76707726462 2367.17979556509 10 13 6
-886.375723532596 -304.662166163527 2393.48333654259 12 15 8
-885.215312560866 -306.113874982821 2415.1280742588 11 14 7
-864.150548794861 -302.220624753362 2379.3433342544 9 12 5
-841.686419131471 -297.898292252162 2338.7663758831 11 14 7
-837.669281825688 -298.564346857506 2351.90883367689 18 21 14
-852.293635540318 -304.376045249571 2420.82103186924 17 20 13
-832.295208509728 -300.673965734099 2386.76779432765 13 16 9
-842.42786673221 -305.336665438782 2443.53243965358 12 15 8
-859.998271736402 -312.161636149866 2524.09746583078 12 15 8
-849.857043647442 -311.240321473961 2520.38526723473 11 14 7
-808.432928805127 -301.385085628711 2418.85021890786 17 18 12
-806.769522235564 -302.816381054836 2440.6792540376 19 20 14
-799.922000293705 -302.772265146944 2446.37046754726 26 27 21
-936.290216471832 -308.994302164132 2295.02309333878 14 17 10
-927.368120628921 -308.335657377201 2294.04804236889 19 22 15
-932.822415973362 -311.420539483067 2331.29891089896 13 16 9
-916.189070978412 -308.753086981551 2309.81119672729 13 14 8
-916.939662698529 -310.645124895817 2334.99485112052 15 18 11
-911.060581367529 -310.803528332133 2342.45228015921 17 20 13
-908.894332796873 -311.960591936289 2360.21822864579 17 20 13
-906.983155733875 -313.205132906388 2378.95145600506 16 19 12
-891.595340758643 -310.818752492563 2360.18990968173 12 15 8
-879.647402897448 -309.342762891658 2350.77616166966 11 14 7
-878.313428184945 -310.764833513321 2371.41964162289 12 15 8
-878.517057588949 -312.63491840414 2396.80368435711 11 14 7
-867.241564603254 -311.340173232781 2389.26530346696 9 12 5
-845.818609614804 -309.027331623944 2376.95748079153 17 20 13
-842.941086847284 -310.0782227436 2393.92306224616 19 22 15
-817.051506044984 -304.564695205842 2341.8811387173 13 16 9
-831.658386502425 -310.644477751349 2411.84601446015 12 15 8
-823.031508178136 -310.073580322212 2411.82363543817 12 15 8
-800.962657741971 -307.501748972346 2396.57036331237 17 18 10
-799.957833423915 -309.168517355599 2420.27545644168 27 28 20
-788.084670999478 -307.61682098694 2409.77369566437 25 26 18
-939.943057175198 -319.785893351679 2328.08053523067 10 13 6
-937.246743676867 -320.805691623116 2343.91606632021 11 14 7
-925.445601699397 -319.380766278772 2335.51193951373 25 26 20
-918.188968991105 -319.177752966791 2339.23042061152 14 17 10
-914.692184841329 -320.005303517564 2353.23793136736 16 19 12
-907.397006381972 -319.800618815004 2356.97079799842 16 19 12
-905.153770959894 -320.998343781438 2374.76165073462 15 18 11
-896.806007753002 -320.511292773468 2375.69808859954 12 15 8
-880.168537330897 -317.691700654878 2353.1567962901 11 14 7
-875.858956332045 -318.326349350241 2365.34106894351 10 13 6
-868.058970095994 -319.868393519945 2392.59132076997 8 11 4
-846.858131427623 -315.665018200109 2355.81286508369 8 11 4
-828.84881169135 -314.23668265208 2352.8643284193 19 21 16
-832.597166865014 -317.274462228972 2389.67202680267 19 21 16
-827.751651493485 -317.807169506799 2400.9921599457 13 16 9
-813.284738058329 -315.473299553073 2382.95860974828 11 14 7
-805.057640780696 -314.9899582178 2383.85117955408 16 17 9
-948.128229586082 -328.441585142812 2327.65339195392 32 35 28
-945.81053930649 -329.597687028119 2344.40762692121 19 22 15
-938.168290527224 -329.299507687155 2347.2068410106 12 15 8
-932.609476100464 -329.581099367368 2355.60516654324 11 12 6
-923.917524313986 -328.992454434082 2355.60777023141 14 17 10
-917.293653924466 -328.982995393208 2361.21510781703 14 17 10
-907.258841429053 -328.009362102437 2357.46819196251 16 19 12
-894.564181528475 -326.267098271483 2346.21273445108 15 18 11
-897.998355508592 -329.142616615007 2379.94690651257 13 16 9
-893.962470661846 -329.898451121242 2393.0891476499 12 15 8
-871.346467170883 -327.186133674661 2378.04502237203 10 13 6
-873.413064784662 -329.758547578594 2409.09903298242 8 11 4
-844.546643546862 -325.139901562241 2375.1373584628 10 13 6
-842.932769705079 -326.654327204053 2395.87531364216 17 19 14
-824.471110005565 -325.100020149668 2392.03407758768 14 17 10
-812.809491168782 -323.563151410236 2382.5208925497 12 15 8
-811.930582984481 -325.355085965419 2406.17104593661 17 18 10
-807.295968253951 -326.003271890076 2418.47239414564 18 20 9
-795.987926730431 -324.562982002335 2409.8900104002 27 29 15
-955.457715902696 -338.710814638403 2347.68150191638 19 22 15
-948.502158275905 -338.61123875884 2352.34934284833 17 20 13
-942.934893171113 -338.90907047941 2360.74951349268 13 16 9
-937.683754011296 -339.304942880768 2370.0939826208 17 18 12
-932.052050728307 -339.600003164436 2378.51777518457 15 18 11
-925.021645223294 -339.497076612848 2383.21331828036 16 19 12
-898.975052729375 -333.845502427933 2335.50508378526 17 20 13
-894.425657347753 -334.439954966797 2346.7129666368 17 20 13
-904.53709111298 -339.382850917782 2399.1977030959 15 18 11
-894.475348401364 -338.38868425052 2395.46212127632 14 17 10
-881.487622525049 -336.507767062064 2383.25679671436 12 15 8
-871.194637337764 -335.418534665203 2378.54585059404 12 15 8
-871.634040123278 -337.580290455535 2404.88877720672 10 13 6
-880.623274591487 -342.392883873428 2456.72452611078 9 12 5
-866.070364689695 -340.021296185506 2439.7918780652 9 12 5
-848.462811630489 -336.672133285574 2413.37627660961 12 14 9
-801.592155055566 -326.171584944194 2323.46836604182 15 17 12
-827.454115726561 -336.448097228086 2428.4928309524 13 16 9
-819.407999504212 -336.046401040588 2430.38003952483 17 18 10
-791.947895725326 -329.394317781919 2371.52799524297 17 19 8
-956.041788744394 -347.15407579586 2350.03189749351 18 20 15
-948.374221299188 -346.855137726594 2352.84036805234 13 16 9
-947.347089988067 -348.497922085388 2373.35570707059 14 17 10
-931.997920100571 -345.950580452468 2355.6590748593 17 18 10
-931.569347466962 -347.793578386509 2378.07494107237 14 17 10
-919.753508332032 -346.26947685598 2369.6833829915 15 18 11
-901.554010813577 -342.81345620019 2343.49117408169 18 21 14
-905.059974657436 -345.872371222118 2377.1854246174 18 21 14
-903.050963407474 -347.298920269972 2395.94046601079 14 17 10
-894.324241933151 -346.69192931601 2395.95708706886 13 16 9
-889.231566671098 -347.200842773146 2406.30226172641 10 13 6
-877.570158565175 -345.682009910636 2397.85419552372 13 16 9
-871.475421351112 -345.885832434825 2405.38629919559 9 12 5
-867.603992198243 -346.796233937702 2419.52393561926 7 10 3
-858.890916513993 -346.189143543324 2419.53560615227 8 11 4
