ply
format ascii 1.0
comment KinectMotionCapture
element vertex 751
property float x
property float y
property float z
property uchar red
property uchar green
property uchar blue
end_header
-985.80295015324 328.60494579649 2236.66674474671 176 180 181
-966.66947865741 325.633993219399 2253.45739229577 178 182 183
-950.223445426694 323.024617711968 2268.95405600415 180 184 185
-936.476206186249 320.776884249686 2283.178649147 179 183 184
-927.279811154833 319.132570508913 2295.38003437369 178 182 183
-915.282343624942 317.125448489569 2308.66503064237 181 185 186
-904.162879724811 315.238638830392 2321.48621674773 183 185 184
-894.849582300124 313.593060462372 2333.47171262857 183 185 184
-893.827708157764 313.034854627013 2341.99893627407 185 187 186
-886.30549316526 311.630362972205 2353.12146039276 185 187 186
-877.823676882478 310.104646378141 2364.55744727757 185 187 186
-868.378394923485 308.457644055411 2376.29977133797 185 187 186
-864.479369926447 307.535779312342 2385.77143675218 185 186 188
-861.490974891934 306.734676420675 2394.83892870131 185 186 188
-861.283363572638 306.296275044627 2402.7849584894 186 187 189
-856.392431945513 305.252881916129 2412.51058001087 186 187 189
-856.156380147898 304.814234195938 2420.40422849638 184 185 187
-852.161277122503 303.891459901106 2429.69841114489 180 184 187
-850.959655158705 303.331521663105 2437.89502906929 181 185 188
-848.80488614554 302.650427957088 2446.41700117631 180 184 187
-851.338695725741 302.574506796719 2453.16910686352 176 180 181
-853.86927295437 302.498591461904 2459.91526941911 174 178 179
-856.396437502361 302.422659453006 2466.65565466292 173 177 178
-857.975851025095 302.225663970489 2473.73084178157 170 174 173
-857.657186065028 301.786361170664 2481.47235261233 167 171 170
-859.222210142716 301.589244153671 2488.52154261569 169 174 170
-860.781372224311 301.392101648332 2495.55994367525 174 179 175
-866.134870838283 301.679670277182 2501.26237822166 183 187 186
-867.687626976137 301.482525350489 2508.28899685533 183 187 188
-869.234758779699 301.285374424764 2515.30476526541 174 178 179
-866.960412304501 300.603240862588 2523.60649992514 168 172 173
-870.400921588134 300.648435406509 2529.94781433975 162 166 167
-876.71017639469 301.057460165227 2535.32978380872 150 154 155
-882.068594177723 301.345314453274 2541.04185575112 147 151 152
-886.472825664447 301.511999091932 2547.07686200303 151 155 156
-888.957992891857 301.436072924279 2553.74000827871 152 156 157
-892.401691303843 301.481486403522 2560.08725391993 162 166 167
-894.881899891031 301.405580629156 2566.74078224145 168 172 173
-899.287142619273 301.572386213923 2572.77818896582 170 174 175
-907.556490817043 302.224803911597 2577.60821790825 166 169 174
-924.538949713351 303.970023650906 2579.75767162055 159 162 167
-942.525147856798 305.83718046496 2581.6745502219 186 190 193
-950.855501554039 306.490466759823 2586.61754484306 182 186 187
-953.374373393607 306.415239278297 2593.34238590745 187 191 192
-950.058276358677 305.611161053482 2601.80627942254 181 185 184
-1018.51192572711 325.740421687254 2205.02016238741 170 174 175
-1010.45979952566 324.254876214745 2217.25850793345 174 178 179
-992.304924568387 321.470669647329 2233.78982777239 176 180 181
-972.25391354179 318.449626130277 2250.99268883148 178 182 183
-952.134825502279 315.427808880222 2268.07011118181 180 184 185
-939.301323242852 313.349834735148 2281.91148405521 179 183 184
-927.341233525485 311.389453789952 2295.27928096525 179 183 184
-909.805541017296 308.719885015459 2310.86906486783 181 185 186
-899.594614362929 306.994679493271 2323.29451076332 183 185 184
-889.344001574498 305.269014272336 2335.64733263001 183 185 184
-892.939662101425 305.315376842852 2342.27434970099 185 187 186
-884.483650720611 303.825465056727 2353.76856376846 185 187 186
-878.778283115979 302.689771185797 2364.08333163652 185 187 186
-869.328045966565 301.080969774379 2375.82803002417 185 187 186
-867.288029285286 300.417576869048 2384.56637558482 185 186 188
-861.503129796041 299.281068879206 2394.73462500301 185 186 188
-859.425645132636 298.617333209031 2403.40395704096 187 188 190
-854.527617397074 297.598606349104 2413.12394519684 187 188 190
-857.094507457643 297.526029853012 2419.9378977265 185 186 188
-854.033864254541 296.743580662995 2428.87812169375 180 184 187
-850.954466690046 295.960952461901 2437.7837991408 182 186 189
-846.916206849107 295.059772611213 2447.00560669402 181 185 188
-846.621855406046 294.63185323656 2454.79525775033 176 180 181
-851.029446580523 294.795778556458 2460.83561329443 175 179 180
-853.550986455169 294.722948199021 2467.56658647157 175 179 180
-857.014661182336 294.768558933451 2473.95063151506 168 172 171
-856.69191327812 294.340493450954 2481.68801236756 164 168 167
-858.25354919921 294.149226490092 2488.7327301697 172 177 173
-858.860399316341 293.839465695553 2496.10058859616 179 184 180
-863.26034494532 294.003617573665 2502.12695071988 182 187 183
-865.758708757027 293.930784519997 2508.81529808364 182 186 187
-868.25401911956 293.857990853655 2515.49753719863 172 176 177
-870.746110393702 293.785210556888 2522.17385984404 164 168 169
-875.145853342475 293.949513242194 2528.20039879685 157 161 162
-881.461214399552 294.351039977707 2533.59134395831 146 150 151
-884.909406696885 294.396931670152 2539.94699848238 145 149 150
-888.356895835991 294.442866691957 2546.3013728004 156 160 161
-890.843163900085 294.370201704317 2552.96702017741 165 169 170
-895.249985462842 294.534810264539 2559.00666997419 174 178 179
-897.732335084768 294.4621724768 2565.66511880168 176 180 181
-903.104900669201 294.745523538887 2571.40185691299 172 176 177
-913.311490669388 295.622478669318 2575.63224684223 161 164 169
-932.239313250749 297.568019372739 2577.19022100095 167 170 175
-946.366014020207 298.920552898618 2580.31372399106 191 195 198
-951.792737864919 299.204755689508 2586.15032514394 187 191 192
-952.369103712236 298.895252318331 2593.46219485645 190 194 195
-944.186618574836 297.516676595433 2603.37765110034 176 180 179
-1026.8413169493 318.703813539899 2201.30397013437 173 177 178
-1010.56580818485 316.216049352329 2217.15083051341 177 181 182
-995.148038112008 313.84292555015 2232.49540837617 174 178 179
-972.339556330146 310.546429274409 2250.88884593152 178 182 183
-952.210255351736 307.595177124381 2267.96820100652 178 182 183
-933.851696757604 304.873850957569 2284.14432324066 178 182 183
-919.113918967208 302.61341719837 2298.6581155568 180 184 185
-907.090178460984 300.698633363918 2311.92255908808 181 185 186
-896.868543501797 299.014195189877 2324.34107431123 186 188 187
-890.306645972578 297.791150250723 2335.16905855957 186 188 187
-889.27202362335 297.260593831465 2343.68115069644 187 189 188
-881.732199236506 295.921554774893 2354.79097091671 188 190 189
-876.018112885365 294.813174226621 2365.0979171175 188 190 189
-870.277479885995 293.704544034704 2375.35596412208 188 190 189
-865.441527607993 292.711159419059 2385.19774130601 188 189 191
-862.446817356769 291.948647478112 2394.26522353937 187 188 190
-857.565650306025 290.954827848572 2404.0237116999 188 189 191
-856.401215251462 290.423117077609 2412.29670748088 188 189 191
-856.15940143717 290.006863632178 2420.18699724585 183 184 186
-855.906886883153 289.590558509872 2428.0570866164 182 186 189
-850.948336930483 288.596026099485 2437.67253492829 176 180 183
-845.965652233273 287.60121179075 2447.24401451864 175 179 182
-842.842359314958 286.83750105676 2456.07464929611 177 181 182
-848.186385319906 287.11475112261 2461.75706322152 175 179 180
-850.70253818301 287.045041905947 2468.47856305221 173 177 178
-856.997436382412 287.438222434308 2473.82936340821 166 170 169
-857.618655970789 287.137141521314 2481.22626013521 165 169 168
-861.075772890583 287.183265051909 2487.59839838476 177 182 178
-862.633432637875 286.997881768513 2494.63757262557 182 187 183
-864.185466148649 286.812507235601 2501.66589757975 182 187 183
-864.779556250324 286.511280529769 2509.01285439454 180 184 185
-867.271838399883 286.44165636405 2515.69047721025 169 173 174
-869.760679915769 286.372011498341 2522.3622700928 159 163 164
-875.114107736204 286.649973681241 2528.0616855747 151 155 156
-879.5147651997 286.81215267819 2534.08926784852 146 150 151
-882.958981988127 286.858514056055 2540.43775193172 148 152 153
-888.322068818786 287.136753752643 2546.15501554761 162 166 167
-892.728507643389 287.299141929846 2552.19329370286 171 175 176
-898.099328900204 287.577569747346 2557.92483890966 174 178 179
-898.656528945494 287.276265671589 2565.20392492237 175 179 180
-904.029719410722 287.554771517239 2570.94035524384 170 174 175
-914.238671973919 288.413407747168 2575.16958147451 161 164 169
-931.237140090309 290.084388550967 2577.326153835 174 177 182
-939.552094898041 290.711588476857 2582.23298236744 191 195 198
-947.879533431827 291.339005421208 2587.16233176476 191 195 196
-946.505523420072 290.805912436111 2595.04996959642 186 190 191
-914.966270522499 286.674041794064 2611.93931702958 177 181 180
-1031.52268244043 311.173973649053 2199.18926580072 173 177 180
-1020.73275833976 309.421651977529 2212.65697903554 176 180 183
-982.420335207816 304.29003175733 2237.93809207607 180 184 185
-966.920623023495 301.973085707783 2253.1488573087 178 182 183
-944.935783284246 298.866933782521 2270.99905969969 180 184 185
-931.156761407072 296.774018259746 2285.21175582486 180 184 185
-913.643086452329 294.229780240469 2300.87972363972 180 184 185
-900.68180889736 292.248425335028 2314.51464567641 182 186 185
-892.29217602507 290.830188239759 2326.15249601734 184 188 189
-885.718375617835 289.637083195974 2336.96809651059 184 188 189
-884.674132149944 289.120305433112 2345.46663719181 185 189 190
-878.049913586993 287.926710799452 2356.18936228011 185 189 190
-873.254906538957 286.958463012172 2366.11350013656 186 190 191
-866.575082553834 285.764309632405 2376.733788695 186 190 191
-862.661173116272 284.908389760718 2386.19740569035 185 189 190
-861.524387052918 284.390803553751 2394.52600480434 184 188 189
-857.571757824184 283.534533396719 2403.91830371049 184 188 189
-855.468589228445 282.90381789481 2412.55032818294 182 186 187
-851.47584815877 282.047173489772 2421.86874156064 179 183 184
-853.0900583633 281.867825908549 2429.01373745999 181 185 186
-850.001753824896 281.123794725864 2437.91464030223 180 184 185
-848.775884717218 280.605494860896 2446.07918485409 178 182 183
-845.652657506553 279.861143836921 2454.91576235584 175 179 180
-849.113482350261 279.907547876307 2461.29480450802 173 177 178
-851.629199708701 279.84099471782 2468.01645246001 173 177 178
-855.087493404449 279.887486793562 2474.39086584431 172 176 177
-856.650763171638 279.707946232583 2481.4421149646 172 176 177
-861.053823879153 279.86759276317 2487.47285143166 182 186 187
-861.659711615844 279.575007927284 2494.84410504066 187 191 190
-863.20813399807 279.395460443075 2501.86804503276 178 182 183
-863.798516740182 279.102779606191 2509.21075326209 177 181 182
-868.195093722306 279.262585283057 2515.22961283544 156 160 161
-872.593431551508 279.42243958543 2521.25222979412 155 159 160
-877.949809919547 279.695530656363 2526.95611126784 153 157 158
-882.353514816325 279.855591092627 2532.98815698655 153 157 160
-885.800206532305 279.902521126186 2539.34136391932 162 166 169
-889.24625384946 279.949480416645 2545.6933944834 175 179 182
-892.69165581668 279.996476338761 2552.04424914728 174 178 181
-896.136396317445 280.043523472788 2558.39390265434 170 174 177
-897.652480018539 279.864041449602 2565.35838560504 172 176 179
-904.954251859345 280.364252441111 2570.47839708155 168 171 176
-915.165537605849 281.204576806768 2574.70640769497 165 168 173
-930.233024971475 282.61174536927 2577.46232351444 182 185 190
-936.608966711582 282.999317351682 2582.96049109957 189 193 196
-947.843904403435 283.953798237345 2586.9912183922 190 194 195
-945.495379260369 283.321388998274 2595.17097388186 189 193 192
-1023.4135710278 302.084289301728 2202.69168121739 179 183 186
-999.79413919836 298.836578464405 2221.72310399046 177 181 184
-987.092711884077 296.90711772514 2235.85154364399 178 182 183
-966.08500103573 293.987625970935 2253.44019748391 179 183 184
-948.682440956605 291.507175228351 2269.33170798962 181 185 186
-932.139814712889 289.136030600693 2284.72286487607 182 186 187
-916.461271750765 286.874236000684 2299.62080869234 181 185 186
-909.033207126054 285.601931561782 2310.95624399528 182 186 185
-897.876856098019 283.889208440882 2323.76193947048 184 188 189
-886.678468644975 282.176021679202 2336.49018287415 184 188 189
-877.291588243965 280.682525507185 2348.38608060035 185 189 190
-873.436160308267 279.849127915045 2357.9640286611 185 189 190
-871.417968425896 279.235732793432 2366.75754939892 186 190 191
-866.591716310587 278.291869207112 2376.63205897467 186 190 191
-858.013817100354 276.907249670195 2387.93376273053 186 190 191
-855.934296138215 276.293301505807 2396.61432180441 185 189 190
-854.773287793048 275.789440148492 2404.90199483846 184 188 189
-854.53428918726 275.395622221055 2412.80420912154 183 187 188
-850.536079402781 274.560960156708 2422.11917509296 180 184 185
-849.331866154711 274.056754193858 2430.32728280817 180 184 185
-848.11384719879 273.55242626161 2438.51046687635 176 180 181
-848.764412293549 273.268527682576 2445.96650242925 175 179 180
-848.464317461843 272.874323866114 2453.75572933173 174 178 179
-850.984098641646 272.810921255257 2460.48579882824 173 177 178
-850.665698776064 272.416600979944 2468.24182866046 173 177 178
-851.282700962902 272.132546473431 2475.63608901961 172 176 177
-854.733804816914 272.179484730375 2481.99741315108 175 179 180
-861.030634777834 272.557576333261 2487.34722880816 184 188 189
-865.434597688002 272.715084256709 2493.3789814657 186 190 191
-866.034823097857 272.431081098629 2500.7424017167 173 177 178
-864.721254439852 271.926176699648 2508.74967911719 169 173 174
-868.163973605041 271.973332713062 2515.09564776217 153 157 158
-871.606046469182 272.020532732894 2521.44044097542 151 155 156
-876.004213594389 272.178274469399 2527.46160444094 150 154 155
-879.446297767098 272.225607573415 2533.80645847395 160 164 167
-882.887737540984 272.27296993433 2540.15013613828 170 174 177
-887.288870822591 272.430907598729 2546.17731806955 174 178 181
-889.768661117978 272.367848630421 2552.83394038363 171 175 178
-893.208146823313 272.415350216079 2559.17406602769 172 175 180
-896.646958750122 272.462888094867 2565.51296338439 173 176 181
-906.844203992692 273.284600325576 2569.71005813255 170 173 178
-916.092086614065 273.995993222875 2574.24272597208 176 179 186
-928.259117054439 275.039500520359 2577.89971449708 189 192 199
-932.693375914181 275.198211222659 2583.98754862714 193 197 200
-945.86609328635 276.352968965409 2587.41233049172 191 195 198
-945.455272556183 275.958537874571 2594.99834818972 184 188 187
-1004.32829937505 291.762711116321 2211.01508145238 184 188 191
-1000.80866100648 290.954589540448 2221.21871298896 177 181 184
-990.851021225541 289.395750812682 2234.16002962338 177 181 182
-983.607768721096 288.158227141784 2245.84582740502 178 182 183
-954.269452968566 284.346110493063 2266.87925608918 181 185 186
-931.281371734837 281.283822859864 2285.01280904107 181 185 186
-915.592812894674 279.079047740394 2299.90947880139 181 185 186
-907.234749573005 277.732166848806 2311.62684962393 184 188 187
-896.06886003248 276.062937586063 2324.4280815635 184 188 189
-881.157758289413 273.963879157825 2338.67162853908 185 189 190
-872.683871135406 272.61577413981 2350.17561010929 185 189 190
-868.817778710828 271.804245314312 2359.74052063441 186 190 191
-867.719239728121 271.314738511064 2368.14790717159 186 190 191
-861.952350038047 270.28805447703 2378.3823062878 187 191 192
-854.294535235144 269.046260818607 2389.30386014674 186 190 191
-850.339045378683 268.233931457383 2398.70461601174 185 189 190
-851.036802810561 267.958756469743 2406.25007024054 185 189 190
-849.853923425641 267.468616529353 2414.50164476892 183 187 188
-848.657295190049 266.978355296623 2422.72840042459 180 184 185
-847.447348882281 266.488025991901 2430.9301370042 181 185 186
-848.103845863903 266.212662502857 2438.39964906069 176 180 181
-848.751944998301 265.937287644973 2445.85371252714 176 180 181
-850.334264080723 265.769437127097 2452.94351225328 176 180 181
-850.023017044836 265.386423377394 2460.71559331098 174 178 179
-851.591161569708 265.218537017918 2467.77931266476 171 175 176
-849.367577937601 264.620195605565 2476.19910327721 176 180 181
-854.710243432417 264.882827181288 2481.87461888616 183 187 188
-860.057670486811 265.145613363985 2487.55843412037 184 188 189
-865.409440634358 265.408515852087 2493.25077631372 179 183 184
-865.055585591165 265.02538618724 2500.94445862439 163 167 168
-865.643683072316 264.749872942187 2508.28812650187 156 160 161
-869.086310084391 264.797522725903 2514.6340741477 148 152 153
-872.528317321782 264.845231604081 2520.97889968591 147 151 152
-876.926708167945 265.000797109726 2526.9998201762 154 158 159
-881.326831432597 265.15641090235 2533.02444566465 175 179 182
-883.810072432449 265.096509952823 2539.6883641363 178 182 185
-886.289814039226 265.036602375766 2546.34634883743 171 175 178
-886.842386036285 264.761028010162 2553.62466049644 173 177 180
-891.240130476619 264.916859103511 2559.64447199649 176 179 184
-897.568924025625 265.288521359968 2565.05114107501 171 174 179
-910.666341987287 266.415607878294 2568.32911227879 170 173 178
-920.887259821579 267.219343602074 2572.56433931902 171 174 181
-930.157072024458 267.915457315727 2577.13274487965 177 180 187
-935.562419181695 268.179965377788 2582.92410778609 187 191 194
-947.77004807008 269.200411172558 2586.64832492666 187 191 194
-950.276445796284 269.1413251583 2593.35507790572 183 187 186
-1023.63464547064 285.949102425737 2202.47568263907 189 193 196
-1000.90728357314 282.968507386864 2221.11331265305 177 181 184
-1000.11359786451 282.495757746226 2230.08591489816 176 180 181
-984.612465635617 280.350211036623 2245.3456118316 177 181 182
-957.100961645258 276.844761105951 2265.60099855776 180 184 185
-927.658626874411 273.129086763134 2286.47211956383 180 184 185
-911.956202935683 270.981263129297 2301.36041540278 181 185 186
-907.281179120576 270.088192273527 2311.52833583014 183 187 186
-894.258557197127 268.253228408014 2325.09496153446 185 189 190
-880.26281021325 266.313137220842 2338.95451397895 185 189 190
-868.071744400079 264.58177924995 2351.96688007959 186 190 191
-866.9812477871 264.106174694573 2360.39273445726 186 190 191
-867.737164333826 263.839905593687 2368.04783208451 187 191 192
-861.965392805701 262.840587958434 2378.28148226833 187 191 192
-854.301775551908 261.631547076839 2389.2027180624 186 190 191
-851.276218799233 260.945948417174 2398.23659741625 184 188 189
-852.907981191541 260.784048969314 2405.41912201129 184 188 189
-851.724587295304 260.307833057539 2413.67393751072 183 187 188
-849.589667814717 259.726713712958 2422.2624809385 179 183 184
-849.316938233089 259.355112193798 2430.1088345128 180 184 185
-849.973556255987 259.088303232009 2437.58114171427 178 182 183
-850.62185035647 258.821461623426 2445.03812988816 178 182 183
-851.261747560841 258.554601271242 2452.47966900353 175 179 180
-851.893232703693 258.287729380954 2459.90573333528 171 175 176
-852.516338969175 258.020809417296 2467.31637292819 168 172 173
-852.184236068994 257.648944043677 2475.05344880483 179 183 184
-857.530287645469 257.906720853989 2480.73322785986 184 188 189
-860.981856295247 257.954691311488 2487.09571724006 179 183 184
-864.432774839527 258.002735274438 2493.45703306245 174 178 179
-864.074866231886 257.63083589069 2501.14663731354 161 165 166
-866.565842427124 257.573890965878 2507.82617540231 157 161 162
-870.008377286083 257.622034519895 2514.17210204898 150 154 155
-875.362272090339 257.880370050961 2519.86647424818 153 157 158
-876.891528920548 257.718512983778 2526.86048518213 163 167 168
-878.415230585714 257.5566655134 2533.84377779734 177 181 184
-880.892618709155 257.499883769079 2540.49837401808 174 178 181
-885.289322801719 257.653405401641 2546.51557762511 175 179 182
-887.76282846809 257.596702988324 2553.16305715641 180 184 187
-895.051931793654 258.065869018164 2558.24992880184 177 180 185
-905.245455119128 258.850761613256 2562.42910581994 170 173 178
-917.388854549753 259.846354652694 2566.02822377733 171 174 179
-923.749589226879 260.210989022422 2571.49152497556 180 183 190
-929.14863872663 260.47055654911 2577.2693153745 183 186 193
-935.522263814441 260.835469981731 2582.75640830683 186 190 193
-948.703007873511 261.937483257784 2586.18009132986 187 191 194
-956.072544153348 262.408107452716 2591.4158365788 182 186 185
-1023.74384951668 277.890245622417 2202.36785868906 194 198 201
-1011.99811864147 276.209991825572 2216.21464499394 176 180 183
-989.199227069745 273.307371190077 2234.74366321888 177 181 182
-970.917676088522 270.913079823048 2251.15976279396 177 181 182
-946.133487646155 267.805081438216 2270.20579972939 180 184 185
-932.323760775651 265.918677121053 2284.42412608239 181 185 186
-915.696368448565 263.726056652729 2299.71306870262 181 185 186
-902.707096453666 261.940461546842 2313.35537299258 184 188 187
-885.969575523248 259.74661091023 2328.44139910742 185 189 190
-874.733429887895 258.163819010342 2341.13941083817 186 190 191
-867.166584089529 256.988475462106 2352.24825623094 186 190 191
-865.142391123703 256.424702456133 2361.04566230685 187 191 192
-863.102093309584 255.860848464338 2369.81342427819 187 191 192
-856.387347335658 254.786785088564 2380.40509430677 187 191 192
-851.50936653356 253.916506120489 2390.20659385964 186 190 191
-851.278943017481 253.55630285811 2398.13418369479 185 189 190
-851.973112281237 253.298132225546 2405.67815219933 184 188 189
-849.8482430085 252.73368477463 2414.29019338304 183 187 188
-846.769167772099 252.066999780772 2423.23133023489 179 183 184
-846.48973035736 251.70656739125 2431.06870567637 178 182 183
-847.14006257907 251.448207119477 2438.53199284465 179 183 184
-848.723971014872 251.291986452564 2445.62821302441 176 180 181
-851.245643949385 251.237979310062 2452.36458721938 170 174 175
-851.874692511576 250.979624104694 2459.78873138336 170 174 175
-852.495358391949 250.72125032499 2467.19745268241 171 175 176
-853.107659609248 250.462828641181 2474.59077543618 184 188 189
-856.557160371336 250.511158550597 2480.94956968896 182 186 187
-859.056293029331 250.457296618437 2487.64453187627 173 177 178
-860.60092425357 250.301184351724 2494.66854670565 169 173 174
-863.092305312998 250.24737783495 2501.34926895539 159 163 164
-865.580462528474 250.193621561546 2508.02407707794 158 162 163
-871.885314332522 250.549251586648 2513.3818916927 159 163 164
-875.328427911164 250.597985532757 2519.72906025376 169 173 174
-876.855617087514 250.442005325423 2526.72103569208 177 181 182
-878.376986910655 250.286000137537 2533.70230076734 174 178 181
-879.892770286827 250.130026332204 2540.67279654215 174 178 181
-884.286903767724 250.281307027499 2546.68510267251 185 189 192
-888.683003524461 250.43268499812 2552.70105439516 183 187 190
-897.901355994222 251.09653655526 2557.16511421468 169 172 177
-908.099786241458 251.863140548162 2561.3478161849 169 172 177
-919.28243895679 252.732577763342 2565.25630319727 173 176 181
-924.677336612353 252.987152672113 2571.02546045602 177 180 187
-930.076955086833 253.241866930549 2576.80283782233 178 181 188
-936.451552211437 253.599243359823 2582.28945197046 172 176 179
-950.607412517189 254.777463490416 2585.41466916501 180 184 187
-963.817984928732 255.85350795824 2588.88540259102 188 192 191
-990.104259851539 265.824524850178 2225.69823116348 176 180 183
-975.522299325803 263.892241624849 2240.59728165468 177 181 182
-952.616386342977 261.06708034877 2258.953265923 179 183 184
-943.439965576502 259.728509577822 2271.28282662245 180 184 185
-937.913247494494 258.786316521883 2281.98435331814 181 185 186
-922.207486216222 256.752691829333 2296.90135747247 182 186 187
-903.674114932567 254.420844373468 2312.87258759432 185 189 188
-885.077898447562 252.088278099109 2328.7280177761 185 189 190
-875.68707118154 250.747484654893 2340.66308169557 186 190 191
-871.828438518144 250.001965464962 2350.26156257998 186 190 191
-865.160195127673 248.958421188518 2360.9479370739 187 191 192
-859.39351581603 248.013887691873 2371.20742752559 187 191 192
-850.80422159988 246.77115948235 2382.53084352481 188 192 193
-849.647176697658 246.322790771394 2390.84299811386 187 191 192
-850.345934148068 246.0730875254 2398.3979514526 185 189 190
-851.036348706207 245.82338833714 2405.93756191258 185 189 190
-848.906711688447 245.275488029786 2414.54581042197 184 188 189
-844.884060915197 244.528673068053 2423.8422424511 180 184 185
-843.659506234417 244.079975044787 2432.02963098147 180 184 185
-845.244567108253 243.929499702745 2439.12969844596 180 184 185
-849.651028860091 244.077470515954 2445.16368316104 176 180 181
-852.172224598168 244.026611549077 2451.90012642809 169 173 174
-853.745063874722 243.876300887382 2458.9777656712 172 176 177
-851.526984302232 243.327908745451 2467.42320430253 185 189 190
-852.13579119763 243.07802258234 2474.81216292999 185 189 190
-852.735947418595 242.828112766569 2482.1857085221 181 185 186
-856.178242222428 242.876903437441 2488.53138826543 172 176 177
-857.716888354143 242.726577065075 2495.54613536044 169 173 174
-862.108033387342 242.875089322553 2501.55211266293 158 162 163
-866.501366241665 243.023732924923 2507.56164902131 157 161 162
-870.896382213807 243.17247592979 2513.57481507646 162 166 167
-874.336803374515 243.221665296073 2519.91716874487 174 178 179
-875.860619084119 243.071531626754 2526.90469794132 178 182 183
-879.297141671237 243.120814904294 2533.23990966367 173 177 180
-878.891052827413 242.771253422854 2540.84761916328 178 182 185
-884.244805238712 243.020096139672 2546.53887478505 185 189 192
-889.602845788211 243.269039735322 2552.2385516547 178 182 185
-900.752062327002 244.116806867895 2556.07902679208 163 166 171
-910.955415612519 244.865107678354 2560.26527897104 168 171 176
-919.242163446932 245.41408545321 2565.09670667802 171 174 179
-922.699954161431 245.464146404349 2571.47126822478 178 181 188
-927.126857907394 245.614098258456 2577.5429409888 179 182 189
-936.409785538949 246.263488672545 2582.12141752404 169 173 176
-949.595970234396 247.312719301038 2585.53923400562 178 182 185
-961.833780501966 248.26241677384 2589.29818892285 185 189 188
-988.362272519793 257.695612290871 2226.39476455743 180 184 185
-971.933094209844 255.624711288001 2242.08486249925 178 182 183
-959.124038838987 253.939002264557 2256.08865586372 178 182 183
-946.267473765305 252.252784695546 2270.00542154167 178 182 183
-940.739760054375 251.337959998993 2280.71334734125 178 182 183
-923.182728431386 249.168426167462 2296.41425585017 180 184 185
-899.093324324306 246.322587009529 2314.70216532123 185 189 188
-881.406707581868 244.151569162589 2330.1642969093 186 190 191
-870.150149728941 242.655741693411 2342.85091890387 187 191 192
-869.065046262609 242.221770243572 2351.29921221989 187 191 192
-861.457737514111 241.111597879497 2362.35374147786 188 192 193
-854.749985905042 240.097770065313 2372.97638953041 187 191 192
-846.148276254616 238.890376762474 2384.28759724068 188 192 193
-848.716272136333 238.842355506389 2391.11147210306 187 191 192
-847.541470554165 238.407803409864 2399.39461962769 186 190 191
-847.289356750123 238.069854644448 2407.28900947103 182 186 187
-846.088552591743 237.635153515147 2415.52479294684 180 184 185
-844.874426556736 237.200413812889 2423.73555922051 176 180 181
-843.646520389131 236.765574604038 2431.92145563975 177 181 182
-845.229672642928 236.620942972262 2439.01926588801 173 177 178
-847.749501619826 236.573079365377 2445.75460044457 173 177 178
-851.210348931589 236.622068801901 2452.13446140343 179 183 184
-850.889282220694 236.283956304408 2459.90198504969 183 187 188
-851.503766273522 236.042607696986 2467.30445667238 184 188 189
-852.109867644533 235.801240515229 2474.69150543013 179 183 184
-850.809289003665 235.366143466043 2482.74316214759 174 178 179
-854.247586527787 235.415351860496 2489.08161578356 165 169 170
-858.637056325517 235.561510166499 2495.08380413958 159 163 164
-865.887748817263 235.99858231168 2500.09088419422 154 158 159
-869.330645961417 236.04811137761 2506.43789380223 159 163 164
-871.817232761398 236.000791841527 2513.11174930816 174 178 179
-873.343496259688 235.856514941259 2520.10554168884 176 180 181
-875.822377908436 235.809221829321 2526.76523396402 175 179 180
-878.2980186456 235.762000915764 2533.41898732387 178 182 185
-878.84861758461 235.52071141758 2540.70398035737 186 190 193
-884.201469420759 235.764629777044 2546.39260304251 180 184 187
-894.376393230522 236.494040091029 2550.52038321806 172 176 179
-905.533200874838 237.320823232513 2554.36901369389 168 171 176
-911.879973692635 237.662468342724 2559.7997231303 166 169 174
-914.364643150715 237.615775950307 2566.47024089054 166 169 174
-918.783155081967 237.763365845467 2572.52627353104 176 179 186
-925.143502446428 238.105394184386 2577.98206427715 184 187 194
-937.338093427741 239.030670131851 2581.65368273682 187 191 194
-947.610215398242 239.761908131531 2585.96128190799 191 195 198
-950.109477302291 239.715668290618 2592.65927817105 179 183 182
-983.768264633263 249.626434081747 2219.74907658424 195 199 202
-991.203842118096 250.052008544069 2225.092231987 179 183 184
-983.953960342288 248.978148039629 2236.81505432058 177 181 182
-967.474953458411 246.966540049786 2252.43133910409 178 182 183
-947.254153368098 244.579283607612 2269.51252037148 179 183 184
-931.577172097406 242.660155451931 2284.51638349985 180 184 185
-913.07417480887 240.459048854859 2300.58279348585 181 185 186
-891.733289942225 237.97574670154 2317.69035531999 185 189 188
-878.658189781203 236.336179107886 2331.21871954813 185 189 190
-867.390785700671 234.883829924547 2343.89846819778 186 190 191
-865.369651863794 234.369742607031 2352.71644211092 187 191 192
-856.8215086364 233.198366519933 2364.13699937495 188 192 193
-854.759067954323 232.68400890161 2372.8789211882 188 192 193
-848.949643047296 231.793852383115 2383.07614701359 188 192 193
-850.586029176884 231.655032307432 2390.27361171733 187 191 192
-845.669238579661 230.85850656838 2400.02591214783 186 190 191
-843.538418422862 230.343733533472 2408.6419467233 181 185 186
-842.329509143032 229.922853158427 2416.86647535428 178 182 183
-843.924480491716 229.783951647776 2423.98825048466 175 179 180
-846.454332759539 229.739156333374 2430.74243815626 174 178 179
-848.039041282663 229.600354195177 2437.8453679639 174 178 179
-849.618217362662 229.461606240867 2444.93763465082 176 180 181
-849.302499623056 229.134686381445 2452.71886613786 182 186 187
-848.030417000035 228.713644622806 2460.82715894866 183 187 188
-849.585480001515 228.574888313277 2467.87557902203 184 188 189
-853.031405741553 228.624446057747 2474.22816739395 179 183 184
-854.577744688992 228.485765014968 2481.26006073268 172 176 177
-856.118000993778 228.347127830164 2488.2812844163 161 165 166
-860.508978554549 228.491088265301 2494.28558487683 155 159 160
-865.855502716739 228.729415756516 2499.96038427981 157 161 162
-871.206590566252 228.967900997461 2505.643624574 165 169 170
-871.78185588494 228.735258888989 2512.97658402783 178 182 183
-873.306010988711 228.59684359126 2519.96826139519 178 182 183
-873.865826267774 228.364120908364 2527.27278118062 180 184 185
-876.337150046708 228.320017218584 2533.9195322831 189 193 196
-878.8052215531 228.275963433645 2540.56031687124 188 192 195
-887.044902210069 228.798027181305 2545.29708584341 172 176 179
-900.115894993892 229.792233582468 2548.48649645711 166 170 173
-909.351796853555 230.409311234624 2552.9687668957 172 175 180
-913.770531607041 230.554621483039 2559.02452380869 173 176 181
-913.353043415063 230.2278802085 2566.61813035086 170 173 178
-918.738320927397 230.467732772122 2572.36466284753 169 172 179
-923.157727452403 230.613243058213 2578.42171542632 174 177 184
-939.23757610521 231.892698304552 2580.88583846311 185 189 192
-944.649079063258 232.133097629335 2586.68127299957 196 200 203
-946.168920933179 231.995548731009 2593.66477384469 182 186 185
-998.517682466535 243.165954746065 2213.20862938905 195 199 202
-1006.89123301629 243.67228486672 2218.18687805024 179 183 186
-992.307590055705 241.903169758611 2233.13190235525 178 182 183
-967.550529194784 239.132004421362 2252.3291247065 180 184 185
-948.24062805453 236.906267561106 2269.01938818503 182 186 187
-932.556219809662 235.044174942552 2284.02674355193 183 187 188
-913.120634872105 232.817059612643 2300.48543709172 184 188 189
-888.068084347085 230.042508523774 2319.13818194317 186 190 189
-873.126877792631 228.269490068077 2333.42440782916 187 191 192
-859.988879119767 226.67820041885 2346.85211268067 188 192 193
-854.237186500044 225.815823536503 2357.16387262815 188 192 193
-853.111499433358 225.409199582275 2365.54574928123 188 192 193
-851.972084335692 225.002513672304 2373.90286319659 187 191 192
-852.68538432782 224.778251394593 2381.49221355875 185 189 190
-850.587206652222 224.280264175148 2390.17333145601 185 189 190
-848.473118196138 223.782222326159 2398.82466585665 185 189 190
-844.468670566681 223.101469184661 2408.17494722023 184 188 189
-840.443125841393 222.420584882627 2417.48588349381 184 188 189
-842.033398041862 222.287432876801 2424.60074503261 182 186 187
-845.499691068772 222.337026345261 2430.99080329909 179 183 184
-848.023313102863 222.295391946046 2437.73448299 177 181 182
-848.656801313314 222.071050824854 2445.17702123353 179 183 184
-847.392307507221 221.6639242973 2453.30396011088 183 187 188
-846.114479512432 221.256744278008 2461.40585465556 182 186 187
-848.612363053697 221.215217004664 2468.10222878346 181 185 186
-852.055585965956 221.265200501009 2474.44997419525 176 180 181
-854.548162944103 221.223770643729 2481.13712212576 170 174 175
-857.988827178534 221.273945253786 2487.48021913477 157 161 162
-862.381550164149 221.41572730737 2493.48657042003 154 158 159
-867.729735177573 221.649138784531 2499.16345032521 162 166 167
-873.082662780718 221.882741573195 2504.84860600445 169 173 174
-873.65810599786 221.658654669034 2512.18446537758 181 185 186
-874.225151367777 221.434556396033 2519.50487616067 180 184 185
-872.866039011335 221.027235681219 2527.4572316436 189 193 194
-872.45328302647 220.711391643004 2535.06332285127 188 192 195
-878.76062992442 221.036967857461 2540.41668857922 182 186 189
-888.926372805956 221.729403009663 2544.51696838254 168 172 175
-905.858755167675 223.0639307513 2546.45031417392 166 170 173
-912.206778464346 223.390360645947 2551.87874793039 172 175 180
-915.661713326762 223.441813103815 2558.24847550043 174 177 182
-915.243781226838 223.126365365485 2565.84516606518 172 175 180
-919.661752979123 223.269629855781 2571.89840023303 174 177 184
-926.022685551553 223.596523690081 2577.35071601628 178 181 188
-943.081305825708 224.933335715048 2579.51742750649 188 192 195
-952.390134142276 225.536214165524 2584.12955298551 197 201 204
-953.918013947522 225.404682735949 2591.13015088289 181 185 184
-1007.77799252546 236.095330908511 2209.07903371358 195 199 202
-1001.47934412905 235.175567179319 2220.48288842745 179 183 186
-977.688160881612 232.577300706559 2239.39373076126 178 182 183
-957.500216255038 230.331568811674 2256.57789864987 179 183 184
-940.931371323239 228.438562255939 2272.06411662016 180 184 185
-930.765904625205 227.163597942325 2284.70907299561 181 185 186
-910.393382573907 224.915815814772 2301.55315282046 182 186 187
-888.101677493221 222.490448635909 2319.04370036676 186 190 189
-872.225032894324 220.683277583949 2333.71451837734 188 192 193
-860.934605921555 219.317824812892 2346.37805532984 189 193 194
-855.179347738905 218.482763528815 2356.69147193793 189 193 194
-854.051815723874 218.090003443803 2365.07412455474 188 192 193
-851.046419908704 217.520177995572 2374.17989900946 187 191 192
-849.88904365344 217.127252675455 2382.50811718497 187 191 192
-845.914174932387 216.468701685734 2391.91897196513 186 190 191
-844.725821819728 216.075658619001 2400.19018264679 186 190 191
-840.712238961786 215.416823886028 2409.52974974762 184 188 189
-837.615849627736 214.846417137574 2418.4679957322 182 186 187
-838.26029508476 214.630390277318 2425.93318662349 180 184 185
-842.661139985565 214.768928649681 2431.95400439082 179 183 184
-846.121536671558 214.818983702395 2438.33335702019 178 182 183
-846.749975724459 214.603105997213 2445.76915407193 181 185 186
-844.534744565432 214.12115606034 2454.23981203672 185 189 190
-845.142548162088 213.905224665629 2461.63764057893 181 185 186
-846.68976484945 213.778061594713 2468.67461194006 166 170 171
-849.179858565773 213.739660005663 2475.35810336418 162 166 167
-853.567597290977 213.878915754267 2481.35452797282 158 162 163
-856.053883373762 213.840675634152 2488.03106502223 157 161 162
-861.395733845881 214.068991028951 2493.69425780757 160 164 165
-867.696202999838 214.38630156133 2499.03248844501 173 177 178
-873.048429802313 214.614962100366 2504.71486898471 178 182 183
-873.621431683233 214.399428754919 2512.04881053246 188 192 193
-873.227894791195 214.094951793805 2519.69366747516 188 192 193
-870.905053216456 213.61265296209 2527.96580111407 187 191 192
-873.368809327789 213.574809301903 2534.60102066479 179 183 186
-881.600957182527 214.070712357344 2539.31556412142 169 173 176
-893.698108193223 214.922754573379 2542.78594978264 169 173 176
-904.853202149618 215.686218563744 2546.61238706068 173 177 180
-907.336547074963 215.649023675626 2553.28332486512 171 174 179
-910.783643944761 215.700870279986 2559.63875546683 172 175 180
-912.293266171647 215.574690546275 2566.60738371957 177 180 185
-918.645463421089 215.893813604299 2572.04129681475 176 179 186
-926.946693332485 216.391307444052 2576.8833731434 180 183 190
-944.010080686381 217.690935597345 2579.04767018195 188 192 195
-950.400330396695 218.010836773108 2584.55180268262 192 196 199
-962.646324646801 218.86572790087 2588.29729915355 178 182 181
-990.553213340085 226.203541494635 2225.18407228499 177 181 182
-968.57364015951 223.857613331886 2243.27257626722 176 180 181
-951.124659329661 221.939104463227 2259.24769840962 180 184 185
-936.381696550716 220.276977827421 2273.93187824531 180 184 185
-928.973286370605 219.299774701122 2285.3922048848 180 184 185
-907.663098758307 217.036753259768 2302.62196340712 182 186 187
-889.986155570561 215.115810478678 2318.17708930799 186 190 189
-873.176203278666 213.279920699691 2333.2375473835 187 191 192
-863.737331240516 212.129509467202 2345.14099594319 188 192 193
-855.191444238788 211.06449032028 2356.59768660793 189 193 194
-852.198307247568 210.513970353832 2365.7318128419 188 192 193
-848.253865044226 209.877480113441 2375.20576591185 188 192 193
-845.222050852329 209.326721160085 2384.2686858581 187 191 192
-842.171501216504 208.775857281767 2393.29711635608 187 191 192
-841.911350388137 208.482454306115 2401.19012051229 185 189 190
-839.764850111909 208.017291533737 2409.79223535062 184 188 189
-838.541313541603 207.637968354032 2418.00235886042 182 186 187
-839.184608362278 207.430421789172 2425.46798372674 180 184 185
-841.702475657876 207.394788336762 2432.20338826114 178 182 183
-845.160205553577 207.44521048181 2438.57794656973 179 183 184
-847.673246312831 207.40978734094 2445.30403322552 183 187 188
-847.346746542098 207.116451065593 2453.07502964571 183 187 188
-847.955976992918 206.909104519971 2460.47806407915 176 180 181
-847.608839863716 206.615729304613 2468.21109292677 163 167 168
-850.098501879824 206.580454274705 2474.89473059827 159 163 164
-851.634633291419 206.459215789259 2481.91309576612 156 160 161
-856.02046281902 206.59629017933 2487.90585727566 161 165 166
-862.314742012244 206.905742068342 2493.23034018651 166 170 171
-868.616135856939 207.21544117273 2498.56798258067 177 181 182
-871.101567228799 207.180723310154 2505.2435026346 184 188 189
-872.626550796093 207.059837670314 2512.24197523774 189 193 194
-869.354021388259 206.508058792973 2520.86186932922 190 194 195
-870.860917662508 206.387120262882 2527.8270601996 182 186 187
-874.284020802841 206.438681149082 2534.13827603949 173 177 180
-885.404548871258 207.180389630411 2537.89409376384 167 171 174
-894.617954805354 207.749913687115 2542.32068972037 171 175 178
-900.951494536918 208.060835712414 2547.71832625995 174 178 181
-904.393973453601 208.113055718932 2554.06537589442 172 175 180
-907.835760573014 208.16534134835 2560.41117292186 175 178 183
-910.308343705562 208.131342046471 2567.06327880912 176 179 184
-914.717517179563 208.270097773124 2573.09947970312 180 183 190
-925.927815708833 209.013702485674 2577.02097189873 182 185 192
-942.993324381429 210.276130033649 2579.17798341685 191 195 198
-949.381930698311 210.588463061432 2584.67681751473 197 201 204
-944.075731881766 209.863524628232 2593.73445310039 179 183 182
-986.966227553304 217.965701988186 2226.68415929955 181 185 184
-969.56936852398 216.110196657712 2242.77408943197 181 185 184
-954.875705578728 214.502930035192 2257.56543821563 180 184 183
-928.137942147717 211.816507969545 2277.37537458548 181 185 184
-923.483460482033 211.12080894055 2287.64042966842 181 185 184
-900.304535675736 208.764825369247 2305.63538714861 182 186 185
-889.092088889249 207.487279720428 2318.46877941071 186 190 189
-873.199542111881 205.794124830912 2333.14413325501 186 190 191
-863.754420483771 204.681795690796 2345.04753977397 186 190 191
-853.342062864979 203.486039423753 2357.26223830278 186 190 191
-848.479361388463 202.788481337148 2367.14378015651 185 189 190
-845.458500207629 202.256997543741 2376.23264113575 185 189 190
-841.484897635506 201.642275884825 2385.65900500507 187 191 192
-838.425345039699 201.110552935247 2394.67663350302 186 190 191
-836.283676475328 200.661903895403 2403.2926007699 184 188 189
-836.002012173051 200.379560218067 2411.14936349356 183 187 188
-836.648592220827 200.180428593669 2418.62356104241 181 185 186
-838.22738240688 200.06455624695 2425.72250142507 180 184 185
-840.742431726218 200.031993280544 2432.45314230403 177 181 184
-842.310939165744 199.916264385568 2439.53321398123 188 192 195
-845.762740487489 199.967177275377 2445.89701613945 184 188 191
-844.485189391975 199.601672842357 2454.0119526862 169 173 176
-846.035071192703 199.486091456856 2461.05781277917 166 170 173
-847.579154459912 199.370544427401 2468.09301864405 162 166 169
-850.067268275161 199.338428864872 2474.77425476703 162 166 169
-851.601297950024 199.223000358656 2481.79050164222 163 167 170
-855.986068159999 199.357801992467 2487.78063140756 169 173 176
-863.23343625106 199.743050711897 2492.76601287892 176 180 183
-868.580995070136 199.961654905965 2498.43678399011 188 192 195
-869.152341927015 199.763148935541 2505.77280214037 192 196 199
-866.84301401961 199.314172657546 2514.08031491934 189 192 197
-865.476191204299 198.94854870556 2522.0315328096 189 193 196
-871.775954761574 199.251019577922 2527.36400312527 167 170 175
-879.044321577988 199.637244074243 2532.3877942715 163 166 171
-889.209920981775 200.27438528908 2536.47118213186 168 171 176
-893.609653617004 200.410399147804 2542.48919506526 172 175 180
-898.01132219726 200.546524692843 2548.51080214075 174 177 182
-902.415178598639 200.682781582774 2554.53596827214 173 176 181
-903.917409545597 200.568213391348 2561.4944944517 172 175 180
-907.352045661709 200.620975208796 2567.82728268097 180 183 188
-912.726817621073 200.84117386442 2573.54858320401 185 190 194
-925.878968843345 201.731080226287 2576.85589373677 178 183 187
-941.97509467912 202.872624293252 2579.30848065839 199 204 208
-951.284471314768 203.428546660601 2583.90799814869 197 201 204
-958.658063125271 203.817265041993 2589.12606719592 188 192 193
-983.292434601402 210.024222623695 2219.6545167166 188 192 191
-994.402007058889 210.718086539136 2223.37579719923 181 185 184
-981.606898393496 209.326271516263 2237.49412550761 181 185 184
-962.314458408609 207.372227394268 2254.29770276473 180 184 183
-937.419656607314 204.93581178013 2273.34276502415 181 185 184
-925.381075181392 203.622565982204 2286.76080866243 181 185 184
-897.566505146959 200.943621785374 2306.7073495396 183 187 186
-880.783097929295 199.227540181654 2321.85265770598 187 191 190
-864.870170252102 197.591192712624 2336.50761055973 188 192 193
-860.053319169877 196.918613781742 2346.48099140541 188 192 193
-851.490348090213 195.924356697239 2357.92754099294 188 192 193
-848.48435075371 195.412179861949 2367.04954530252 188 192 193
-844.526539400885 194.819509055642 2376.51158326106 187 191 192
-841.481623397454 194.307103243167 2385.56244443662 187 191 192
-837.482517511499 193.714177054836 2394.94845742581 186 190 191
-834.399060566903 193.201565309433 2403.92786861577 184 188 189
-834.112000902191 192.930369460259 2411.77806067352 183 187 188
-836.632691212422 192.900663719863 2418.52043983509 182 186 187
-837.268478524085 192.710045294095 2425.97734767534 180 184 185
-840.722642219699 192.761074948148 2432.34552978304 182 186 189
-842.289275174449 192.651145853414 2439.4233938203 186 190 193
-846.68441377536 192.783042659725 2445.43171940244 181 185 188
-845.405010122602 192.43146109399 2453.54743566074 167 171 174
-847.901427705026 192.402308326749 2460.245339144 165 169 172
-848.497348308866 192.211953775298 2467.62900419721 162 166 169
-851.934927307884 192.263642724017 2473.96688228994 162 166 169
-852.518205415516 192.073390639217 2481.32682205898 164 168 171
-856.903207906459 192.20594966934 2487.31670463279 175 179 182
-863.198032570495 192.50013363102 2492.63759937386 182 186 189
-866.634423964594 192.552310691446 2498.97344003031 189 193 196
-864.331307454354 192.119967980511 2507.29737876728 190 193 198
-862.012033994204 191.687506732902 2515.59156628298 187 190 195
-862.553819539283 191.497334780767 2522.87572201087 184 187 192
-871.730428339391 192.034601403751 2527.22494083795 166 169 174
-880.921916600332 192.572178161391 2531.60161896871 165 168 173
-889.165154106508 193.029242403721 2536.32538290302 169 172 177
-892.599657486016 193.082150362227 2542.6579709532 173 176 181
-896.999219417249 193.216051655084 2548.67453039344 175 178 183
-903.334185624359 193.511924941511 2554.0697607621 175 178 183
-904.835657583684 193.403241807493 2561.02866078686 175 178 183
-909.239492382929 193.537472765964 2567.05368219136 181 184 189
-912.674681643472 193.590802512699 2573.38765854241 176 181 185
-928.744855312041 194.697352487384 2575.78199123317 181 186 190
-943.874745663021 195.72341284949 2578.5375659395 205 210 214
-959.034708830409 196.749991926535 2581.34911026725 199 203 206
-962.515067105521 196.804332256868 2587.76646457014 197 201 202
-988.885350106517 202.605706851077 2217.13499717732 186 190 191
-995.407798131252 202.890768852185 2222.87178958589 182 186 187
-978.924252217759 201.237671671245 2238.58753808082 180 184 185
-966.070576242441 199.894189943021 2252.61218103907 181 185 186
-937.476315867935 197.231503918711 2273.24492203614 182 186 187
-929.128067387578 196.274784254705 2285.09767390715 182 186 187
-892.973925240287 192.989429948519 2308.55856816216 184 188 189
-874.321046570353 191.177676051396 2324.46640560396 189 193 194
-859.31857576898 189.675809830653 2338.72149661263 187 191 192
-854.489415789001 189.02769475866 2348.67959595449 187 191 192
-848.705474450911 188.301783231719 2358.97308266345 187 191 192
-845.691723110136 187.808776969945 2368.08659094493 187 191 192
-842.659277066093 187.31568104052 2377.16568929584 186 190 191
-838.673153852517 186.744740829127 2386.58269567923 185 189 190
-837.474298432833 186.406955449459 2394.8507036207 185 189 190
-836.26166663261 186.069151854808 2403.09387305457 183 187 188
-837.851847358017 185.964732515592 2410.21670263312 182 186 187
-838.496099606729 185.782546393943 2417.6917148079 181 185 186
