ply
format ascii 1.0
comment KinectMotionCapture
element vertex 753
property float x
property float y
property float z
property uchar red
property uchar green
property uchar blue
end_header
-627.131401759745 525.243249861046 2641.68029304734 249 250 252
-620.090056083145 524.883069701339 2651.87374712198 254 255 255
-614.018598642181 524.596068129513 2661.74272575454 242 243 245
-604.009838268611 524.003623572343 2672.66695869413 254 255 255
-603.811419641473 524.166629502126 2680.8106357133 254 255 255
-597.711750274641 523.872761372946 2690.558248649 245 246 248
-590.618246606836 523.500551215693 2700.5300266787 251 252 254
-574.653934358638 522.44000126712 2712.82769222788 249 250 252
-572.457759010566 522.443161564846 2721.37493209531 248 249 251
-568.28524938588 522.292051040907 2730.41794191066 254 255 255
-565.091709305731 522.215550706589 2739.17347891138 252 255 255
-555.970433161106 521.677672213701 2749.42106424044 251 255 255
-551.773325826513 521.520494725545 2758.35816437855 252 255 255
-549.544606958128 521.515138260357 2766.76809447091 233 237 238
-550.277334781414 521.739090479929 2774.42159927765 235 239 240
-550.019506996364 521.885255732451 2782.31230410451 238 242 243
-551.738952775591 522.1847681856 2789.71300767941 232 236 237
-549.495795846653 522.174538909366 2798.06218140146 234 238 239
-545.265348398333 522.008070308659 2806.85891696293 234 238 241
-542.019404620556 521.917286197429 2815.39193438375 239 243 244
-542.736934268838 522.135250465625 2822.98198920785 241 245 246
-539.48069883132 522.041539506982 2831.4724635434 228 232 233
-535.224588273556 521.868427296845 2840.16002023898 229 234 237
-531.955430476701 521.771365945168 2848.59443540836 232 237 240
-532.659380291651 521.98467677174 2856.12847308952 226 231 234
-530.375593124459 521.962826572629 2864.30435525063 223 228 231
-531.075255295166 522.174282673147 2871.81950358399 230 235 238
-525.792864064232 521.914881296189 2880.59183583351 232 237 240
-523.493920724068 521.888843819763 2888.70339399941 227 232 235
-521.189658113473 521.861261455232 2896.79350746381 229 233 236
-518.880568629134 521.832309477405 2904.86207009761 241 245 248
-516.566404625577 521.801957849781 2912.9090947095 244 248 251
-511.247540014728 521.53363539539 2921.52595135636 237 241 244
-513.923689632387 521.89506284089 2928.54961992075 245 249 250
-513.597821769459 522.018855656222 2936.15365976909 198 202 203
-514.270743194207 522.22077531968 2943.55766842761 207 211 212
-512.937759294472 522.263462691118 2951.32897175401 217 221 222
-512.604027965634 522.384331439447 2958.90008048971 224 226 225
-510.260191786037 522.34532404314 2966.82252987946 226 228 227
-506.907352789908 522.22526362523 2974.90172485642 221 223 220
-504.552910809947 522.18330709994 2982.77808716077 233 235 232
-498.171448450692 521.820855663497 2991.32538297468 225 225 223
-499.828474288103 522.095440228709 2998.46569015557 139 138 134
-499.472123287077 522.209440467883 3005.94116343899 142 137 131
-509.18572893591 523.123513424582 3011.7538480416 140 127 119
-481.616671744446 521.071177549881 3023.62139417875 210 190 179
-472.165115885149 520.457911220001 3032.45683138233 222 200 187
-463.708854452451 519.922327069102 3041.07601215745 210 184 169
-469.376568240597 520.511292834847 3047.4780980507 216 189 172
-468.987006357995 520.616994963624 3054.81210576666 210 181 163
-469.605442117165 520.802476822276 3061.98568742593 209 180 162
-463.141448202072 520.421493612328 3070.17911511133 211 182 166
-456.667158635675 520.038508488678 3078.32943810652 220 192 178
-446.131716418467 519.329437603789 3087.00140372655 215 189 176
-440.648429140979 519.023031225136 3094.91611925931 189 163 150
-442.25479211717 519.283170740827 3101.84167284201 145 115 105
-454.007885795629 520.356090059017 3107.43418807136 78 45 36
-469.834275630209 521.756144394679 3112.55686839561 80 47 38
-475.518452949775 522.343391626186 3119.03251286278 117 84 77
-487.306653898197 523.420714374165 3124.77714096144 130 100 92
-485.883882173547 523.437320111876 3132.16812785624 145 116 108
-479.368456128674 523.043956962768 3140.14219747327 142 119 111
-825.448936356327 525.429545183485 2298.82235461553 241 243 242
-803.380970855622 524.064529136677 2316.29990520725 250 252 251
-788.010805627897 523.178559930084 2331.11195514244 252 254 253
-772.618324553692 522.287986060867 2345.82946334615 254 255 255
-762.016018622592 521.740742633792 2358.66909975289 251 253 252
-746.582712138044 520.841753722752 2373.21057076067 248 250 249
-734.981688327684 520.217405012378 2386.25212499388 252 254 253
-724.327939595294 519.659283938481 2398.87147270815 251 253 252
-719.447707473462 519.517906687593 2409.34653135204 253 255 254
-708.765833889129 518.953641217283 2421.84555872634 253 255 254
-705.797219958892 518.947977806042 2431.55058574195 252 253 255
-698.955385054468 518.65927817671 2442.58224292166 252 253 255
-687.265824006399 518.01576237629 2455.2438382104 249 250 252
-679.430980634041 517.650991414542 2466.50087761985 250 251 253
-674.489743913571 517.495460420834 2476.71543968549 252 253 255
-671.478266736666 517.479550561104 2486.23869962105 250 251 253
-667.490966797746 517.391182567837 2496.06094672515 248 249 251
-667.378386474114 517.585126903929 2504.56359330748 250 251 253
-664.349934947503 517.564599127249 2514.01477060361 252 253 255
-663.258906294034 517.685007032896 2522.80655522222 253 254 255
-653.413553925027 517.161941898577 2534.41005110103 252 253 255
-649.390875024639 517.064495288761 2544.08173789897 247 251 252
-647.308079013211 517.10852617742 2553.10455358536 245 249 250
-648.142733218964 517.366229227947 2561.18843992883 237 241 242
-645.077315375662 517.335814356426 2570.48145122867 235 239 240
-644.93182147978 517.519673690043 2578.84607976157 232 236 237
-642.83199796778 517.55844108793 2587.79695830068 228 232 233
-639.750463000575 517.523511792281 2597.02268993048 245 249 250
-634.708406002586 517.342475789921 2606.80798108116 243 247 248
-633.569245020142 517.448934825167 2615.3958712457 241 245 246
-632.426415698716 517.55412207977 2623.96834461873 243 247 248
-631.280145705861 517.658121981313 2632.5252683663 232 236 237
-627.190702656718 517.542689258089 2641.91333277086 252 255 255
-620.152744637499 517.206885747981 2652.10846367368 249 253 255
-609.179776577698 516.576751817015 2663.36350304758 252 255 255
-604.080399757877 516.381506113665 2672.90456777862 236 240 243
-604.86575334072 516.623193817334 2680.77954051641 204 208 211
-600.735546819152 516.49763409336 2689.99393398804 238 242 245
-590.697104500319 515.929854579397 2700.77395044335 230 234 235
-576.707542385867 515.065012035961 2712.54449375489 247 251 252
-570.575882048042 514.784867145602 2722.14306451235 252 255 255
-561.478329678132 514.281283639322 2732.47393283552 252 255 255
-556.31060407959 514.069988559194 2741.72433966754 252 255 255
-553.107624639318 514.004464823026 2750.4318253421 245 250 253
-550.885527040226 514.011292054924 2758.86268009179 203 208 211
-550.633897020223 514.165023092107 2766.77733229914 167 172 175
-548.403058247547 514.169179185367 2775.17123948717 211 216 219
-547.15619222094 514.246337342643 2783.30175310159 245 251 251
-547.88494378426 514.471104952941 2790.93725663383 231 237 237
-547.621975636502 514.620557987231 2798.80446271091 230 236 234
-547.356468765024 514.768992759384 2806.66108061971 225 231 229
-546.096971455349 514.841533216012 2814.73864951694 181 187 185
-544.833939452736 514.912985736731 2822.80019600195 188 194 190
-542.573961680604 514.908115603229 2831.07209534187 227 233 231
-539.315891040367 514.826685541544 2839.54617308565 221 225 226
-536.051310159291 514.74362000029 2847.99361131027 212 216 217
-538.748344819775 515.110908411773 2855.10477774572 213 217 218
-537.465451647096 515.176098801503 2863.08357408406 213 217 218
-538.170277136574 515.391123300903 2870.62046256443 205 209 210
-529.905791025597 514.924509889085 2880.04414936768 205 209 210
-522.626072806693 514.531023413394 2889.20678661166 201 205 206
-518.327981715118 514.362672648199 2897.70655240435 207 211 212
-517.017296966165 514.420272229238 2905.56734773946 217 221 222
-515.702791528027 514.476805046486 2913.41193435624 241 245 246
-513.384943921483 514.455823683056 2921.43721561141 194 198 199
-514.062330331393 514.662392806565 2928.85816490197 177 181 184
-516.740225159236 515.020812150605 2935.89020672261 182 186 187
-513.410501152127 514.920041282297 2944.06100056293 192 196 197
-513.080781297944 515.047447888968 2951.64594080834 182 188 188
-511.745629608814 515.097222618034 2959.4035230556 191 195 194
-513.416413364865 515.376157222146 2966.60189698788 195 199 198
-511.071338199057 515.347001387257 2974.51309232512 186 188 185
-509.726057478389 515.393504610131 2982.22687801638 187 188 183
-505.36127394192 515.207411558031 2990.44319397337 171 170 166
-508.029029512745 515.560095726272 2997.43501604983 149 145 142
-513.716911505007 516.144340015839 3003.92875166796 113 106 98
-518.402642828067 516.651392214065 3010.60824291283 183 171 159
-489.841576698862 514.600852799056 3022.65977649235 208 190 176
-479.390803620174 513.940593211713 3031.67722023243 204 185 171
-463.881049817304 512.888867021967 3041.41524948635 218 194 182
-463.491804806753 513.000409194869 3048.74721859958 215 191 179
-464.109636820389 513.18891046016 3055.91636389241 184 157 146
-469.779754710657 513.76682518347 3062.33445709396 161 134 123
-472.42048563991 514.11072080194 3069.21236219477 117 90 79
-465.955005703144 513.750377466082 3077.38818832473 85 61 49
-459.479701583893 513.388030311593 3085.52081562651 77 55 42
-462.112405142203 513.729262730006 3092.36491392141 81 59 48
-477.925252639316 515.090916934757 3097.44941821043 83 54 50
-498.826686854879 516.84807964041 3101.9425071217 86 56 54
-514.676732446949 518.214962250921 3107.18785243354 91 63 60
-515.309355620072 518.401975965264 3114.42305101088 86 61 57
-515.940745445032 518.588300372415 3121.65213376428 69 48 43
-510.469595679469 518.299963432847 3129.60970630135 69 50 44
-843.548541889119 517.79393714194 2273.70929319123 252 252 254
-822.493185999246 516.571722259556 2291.00750074367 252 252 254
-807.165947907592 515.741970433424 2305.97673351271 253 255 254
-788.936130048073 514.708180130065 2321.94475715818 254 255 255
-776.445542195584 514.068893393531 2335.63157264162 254 255 255
-761.052354359826 513.225564678147 2350.31709198034 254 255 255
-753.333812082235 512.912583683812 2362.05615973482 233 235 234
-741.752025029976 512.32893919314 2375.15854129529 246 248 247
-731.116593150562 511.808875379577 2387.83621956081 253 255 254
-717.573574346537 511.083790068204 2401.49120247097 252 254 253
-705.9397250289 510.489276333032 2414.37056068195 252 254 253
-696.219423300104 510.025996099303 2426.4899380766 252 254 253
-693.2448569005 510.032273238898 2436.16279845725 252 253 255
-690.26447499445 510.037067370203 2445.80981821825 252 253 255
-684.376658003266 509.836949875323 2456.4369199142 250 251 253
-677.511479089322 509.566710960953 2467.35485197235 251 252 254
-670.635524206489 509.293898402752 2478.2257262366 252 253 255
-666.655063161795 509.222971303403 2488.06785127775 249 250 252
-664.606443905296 509.286690811246 2497.22968919983 243 244 246
-664.493141795122 509.48567177192 2505.72727920803 252 253 255
-663.406776904816 509.615275991486 2514.53420607793 250 251 253
-660.374187514603 509.606630255078 2523.95907452857 252 253 255
-651.503243427531 509.184254076117 2535.24183218924 251 252 254
-648.454759742398 509.171640317607 2544.5989950961 246 250 251
-644.426783087209 509.08854886861 2554.23889370267 244 248 249
-647.20842650472 509.486646280489 2561.70586054585 236 240 241
-644.144734186 509.4697783061 2570.99850765693 228 232 233
-643.02497101328 509.589721368428 2579.66394486313 236 240 241
-642.877198061254 509.777756208063 2588.01607466762 221 225 226
-640.774501009565 509.825976334139 2596.94873095218 236 240 241
-634.759155421113 509.594384088488 2607.0312943122 242 246 247
-629.711226548872 509.430162129135 2616.7819075474 241 245 246
-622.69868150707 509.124318076257 2627.07031505974 236 240 241
-624.484126073923 509.445039461394 2634.74937285006 234 238 239
-621.372374288545 509.415173722152 2643.8389735817 224 228 231
-613.354340068191 509.032902741825 2654.29906169466 248 252 255
-602.381940730849 508.43717330319 2665.53637158802 252 255 255
-600.2250854307 508.471210697843 2674.23871730095 233 237 240
-602.972679531351 508.856063089016 2681.56343355968 193 197 200
-600.809044189313 508.887826895117 2690.23723975913 182 186 189
-599.623522650822 508.988743178337 2698.62409871583 208 212 213
-590.564296546639 508.522054748391 2709.10215412966 240 244 245
-579.522597081497 507.910618949097 2720.04332577133 244 248 249
-559.599721464024 506.656543672356 2733.23782001565 249 253 254
-548.520222391415 506.037287658486 2744.01702444174 247 251 252
-549.259534875222 506.269438335183 2751.69472298508 244 249 252
-552.958170003187 506.714807011192 2758.61718689411 219 224 227
-555.671609257524 507.08859446196 2765.79790529287 162 167 170
-551.469610282287 506.961070302258 2774.69709534016 184 190 190
-548.249015649375 506.903371435771 2783.32235601202 242 248 248
-548.979222689412 507.131065189027 2790.96363856064 239 245 245
-549.708378503592 507.358043329936 2798.59962329276 225 231 231
-550.436240974091 507.584276779475 2806.23034681192 220 226 226
-550.171427369527 507.737459761807 2814.0872269113 198 204 202
-549.904064512386 507.889622658241 2821.93347351887 193 199 197
-544.672152898912 507.679403383445 2830.89932068928 203 209 207
-538.438502188177 507.394550925461 2840.05123204291 194 198 199
-534.182055286382 507.252504599735 2848.71903467462 193 197 198
-535.883837625517 507.544387196281 2856.04639060607 204 208 209
-537.585519881995 507.83567394126 2863.37365597621 207 211 212
-536.300514037309 507.907845532668 2871.33903655179 204 208 209
-530.031111988718 507.6141392146 2880.33861450029 211 215 216
-522.754766265641 507.24502676229 2889.50286330658 209 213 214
-519.456628651698 507.166099142842 2897.79999747604 201 205 206
-518.148271124314 507.232085351461 2905.66611514741 202 206 207
-518.833408501496 507.443686703985 2913.11717345428 171 175 176
-521.515483421191 507.801338823701 2920.16917283062 126 130 131
-522.199118661594 508.011580802945 2927.61441139788 164 168 169
-521.880960950811 508.147295973803 2935.2454142708 184 188 189
-514.552367505833 507.765604457521 2944.18682815946 184 188 189
-513.222777718221 507.824788923611 2951.96338484365 182 186 185
-512.891564545113 507.956693552466 2959.54018548785 190 194 193
-517.57256981179 508.45824114707 2966.20208863825 180 184 183
-518.242922499664 508.663058396828 2973.59198728852 171 173 170
-514.894966255113 508.569889813304 2981.67796798902 158 159 154
-511.5408944048 508.47512838805 2989.73685026013 158 157 152
-511.19650092141 508.602320216201 2997.25834279222 149 148 143
-516.885717945261 509.176324619916 3003.76398409379 104 97 89
-517.546538728336 509.376945326419 3011.11434795906 180 168 156
-495.038755792684 507.85617201044 3022.18792892507 173 157 144
-487.619310743559 507.453768347999 3030.74118060178 176 158 146
-474.137733700143 506.598962517927 3040.18680263826 147 127 116
-470.728395977716 506.491690613376 3048.01059635738 123 101 90
-472.361507644609 506.759008887475 3055.0497977442 87 63 53
-482.077406607029 507.628457701092 3060.89774805846 90 66 56
-493.824790762755 508.649825769321 3066.49542460853 80 56 46
-503.561030325856 509.521711571131 3072.43266036171 88 66 55
-507.233870825182 509.940917877596 3079.25684615287 88 68 57
-504.831757199384 509.905816000845 3086.92019449817 81 61 52
-514.586115151585 510.779265337581 3092.93526426349 65 42 36
-525.364117051427 511.729753680685 3098.85938018802 64 40 36
-837.740591461383 508.918231478837 2276.12072617429 251 251 253
-806.144359425618 507.060733418782 2297.46714883127 252 252 254
-788.894605859173 506.15011970423 2313.1250449945 254 255 255
-783.13931209676 506.000321086586 2324.30652433503 254 255 255
-772.571705218816 505.528683513508 2337.2545958325 242 244 243
-761.988206183333 505.053598952681 2350.13466474933 239 241 240
-751.388828942222 504.575185523934 2362.94672309143 229 231 230
-736.923988190152 503.836356108462 2377.10520455029 243 245 244
-725.327378620047 503.286346350115 2390.1214003105 254 255 255
-712.749824519228 502.668210789024 2403.41255205576 254 255 255
-702.08248635422 502.175537853528 2415.93352245657 252 254 253
-691.399229315287 501.67947115416 2428.38634124444 253 255 254
-686.493031209181 501.569059203001 2438.72876604964 252 253 255
-683.510640766459 501.586522027661 2448.35948373119 251 252 254
-676.655102792822 501.342135030212 2459.30469406394 249 250 252
-671.723352267164 501.22561930696 2469.53811025188 252 253 255
-667.750976733288 501.172349034917 2479.40547953479 253 254 255
-663.771301301117 501.117293642802 2489.24173121671 249 250 252
-661.722826106768 501.191509238542 2498.39803050337 241 242 244
-661.609026508376 501.395610667779 2506.89041659997 251 252 254
-660.52272256155 501.533080397618 2515.69189937504 246 247 249
-658.461355075241 501.60345586343 2524.7947328581 247 248 250
-651.537101112124 501.342525202505 2535.44578505215 245 246 248
-647.518483538218 501.277311183031 2545.1164102334 232 236 237
-644.465376806239 501.276521142602 2554.44733342273 232 236 237
-646.273979796404 501.605766349349 2562.2234271119 235 239 240
-646.134475805769 501.801584314838 2570.60633052503 220 224 225
-645.017642235049 501.929844791699 2579.27978521097 239 243 244
-642.92185391057 501.990369118162 2588.23564839225 229 233 234
-639.844992549508 501.982629679527 2597.46598243276 210 214 215
-632.855529481023 501.705672817965 2607.84019830287 232 236 237
-630.741347884335 501.761217744888 2616.71793886836 250 254 255
-622.754992304519 501.412607712293 2627.29782302091 229 233 234
-625.519602224468 501.800696765924 2634.69561706671 230 234 235
-620.452723876247 501.649783003461 2644.35381415485 228 232 235
-617.336763235865 501.631729156106 2653.41683447106 226 230 233
-604.410943166069 500.936433704622 2665.21870898436 217 221 224
-603.238238870472 501.049173494251 2673.65509388457 217 221 224
-605.006620107029 501.364104518226 2681.26236652921 221 225 226
-605.79287037429 501.610575667152 2689.13847710797 219 223 224
-603.629398619555 501.652260427515 2697.80716898588 153 157 158
-602.44434861156 501.760605536487 2706.19173638445 152 156 157
-590.430979660951 501.117406450339 2717.42626154007 219 223 222
-568.553231307976 499.787348497894 2731.16505109508 224 228 227
-551.572358322685 498.793648435767 2743.50025243701 249 253 252
-547.385117803898 498.686196836345 2752.45158429654 252 255 255
-550.095921110983 499.057387191968 2759.62221472223 211 215 216
-553.795255795779 499.497034033577 2766.55112667712 180 184 185
-554.533449512852 499.729987258702 2774.22450966859 147 151 152
-551.317061845386 499.686265113507 2782.86008799878 219 223 224
-549.083367454772 499.709885360818 2791.22996351207 240 244 245
-546.844427522632 499.732031342585 2799.57867767792 219 223 226
-546.581312341952 499.891396518905 2807.43831943458 217 221 224
-549.288054997693 500.257949599815 2814.59378378856 192 196 199
-551.99596943089 500.624184986682 2821.7545985252 193 197 198
-549.744610722861 500.641910772511 2830.05010182631 184 188 189
-542.524457648944 500.30954844419 2839.44035254048 176 180 181
-537.279880734593 500.114490813124 2848.34147152727 171 175 176
-537.990376901201 500.336906226694 2855.89791476757 169 173 174
-538.699526973382 500.558452108504 2863.44893777181 172 176 177
-536.421480343938 500.56884896695 2871.63223578831 186 190 191
-535.134365671453 500.648118129052 2879.58414909646 190 194 195
-529.857701169949 500.444667701809 2888.34880808815 199 203 204
-528.560453225404 500.521082443729 2896.25774724832 189 193 194
-525.264160297858 500.45518883842 2904.55425757496 141 145 146
-526.952905478143 500.74093714108 2911.82777227772 145 149 150
-529.640365539231 501.096918730428 2918.90448423563 131 135 136
-530.330005333888 501.31080411251 2926.37403939181 130 132 131
-528.017791423343 501.310988790648 2934.4116967773 139 141 140
-518.694870268335 500.812116550966 2943.74777601309 178 180 179
-516.368146320874 500.808862239871 2951.72351653184 193 198 194
-516.040410152832 500.946678624946 2959.3110753476 175 180 176
-518.717707572106 501.29777590188 2966.34587765382 157 162 158
-520.392923815221 501.577131172288 2973.56353625121 133 135 130
-520.060146382976 501.712640902286 2981.13132346723 135 136 131
-520.729363550146 501.918881306142 2988.51538130744 130 129 124
-518.381864348642 501.909020116237 2996.40346005863 131 130 125
-523.069224805616 502.401197394573 3003.09887914658 74 69 63
-519.709297050706 502.317294066855 3011.12665696632 102 93 84
-505.26661225564 501.438525977743 3020.90867169116 98 85 76
-503.902394750106 501.494894220726 3028.53429514501 72 60 48
-497.493475575274 501.1885916799 3036.92648908084 77 63 52
-499.144799377033 501.459411688494 3044.04388400247 79 62 54
-492.720410164301 501.149574582446 3052.37107338035 77 60 50
-509.517109683563 502.50801942283 3057.23647718995 74 57 47
-530.37467774939 504.159801816823 3061.59716146365 74 57 49
-540.131338444861 505.013935498841 3067.63482568808 72 58 49
-542.814688862113 505.358721240306 3074.69892681315 74 60 49
-535.373750833638 504.972958411972 3083.14768046631 93 80 71
-873.052525033573 502.43013928869 2253.27113601337 249 249 251
-824.273796865687 499.582138665124 2281.50709223208 251 251 253
-792.680820472432 497.817362083322 2302.81332537704 254 254 255
-779.265413275376 497.203080403172 2316.9665537549 252 254 253
-776.386034212713 497.256969614741 2327.03086042197 247 249 248
-766.779357164961 496.880825873496 2339.59968267181 230 232 231
-761.962118120608 496.808269424722 2350.31184689645 220 222 221
-752.328992883046 496.426400273715 2362.7685771203 218 220 219
-739.794935035125 495.856699999964 2376.2229103179 243 245 244
-722.429129144125 494.974637387431 2391.35262036752 253 255 254
-706.965498325657 494.211264401915 2405.68070006108 254 255 255
-693.407490983981 493.567191220226 2419.22307257554 253 255 254
-681.759044075834 493.043086924969 2431.99560646347 252 254 253
-675.884287725848 492.888273304083 2442.65361459707 251 252 254
-673.863123306861 492.980294005701 2451.91978848559 250 251 253
-672.803492979462 493.13333082757 2460.83074092426 246 247 249
-671.740282388139 493.285226827905 2469.72658765492 250 251 253
-666.802971886634 493.18562416534 2479.9255556816 253 254 255
-662.825308230686 493.146595019516 2489.76124629192 250 251 253
-660.778223952567 493.231580529247 2498.91734024378 241 242 244
-661.634817542501 493.503889206378 2507.08822716894 245 246 248
-659.579912129177 493.586420793999 2516.21130001771 242 243 245
-655.578587663307 493.541152719742 2525.94639702529 243 244 246
-652.541246959653 493.557382938368 2535.3367836425 239 240 242
-650.469943098156 493.635338512575 2544.39028695893 228 232 233
-648.393782033036 493.711932079427 2553.42318773088 223 227 228
-646.312763526806 493.787105746218 2562.43551896247 232 236 237
-645.200641363499 493.924686492863 2571.12425294087 221 225 226
-643.110267029191 493.997153264412 2580.09803553102 232 236 237
-641.015239099203 494.068222585553 2589.05104722628 236 240 241
-637.939717017225 494.073834577634 2598.27834361461 233 237 238
-635.834296988978 494.141946794299 2607.18730102035 239 243 244
-633.723748289511 494.208604989176 2616.07560016971 227 231 232
-627.698389254032 494.016295021549 2626.09093397001 212 216 217
-623.619362205842 493.95068331447 2635.49559417078 227 231 232
-619.53294044583 493.883154361002 2644.86879668001 219 223 226
-615.439124211483 493.813766053851 2654.2105084936 198 202 205
-604.477747414222 493.288500000571 2665.45494577599 208 212 215
-601.345592381388 493.279500604275 2674.44127875267 226 230 233
-601.150856619328 493.464144583336 2682.58845779959 217 221 222
-602.917508511088 493.778139690624 2690.18866043207 203 207 208
-604.684162844343 494.091498853552 2697.78924786488 171 175 176
-606.450827070022 494.404396917445 2705.39015009279 149 153 154
-605.266233193481 494.520110333247 2713.77239367145 189 193 192
-587.343809659008 493.519070773674 2726.51930460779 193 197 196
-566.441637541852 492.31585372001 2739.92494808102 241 245 244
-551.424603101192 491.502144480912 2751.69418842834 243 247 248
-550.193485289772 491.607369461518 2759.87758974737 210 214 215
-553.892927841282 492.041712642919 2766.81009646477 207 211 212
-559.569583807066 492.608276783139 2773.26476264018 178 182 183
-559.322645725736 492.777456984192 2781.19100353419 178 182 183
-558.084796432381 492.879304748217 2789.34564203022 226 230 231
-553.874969925356 492.780391851276 2798.1935112602 243 247 250
-549.65765249967 492.679602894995 2807.00947463111 213 217 220
-548.404528628407 492.777140028537 2815.10042633457 196 200 203
-552.103587994875 493.207482929597 2822.03359735255 191 195 198
-552.829416187792 493.436905815903 2829.65456716273 192 196 199
-545.614981689927 493.12935602103 2839.05433687953 188 192 193
-541.368188492104 493.020684527134 2847.74504929702 175 179 180
-539.101268725594 493.044681888841 2855.96829288862 159 163 164
-539.811877038905 493.269212244017 2863.5250727828 150 154 155
-537.536703795437 493.290622943727 2871.71346819817 158 162 163
-540.233873621671 493.648402118589 2878.83190968466 160 164 165
-539.944022250488 493.802904764512 2886.57659639059 167 171 172
-540.647999309807 494.024088123693 2894.10612375954 128 132 133
-535.366647486279 493.837296953367 2902.84032928369 126 130 131
-534.068383340125 493.920420010139 2910.74084486341 140 144 145
-532.76627276056 494.002356140681 2918.62510895654 143 147 148
-534.457976907412 494.287575654129 2925.91197358434 138 140 139
-532.15025047666 494.299124470808 2933.96272137156 118 120 119
-527.836440912503 494.172538878635 2942.36865762302 146 148 145
-525.517283449766 494.181066334494 2950.37081077468 146 151 147
-523.19302812066 494.188247948036 2958.35129137565 137 142 138
-525.875096033601 494.537626079624 2965.4081263658 137 142 136
-529.561313801556 494.955389185098 2972.29210893999 120 122 117
-532.246126259729 495.304085683225 2979.36143888946 110 111 105
-529.911323892015 495.307473432239 2987.29767459955 125 124 119
-525.561733974775 495.171219032119 2995.55162891384 127 126 121
-527.23699244436 495.448556811874 3002.77066020745 93 88 82
-525.893986435242 495.517334803019 3010.48245470541 56 49 39
-513.474202414838 494.821498736218 3019.95704067261 80 72 61
-511.109424580166 494.817380205257 3027.76560218405 68 60 49
-513.778748609675 495.160096327127 3034.77019867089 66 56 46
-520.483250863267 495.781447451739 3041.16443043522 65 52 43
-895.858528724598 494.96372329913 2235.12735409992 247 248 250
-854.800716602405 492.731824814815 2260.56922875549 246 246 248
-807.94310805977 490.140634458627 2288.0047107527 252 252 254
-784.973827313384 488.991902422899 2305.93974278234 255 255 255
-770.600469412183 488.361610334354 2320.43859859676 247 249 248
-769.636717363984 488.544779173449 2329.75323679758 246 248 247
-761.94991779393 488.317189527442 2341.58195677551 250 252 251
-760.013892852958 488.438896275625 2351.20693021843 234 236 235
-752.30644234199 488.206688237142 2362.94736666123 235 237 236
-737.85450974621 487.559706796409 2377.10870690152 241 243 242
-716.645122564645 486.495473508171 2393.63524437965 248 250 249
-703.110093701724 485.89813286638 2407.25138673351 250 252 251
-689.555439807444 485.296756496594 2420.78342359554 253 255 254
-679.838045340385 484.928695724757 2432.86069349032 250 252 251
-673.965539700297 484.795201370475 2443.51499383925 247 248 250
-670.979494845088 484.838192963036 2453.11567930064 244 245 247
-671.851944733821 485.118339135911 2461.35182843879 240 241 243
-668.856524323647 485.15871040027 2470.91165459367 245 246 248
-664.887559616596 485.13750219034 2480.77519608344 252 253 255
-660.911308725674 485.114569087458 2490.60764498221 249 250 252
-660.801953756979 485.330258639211 2499.11280091832 240 241 243
-659.721139081891 485.484890495336 2507.92946479013 236 237 239
-657.667004408248 485.578026721152 2517.04969665937 237 238 240
-653.667085493962 485.548737737217 2526.78158895654 239 240 242
-653.544189454021 485.759986248725 2535.22860080902 235 236 238
-650.503696380949 485.788282070094 2544.59799968005 227 231 232
-649.401755554296 485.936535524348 2553.32532114534 214 218 219
-644.404655339901 485.839882214389 2563.25908659694 224 228 229
-644.266652737759 486.046315674674 2571.64236230392 223 227 228
-645.100101694058 486.313066208378 2579.715616191 219 223 224
-643.008320890766 486.395169116468 2588.67644699851 235 239 240
-641.886968615185 486.537283330453 2597.32184135623 231 235 236
-638.810120051147 486.555219345802 2606.5360439137 190 194 195
-638.65676471067 486.756345160319 2614.85587482015 181 185 186
-630.683243737852 486.462776764335 2625.45994193971 220 224 225
-624.653167376756 486.290071286584 2635.44295776955 229 233 234
-623.505448840743 486.424668024045 2643.9765887538 236 237 241
-619.41677174426 486.372021225582 2653.33109975587 219 220 224
-610.422271383931 486.00667704677 2664.03476664445 189 190 194
-607.295943911342 486.011947943544 2673.03947229346 203 204 206
-606.125428298963 486.140339661522 2681.47629583764 232 233 235
-607.895919195415 486.454941892575 2689.09305824237 203 204 206
-602.791155833601 486.330788360469 2698.56857267805 197 198 200
-602.591631952615 486.518189760159 2706.69303069441 162 164 163
-605.340135595982 486.892889259349 2714.02664011035 165 167 166
-605.137488264189 487.078476894238 2722.13840120327 170 172 171
-588.193152720951 486.191593861814 2734.5717812405 183 185 184
-563.343103951092 484.794735632176 2748.92141336629 193 197 196
-555.219858290989 484.466786261995 2758.88592916782 169 173 172
-554.976256238321 484.6430236909 2766.82271969184 220 224 223
-559.665936175439 485.135544887711 2773.52815746171 205 209 208
-563.371593213307 485.564485139034 2780.49122660719 132 136 137
-563.125988790844 485.738582327684 2788.42045235767 171 175 176
-562.878103188434 485.911808708377 2796.33905168753 243 247 250
-557.679475501271 485.764396374996 2805.4146259883 211 214 219
-553.462282919291 485.678959709523 2814.22210977631 203 206 211
-551.21939036974 485.719904155863 2822.54126338304 194 197 202
-549.962860165748 485.823562041655 2830.61360479882 206 210 213
-544.734225373589 485.668753651238 2839.56130065601 202 203 205
-545.452908568841 485.898500905176 2847.1505947147 199 200 202
-546.170497764169 486.127467286064 2854.73444085396 186 187 189
-546.886746998718 486.355623049204 2862.31285913425 166 167 169
-544.617699755806 486.388752415859 2870.52244310476 150 151 153
-548.314984311136 486.809589492458 2877.4533842996 154 155 157
-551.018663070367 487.165314279445 2884.60171621225 138 139 141
-549.737807267868 487.260361873866 2892.57192934266 128 129 131
-544.465019015651 487.093682252713 2901.33204193083 122 123 125
-541.178840554446 487.055400281917 2909.6568821517 126 127 129
-538.884547825372 487.080904190192 2917.75861862559 140 141 143
-539.581655706751 487.301476216589 2925.2582360118 139 139 139
-539.278170856501 487.455699988352 2932.94300979253 133 135 132
-538.971826751637 487.608920688157 2940.61686043773 153 155 150
-535.660815009276 487.563791737684 2948.83629810915 154 156 151
-531.341923343505 487.451193699831 2957.21161267537 119 124 118
-530.021445118109 487.534807800221 2965.01395143001 109 114 108
-535.715321491754 488.079999272184 2971.557071332 109 112 105
-540.410830743563 488.559298710869 2978.29597302138 111 112 106
-540.09052036915 488.707034102334 2985.91150652966 111 111 103
-536.754409673327 488.654722895759 2994.0245681453 112 112 104
-538.437205119441 488.933366197098 3001.27604382713 127 124 117
-539.113939791037 489.144797664375 3008.69126131202 101 97 86
-524.694875430165 488.354744988651 3018.52409533547 56 49 39
-502.200000427623 487.026320644642 3029.5425091057 79 72 62
-912.882238184615 487.014017901954 2219.12832195239 249 250 252
-885.261916687761 485.683151025671 2239.45843553513 237 238 240
-837.516987671832 483.184449527599 2267.48696666288 246 247 249
-801.193458283449 481.337861502269 2290.7799841455 254 255 255
-776.31332237842 480.147498745052 2309.43307354798 250 251 253
-762.899055864048 479.617588682611 2323.54170379972 249 250 252
-759.055090424781 479.640755097712 2333.92887783909 247 248 250
-754.243925269063 479.60640430815 2344.64642219994 248 249 251
-753.265280584637 479.793832855729 2353.89401586942 249 250 252
-751.322370800144 479.924226800759 2363.48245479601 240 241 243
-736.875979101342 479.322982244426 2377.64131047346 240 241 243
-715.674351645411 478.323382678492 2394.16402632101 244 245 247
-698.293874698785 477.543490151813 2409.16899415393 249 250 252
-684.741961051306 476.984704378049 2422.68805572176 247 248 250
-673.098331237598 476.535079526548 2435.43801012185 247 248 250
-671.082623556426 476.649463360331 2444.71616268214 246 247 249
-669.062340009445 476.762521059298 2453.97384492455 241 242 244
-671.86597591584 477.159047716409 2461.53864718907 238 239 241
-669.839178971432 477.269993716932 2470.76886968837 229 230 232
-664.906540786185 477.207936118904 2480.96634384691 252 253 255
-659.965362824519 477.143878634625 2491.1273631068 239 240 242
-658.888584760089 477.30748246896 2499.9565375822 236 237 239
-659.746021341974 477.585028103533 2508.1280590074 235 236 238
-657.693877070733 477.688980232101 2517.25070017359 235 236 238
-654.666636102423 477.733745158716 2526.66880885012 232 233 235
-655.516374548353 478.008453215577 2534.80807683136 233 234 236
-650.536901575373 477.934407048564 2544.80622126353 219 223 224
-650.408529091628 478.148885127367 2553.22828763949 213 217 218
-645.415022115887 478.071308872933 2563.16666646617 197 201 202
-644.305656092036 478.224986949592 2571.85807765637 209 213 214
-645.140373438469 478.494374094573 2579.93428362064 205 209 210
-643.050383036355 478.587386824779 2588.89767357499 211 215 216
-641.930951283953 478.737630805599 2597.54566278846 224 228 229
-637.88060541643 478.710367480834 2607.05415350076 229 233 234
-633.822888421723 478.681190994905 2616.53128804619 213 217 218
-626.827041629014 478.473128772178 2626.8368519793 199 203 204
-623.730391454726 478.498973748223 2635.95914546101 204 208 209
-625.518228697133 478.819415363153 2643.64891130763 212 213 215
-621.433436908482 478.783177187371 2653.01089219461 223 224 226
-616.36193949619 478.685670251841 2662.61732287846 161 162 164
-614.221603156134 478.764755641123 2671.36705128155 165 166 168
-613.057347640367 478.902028807564 2679.8251502233 182 183 185
-610.907754633919 478.978353766834 2688.53571202522 217 218 220
-604.826043828517 478.813712761529 2698.28645353731 149 151 150
-603.64671396678 478.946652129203 2706.6817616504 155 157 156
-607.379297331017 479.378983704603 2713.76148901009 159 161 160
-611.114127989791 479.811312444938 2720.85220732009 176 178 177
-604.023729810037 479.579756708023 2730.75494157976 137 139 138
-582.147865811561 478.439013373326 2744.38959959848 148 153 149
-569.112539943459 477.837431812015 2755.65272272351 153 158 154
-561.975607569066 477.595964378449 2765.35623029439 137 142 138
-562.722184842498 477.838166868299 2773.06002953085 184 188 187
-566.429582609172 478.262214859217 2780.03473320698 191 195 194
-571.127635106476 478.747161468847 2786.78152041719 133 137 136
-573.851900895409 479.109981195386 2794.01639761131 117 121 122
-570.641751327917 479.105174512649 2802.65657579365 126 130 133
-564.455339542787 478.914774121231 2811.962181812 195 199 202
-557.268737703436 478.66081424894 2821.45307838748 196 200 203
-554.035235161978 478.65035548342 2829.99476071647 162 166 169
-548.812056611224 478.515004701157 2838.95505558172 167 169 168
-552.511719709935 478.933245496855 2845.89800505431 157 159 156
-551.248589582714 479.042065994354 2853.93822693289 179 181 178
-553.956125684356 479.397533307941 2861.10370795214 206 208 207
-550.699482984643 479.380218720573 2869.54636739506 176 178 177
-554.40036471673 479.796485102433 2876.49693456351 143 145 142
-556.112768807041 480.088009191878 2883.87130690177 132 134 131
-551.848385680809 480.00481167254 2892.4695250182 135 137 136
-547.57669255535 479.919814423944 2901.03550320518 133 135 134
-544.294470044884 479.895478554336 2909.37065938955 126 128 125
-545.995847952895 480.182952229403 2916.69882634849 114 116 113
-545.699851857536 480.344386889656 2924.4134450918 115 116 111
-548.39908114846 480.69348509144 2931.54498121846 117 118 112
-547.099950591554 480.790284597518 2939.43363485327 129 130 124
-541.795251242403 480.633408143885 2948.04736289215 131 134 127
-537.482718377216 480.537762879276 2956.44072692335 128 131 124
-541.175895111841 480.946851627186 2963.36156309143 128 131 122
-551.88762409235 481.799661631024 2969.05109362656 112 115 106
-959.450603959559 480.563151462212 2191.1790200815 247 248 250
-929.026501596681 479.168769872912 2212.86172424678 239 240 242
-880.404759487536 476.769815322182 2241.52533709381 237 238 240
-824.06870083957 473.937877088227 2272.90223561026 248 249 251
-791.577144249994 472.408152226133 2294.66805025094 254 255 255
-775.31724115177 471.767328399934 2309.9727092934 249 250 252
-760.950201689046 471.227440727093 2324.44514844629 248 249 251
-753.272851595736 471.054537766754 2336.28334333097 248 249 251
-747.501944338509 470.985212346409 2347.34760251639 249 250 252
-748.440267029155 471.286442784996 2355.86271043966 247 248 250
-748.417328877855 471.533749466358 2364.72898600096 242 243 245
-737.819642981049 471.191869451092 2377.46819288401 241 242 244
-711.818227397733 469.989126373175 2395.74396681702 246 247 249
-694.44238723673 469.262739789777 2410.73789654577 248 249 251
-681.856725592801 468.800498293753 2423.90162999536 250 251 253
-672.143715620316 468.496242335867 2435.95960617654 248 249 251
-669.165226253784 468.567212230175 2445.57712954311 247 248 250
-667.145686017638 468.690754113094 2454.83192078596 242 243 245
-668.017725543263 468.975920142817 2463.06330911239 220 221 223
-667.9224424864 469.206022443511 2471.62199687706 226 227 229
-664.924740173843 469.271639551745 2481.15800528735 233 234 236
-660.953983750279 469.281058718813 2490.99455101018 230 231 233
-658.911413241387 469.398194493847 2500.1527118998 234 235 237
-656.86423943784 469.513883679822 2509.2903524515 229 230 232
-656.750659420616 469.738258333734 2517.77069568977 220 221 223
-655.664762903608 469.906530679745 2526.55694315268 237 238 240
-655.545604207142 470.128910550923 2535.01496319835 222 223 225
-652.511223907099 470.184343398002 2544.39425094018 211 215 216
-652.385453630445 470.404478860816 2552.82445664869 217 221 222
-650.312937101151 470.512654307689 2561.85484191119 196 200 201
-648.235549653811 470.619407520086 2570.86459961922 201 205 206
-649.073564368181 470.891982000668 2578.95454740694 205 209 210
-646.014250919605 470.940434866347 2588.22807075348 193 197 198
-645.872795566861 471.155076554637 2596.59239025445 222 226 227
-638.901501899867 470.9762591933 2606.98894850847 238 242 243
-635.823188716957 471.019627610765 2616.1817386045 231 235 236
-628.832189913866 470.836124278781 2626.49422083065 193 197 198
-629.647911800729 471.101469044256 2634.4890994707 197 201 202
-629.484450926339 471.309580010097 2642.76029114478 189 190 192
-624.426424352517 471.233439599739 2652.4135149982 193 194 196
-619.359749711813 471.155164842397 2662.0298858483 149 150 152
-621.142224432119 471.47294203799 2669.6975884628 152 153 155
-623.904954102416 471.847110284282 2677.09528481147 137 138 140
-622.745280813379 471.992595024128 2685.56983231089 147 148 150
-613.729643392815 471.679358490728 2696.14970914012 146 148 147
-612.557593289187 471.821484490786 2704.57169277715 165 167 166
-612.364538279511 472.019841166446 2712.71821282544 145 147 146
-616.102802008273 472.447371512393 2719.82579506457 185 187 186
-609.019120295895 472.240756167205 2729.74345681849 153 155 154
-595.031791453689 471.627318421625 2741.37597312043 140 145 141
-580.03944180603 470.952100614086 2753.17253272573 136 141 137
-568.969476286208 470.504463871263 2763.8928066181 135 140 136
-566.761922669586 470.575942932897 2772.34972442451 129 133 132
-570.472155337359 470.995262471978 2779.33861501571 204 208 207
-575.172465481971 471.472558773073 2786.09985038004 190 194 193
-577.89963726087 471.833220690081 2793.34880219039 126 130 131
-576.672124026603 471.959491643583 2801.53570879556 121 125 126
-576.430356567823 472.143162595747 2809.47621143977 174 178 181
-569.254794212067 471.914834077274 2819.00067880394 188 192 195
-562.067776211642 471.684013458356 2828.47721819182 137 141 142
-557.843910298017 471.627445832634 2837.23831561617 129 131 128
-563.533264033594 472.15947367744 2843.76924858929 126 128 123
-565.256745924512 472.455114973926 2851.19001448155 122 124 119
-564.00018611636 472.572536405374 2859.25413017631 124 126 123
-558.764127833992 472.45126879585 2868.1493862742 130 132 129
-559.486642887084 472.684790912385 2875.75225904089 131 133 128
-559.212464557197 472.857872562488 2883.55616902799 123 125 120
-550.969492949026 472.552631324324 2892.97974726201 127 129 126
-545.703263049456 472.424054864829 2901.74634868859 131 133 130
-545.413480445242 472.592858759944 2909.48292689362 130 132 127
-550.10918478452 473.0606216769 2916.2294736559 128 129 124
-553.810042556041 473.468379727691 2923.18493956278 116 115 110
-566.503215338312 474.417696970443 2928.43627671993 116 116 108
-559.220113032157 474.162815194578 2937.50247897137 121 122 114
-551.925479300477 473.905486043414 2946.52039300661 121 122 116
-549.623365795104 473.94832132854 2954.57747289227 115 118 109
-1041.00382962066 475.349065640605 2138.95282776667 247 251 254
-1009.73486895374 474.015883169227 2161.43409740502 243 247 250
-983.193026347044 472.921909793711 2181.82087024828 236 240 243
-867.908499169272 467.478871418934 2246.60438786092 239 240 244
-797.246730564534 464.062049601964 2283.54950026665 249 250 254
-781.010080828136 463.475873743148 2298.92448484547 249 250 254
-767.621444726776 463.035097964811 2313.093631563 249 250 254
-760.91715925546 462.941869644003 2324.61644081476 248 249 251
-751.32717415242 462.695196441469 2337.1826670306 250 251 253
-747.476043054815 462.748085102341 2347.52186981441 251 252 254
-748.415597311507 463.052003625269 2356.03973727199 242 243 245
-753.194550499916 463.558034244171 2363.131704941 248 249 251
-737.800941860069 462.997873923583 2377.64881957296 242 243 245
-709.886828104424 461.771622676682 2396.62278399641 239 240 242
-686.744609975288 460.792870220381 2413.69577801786 243 244 246
-676.084907467733 460.472471287617 2426.14906957479 247 248 250
-670.225524632417 460.404783890202 2436.82357745666 250 251 253
-670.140034380677 460.643164676468 2445.41946240745 240 241 243
-667.158429231326 460.726090807749 2455.01622357482 239 240 242
-666.10115084132 460.91077486933 2463.91892612948 241 242 244
-666.971884677713 461.197739538301 2472.14350293735 224 225 227
-667.84151800643 461.483992918096 2480.36364863251 200 201 203
-663.875022791009 461.509956530744 2490.21032719721 238 239 241
-658.93370374202 461.482089690496 2500.34943859033 245 246 248
-658.824835280897 461.712962772586 2508.84780790193 241 242 244
-659.682614308203 461.995195849599 2517.01808133803 240 241 243
-658.600253855322 462.171890658817 2525.8149569154 225 226 228
-656.544292838314 462.295024756005 2534.90949709713 230 231 233
-654.483253926085 462.416771478168 2543.98356357128 227 231 232
-655.331563594699 462.69528165844 2552.1142992531 221 225 226
-654.234781246586 462.867453566114 2560.85028388851 202 206 207
-652.161881041552 462.985513024346 2569.87316500235 187 191 192
-651.057202960111 463.155102385216 2578.57587546528 197 201 202
-650.922865760058 463.376865048835 2586.9662869052 189 193 194
-648.836954864898 463.490948165596 2595.93526060021 188 192 193
-645.771444016217 463.550302820067 2605.17506256141 190 194 195
-637.821427261267 463.340525183129 2615.83341979504 214 218 219
-632.787913648857 463.288763145235 2625.58032329219 242 246 247
-629.699422784035 463.34247246745 2634.7232688963 218 222 223
-630.515004736643 463.609817799071 2642.71635423786 183 184 186
-623.504224436255 463.444871600459 2652.93075311007 173 174 176
-621.376176682017 463.547651339875 2661.71960943638 150 151 153
-623.160625298492 463.865654741853 2669.39587712546 143 144 146
-626.904934769232 464.291699694847 2676.53206045107 139 141 140
-625.749057457087 464.445754762427 2685.01720801041 135 137 136
-621.645530912917 464.434965814046 2694.28166438512 133 135 134
-622.443698460075 464.69548935569 2702.20311060529 131 133 132
-625.205873927162 465.064631362404 2709.60023467526 135 137 136
-626.002783132035 465.323722056628 2717.51697866966 177 179 176
-617.945279810339 465.087631815454 2727.7171644853 165 167 164
-606.922382825023 464.683726790318 2738.61912784339 130 132 129
-595.883348570393 464.27633232026 2749.4520334893 133 135 132
-588.770615762359 464.086655610258 2759.23063024482 133 135 132
-584.605033830284 464.060605280898 2768.23061113602 142 144 141
-581.418693760345 464.088051495889 2776.95782396775 117 119 116
-581.188641337782 464.280738854942 2784.94356023262 120 122 119
-580.955811942444 464.472321691392 2792.91879561301 134 136 133
-582.697864849119 464.774593019313 2800.41749651358 139 141 140
-585.429057954893 465.132191140672 2807.68597062749 129 131 128
-584.202108221577 465.265315475397 2815.87024299635 116 118 115
-581.980455817587 465.341133900917 2824.26356757536 116 118 115
-575.789510226675 465.190604977666 2833.52465753186 131 134 127
-578.514190185315 465.544818709406 2840.766421561 124 127 118
-574.29343698955 465.50365810822 2849.53217350182 118 121 112
-576.023143929885 465.79985701598 2856.98004257331 122 125 118
-568.810417104562 465.585628340424 2866.33244884283 118 121 114
-577.493923938548 466.277030986556 2872.29329900592 112 115 106
-1078.74203551757 467.776302843307 2113.76353878926 240 245 248
-1046.57988009022 466.500099317119 2136.83177143103 238 242 245
-1011.5143267285 465.075265960871 2160.86368649094 237 241 244
-986.891236516394 464.155974262849 2180.49003190843 237 241 244
-789.552610288727 455.273877776335 2286.71071151251 246 247 251
-774.273873330908 454.785173626117 2301.69307506715 247 248 252
-766.627382964764 454.671186604016 2313.6326032275 248 249 253
-760.883585817164 454.649540792588 2324.78828155911 246 247 249
-750.339976343963 454.387664421578 2337.71872473511 248 249 251
-742.656384061491 454.265630926442 2349.49949318614 248 249 251
-744.5530229415 454.619439421547 2357.64907631455 239 240 242
-746.449862550629 454.972935576641 2365.79972767911 246 247 249
-728.176710398017 454.316364896768 2381.35601365364 247 248 250
-703.150357364077 453.317142771968 2399.25127720325 234 235 237
-683.859639186132 452.600957870611 2414.9150511505 239 240 242
-676.089969177815 452.460601131681 2426.32728876866 232 233 235
-671.196967589788 452.463087223761 2436.66146208037 239 240 242
-670.149704731508 452.65824171825 2445.60214046142 251 252 254
-665.24217073157 452.657169242261 2455.87436864166 238 239 241
-661.290874385539 452.703063154831 2465.77629981479 248 249 251
-664.090249174448 453.09005828153 2473.32793127984 233 234 236
-666.891241224672 453.476915722514 2480.88568390006 195 196 198
-665.826771821441 453.66666000982 2489.75372245514 181 182 184
-660.88963875881 453.657915046652 2499.90003284805 239 240 242
-660.783358790354 453.894385285632 2508.40651648219 242 243 245
-659.706289015651 454.080442851772 2517.22119896262 242 243 245
-658.625611548179 454.265239142136 2526.02072571502 220 221 223
-656.571647672041 454.399190309283 2535.11770420076 241 242 244
-658.394302505502 454.731390178014 2542.95398055753 188 192 193
-659.246136972122 455.013114228766 2551.09835823295 204 208 209
-657.181726867931 455.143648962306 2560.15240047514 218 222 223
