ply
format ascii 1.0
comment KinectMotionCapture
element vertex 782
property float x
property float y
property float z
property uchar red
property uchar green
property uchar blue
end_header
-784.450832873251 -193.118065396622 2207.47316990832 14 17 8
-775.091166330306 -192.458509155044 2203.45725055962 16 19 10
-771.414358388509 -192.777922922776 2216.50195421408 16 19 10
-757.725093355686 -191.360625579801 2199.18350882348 18 21 12
-746.921096551512 -190.434545741414 2190.37918873302 22 25 16
-739.545131614776 -190.105017839552 2192.01746096383 28 29 21
-734.298620775415 -190.153078976014 2200.31968082197 24 25 17
-725.71233908301 -189.608169148224 2198.14747823816 18 19 11
-721.029946508942 -189.762497256201 2208.37008151279 19 20 12
-709.209514246731 -188.628768989949 2195.6842587464 24 25 17
-705.387137393312 -188.94298008857 2208.78249990815 25 26 18
-701.218165690156 -189.201649667061 2220.9440521487 19 22 15
-687.781552337796 -187.752606186053 2202.46939366851 16 19 12
-692.727926040274 -189.713226678005 2245.3229263376 17 20 13
-688.123852931824 -189.91303972725 2256.58045184037 15 18 11
-675.625033655401 -188.626953627293 2240.95268517698 15 18 11
-668.501907492604 -188.34997054943 2243.56168323255 16 19 12
-667.158499241473 -189.181997751213 2266.38622293777 17 20 13
-660.800791174238 -189.061198120396 2271.90525458144 17 20 13
-656.859030896955 -189.413354928533 2286.11056539752 16 19 12
-653.926456272982 -189.973230420381 2304.20000771495 18 21 14
-985.937261116195 -216.662743840673 2324.48295545065 18 21 14
-975.409930094417 -215.892576664216 2319.83308199234 4 7 0
-963.473928889824 -214.888282043967 2311.44596304256 21 24 17
-960.593915729208 -215.357480831763 2326.32322649099 15 18 11
-953.360369818979 -215.119224331759 2330.0362327481 14 16 11
-938.67389908132 -213.649364005662 2314.15063183803 13 15 10
-920.921324536263 -211.656699564441 2289.8187389397 10 12 7
-892.832418883846 -207.916732583155 2237.37528420448 5 7 2
-907.026043749963 -211.24766990589 2298.09820123747 6 8 3
-889.563458094358 -209.266502436798 2273.66007702032 7 9 4
-878.744050651829 -208.395828008948 2266.99054254694 9 11 6
-852.371406270764 -204.857482573332 2217.10821598856 20 22 17
-841.436233155733 -203.937600501028 2209.41764578418 21 24 17
-835.903203650208 -203.945380902215 2216.76070594741 15 16 10
-830.676061915646 -204.009941839455 2225.05489765131 15 16 10
-812.259960104516 -201.767891926677 2195.64961586154 14 15 9
-805.115846467956 -201.488949697226 2198.26638727562 13 14 6
-796.029068400114 -200.865458059572 2195.21540670647 14 15 7
-795.968142364486 -201.848597435711 2218.62912704245 15 16 8
-786.23412704483 -201.110338680962 2213.68860465566 14 17 6
-775.593129025537 -200.202343028843 2205.89050704728 18 21 10
-766.576591344534 -199.581772622058 2202.81353079097 19 22 11
-759.146026088839 -199.247134460715 2204.47177264013 20 23 12
-750.179028015842 -198.628603155822 2201.37689723555 21 24 13
-741.548961669681 -198.068055662461 2199.22152884234 26 28 17
-736.280973517046 -198.131548782664 2207.5306421524 23 25 14
-726.171362841429 -197.289362406545 2200.60106238858 17 19 8
-718.200510316845 -196.844280856209 2200.33083154791 18 20 9
-714.383430005591 -197.188531909341 2213.42462740919 22 24 13
-707.287419075313 -196.912083735001 2216.02373312317 23 25 14
-696.706822665898 -195.962102826861 2207.14030095875 17 20 13
-690.794152145817 -195.911114778284 2213.55892259047 15 18 11
-684.290911924542 -195.747525880332 2218.06724950693 16 19 12
-683.150019567067 -196.644472532949 2240.81356361163 18 21 14
-684.423437267881 -198.038889125286 2272.24464805013 16 19 12
-665.833958454489 -195.477344683482 2235.46006473621 16 19 12
-668.358205040284 -197.144687457777 2271.74937314803 15 18 11
-663.074450265944 -197.252941228479 2281.12739403874 14 17 10
-667.202191547241 -199.296596470652 2324.27210150523 16 19 12
-656.678889543041 -198.349235554359 2315.36740014392 18 21 14
-640.128267830551 -196.136250577839 2284.21582444919 31 34 27
-973.465029171025 -221.758833704936 2272.09852811793 13 16 9
-985.461766801929 -224.745611016251 2324.04585515614 18 21 14
-976.029957630965 -224.139032720714 2322.18551744298 14 17 10
-957.568732442357 -221.991723282184 2297.056215911 7 10 3
-950.050028757148 -221.697575764245 2299.81023722057 14 16 11
-952.528529430605 -223.12459995454 2328.66764268342 13 15 10
-943.165095979214 -222.520863236173 2326.78224710198 13 15 10
-908.137314635153 -217.445530277677 2256.69460764383 12 14 9
-900.060461816723 -217.034693009605 2257.52686314235 9 11 6
-904.82460090327 -218.883818715257 2292.98861867825 6 8 3
-883.065636642441 -217.083046078883 2279.697688131 8 10 5
-863.108329333402 -214.545036254434 2247.67504611338 18 20 15
-852.763139485276 -213.713142776692 2241.89684073179 20 22 17
-841.462441943979 -212.701395953453 2233.27945438327 15 16 10
-823.927651578961 -210.543269174266 2206.74780423632 14 15 9
-815.429668215853 -210.021259620717 2205.60834792864 13 14 8
-803.69013045163 -208.897451125439 2195.02575147075 14 15 9
-803.67424155863 -209.942406813212 2218.41844398204 15 16 10
-799.371457528862 -210.202170290927 2229.56197649221 17 18 10
-792.793060252874 -210.040436869784 2234.09772509569 18 21 10
-775.4622821909 -207.842962822307 2206.42810788901 20 23 12
-769.577925618338 -207.803450793628 2212.83557611626 20 23 12
-763.051757812904 -207.643864655964 2217.35218577567 19 22 11
-752.200182685772 -206.650034971278 2208.57026451082 19 22 11
-746.91282603977 -206.72899902389 2216.88524781534 22 24 13
-736.139060231496 -205.738280962935 2208.07482072587 20 22 11
-728.733352053885 -205.401914613362 2209.72441576488 18 20 9
-721.631183087436 -205.124965234256 2212.32579674136 20 22 11
-715.415730972889 -205.025257051325 2217.79155007165 23 25 14
-709.185385253879 -204.925002162717 2223.26275605758 24 26 15
-701.488776487324 -204.529892631435 2223.95566792934 18 21 14
-690.350578166248 -203.430097165143 2213.15277044739 12 15 8
-681.280827385905 -202.743799020305 2209.03353153382 14 17 10
-673.942986146006 -202.410318834484 2210.65799589473 19 22 15
-664.370948740609 -201.609421745362 2204.59679077362 17 20 13
-672.879270376262 -204.6039180459 2261.01093095595 16 19 12
-663.234129413575 -203.800234012697 2254.97624307669 14 17 10
-673.514368348952 -207.244258118001 2319.24562007992 13 16 9
-664.315320714768 -206.553132036987 2315.17372384451 13 16 9
-654.084232498852 -205.631620417491 2307.22771041196 16 19 12
-637.559680590458 -203.323661605278 2276.07357420067 31 34 27
-999.672914053706 -235.412635700182 2360.74312308701 16 19 12
-990.503617156244 -234.852985352216 2359.85016594997 16 19 12
-966.87346304609 -231.718185196186 2321.74063361793 17 20 13
-963.239404145348 -232.128694226093 2334.76293165735 13 15 10
-952.053893530276 -231.188842335428 2328.2316357654 12 14 9
-948.006025815966 -231.532987861091 2340.34273708209 13 15 10
-932.650543078339 -229.827224635569 2322.58490013158 13 15 10
-915.661903874149 -227.806399754448 2300.11067805977 11 13 8
-910.596992441412 -227.960142099811 2309.40600706559 6 8 3
-898.959043460582 -226.90225488541 2300.91463819653 6 8 3
-877.479829015181 -224.002510979885 2265.20552204976 5 7 2
-871.801178374059 -224.031848985709 2272.59986528458 14 16 11
-851.970555979171 -221.397604141611 2240.53845496598 18 20 15
-843.678287385609 -220.922843726675 2240.38724597151 18 19 13
-829.771090452357 -219.374406584189 2224.22443436936 17 18 12
-812.680446974408 -217.199079223255 2198.59926302744 17 18 12
-804.54779180037 -216.730636765039 2198.38958378354 18 19 13
-799.989153025528 -216.954655197569 2208.56196440913 21 22 16
-796.994275295229 -217.491076512193 2223.47589042241 22 23 15
-788.202435915268 -216.896458041477 2221.38212526258 20 23 14
-775.646974569993 -215.55174999532 2207.91247438429 20 23 12
-769.756889452369 -215.522856911636 2214.32147709599 19 22 11
-766.953014353445 -216.117105339436 2230.22819776969 15 18 7
-760.072492881606 -215.898791773023 2233.81117795926 15 18 7
-747.076874035744 -214.436486219321 2218.37721327567 19 21 10
-738.117660512983 -213.78523949987 2215.28197788192 18 20 9
-731.592621826104 -213.631143959954 2219.79750871054 19 21 10
-722.973176005699 -213.043476904855 2217.64058200097 21 23 12
-714.970320707696 -212.580423591429 2217.38333496795 23 25 14
-708.154096171892 -212.36478103118 2220.94275213434 22 24 13
-703.073932970373 -212.518527751652 2230.24336804517 13 16 9
-695.082986083743 -212.056021720768 2229.98175294575 14 17 10
-684.258244883307 -210.980256911668 2220.12970780613 14 17 10
-675.477795112587 -210.336191954636 2216.96897895245 15 18 11
-676.803112938472 -211.896212820691 2248.36871101953 17 20 13
-667.715856132596 -211.189946876533 2244.2573393048 20 23 16
-669.928391293442 -212.985725351952 2279.58340296202 17 20 13
-657.387909250077 -212.848851328607 2291.61656067547 11 14 7
-650.958382953325 -212.749102897499 2297.16009823239 12 15 8
-643.985353746124 -212.527624349795 2300.77692875918 25 28 21
-1032.03236612103 -248.491629775989 2420.52979817146 13 16 9
-1022.31217313906 -247.846622564211 2418.77714065002 24 27 20
-1004.23516676902 -245.656343496066 2395.64459259417 9 12 5
-977.255036404767 -241.793485518731 2349.20739651432 13 16 9
-982.165387247193 -243.839772541288 2384.6011516922 12 14 9
-963.351324428359 -241.461787743701 2358.55064360342 11 13 8
-954.258799473675 -240.894392104084 2357.63063103632 13 15 10
-928.107368975246 -238.229638584119 2334.26795563965 12 14 9
-915.324117795162 -236.935205123868 2323.0106428452 8 10 5
-896.427950317193 -234.448143807626 2294.86508398513 6 8 3
-894.767165620807 -235.283986528029 2313.53817132984 4 6 1
-882.17913332137 -233.997250177116 2302.20960173078 7 9 4
-864.961626259957 -231.787790141933 2277.69965629524 18 20 15
-839.886554534495 -227.999597822265 2230.56464722538 19 20 14
-828.325527826936 -226.859013166606 2220.98501302223 19 20 14
-814.532110128941 -225.260298249454 2204.78465468939 19 20 14
-797.908441820841 -223.07410960499 2180.05718946989 20 21 15
-795.984026572851 -223.846788416502 2197.76427327486 21 22 16
-791.411429889492 -224.092094554307 2207.94011914144 22 23 15
-785.525205007101 -224.074137070684 2214.34663987097 18 21 12
-775.515589560321 -223.20623803124 2208.44947868944 18 21 10
-771.500565516644 -223.57936340562 2220.5464600913 17 20 9
-767.744973944282 -224.015630057233 2233.61097206073 14 17 6
-759.622322871564 -223.539434857284 2233.39824290786 15 18 7
-747.851233279317 -222.284838016785 2221.77042236606 18 20 9
-740.093757793322 -221.875928791465 2222.48649061176 18 20 9
-731.746591993563 -221.338023948398 2221.29343594443 19 21 10
-724.015681747558 -220.930183639275 2221.99977138937 21 23 12
-714.229951705082 -220.071149097564 2216.0203410868 22 24 13
-708.293743953887 -220.051416597204 2222.44541070274 22 24 13
-709.006306825816 -221.510242671253 2250.87549194736 12 15 8
-701.821523268694 -221.229793814087 2253.50715394839 14 17 10
-688.371324862057 -219.538768244577 2235.05568936359 14 17 10
-681.244218060923 -219.260602327724 2237.66622298165 14 17 10
-675.516199352499 -219.30207636023 2245.07758780672 16 19 12
-669.208924181168 -219.214946993397 2250.57575481014 20 23 16
-657.395883040449 -217.852889005337 2236.83766387117 18 21 14
-656.822308412251 -219.102632049399 2262.55115410597 17 20 13
-643.732942019247 -217.425782780693 2243.96751607524 13 16 9
-648.102843803894 -219.875537139933 2288.06015294722 12 15 8
-646.438629951607 -220.923754043783 2310.98519582202 22 25 18
-1019.34853462323 -254.55410980984 2389.48198780142 22 25 18
-993.20579674211 -250.746258034495 2345.93630829641 15 18 11
-1015.4041641374 -256.182906810964 2424.9245730433 22 24 19
-991.605735393044 -252.801022123194 2386.8948241278 8 10 5
-981.321150388183 -252.008968209369 2383.22470524682 9 11 6
-965.367234469536 -250.103822572202 2364.63253472347 9 11 6
-953.07140002361 -248.898875671302 2355.32499430641 12 14 9
-940.490611349061 -247.627055863504 2345.05896928158 13 15 10
-927.632872572945 -246.288715175023 2333.83228780386 13 15 12
-912.427963383584 -244.468588621137 2316.02811641905 11 13 10
-906.616691129416 -244.520077413158 2323.46897475423 11 13 10
-888.839089633887 -242.153641244607 2298.10756621789 4 6 1
-889.838061397749 -243.585727119059 2324.30248947204 5 7 2
-864.835114620832 -239.71106408468 2278.2143552907 16 18 13
-836.431486968297 -235.09057118053 2221.68520870933 20 21 16
-824.564804067737 -233.846727832107 2211.15786567567 21 22 16
-813.426742140346 -232.742801054817 2202.48834282566 22 23 17
-800.070294414192 -231.162134270461 2187.19441136887 21 22 16
-796.506912616115 -231.635858716815 2200.1865143638 19 20 14
-790.322339292164 -231.561369751145 2205.63914543961 17 18 10
-781.896269467729 -231.009224816448 2204.47557970004 16 19 8
-774.122036579328 -230.59402160335 2205.19846573604 16 19 8
-769.174408827077 -230.790777864856 2214.4476814023 16 19 8
-767.294444084382 -231.664645655102 2233.19753603678 15 18 7
-756.094649665238 -230.502639534288 2223.48826886113 17 20 9
-744.046412350977 -229.140314038571 2210.90246425124 17 19 8
-735.107016991644 -228.456708941829 2207.80221536044 16 18 7
-732.500135219086 -229.190759786299 2224.69362318781 18 20 9
-724.759265002029 -228.776891409493 2225.4040322916 20 22 11
-720.568280928397 -229.17043196677 2237.56340622228 23 25 14
-711.648841678899 -228.487645134456 2234.45609909324 24 26 15
-705.948296945634 -228.543586743663 2241.85613568434 16 19 12
-697.350527516961 -227.929101272792 2239.6933566199 10 13 6
-688.209675039934 -227.181946877784 2235.60454332417 11 14 7
-683.336702559086 -227.437418259541 2245.88876001454 16 19 12
-677.864280240392 -227.558031974274 2254.26784209447 16 19 12
-670.976946288922 -227.344738324112 2257.85291875303 19 22 15
-660.518067036798 -226.267479254732 2248.93461120961 18 21 14
-657.189061030228 -226.917666305512 2265.02816530989 19 22 15
-652.711862089435 -227.300087683377 2277.29237081029 16 19 12
-645.250472388881 -226.952933724283 2278.96275667479 14 17 10
-645.718982627686 -228.587384961061 2309.60162698743 20 23 16
-994.520505014871 -260.487677647761 2372.45611635736 13 16 9
-1004.13539007374 -263.669413787161 2419.92111443683 9 12 5
-973.656618708529 -258.795496449237 2364.16481247011 10 13 6
-955.975761801771 -256.467744697208 2340.89895527585 10 13 6
-942.684618616578 -255.013018809067 2328.77171680268 10 13 6
-925.763459689259 -254.059458090454 2329.65846718708 13 15 10
-919.57194520116 -254.051333970853 2336.17542345758 12 14 9
-883.613809749466 -250.366222919483 2307.91966704574 6 9 2
-864.036632008984 -247.496662641075 2276.85048192895 13 16 9
-838.645240479702 -243.347637875001 2228.79081856464 17 20 13
-821.13802971706 -240.851258715966 2202.27466939462 18 21 14
-816.588113395367 -241.141086666903 2212.43916969741 21 24 15
-808.741342257944 -240.717482577374 2213.1887911577 22 25 16
-802.197129476946 -240.57861871916 2217.71039370533 19 22 13
-796.604107099101 -240.652282831006 2225.07002619564 17 20 11
-786.535391911782 -239.732633743195 2219.19798848784 14 17 6
-774.306042641378 -238.319343885212 2206.6818339957 15 18 7
-774.355986487676 -239.665761726119 2231.09467174233 16 19 8
-765.913524772019 -239.101948342724 2229.93819650077 17 20 9
-754.72353127638 -237.904638570819 2220.22803199839 17 20 9
-741.160444492395 -236.146933077175 2202.88942564999 18 21 10
-734.964778893596 -236.080112220742 2208.34550839474 16 19 8
-729.353874545316 -236.153046073828 2215.71169317564 18 21 10
-725.501824773624 -236.645471440653 2228.80726907184 22 25 14
-717.467042394844 -236.156020407583 2228.56361409637 21 24 13
-709.44818642374 -235.667189011125 2228.31412570632 18 21 10
-710.134115821121 -237.272246429004 2256.74285050404 14 17 10
-700.347775950321 -236.363588797104 2250.7673859164 15 18 11
-691.746305968144 -235.73507125528 2248.60701014419 16 19 12
-684.01681466401 -235.315985736838 2249.31367850325 16 19 12
-680.48870921563 -235.937946639151 2264.4148920731 15 18 11
-668.313923848597 -234.40983296649 2249.75446363106 17 20 13
-659.248723162254 -233.64626009914 2245.63940199867 17 20 13
-658.913392490258 -235.094455653611 2272.31765763042 17 20 13
-655.490486246021 -235.778963573292 2288.4424853438 19 22 15
-650.93038873547 -236.185200770254 2300.73501406622 20 23 16
-640.776503158547 -235.145243577753 2292.76988692324 19 22 15
-1012.83611081518 -269.995224475835 2374.68377839962 7 10 3
-1035.12917364818 -275.884387632742 2453.60349380513 12 15 8
-1013.32591740639 -272.707133273957 2421.23297583662 11 14 7
-971.841339049578 -265.395125094542 2337.66073314926 12 15 8
-970.304286148205 -266.375437669419 2356.27796360494 12 15 8
-959.417167697177 -265.399322280373 2350.70754301013 12 15 8
-939.026730649271 -262.399598921651 2319.9436665535 11 14 7
-926.896664434981 -261.130108651139 2310.5805119076 11 14 7
-923.546868861387 -261.733563059739 2324.55177891068 12 15 8
-920.827212677801 -262.484004157186 2340.4161147033 13 15 10
-900.178583979776 -259.351749436677 2307.62293619741 8 10 5
-878.020952958693 -255.85453815487 2270.07228166291 8 10 5
-867.247047878022 -254.821549663542 2263.39846132793 7 10 3
-862.567065126935 -255.128160456722 2273.6086990516 10 13 6
-838.857746742698 -251.203104927425 2230.25426630548 15 18 11
-823.003142825603 -248.992434404828 2208.44914132529 15 18 11
-815.482035876113 -248.637246109304 2210.14208521774 15 18 9
-810.24415244755 -248.799619902477 2218.4327996463 16 19 10
-806.912664714282 -249.403625377249 2232.39711883937 18 21 12
-799.356112501876 -249.047009024326 2234.10304907617 18 21 12
-792.440323056037 -248.83779360738 2237.69815697526 18 21 12
-782.683402200402 -247.96681231782 2232.77597115709 17 20 11
-773.905526186973 -247.317642253841 2230.68099428138 17 20 11
-766.083765036465 -246.889415590206 2231.42213176003 16 19 10
-753.968408693612 -245.436678231547 2218.86753573329 16 19 10
-739.496653846082 -243.402308809851 2198.68003433452 18 21 12
-733.915366932354 -243.489930061014 2206.03434980155 17 20 11
-727.109874801362 -243.284929388717 2209.58906453478 18 21 10
-720.596939658684 -243.152550803742 2214.09881341757 20 23 12
-713.779570957117 -242.947057131667 2217.65788055253 19 22 11
-717.178818805352 -245.282536262911 2254.64541242788 16 19 10
-711.709765236301 -245.435669937246 2263.02081683167 14 17 10
-704.48905562673 -245.153181505571 2265.66568600588 15 18 11
-691.866586198613 -243.496935558874 2250.11077523776 15 18 11
-681.878202584852 -242.494347745036 2243.14925167436 16 19 12
-682.551473436292 -244.233682269816 2272.63925491776 15 18 11
-674.229398417396 -243.663335460299 2271.43953162565 15 18 11
-665.654450605435 -243.021893288902 2269.27024023165 16 19 12
-659.820973026862 -243.099499166031 2276.71719601932 17 20 13
-654.500435777077 -243.319510484893 2286.10014907923 19 22 15
-658.73424333812 -246.115750562541 2330.21609119284 20 23 16
-651.932097861878 -245.97186475687 2334.83153498387 22 25 18
-1007.88557149236 -278.643042802557 2385.42951829549 10 13 6
-1006.64856313577 -279.74566091545 2404.99531369458 9 12 5
-934.146377876283 -270.839950279873 2330.67981305932 11 14 7
-929.344554801306 -271.163798198941 2340.93301937963 11 14 7
-913.781368224557 -269.085299310991 2322.21196199234 14 16 11
-893.570318907255 -267.336576681407 2313.68797835655 9 11 6
-845.147537584157 -257.708874110274 2202.94550481155 6 9 2
-880.224044805361 -267.134570710998 2323.88545811524 8 11 4
-837.404766883237 -258.684734355336 2227.01776454909 14 17 10
-825.857255530977 -257.402295911331 2217.44392280465 15 18 11
-813.721048163644 -255.96897724853 2205.96224810923 15 18 9
-806.86614316348 -255.764870438012 2209.53484895021 15 18 9
-804.524036255261 -256.63209666139 2226.32000583088 15 18 9
-801.46471035105 -257.343388688907 2241.24389970626 16 19 10
-792.940504335957 -256.754333631289 2240.11902976318 16 19 10
-781.287245541288 -255.403693742601 2229.52219970634 16 19 10
-771.580731559744 -254.512676155883 2224.58321094843 16 19 10
-760.056447304192 -253.167014710141 2213.93888966123 16 19 10
-747.682655111356 -251.596365909104 2200.42053345339 16 19 10
-737.834216682624 -250.635801218164 2194.47154807441 19 22 13
-731.65816595037 -250.585860604212 2199.91923036027 18 21 12
-721.572633461597 -249.552059876836 2192.99535969571 17 20 11
-713.915042110603 -249.124546196033 2193.6767943252 18 21 12
-718.045765033092 -251.714748931723 2232.51244700807 14 17 8
-719.938869439353 -253.769999647481 2264.73532554729 12 15 6
-716.465770411705 -254.464823700353 2279.81105557768 14 17 10
-702.890590530092 -252.527404810829 2261.42359222581 15 18 11
-692.839044091772 -251.494792735044 2254.48728346713 15 18 11
-681.43140324376 -250.089528165693 2242.73852216292 15 18 11
-679.030802520066 -251.081878726567 2261.66885799251 15 18 11
-678.478868961745 -252.593909782322 2287.35444085932 13 16 9
-670.13506652115 -252.011499472257 2286.16352216585 15 18 11
-658.013681400458 -250.386482014874 2271.49074864894 20 23 16
-652.167378909021 -250.476963512038 2278.94139272299 19 22 15
-634.84893641402 -247.370321922597 2244.93604564934 21 24 17
-1010.38923400247 -286.164195602857 2370.08611238503 6 9 2
-1012.89131343647 -288.128944297363 2398.89463293142 28 31 24
-1004.34013853504 -287.661797175158 2399.90347612401 8 11 4
-990.744122641607 -286.064188794979 2387.89804437252 9 12 5
-992.286762470895 -287.857987456641 2414.93444272611 10 13 6
-968.068856813829 -283.845287670929 2374.97133475258 10 13 6
-954.334517030058 -282.175475825212 2361.95479858922 10 13 6
-942.090504119654 -280.830519541332 2352.63873908844 10 13 6
-924.689886045847 -278.284061214648 2329.28756236227 9 12 5
-927.826434998142 -280.473293164427 2361.04828739772 13 15 10
-916.394208643288 -279.293275676107 2353.55819723973 11 13 8
-891.397833683923 -274.916581334099 2308.57211057156 11 13 8
-844.203591860917 -266.672443356201 2223.94481070899 6 9 2
-844.605771113358 -268.221326935057 2248.21439174132 14 17 10
-821.112722317215 -264.03657174873 2204.80097488578 17 20 13
-814.582708259753 -263.91454837141 2209.31614786275 19 22 13
-809.993100222699 -264.268284969215 2219.48999334163 16 19 10
-807.942862465566 -265.254537576402 2237.22667870542 13 16 7
-798.131551162502 -264.33754090348 2232.32772691356 13 16 7
-788.361504373413 -263.422100416016 2227.41341045218 14 17 8
-773.910482032319 -261.323761098482 2208.28975902345 15 18 9
-760.826987663398 -259.545501172201 2192.91181638471 15 18 9
-749.389729446672 -258.164835467623 2182.23851639663 16 19 10
-742.631662348352 -257.966962963443 2185.77571630805 16 19 10
-735.564212692246 -257.690292951004 2188.36446137656 18 21 12
-733.026884427865 -258.590546137018 2205.21780326503 18 21 12
-720.232828892875 -256.823427903332 2189.73360166445 18 21 12
-715.254960074639 -257.094958105942 2198.98841753767 17 20 11
-716.421396670035 -259.006446425849 2228.28599156171 14 17 8
-715.402617025283 -260.365863627118 2250.95278908534 12 15 6
-707.337139785974 -259.850001352382 2250.72253378105 13 16 9
-700.147300620683 -259.568298799346 2253.35612726773 14 17 10
-685.857717393339 -257.342584985837 2232.05006277522 15 18 11
-688.302442370094 -259.703784313557 2267.24910124634 15 18 11
-681.091383766671 -259.421146396022 2269.89047512653 15 18 11
-680.788945456845 -261.07496286615 2296.54151960666 15 18 11
-665.576403314797 -258.546434958275 2271.32716930106 15 18 11
-658.377780867097 -258.26418815374 2273.96399514874 21 24 17
-657.358111420826 -259.756532294664 2298.75445320094 19 22 15
-642.652539970232 -257.314417861476 2274.41619191216 17 20 13
-644.691143561418 -259.726084440449 2310.82553793706 25 28 21
-1008.37502081836 -295.52030979274 2388.24499978914 15 18 11
-1002.76020696208 -295.71772982302 2396.6697685977 15 18 11
-1000.00163677332 -296.581941310674 2412.53991345743 20 23 16
-1026.55438083224 -304.282255136006 2504.70807703854 9 12 5
-980.392881073968 -295.052932930605 2408.04674109019 10 13 6
-952.794082057184 -290.088313613804 2358.71753720045 11 14 7
-954.935757130765 -292.115404531736 2387.65230236546 11 14 7
-941.618726177555 -290.484766115486 2375.54774277177 10 13 6
-921.473983664151 -287.199266704185 2344.71615852334 12 14 9
-909.744257409479 -285.908143965726 2336.27573377726 11 13 8
-905.563956681619 -286.438790782126 2348.42088116102 11 13 8
-887.48315110813 -283.580805873363 2322.14042425807 9 12 5
-822.973950262292 -272.245752705739 2210.97172733617 16 19 12
-810.202995870046 -270.566677578184 2197.60585601006 17 20 11
-810.842090455032 -272.256972171994 2222.84549766064 14 17 8
-804.588152665767 -272.220445595617 2228.3202128235 11 14 5
-798.63893272279 -272.265205416636 2234.74514420875 12 15 6
-788.862506951246 -271.327548435743 2229.83482174115 14 17 8
-767.484947218924 -267.368766602211 2189.90245177263 15 18 9
-755.389569693407 -265.785228345577 2177.35046582788 15 18 9
-750.186321064266 -265.997752887141 2185.62481217907 15 18 9
-745.566509365286 -266.371809163371 2195.80809863042 16 19 10
-742.123566599336 -267.069417631877 2209.8061054324 14 17 8
-740.430296163618 -268.251721703402 2229.53141124142 15 18 9
-725.777027108159 -265.943432681791 2208.36371789961 16 19 10
-715.999702165062 -264.936028149628 2202.39268276675 15 18 9
-707.44545042699 -264.253950438055 2200.21893772827 14 17 8
-696.876615925282 -263.00734357283 2191.35361292321 14 17 8
-699.085226808003 -265.313431339517 2224.50923198699 13 16 9
-695.401809270473 -266.001302988933 2238.59534696293 14 17 10
-690.521916718483 -266.364778048931 2248.87392892503 14 17 10
-672.381223116157 -262.948447650157 2214.12440114088 14 17 10
-692.625891810386 -270.539179650015 2310.72590599688 14 17 10
-673.982961677727 -266.964350712065 2274.03745179318 15 18 11
-668.136132749811 -267.081655833844 2281.48600895081 12 15 8
-660.096254071595 -266.558082004467 2281.24678027179 13 16 9
-645.898051041545 -264.197783357479 2258.85136663029 20 23 16
-637.949455287548 -263.677706285041 2258.57870760093 18 21 14
-1007.15503740071 -303.62936479062 2385.94305765164 10 13 6
-1004.81435293222 -304.620479119416 2402.71835015115 8 11 4
-1002.39623848306 -305.608497846285 2419.52175513332 16 19 12
-994.886368260352 -305.387603957614 2423.33359604837 12 15 8
-974.20203051717 -303.570132209647 2416.05331933999 11 14 7
-952.698520733074 -299.916819666141 2382.54325533939 13 16 9
-931.395263978146 -296.271266318122 2348.95984644921 10 13 6
-934.120195285807 -298.541946900164 2379.79768027148 10 12 7
-918.181656226758 -296.187922062971 2360.16698086733 10 12 7
-915.293839178595 -297.084987148077 2376.08160710849 12 14 9
-906.93201617624 -296.613901137798 2377.02194884054 9 12 5
-892.549552511049 -294.609064562011 2361.06625555655 5 8 1
-829.45186399514 -281.683399263593 2230.30543362181 16 19 12
-813.028869456406 -279.021570470888 2206.60750013187 15 18 9
-808.766751483273 -279.503903451037 2217.7194639121 12 15 6
-802.847497659499 -279.560733580792 2224.13234245155 12 15 6
-796.907884437363 -279.61671964857 2230.55268201084 15 18 9
-778.582202715422 -276.375406449524 2200.12364128547 16 19 10
-762.952582821196 -273.816467598046 2177.19649232474 16 19 10
-761.187088369007 -274.973146089557 2195.88341708479 16 19 10
-757.787714497923 -275.705234349202 2209.8627378105 15 18 9
-752.179560234788 -275.846035662462 2217.2230569792 15 18 9
-751.413716350378 -277.33012046817 2239.7885470724 12 15 6
-737.267285141306 -275.117418336189 2220.56285510363 13 16 7
-722.342114638184 -272.6578506253 2198.4388117501 15 18 9
-708.440517313039 -270.454638810079 2179.12344637715 14 17 8
-712.295168543967 -273.273179515145 2216.97587587668 13 16 7
-697.019735313663 -270.655521752024 2192.85765749263 14 17 8
-697.19644464963 -272.464616456899 2219.32289364815 13 16 9
-693.810228597638 -273.26884206449 2234.35880130864 14 17 10
-678.726435302694 -270.658543610265 2210.17039766753 14 17 10
-679.248962049129 -272.625209689165 2238.63120883392 14 17 10
-670.719687876668 -271.92995593071 2236.44963696688 14 17 10
-679.880321394747 -276.542160703634 2295.70463207513 14 17 10
-661.94291756091 -273.026769120979 2260.88846150291 10 13 6
-650.436231794199 -271.421592542235 2248.12421438014 18 21 14
-644.914945207168 -271.637081835624 2256.51389216992 21 24 17
-632.466511918572 -271.652310812073 2268.5021286997 24 27 20
-1004.83851558365 -311.459845583732 2380.86087925084 9 12 5
-998.513601001262 -311.512832743533 2387.42143953649 22 25 18
-997.576619652229 -312.899341578676 2407.92336008548 14 17 10
-982.221125940497 -310.727539450844 2391.26699243385 11 14 7
-961.286233532638 -307.139727805697 2359.67875301909 10 13 6
-962.772473327749 -309.144807053774 2386.71995647079 12 15 8
-941.349754626139 -307.035410439678 2376.53006447387 12 15 8
-948.134760158725 -310.44525249514 2418.60595276381 10 12 7
-913.452865191369 -304.897342580468 2371.89431384176 11 13 8
-910.838640831324 -305.918194826886 2388.76674988314 10 13 6
-899.440122856779 -304.649076376387 2381.27113501456 7 10 3
-869.155608954694 -298.374253850058 2320.21691705738 6 9 2
-816.178829105457 -287.618539895903 2216.54748225767 14 17 8
-804.096177143606 -286.02293556761 2205.05833927955 13 16 7
-803.040513256142 -287.403756508033 2225.60381081256 15 18 9
-791.664025813424 -285.985365922354 2215.97808746527 15 18 9
-775.283964897895 -283.173467414923 2191.20932133985 16 19 10
-765.968709903903 -282.284727054457 2187.19455791532 16 19 10
-763.548800234574 -283.31248484455 2203.99587109788 13 16 7
-763.834963640225 -285.119722497977 2229.3546680542 13 16 7
-751.732673888286 -283.448049050489 2216.81184352179 13 16 7
-740.92920094225 -282.126535544768 2208.03716919566 17 20 11
-731.393835336679 -281.154010387684 2203.04214568172 17 20 11
-717.714845998232 -278.971343842908 2184.71090453124 16 19 10
-710.07670045359 -278.522047892822 2185.38691727601 14 17 8
-702.743027323531 -278.159432947865 2187.01206547019 12 15 6
-711.432884119657 -282.540559200461 2241.12251119223 12 15 6
-705.4127135074 -282.603450062289 2247.5715992989 14 17 10
-686.784239013848 -278.879530558022 2211.95569817738 14 17 10
-681.971197229243 -279.288942226846 2222.20652475466 14 17 10
-677.679711560115 -279.868393804491 2234.3883874059 15 18 11
-679.740709119163 -282.41787100664 2268.64608635482 15 18 11
-670.048074243272 -281.363722950303 2262.6478070136 17 20 13
-663.681416974707 -281.337816805363 2268.16267606789 14 17 10
-668.669753757166 -284.899771756824 2314.08006174957 11 14 7
-648.49116454754 -280.51609134908 2270.54419702185 14 17 10
-644.759452770466 -281.341567891293 2285.70377853196 20 23 16
-644.3810300923 -283.271190246951 2313.4281772296 28 31 24
-984.245467135699 -314.668347383404 2329.43610428 28 31 24
-995.121780544733 -319.05194559676 2379.55176436719 23 26 19
-994.202365060885 -320.49120414796 2400.04332252738 10 13 6
-990.680126304864 -321.285448090321 2414.06284923965 12 15 8
-972.884532779337 -318.417623779387 2390.87917519961 10 13 6
-964.403314181115 -317.931441392044 2391.86429118648 11 14 7
-953.831226870176 -316.89782188865 2387.25030296235 12 15 8
-942.952563606604 -315.774540936081 2381.68791415718 12 15 8
-890.455332316776 -308.756598313021 2333.02721377159 10 13 6
-886.239595661098 -309.367777548111 2345.17916005911 8 11 4
-880.976042654675 -309.705101731983 2354.5325571604 7 10 3
-866.777557028421 -307.597850094029 2338.51774512566 10 13 6
-807.541326914499 -294.727932410759 2215.94947314462 13 16 7
-800.013998704772 -294.355646207187 2217.64571321376 16 19 10
-789.298892290752 -293.082678965111 2209.90207965756 16 19 10
-780.541062188614 -292.351757831048 2207.80624190351 14 17 10
-768.038877715997 -290.543166519408 2194.35223426975 15 18 11
-763.414786787865 -290.982486968716 2204.53240554493 13 16 9
-759.986017404246 -291.778829239849 2218.5175586965 14 17 10
-750.979473550914 -290.960295845472 2215.45214223608 15 18 11
-733.190633984939 -287.547991575159 2184.84069383875 18 21 14
-724.923607015664 -286.913418132369 2183.62581552495 18 21 14
-719.665308122112 -287.172355769888 2191.91666176238 16 19 12
-714.376569052229 -287.430015628165 2200.21841016426 14 17 10
-707.589421379018 -287.241065292837 2203.76550294876 12 15 8
-694.976157362872 -285.272344801294 2188.23082421216 13 16 9
-711.023001301984 -292.105915504031 2267.21540167758 15 18 11
-696.064308991438 -289.424593289558 2244.05371354956 14 17 10
-683.511783451965 -287.458045562036 2228.49680230487 14 17 10
-679.481632827221 -288.152433298417 2241.64185054616 14 17 10
-674.839106886398 -288.667582987996 2252.88930044868 15 18 11
-675.113318694985 -290.771554562432 2281.43022814367 16 19 12
-685.354593380599 -296.135937773653 2345.56886816099 14 17 10
-686.610935904823 -298.666010166868 2379.05383638883 11 14 7
-657.4223609832 -291.238054072686 2303.82218010411 12 15 8
-652.271907725874 -291.6553630752 2314.19525937954 18 21 14
-635.778688748873 -288.292830115576 2283.10930804105 30 33 26
-999.714837614573 -328.626563341655 2392.09357289592 7 10 3
-996.955128489405 -329.644271103192 2407.95229572978 22 25 18
-986.25399147211 -328.584072699896 2403.3872015308 13 16 9
-975.948895839641 -327.619602889565 2399.73779829107 12 15 8
-961.745766943293 -327.386869418136 2409.18236777688 11 14 7
-940.731940023718 -323.513088344771 2376.57782884716 13 16 9
-921.292627716709 -320.022108599922 2347.63880591212 10 12 7
-912.296238033843 -319.349295026106 2346.69156343669 10 12 7
-906.038181541163 -319.42615764128 2353.22628453155 10 12 7
-893.353782697277 -317.7253049257 2341.96371995283 10 13 6
-879.742838303383 -315.747150749514 2327.85905829407 9 12 5
-878.840538235138 -317.318451641888 2349.40099121294 8 11 4
-833.908521095496 -308.250879424166 2269.34690508705 13 16 7
-813.901307982032 -304.335279478799 2235.31297031672 14 17 8
-799.242308019205 -301.914030242906 2216.28924903745 13 16 7
-790.44658753685 -301.16795742111 2214.20832150051 14 17 8
-786.108988212499 -301.720731898652 2225.34214126158 14 17 10
-776.38710676711 -300.697262183442 2220.418729805 13 16 9
-766.395115229094 -299.582806805095 2214.5335139598 13 16 9
-753.978611846316 -297.730840685539 2201.05190217217 16 19 12
-752.370879949605 -299.112975379696 2220.73105107804 18 21 14
-731.534898341747 -294.682396367826 2180.63750328874 19 22 15
-721.772918429014 -293.576624988473 2174.66806036052 18 21 14
-717.134027657393 -294.036687800845 2184.85178962497 15 18 11
-716.59922410118 -295.781759337094 2208.38045276745 13 16 9
-700.397515336968 -292.656732046648 2181.43739819938 12 15 8
-687.846418488433 -290.638310930748 2165.88388178761 14 17 10
-690.675700416131 -293.478567435637 2200.9070506476 15 18 11
-695.331507772947 -296.952421062741 2242.68542488819 15 18 11
-690.714649049341 -297.493141534428 2253.92187387569 14 17 10
-686.613464966784 -298.214563801498 2267.09043713606 14 17 10
-672.167550494339 -295.559384101541 2244.80702130533 14 17 10
-661.712951003647 -294.184754904775 2235.90959581484 15 18 11
-657.598452763982 -294.905432318268 2249.08330711414 13 16 9
-649.202288537307 -296.339928834931 2275.4914768932 10 13 6
-642.002943979019 -296.056140819724 2278.12868139759 14 17 10
-1005.02850206599 -338.471750916652 2406.48600094477 11 14 7
-998.624626462671 -338.554720857048 2413.07324279124 17 20 13
-986.836842664756 -337.181040380816 2405.72669788152 13 16 9
-974.750486218402 -335.712534990628 2397.42948838671 14 17 10
-976.468900157875 -338.023284319852 2425.42982719428 13 16 9
-935.734809396678 -330.450911882536 2364.00375589597 12 15 8
-923.228198475014 -328.799383100101 2353.73968326155 10 12 7
-917.635829182553 -329.079454973882 2362.15031520886 10 12 7
-907.937973306825 -328.202056176247 2359.34026555143 10 12 7
-891.644507754271 -327.315885946109 2362.12723342025 9 12 5
-890.312223513392 -328.841985297282 2382.76225002789 9 12 5
-871.430806580951 -325.279187173115 2353.62568725797 8 11 4
-814.82644794067 -310.605509469673 2215.30444956089 13 16 7
-824.14428760273 -315.205879338428 2265.97000592042 14 17 8
-811.655274639745 -313.387970128355 2253.57872617557 11 14 5
-786.807741305554 -307.847156625789 2204.3601694552 12 15 6
-788.190265293884 -310.143327290933 2232.48364967967 13 16 9
-778.449151370814 -309.097110169017 2227.56868812741 12 15 8
-757.542896239362 -304.6238758849 2188.57044799415 14 17 10
-757.856286140888 -306.628739677923 2213.90444133423 16 19 12
-744.57585375519 -304.447088066783 2197.56167967699 16 19 12
-728.666183050457 -301.414967418802 2172.63861923492 17 20 13
-722.237562498079 -301.328502637907 2177.11426919083 17 20 13
-716.992909135075 -301.620488880129 2185.39766392456 15 18 11
-715.268511525832 -303.046762637003 2205.11587150234 13 16 9
-710.225683468421 -303.429486360672 2214.38564547267 12 15 8
-711.543994917537 -305.888220697745 2244.65355761559 13 16 9
-694.558300865308 -302.398228729942 2214.82296849495 15 18 11
-692.599858543383 -303.814931358353 2234.6269354632 14 17 10
-690.832690239248 -305.322069570972 2255.42139243104 14 17 10
-688.407659755954 -306.637233302039 2274.33599343529 14 17 10
-678.948046385352 -305.600765861781 2269.31827083692 15 18 11
-666.50124908942 -303.533769640077 2253.73052355007 16 19 12
-662.88191912649 -304.469706347354 2268.84119243607 12 15 8
-639.740526826 -298.662142230901 2214.75612380451 11 14 7
-645.809672266643 -302.966751831533 2264.49125588727 10 13 6
-644.735798421633 -304.832457656296 2289.27323769788 11 14 7
-994.533066403117 -345.899584938425 2403.33935320322 18 21 14
-984.559741606296 -344.99586247463 2400.63137791256 13 16 9
-973.197815308332 -343.694533039066 2394.1914545214 16 19 12
-969.98844664078 -344.685282248172 2409.14903338212 14 17 10
-966.362402828398 -345.573824150888 2423.19890713276 11 14 7
-946.014031141232 -341.689906168364 2392.48646064715 10 13 6
-930.150972900303 -340.984662384449 2397.23676096678 10 12 7
-913.908152013674 -338.204698228668 2376.68220014205 9 11 6
-893.415188737111 -334.143035320539 2343.90258787454 9 12 5
-876.459925442379 -331.077590401844 2320.42850109394 10 13 6
-886.183249694048 -335.919386793849 2371.9953242003 10 13 6
-879.183835897436 -335.81707592649 2376.67956039019 6 9 2
-820.12182897752 -321.923595423554 2255.1917722666 14 17 8
-800.271360178562 -317.80058319348 2221.11653598846 11 14 5
-786.790070537632 -317.529423443474 2229.23517725115 10 13 6
-774.234766185976 -315.579005319434 2215.81142542906 10 13 6
-767.678577293893 -315.493258262324 2220.33311729489 12 15 8
-752.781264335051 -312.764664026021 2199.28606127298 12 15 8
-740.460647494736 -310.823134973625 2185.77636796982 8 11 4
-732.475719060936 -310.25222852948 2185.52074512475 12 15 8
-722.40056895326 -308.998902951415 2178.60966565177 14 17 10
-720.431136134205 -310.37898509538 2197.35383271696 15 18 11
-721.03643827606 -312.631785246057 2224.69642296354 13 16 9
-718.870256846185 -314.003917617263 2243.51267601088 12 15 8
-712.258426205843 -313.915125050471 2248.05481440201 13 16 9
-697.284166861107 -311.01119999868 2224.91557810167 14 17 10
-689.871045450094 -310.633527583686 2226.57098325537 14 17 10
-685.575419267642 -311.321380388478 2238.7461712649 14 17 10
-679.266845240486 -311.329856369446 2244.23759661526 15 18 11
-678.498708759098 -313.270710286602 2268.90282251629 15 18 11
-675.962064361543 -314.627523234526 2287.85483454728 17 20 13
-665.977915170566 -313.376652400507 2280.91050580942 12 15 8
-653.615251366726 -311.260583268173 2265.29589229478 11 14 7
-653.923301433511 -313.671975901274 2294.86788610743 11 14 7
-661.771502253342 -318.865888738159 2352.42247972018 10 13 6
-652.536578077337 -317.901258784545 2348.38425508368 25 28 21
-992.243520506326 -353.702532572189 2398.24919655311 13 15 10
-978.712013817792 -351.758007344993 2386.24624730971 15 17 12
-969.163586621292 -350.942997501571 2384.44400779788 15 18 11
-958.936477591926 -349.924241970401 2380.77036504082 14 17 10
-955.385684248655 -350.848582515226 2394.79019640533 12 15 8
-940.324339714944 -348.401026578575 2378.04801368119 9 12 5
-936.046113085597 -349.119610742654 2390.21456104952 12 15 8
-885.870392953281 -340.075427528458 2323.79708024038 9 12 5
-889.687338197752 -343.23490667229 2358.43730806837 9 12 5
-872.454906841789 -342.029458016004 2358.38960452545 7 10 3
-856.028777713488 -338.996287304469 2335.78763883307 8 11 4
-797.704628725501 -326.797745716259 2238.436446963 12 15 8
-785.390935322943 -324.898834375225 2225.98757877794 12 15 8
-785.074335198354 -326.833255417078 2249.42267369663 12 15 8
-786.821741491389 -329.467987417879 2279.5211459583 12 15 8
-758.505305152489 -322.339205376442 2217.81653842668 10 13 6
-750.723702222622 -321.856526869711 2218.54693908892 11 14 7
-732.338335000158 -317.860466469631 2186.06316444878 19 22 15
-724.66791996506 -317.381932366502 2186.75285367138 17 20 13
-725.355998240575 -319.709035237185 2214.0597619811 13 16 9
-721.477578416909 -320.529465226751 2227.14017063492 13 16 9
-714.02705620989 -320.147697158861 2228.80921962067 14 17 10
-711.519626506108 -321.464138454344 2246.68710672448 14 17 10
-700.582462911996 -319.883465216739 2236.91400500966 12 15 8
-692.850975110671 -319.401858254406 2237.62637041917 12 15 8
-682.302934222066 -317.924721135305 2228.77063008411 14 17 10
-676.579963990831 -318.14111510814 2236.16670831374 13 16 9
-672.497600196789 -318.952740932739 2249.3218817593 14 17 10
-679.360824624935 -323.733196161712 2300.86570428704 18 21 14
-657.353868205019 -318.089544280362 2251.68937485475 13 16 9
-669.092742985695 -324.742275024309 2321.5865186724 12 15 8
-666.571725307945 -326.234022475398 2341.58948244818 10 13 6
-657.339686903278 -325.250167031558 2337.55140559127 14 17 10
-650.766563334836 -325.25540557579 2343.13919599476 29 32 25
-972.512034822304 -358.332682052443 2370.93669148468 15 17 12
-956.624937911866 -355.613348884884 2352.38167485563 13 16 9
-957.043758391829 -357.729877968465 2376.60237974525 14 17 8
-942.67191460634 -355.434605979258 2361.73155221856 13 16 7
-940.881358690749 -356.916850222896 2380.40301829354 10 13 4
-935.905498754592 -357.452989679927 2390.70344100584 12 15 8
-934.304926574612 -359.033688358911 2410.36526085325 12 15 8
-914.64117131591 -355.070544554459 2380.476601461 10 13 6
-904.915727377826 -354.142736299815 2377.68037905672 9 12 5
-887.87473182668 -350.92077969272 2354.24950538658 9 12 5
-886.882962559162 -352.707250987209 2375.80771087508 9 12 5
-878.55507281562 -352.198763819675 2376.7385453569 7 10 3
-852.621517494658 -346.073081680345 2326.8918999392 8 11 4
-836.038203532142 -342.868490883342 2303.29342308184 15 18 11
-818.635574741173 -339.357904242076 2276.81554462284 15 18 11
-802.029473348462 -336.060909435404 2252.16550878203 12 15 8
-788.732162575132 -333.805889929945 2236.90122594435 12 15 8
-791.201705217229 -336.7307411907 2268.84879576964 12 15 8
-783.255485185011 -336.236262086995 2269.63989838116 12 15 8
-769.155023483235 -333.675668818729 2251.49056344849 11 14 7
-751.805450310755 -329.983940293498 2222.87396286036 11 14 7
-742.506570784117 -328.979896157486 2218.86194946756 19 22 15
-733.243979807779 -327.977122549956 2214.83640091298 17 20 13
-723.421942913824 -326.769863893739 2208.89669062381 12 15 8
-716.009742488296 -326.386816893472 2210.55191236468 13 16 9
-722.07383982747 -330.72881436844 2256.01957838247 14 17 10
-708.749462394717 -328.289046460979 2238.64570266046 14 17 10
-698.122724747112 -326.776028121427 2229.82126310874 12 15 8
-689.269012490937 -325.879817057428 2226.70592378852 12 15 8
-686.945878829182 -327.337875232845 2245.57272023682 14 17 10
-685.936197700726 -329.303451341711 2269.25728681293 13 16 9
-673.161699254962 -326.975921445833 2252.74170710478 14 17 10
-678.693689984999 -333.848037645805 2328.07741502873 11 14 7
-669.051954894607 -335.198278186193 2351.74483601496 12 15 8
-653.17760269493 -331.653916723645 2323.64766940353 12 15 8
-644.281573297073 -330.754957576262 2320.54791283736 16 19 12
-985.512383664876 -368.577027560894 2382.50639562678 23 25 20
-965.60343038626 -364.60374731044 2353.77440123717 16 19 12
-965.710807825507 -366.677213885362 2377.04495797716 14 17 10
-958.318161226445 -366.483155059725 2380.8121823991 15 18 9
-946.031687359378 -364.781524633299 2371.53846219211 16 19 10
-945.25012588321 -366.631780497639 2393.01547864811 12 15 6
-936.45268831355 -366.006326492033 2393.05918658605 13 16 9
-928.35358862517 -365.596053589589 2394.9662931683 12 15 8
-910.770151990298 -362.182582120321 2370.68014827445 10 13 6
-898.717136822475 -360.489308882823 2361.32097319135 9 12 5
-880.04804596625 -360.980821473672 2381.93331790467 7 10 3
-868.454976392191 -359.398936460525 2373.46517913239 8 11 4
-830.073634123534 -348.966991182971 2286.86745168999 14 17 10
-816.570999695767 -346.652159530365 2271.68228356881 14 17 10
-803.802771525102 -344.553906093035 2258.34679507161 13 16 9
-796.174840613792 -344.160595602564 2260.08142850159 10 13 6
-785.106903589935 -342.598607072677 2251.42124243658 12 15 8
-777.828689385458 -342.312696986157 2254.087263359 12 15 8
-762.848653036114 -339.375409622952 2233.08575577592 12 15 8
-748.913933282207 -336.760894521273 2214.88001475243 14 17 10
-734.901894623537 -336.303463821967 2221.07243903096 16 19 12
-726.254611253223 -335.493353897447 2218.94215611315 12 15 8
-717.928781645919 -334.78969494522 2217.75385561806 12 15 8
-710.794677967827 -334.508493862224 2220.36716047242 13 16 9
-712.94474616852 -337.598142590356 2253.48518367057 13 16 9
-695.090303479472 -333.419544995562 2220.82202262643 12 15 8
-688.540641980934 -333.348820703984 2225.34046365866 12 15 8
-692.713005812781 -337.269002655463 2266.19400435982 13 16 9
-688.285298249829 -338.032877596141 2278.41144650358 14 17 10
-677.429435404706 -336.383405845429 2268.61399613113 15 18 11
-663.619152574724 -333.584412151374 2248.24384922953 13 16 9
-671.416125081788 -341.589709608014 2332.27087293103 13 16 9
-662.183309792486 -340.567128783232 2328.23625454257 16 19 12
-652.458226005868 -339.337197039082 2322.26277396391 12 15 8
-946.939655585375 -365.091004400178 2283.72124339376 15 18 11
-957.273607980704 -370.333364934485 2332.9026123794 15 18 11
-966.996357251862 -375.454956975354 2381.2486103517 15 18 9
-968.029067692656 -377.914909429081 2407.35372090269 14 17 8
-955.670339264381 -376.174977163226 2398.10914342621 13 16 7
-946.149860603648 -375.319754127184 2396.29952900609 13 16 5
-941.813275222263 -376.118179560829 2408.48125614937 13 16 9
-930.940325641767 -374.822811119852 2402.93002992963 13 16 9
-915.709792896507 -372.099233309354 2385.20333538498 10 13 6
-910.677617404724 -372.676495848977 2395.52111685128 9 12 5
-883.252589157439 -365.896379583192 2343.06583464151 8 11 4
-877.269024693775 -368.370551147636 2374.91907152058 8 11 4
-855.267081896869 -363.253119892859 2336.36728724903 8 11 4
-824.114682242663 -354.972317619597 2270.44672366136 14 17 10
-815.149611244292 -354.137266098102 2268.43404111174 15 18 11
-809.074155179196 -354.285671549823 2274.89676428728 13 16 9
-804.872202744861 -355.08761675075 2287.02930865278 10 13 6
-788.722782709389 -351.746169365612 2263.28325357993 12 15 8
-772.717555250218 -348.41026672001 2239.48464387484 12 15 8
-756.54849451863 -344.971080668271 2214.68654330553 13 16 9
-730.108522224365 -340.064260220097 2181.99810445669 19 22 15
-732.654765113581 -343.257387374693 2214.96437489986 16 19 12
-732.953456314896 -345.685289762567 2241.33834612963 12 15 8
-714.238724889586 -341.178597638244 2206.87940307237 12 15 8
-712.398384546071 -342.845439557546 2226.62184005292 13 16 9
-704.087192696043 -342.130963377385 2225.42903728802 13 16 9
-709.878929568617 -346.707611910103 2270.97770298939 13 16 9
-700.914566654307 -345.773822983275 2267.90565682371 11 14 7
-689.44121689519 -343.871231678662 2256.21829413091 13 16 9
-688.393987537109 -345.955143804558 2279.9075747475 14 17 10
-665.618974268219 -339.644609720718 2228.92725975938 15 18 11
-662.350927301023 -340.867586685151 2244.95519293245 18 21 14
-668.803362406066 -348.560300310551 2324.16103271702 11 14 7
-667.064469395162 -350.519540137583 2347.04447120032 12 15 8
-655.175295859954 -348.406338790722 2333.39097129055 13 16 9
-946.811484746588 -375.262008276522 2306.46641154882 14 17 8
-966.864284614558 -383.806282198165 2381.73303271402 16 19 10
