ply
format ascii 1.0
comment KinectMotionCapture
element vertex 762
property float x
property float y
property float z
property uchar red
property uchar green
property uchar blue
end_header
-751.460792186815 670.762967872454 2380.19753331455 101 86 67
-741.366318102429 666.914192822037 2392.1990584933 56 41 22
-733.951536276531 663.840065398271 2403.01657260267 61 46 27
-731.042879858009 662.057518477169 2411.93557733294 113 95 73
-729.024422331638 660.532972804047 2420.45460718213 126 105 84
-728.810374056243 659.52489470935 2428.2174843476 137 113 89
-726.762507363684 657.999555665788 2436.6821867983 138 114 90
-726.524227729823 656.990716313826 2444.40026915421 134 108 85
-727.189061176607 656.239972903772 2451.74215665121 132 105 84
-726.01490880835 654.971966099976 2459.77636491198 129 104 84
-725.744066441881 653.96205947009 2467.43423751635 129 103 86
-728.216259317102 653.727316515528 2474.02525776974 103 77 60
-735.281411932124 654.784863102143 2478.87768602607 101 74 57
-742.356467312165 655.842232167846 2483.74827388731 106 79 62
-742.988605708858 655.089681295773 2491.02948568773 51 25 8
-749.151279703724 655.888075899486 2496.25895811746 68 42 27
-757.170118200096 657.203436207584 2500.82761499639 85 62 48
-766.126824009211 658.777097614762 2505.08456232079 97 75 61
-773.244869575044 659.83359191225 2510.03344966142 132 114 102
-785.942416464909 662.441317440641 2513.0212446997 141 124 114
-809.820351629439 668.151909700367 2512.12580452567 139 127 115
-678.804268591648 649.285204942405 2356.43266204753 19 11 0
-738.678004663321 665.419814633454 2338.16145542863 39 27 15
-743.068636116554 665.705142492185 2344.20712727684 85 67 55
-746.562532638504 665.734427943829 2350.6418463483 86 58 47
-750.956110746289 666.019109484588 2356.69324751358 104 74 64
-753.549199869545 665.792069566415 2363.5089344618 86 60 47
-756.139077847238 665.56466453503 2370.31910997494 97 74 60
-755.110148112792 664.314195155345 2378.62517875166 119 100 83
-753.1623616983 662.807508575036 2387.27955626081 71 54 34
-739.412574606678 657.976003769574 2400.72246852673 65 48 28
-732.876462046659 655.189668713136 2411.12776149379 111 93 71
-730.857310675954 653.681541429697 2419.65045259529 130 108 85
-729.732820664319 652.428811430076 2427.78008879414 137 113 89
-729.506426622697 651.43136811793 2435.523962195 135 111 87
-729.269421036347 650.433623064172 2443.2477240475 127 103 77
-729.935888949821 649.691289709435 2450.5951467088 129 103 78
-726.9314149946 647.925476114365 2459.34295759701 131 107 83
-724.825194088597 646.415041597348 2467.70481812433 133 108 86
-725.457858821374 645.671655737727 2474.98975406659 119 94 72
-731.59978890083 646.462889947053 2480.17892137355 101 74 55
-735.907418285286 646.742354598485 2486.07017410282 110 83 64
-738.372440578258 646.509799283358 2492.64916846255 112 85 66
-742.681616729451 646.788750555655 2498.54311159367 111 85 68
-750.691692368286 648.090827853474 2503.09216174165 82 59 43
-760.566421960796 649.904535790151 2506.99440562069 131 109 95
-775.095638982439 652.997500167345 2509.26679455996 90 72 58
-795.227184626754 657.625747762065 2509.61527885206 142 126 113
-827.494338410292 665.580690430189 2505.78885345973 144 132 118
-736.031101884815 657.168038649602 2339.27153609171 18 5 0
-741.314825099003 657.703838854132 2344.92028947089 45 28 18
-742.107411502592 656.974470525936 2352.50356587392 107 83 73
-743.792226355308 656.497632366862 2359.68895485134 127 99 88
-745.471689454088 656.02049601127 2366.86390706014 118 92 79
-750.757586860334 656.554961179541 2372.5167619449 115 92 76
-760.570202676901 658.354220890329 2376.3004223841 106 85 68
-763.15535637496 658.129213669183 2383.10212591466 87 69 49
-747.598226097838 652.843162712039 2397.31391166819 82 64 42
-735.619147704563 648.568554452964 2409.9508476429 118 98 74
-730.871892626884 646.317733261021 2419.57761725679 131 109 86
-730.655250676274 645.331752990016 2427.34236946583 136 112 88
-730.427543680527 644.345373169968 2435.08715513185 133 109 85
-732.929598439463 644.117958275551 2441.73530053372 131 107 81
-733.599026553484 643.384021218678 2449.09069248827 131 105 80
-730.596077727486 641.637400060352 2457.84707994033 129 105 79
-726.657181295852 639.637255414266 2466.92064861126 129 105 79
-729.127296231738 639.408483329113 2473.51014696682 121 97 73
-733.434521054846 639.685786426331 2479.4000056088 119 92 71
-734.979905470625 639.203388072156 2486.32728453882 110 83 64
-734.674681877145 638.214462130242 2493.92823314069 122 95 76
-740.825330304409 638.997261844233 2499.13089864594 95 69 52
-749.758617944206 640.539447453024 2503.334806005 80 57 41
-756.853979808111 641.57513643014 2508.23622152698 91 70 53
-767.670000182325 643.623345838864 2511.82539093741 103 85 71
-789.654335171807 648.709843890947 2511.48919522951 135 119 106
-820.992888763989 656.328476809035 2507.96907294645 151 139 125
-737.762397202381 649.217099079789 2346.40958938966 30 20 11
-743.944737155306 649.997676275807 2351.66987302665 58 41 31
-739.324763750822 647.774519384743 2361.53855182787 124 106 94
-741.897683942029 647.553205363475 2368.31937057794 120 101 86
-746.274753585757 647.832256049714 2374.33821210834 92 73 56
-756.082171967554 649.612870480579 2378.10670648635 112 91 72
-758.659062170555 649.390687859866 2384.89456560517 120 99 78
-747.62336294086 645.413092216526 2397.24106645451 120 100 76
-737.454449548593 641.6852734778 2409.14155407043 128 108 84
-730.885769376371 638.958289256825 2419.50479732128 127 105 81
-729.755142089949 637.732960521734 2427.6318903397 132 111 84
-729.523767093565 636.757677125546 2435.37276257054 129 108 81
-730.195292934549 636.032421539553 2442.73462332985 132 108 82
-732.688834874538 635.807652897639 2449.36790789092 130 106 78
-731.513585531702 634.580936015751 2457.41251537195 122 98 70
-730.325062766577 633.353915238859 2465.43211497921 121 97 69
-730.960964199697 632.627378650378 2472.72807073681 119 95 69
-734.349477617172 632.651863875791 2478.9675275477 123 98 76
-734.050983631403 631.674243031714 2486.58475705132 121 96 74
-733.741842063416 630.696379105565 2494.18182636724 114 89 67
-739.890992145922 631.471479449298 2499.37942077933 130 105 85
-749.749267565337 633.248297381144 2503.24030882811 116 93 77
-760.552019558655 635.2755219182 2506.79826042794 129 108 91
-771.374776154118 637.302628251634 2510.39347283373 150 132 118
-790.581976429108 641.584189498582 2511.05246092076 139 123 110
-815.416557527581 647.36892403365 2509.82345954091 157 145 131
-742.183337218115 642.024142579502 2352.37742882597 18 10 0
-733.951574109985 638.835021709316 2363.77308806875 21 12 0
-740.125218896199 639.607075226618 2369.01481645863 31 18 1
-750.825213890916 641.616974465495 2372.37856912995 37 20 2
-760.640369846126 643.379097646962 2376.1557336039 70 52 32
-762.315912660553 642.912282784117 2383.32708383153 131 111 87
-752.186431261924 639.225763878243 2395.31251380533 130 108 84
-743.835367705247 636.033951967649 2406.48794853293 129 107 83
-733.629499971905 632.346196575881 2418.33302252554 130 108 84
-730.676832285598 630.63932041514 2427.19383831987 128 106 82
-727.705566699919 628.932045523942 2436.0203292819 125 103 79
-731.114710032227 628.958283172339 2442.29825525587 123 102 75
-734.523351265829 628.984219398347 2448.57516713472 120 99 70
-735.181320506471 628.266720262509 2455.91442736519 118 94 66
-734.912990129354 627.301248685703 2463.59028253981 119 95 67
-735.5531130308 626.583152958645 2470.89654069313 121 97 69
-738.026282037725 626.360268907486 2477.49292245468 120 98 74
-737.73036601013 625.393787432963 2485.11824313809 123 101 77
-736.500621314993 624.179304837022 2493.06579860244 120 98 75
-741.728815390665 624.69890158973 2498.60805530004 118 96 75
-746.961870683148 625.218321762329 2504.15869531572 131 108 92
-755.907998509578 626.728722842979 2508.37665983495 137 116 99
-762.083929504016 627.495633325354 2513.62104635849 182 166 151
-780.353227044295 631.483969756677 2514.58168079336 135 121 108
-731.417620571179 631.6168870997 2356.94203943986 19 17 4
-744.801202602124 634.340617120751 2359.11115957501 20 17 2
-759.11552035749 637.309120643828 2360.95138582955 20 9 0
-767.132025399346 638.563207752106 2365.49732490802 40 27 8
-767.012289780233 637.61265287729 2373.4509586866 75 58 38
-762.348049021969 635.436976511464 2383.25300440469 129 107 83
-752.211891527437 631.791088317306 2395.23887858358 128 106 82
-749.31097927734 630.1043572696 2404.20094011859 126 104 80
-743.659593063267 627.682258822497 2414.22814042425 125 103 79
-740.717551459245 625.994653928626 2423.11429479926 124 102 78
-737.756887331712 624.306620466734 2431.96607008088 123 101 77
-739.350006964425 623.843196667834 2438.98684882425 116 95 68
-740.937656822644 623.379561900038 2445.99699996888 116 95 68
-739.768125648768 622.180477977787 2454.06043402232 120 96 68
-737.666821096308 620.736015423267 2462.45117578976 122 98 70
-737.388913657945 619.781331663257 2470.11266112936 127 103 75
-739.863126450359 619.56150310836 2476.71188145522 121 99 75
-738.644924947025 618.361071465351 2484.68539661648 121 99 75
-736.489982389317 616.915351643566 2492.97660598813 109 87 64
-741.717633025063 617.42988984315 2498.51634198633 103 81 60
-746.950183716054 617.944281469454 2504.06454175726 108 87 70
-759.606974408508 620.419310758464 2506.93747414522 111 92 77
-764.858945118116 620.933370409537 2512.52179528083 149 135 122
-789.6468646791 626.594881205449 2511.16991883624 136 124 112
-772.700970002171 633.449221864096 2355.16703815283 22 21 1
-782.546293876984 635.174685230506 2358.98866254279 106 94 72
-777.011405229863 632.781922984339 2369.23894511931 125 108 88
-769.635867615099 629.904110412463 2380.18817677259 131 107 81
-758.595359200179 626.056748032372 2392.56499656206 131 107 79
-752.970875262133 623.662387084295 2402.65001631011 126 102 76
-748.230863797757 621.509827985186 2412.3196577468 120 98 74
-745.291665447917 619.841460768675 2421.21682656244 118 98 73
-745.987989893611 619.14181998311 2428.63199938875 119 99 74
-747.591068943643 618.684277814291 2435.67235980232 116 96 71
-747.356110651809 617.741745963431 2443.41649078515 115 93 70
-744.357722672464 616.071815241899 2452.20483315223 112 88 64
-742.259758052879 614.643939175832 2460.60620133012 110 86 60
-743.825655006062 614.185066024115 2467.57828108193 104 83 56
-746.30737248266 613.968310813409 2474.19222810927 105 85 61
-746.017830996309 613.024152133763 2481.835985674 98 80 56
-742.945828325759 611.352548995871 2490.48793003578 89 71 49
-746.331723302501 611.377357572859 2496.72266829575 86 68 48
-748.790615841867 611.159532864881 2503.29431448413 84 67 51
-758.668795855304 612.880808110914 2507.17510784288 85 69 54
-769.493855629594 614.844452975079 2510.75496775866 113 101 89
-801.738166478608 622.383876069144 2506.76207873131 148 140 129
-769.229771185851 625.889563387963 2348.62482474901 15 19 4
-782.681922125234 628.554784898963 2350.90246084895 19 18 0
-786.209089293581 628.585057425378 2357.39866753561 111 99 77
-775.237944912585 624.782246655048 2369.91645803724 130 109 90
-766.039735323534 621.457918721745 2381.60878577171 132 108 80
-757.713397991508 618.372642691837 2392.86173413354 133 108 78
-752.992845574544 616.24504392276 2402.57467040531 126 102 76
-753.716386203392 615.554590529888 2410.04266159549 119 97 73
-754.431680743865 614.863832131942 2417.49539500516 115 95 71
-757.880441697347 614.891516511502 2423.84662006584 116 96 72
-755.837489920306 613.481281647638 2432.354976213 111 91 67
-752.862047730768 611.831007138242 2441.19092686485 110 89 68
-747.114586366086 609.461417142983 2451.05721786961 108 86 63
-743.178925479527 607.570743254347 2460.16965747907 106 84 60
-745.664519262688 607.357282192971 2466.79222860512 103 81 58
-751.833912543683 608.102252013805 2472.01799305955 99 81 57
-751.549757562425 607.169297579385 2479.67452249909 92 76 53
-752.178903905369 606.475711121096 2486.96796321895 86 69 49
-754.650995249643 606.261293462139 2493.56490898646 84 67 49
-759.900364545699 606.765720225595 2499.14154883467 75 59 43
-770.723619547563 608.708367118389 2502.71177490919 74 61 45
-789.932026664645 612.808481411604 2503.31841764636 117 107 95
-829.660573037219 622.18298598298 2496.72234227736 139 131 120
-714.387730558487 604.835513619159 2364.09585101317 18 24 12
-718.728689206922 605.102610115485 2370.04518720879 19 21 7
-787.246617018553 622.184535501143 2348.92239575922 22 19 2
-774.485939922824 617.951910580431 2362.24975813139 117 100 80
-767.117156038091 615.139827838609 2373.23067323657 137 111 94
-761.532161853825 612.800889604825 2383.40498862432 132 106 79
-758.647998029562 611.172058090339 2392.41526518536 131 106 75
-753.014081253422 608.832182752581 2402.49932120557 124 100 72
-755.558544745206 608.62388390879 2409.23171684067 119 98 71
-758.100175715914 608.415346411932 2415.95832694138 109 89 65
-762.467088916843 608.680329340239 2421.95476269333 104 86 64
-761.34300649056 607.523564204434 2430.11400718846 106 88 68
-757.454688825077 605.65558090272 2439.32084739307 107 86 67
-753.545361356537 603.787231125251 2448.4884322907 104 81 63
-749.614513727349 601.918416387539 2457.61680211236 102 80 59
-752.107815721232 601.708092069689 2464.25398908382 100 78 57
-756.441943778349 601.971414184829 2470.18962754084 96 80 57
-759.854897545141 601.99757903066 2476.47453970484 91 76 53
-764.192111035734 602.26058524225 2482.41525359331 95 80 59
-767.605306655096 602.286309802998 2488.70047816518 97 82 63
-771.945113240319 602.54887229678 2494.64633203578 96 83 67
-784.643633183547 604.944510608823 2497.57213756645 102 90 76
-811.314780864805 610.895699802605 2495.54087037718 112 102 90
-694.575403938956 592.317779583553 2372.53693752844 17 19 6
-734.100804002692 601.713098144803 2363.45869899359 19 17 2
-782.771914239208 613.450462099278 2350.75588494799 27 22 3
-778.146966314802 611.373902178923 2360.66000376704 129 111 89
-765.337034279186 607.189485090178 2373.91077020505 138 111 90
-758.836689825154 604.643623708963 2384.45416277728 133 108 78
-756.854306141721 603.268100853081 2393.08435332246 131 106 75
-756.677179261993 602.360541978029 2400.94586816994 125 101 73
-760.137404920728 602.389515108883 2407.3185664674 120 99 72
-763.597193845558 602.41823191222 2413.69038444852 108 88 64
-767.971244496976 602.680952945711 2419.69876282861 102 84 62
-767.767808098828 601.772284965932 2427.51105190261 101 83 63
-762.050272274594 599.457767439277 2437.44894288977 100 82 62
-758.143173862734 597.611334672994 2446.62772258349 101 80 61
-756.974397309301 596.467317497971 2454.70860001777 101 80 61
-760.397502569119 596.494356608754 2461.01244553715 101 80 59
-764.742425131674 596.755443718188 2466.96726494282 100 84 61
-767.242162142749 596.547766386163 2473.61708308825 94 79 56
-772.513535972895 597.042735093125 2479.23134904557 98 83 62
-779.642187947667 598.006185734717 2484.17226754549 97 84 65
-791.418620778121 600.141168158708 2487.43860140263 102 90 74
-810.648618722385 604.150808893815 2488.05774628466 108 98 86
-765.742831289179 602.402221747575 2349.9531680798 32 23 6
-773.77025179607 603.590658368722 2354.49944019163 113 97 72
-773.657192595576 602.695754009911 2362.48259265654 127 107 80
-767.183386193941 600.180343869644 2373.08395087737 140 119 90
-761.588979092551 597.895847166891 2383.25732591998 139 116 85
-758.697488088095 596.305395128347 2392.26566798507 136 113 82
-758.520545281597 595.408978547782 2400.13036785734 129 106 75
-760.157341122073 594.975249880587 2407.24040506161 124 100 72
-761.788727849683 594.541281422519 2414.33991756755 116 95 68
-770.733745387425 595.959193616379 2418.52853093512 114 94 67
-772.36415534271 595.524740817462 2425.62610132719 104 86 62
-770.318521227837 594.163783512581 2434.14434297483 101 83 59
-763.662729944529 591.644655212295 2444.40987970978 98 80 58
-765.258975831834 591.209202812653 2451.44481979875 95 79 56
-769.613886384697 591.468237350568 2457.41739168663 95 79 56
-772.125530602086 591.263936914994 2464.09012485851 95 78 52
-775.558042924054 591.290999412385 2470.41127871206 104 87 59
-779.915238488256 591.549425957023 2476.38787031565 102 87 64
-793.540962339075 594.123974702839 2478.95747139971 120 105 84
-809.978205591387 597.393386768302 2480.56253120262 119 107 91
-837.601801455536 603.442671138141 2478.1976897684 106 98 85
-799.215899245175 603.364669938189 2335.66734625249 36 29 13
-777.429668611298 596.991683864578 2352.90042057004 125 110 89
-782.756520277424 597.48047368925 2358.61486225502 127 110 84
-773.568093808956 594.308784899329 2370.37108476281 138 117 90
-767.069312061758 591.822887588965 2380.9353839072 130 107 76
-764.181922778317 590.251629124971 2389.95704170007 131 106 75
-764.009939502866 589.366334070247 2397.8347117766 128 105 74
-763.827324761719 588.4807813532 2405.69224692207 124 101 70
-763.633864618489 587.594877906193 2413.52972992507 117 93 65
-770.751870485227 588.539322941492 2418.44535290309 114 93 66
-775.129949169699 588.797097060736 2424.46015617172 113 93 68
-774.920748409896 587.910385742821 2432.26844636885 110 90 65
-769.185490012807 585.650166479022 2442.19007095614 107 87 63
-769.8671447347 584.991639218428 2449.59062719754 103 83 59
-772.384212537792 584.790653244296 2456.27433206069 102 82 58
-775.821162311095 584.818300381097 2462.60382300926 103 83 56
-780.181913395499 585.074656844816 2468.58633134504 105 88 60
-791.024667583316 586.933334570895 2472.16716866373 88 73 50
-809.303264971573 590.623383929924 2473.05520595617 113 98 77
-829.479204603661 594.771414699586 2473.340927483 126 114 98
-865.503976733963 602.811847283297 2467.9914540892 103 95 82
-772.148359513242 588.987565221897 2347.1250245296 88 84 73
-777.469920060229 589.471461540454 2352.8282633012 109 97 83
-777.357023577432 588.5987931208 2360.81789760874 115 98 78
-771.786107644158 586.369366126768 2371.05103782068 136 115 88
-766.18875793068 584.139476636678 2381.23542241204 134 110 82
-766.93819590892 583.491727755567 2388.76388570002 134 111 80
-764.944103810517 582.165374975829 2397.38732882284 130 107 76
-765.673145384135 581.517043453738 2404.87810419385 130 107 76
-763.651062466528 580.190034257696 2413.44936545773 130 106 78
-769.853447994919 580.897873754859 2418.72514703365 128 104 76
-775.146432869134 581.379466981888 2424.37463310382 118 97 70
-778.607544517313 581.40852452398 2430.74898628156 117 95 71
-773.792209407775 579.401785651497 2440.32394504928 114 90 66
-769.873970831132 577.620854861982 2449.50142954164 107 85 61
-772.389436658673 577.422907650467 2456.18310190031 105 83 59
-776.748512402826 577.677131743999 2462.16188773111 99 79 52
-786.658079507765 579.28849173433 2466.06735381841 102 82 57
-801.215488282556 582.030952804495 2468.28618874038 107 91 68
-815.803251568263 584.773404145939 2470.56135245707 121 106 85
-833.207623558231 588.194740609132 2471.87552157628 137 125 111
-276.658603049254 511.151909139254 2055.36812752481 198 195 190
-261.880519614486 506.308110933086 2073.2605164612 198 194 191
-257.634990291755 504.35282836689 2083.8989258972 227 225 226
-256.629990929144 503.286112403685 2092.30476978668 228 228 228
-764.163077439469 580.328062868283 2342.52434384372 185 186 180
-763.145239036059 579.243615136144 2350.90124207833 161 158 151
-763.019758457375 578.382200979162 2358.87111633643 97 89 78
-763.790318386009 577.743758958607 2366.44122551035 93 81 69
-763.644520083075 576.881704008896 2374.37353907155 123 107 91
-761.66876306694 575.572468925368 2383.03585140621 118 100 76
-765.141885959407 575.603323980709 2389.43283600113 125 105 78
-766.790457999298 575.187109502789 2396.56929442649 131 111 84
-768.433147504945 574.770601505853 2403.69534977613 135 113 89
-767.32606208298 573.683510395039 2411.90731156214 133 112 85
-768.037828336178 573.043055421374 2419.36817887261 124 103 76
-774.24471125601 573.742956730162 2424.64984478902 120 99 72
-776.784732001647 573.548891556545 2431.37784552738 120 96 72
-777.481827691582 572.907624794977 2438.81199112107 116 92 68
-774.48583410812 571.372106895079 2447.64465376445 111 87 61
-777.006191990565 571.177290549489 2454.33626502134 108 84 60
-780.447138467287 571.205738659795 2460.67334750546 113 93 68
-794.063356580198 573.692735855174 2463.19964143895 115 97 73
-807.707765371983 576.179804734147 2465.7773004802 119 103 80
-821.37991794763 578.666906656618 2468.40649957594 127 112 93
-831.364199798261 580.259804811245 2472.443827828 178 166 154
-261.398589956762 501.125800513948 2058.12642917761 143 136 128
-262.866824415911 500.732226269577 2064.93802233236 109 104 98
-257.007473809332 498.362236211745 2076.71371186915 226 222 219
-254.379804913939 496.869984683965 2086.23680184195 224 220 219
-255.815578544518 496.475270514302 2092.98835081865 222 220 221
-262.151488052877 497.397964152753 2096.45901498367 221 221 223
-268.498189618396 498.320594265197 2099.94950860458 219 220 224
-276.495971429188 499.682468958031 2102.37862696725 216 217 222
-286.152429300309 501.483706339761 2103.76087992132 215 216 220
-299.943700068096 504.383493454312 2102.50315943771 214 218 219
-311.297053762058 506.624388040394 2102.90842441337 203 207 206
-320.200995544187 508.206314192812 2104.9550066765 202 206 205
-324.163587768893 508.469702785804 2110.20734303282 209 213 214
-335.580355947304 510.710820715674 2110.72930596413 211 215 216
-339.560483114565 510.974019266804 2116.01383512516 213 217 218
-348.52665046988 512.555798186298 2118.1753215232 213 217 218
-350.02515914401 512.159290254623 2125.04171225338 213 217 220
-362.349014807151 514.620291535851 2125.18329864156 219 223 226
-714.01901771635 568.74722595567 2284.88709067233 113 118 114
-714.736059913911 567.272984869572 2300.56712989518 140 145 141
-719.104810900238 567.527843089199 2306.56339671042 119 124 120
-719.893391929083 566.900177765413 2314.16989075278 135 141 137
-723.242369938886 566.08499573806 2328.54433465094 115 124 121
-736.601842686342 568.544799763544 2330.58974526903 83 92 89
-747.287011116083 570.342717199994 2333.86298600001 73 79 77
-756.188575659347 571.699385454106 2337.95275979602 86 91 87
-755.168396427962 570.628989611488 2346.32907427908 204 205 200
-755.039183234333 569.778815056508 2354.29596780919 183 182 177
-755.805312724208 569.149006313548 2361.86052480891 203 196 188
-752.934199679587 567.636217874548 2370.92970074885 209 200 191
-753.678677203735 567.005737678497 2378.45423391826 141 129 115
-753.505119854401 566.154268806044 2386.3386769935 104 91 72
-757.876415442691 566.406023739978 2392.33919481547 119 104 83
-761.337471297673 566.436838505802 2398.71397381385 119 104 81
-762.970653242286 566.026039414172 2405.82375557149 121 104 84
-764.597960261554 565.614887805458 2412.92313050558 128 110 88
-765.303330081692 564.982760139989 2420.3752420526 125 107 85
-771.506336888342 565.674950423199 2425.64695597747 123 103 79
-774.959762991915 565.704655054013 2432.00736863165 121 99 76
-778.412675583434 565.734146759542 2438.36677281243 117 95 72
-778.17895086157 564.880292156831 2446.13983968695 113 91 67
-783.471416843338 565.351006888435 2451.78510002477 113 88 66
-787.844258029602 565.600712123734 2457.78784409513 104 84 60
-800.548063036259 567.837701186012 2460.67566062179 110 92 70
-808.643750185279 568.970580131525 2465.33078015418 127 110 90
-817.679552201731 570.32413268112 2469.66700840778 138 122 106
-824.872099260679 571.235993507461 2474.70942321254 159 149 139
-837.657906053901 573.472969314522 2477.74805197982 163 156 146
-186.832085212758 479.860902286867 2056.29187181333 170 152 142
-193.852897523889 480.989623304533 2058.96885029255 147 129 117
-196.862655414274 481.034666666939 2064.51788894581 161 144 134
-197.454285257591 480.4293107918 2071.76886279721 169 151 141
-202.075911856145 480.907472174442 2076.18307088817 203 191 179
-215.599835777741 483.770276990669 2074.4225294796 159 149 137
-231.588180506349 487.283781173353 2071.04528394841 168 158 148
-245.995689122429 490.364032732215 2068.86040734309 163 154 145
-249.875430165317 490.625727553412 2073.95935168288 145 138 130
-248.87418010444 489.586015445574 2082.38021185419 179 176 171
-248.675755544157 488.762834600663 2090.22742640816 227 223 222
-252.550087138536 489.023768826955 2095.31669730346 209 207 208
-258.881024980536 489.935338907999 2098.77487257824 218 218 220
-266.042050838627 491.063823983623 2101.70965836534 214 215 219
-274.85724513893 492.626167140885 2103.58763306049 205 208 215
-283.691001008926 494.188583608271 2105.49976791026 214 217 222
-295.835718643367 496.619031941426 2105.30219465923 207 211 212
-306.360377501049 498.615596204998 2106.22516706277 200 204 205
-318.560386045734 501.046392728673 2106.12938857833 195 199 200
-320.865556900174 500.872736144978 2112.43209911601 200 204 205
-328.966443268118 502.218333590097 2115.04595063153 201 205 206
-333.765056141182 502.695576123818 2119.78488816797 197 201 204
-343.554175111632 504.475274793915 2121.4046519074 205 209 212
-348.371609320922 504.952342604194 2126.17815276748 212 216 219
-358.195116182528 506.732037145754 2127.8611608629 211 215 218
-364.700724736672 507.64316117077 2131.64045326492 213 217 220
-372.889215581175 508.988546178655 2134.41536149054 212 216 219
-379.418762868516 509.899526874031 2138.23863848243 215 220 224
-388.475174579728 511.462100125362 2140.55982089779 209 214 218
-399.229631385849 513.459007739464 2141.90553685196 210 215 219
-406.642925861362 514.587099239625 2145.30417223496 213 218 222
-413.226734986519 515.497824984529 2149.22716996442 213 218 221
-419.821175108423 516.408411424667 2153.16967814204 211 216 219
-423.890877998753 516.667109425926 2158.61709572415 216 221 224
-433.042008471689 518.22937580409 2161.11289516139 219 224 227
-572.188132233285 539.164680583277 2226.63320726721 151 155 156
-550.109522826987 532.058703303506 2253.68312270538 161 165 166
-582.25883265666 539.277423558125 2245.18896449885 174 178 179
-594.366554503343 541.490946878185 2246.97341883711 173 177 178
-610.760293398181 543.958961763316 2254.60237118684 183 187 186
-616.780955135689 544.648626143077 2259.53795971231 197 201 200
-620.168303280413 544.684989088483 2265.77884525693 200 204 203
-626.200332210951 545.374242258917 2270.73521646218 197 201 200
-631.357128056458 545.84564588422 2276.13116186441 197 201 202
-640.93987940158 547.405488668098 2279.42006190342 194 198 197
-646.113166693359 547.876542103859 2284.84623277077 188 192 191
-651.291222263829 548.347340217838 2290.28160083474 187 191 192
-657.362493937161 549.035731196994 2295.30988731504 181 185 186
-665.22022391281 550.159616545754 2299.52465568273 182 186 185
-675.762661907955 551.936719156475 2302.52912967795 184 188 187
-689.001696999857 554.367285896943 2304.34474547443 185 189 190
-697.80256036803 555.708736209531 2308.24473510285 187 191 190
-705.724178917366 556.832259660787 2312.5768973682 188 192 191
-709.178774705925 556.866306465788 2318.94076707018 178 184 182
-718.913549692054 558.425241473333 2322.50899329707 177 186 183
-722.37656435709 558.458915821196 2328.88823484109 176 185 182
-732.137914180238 560.017605940395 2332.50526339224 177 183 183
-738.312687996092 560.704629524888 2337.72349796677 180 186 186
-747.202149002694 562.045258795748 2341.78618789063 183 189 189
-748.87694712122 561.642280379757 2348.97536546207 189 191 190
-749.641187730143 561.021046546335 2356.53902712295 192 194 193
-749.490993127954 560.181599752694 2364.47005384144 189 188 186
-750.237517228558 559.559756101914 2372.00094823043 188 184 181
-750.066962259235 558.719668007752 2379.89433567129 191 186 182
-750.795735716257 558.097258449636 2387.3924132121 188 184 175
-753.339373844846 557.910578119968 2394.12928775622 189 185 173
-756.792679898706 557.94165513295 2400.48989232157 192 186 174
-758.417226515733 557.536453381743 2407.58597962148 191 185 173
-761.867014239462 557.567104421932 2413.93998523759 163 155 144
-761.649529899591 556.725305262014 2421.74654646137 147 137 125
-766.92900148041 557.191594211923 2427.36708104562 114 102 88
-769.455462659497 557.00354233719 2434.07195159713 109 97 83
-774.740635104017 557.469546528182 2439.70238123142 104 91 75
-779.108395121194 557.717256102595 2445.6951799684 102 89 73
-786.24783554725 558.619131863235 2450.63742352159 101 85 70
-786.925771121802 557.994078366525 2458.04120584506 105 89 73
-795.927456372912 559.331996433245 2462.30948128589 106 93 76
-801.235899040491 559.797273219362 2467.98249035427 109 97 83
-810.262390347651 561.135028740215 2472.29633977101 121 111 99
-817.444448554087 562.036392715192 2477.31681128273 206 199 191
-832.083936790315 564.683101140296 2479.65831467981 242 237 231
-852.347729470501 568.639033843569 2480.04734175735 248 244 241
-176.149086594394 475.865945217946 2010.06291385842 147 128 121
-179.958860269692 476.125918648107 2015.03316204586 153 135 125
-182.179535130499 475.958023423688 2021.18169737464 160 140 129
-186.790326825417 476.43166844971 2025.57461993927 156 134 121
-186.614441459758 475.621652105905 2033.467247024 160 136 124
-181.628383984632 473.527589320179 2044.8167553976 166 140 127
-179.020990249774 472.074887971605 2054.3890286637 162 134 120
-180.408979346516 471.691730845808 2061.05667286854 163 137 122
-186.616109700706 472.59249249921 2064.283389047 175 149 134
-189.613000958214 472.637072429756 2069.80862425422 170 144 131
-194.223289071322 473.109544457751 2074.20026789473 174 148 135
-196.415952095172 472.939735045319 2080.29670871442 165 147 133
-208.31579474586 475.338843858347 2079.63984553521 163 147 132
-217.813544726956 477.095885735877 2080.71641099124 169 153 140
-233.014327773419 480.351885154684 2077.9285624188 162 149 140
-237.685438991161 480.824403833595 2082.43158061602 172 162 153
-244.804944647812 481.939274912032 2085.28641341334 132 125 119
-248.675635160652 482.197464360318 2090.36765803923 213 208 205
-255.816740546392 483.312252889187 2093.26219184955 192 188 187
-260.516790982025 483.78440711319 2097.81832494205 211 211 213
-266.86132773673 484.684912282064 2101.29818364102 191 192 196
-274.037381579544 485.799599952452 2104.25696370145 193 196 201
-282.049055958679 487.128594736261 2106.70174534171 198 201 206
-292.546917503862 489.10051202111 2107.567516491 205 209 210
-304.717819983959 491.501135052351 2107.40963708448 204 208 209
-315.265788026267 493.473309247213 2108.36764047001 177 181 182
-319.218929068806 493.730779832757 2113.60081470973 188 192 193
-325.661046405095 494.631222791598 2117.25961892618 194 198 201
-332.943504780568 495.745936668639 2120.41410419064 182 186 189
-341.901791316432 497.289420913848 2122.54958030396 187 191 194
-348.381240408133 498.189717533761 2126.27700041347 192 196 199
-354.87117662817 499.089900792997 2130.02417841684 195 199 202
-361.37181111198 499.989975092823 2133.79099971018 198 202 205
-369.556009635198 501.318941424269 2136.55307613018 200 203 208
-377.756056700044 502.647933986838 2139.3443087942 201 206 210
-385.132834008881 503.762308572263 2142.67216173045 203 208 212
-394.203546336465 505.305713459458 2145.01438549479 204 209 213
-400.767846668418 506.205497070402 2148.89821246687 205 210 214
-410.714576913536 507.963438997557 2150.80080509956 206 211 215
-416.461171561252 508.648525053885 2155.23095751103 206 211 215
-421.370098772895 509.118866001505 2160.17121200658 206 211 214
-429.671832332839 510.447488828284 2163.14935347561 207 212 215
-438.83740083126 511.990693770827 2165.66597489392 204 209 212
-449.720265918091 513.963162889012 2167.24000365442 202 207 210
-455.522330723454 514.647786801047 2171.77203681622 202 207 210
-460.480384912409 515.117562412283 2176.80197052165 205 209 212
-465.443548146815 515.587131076107 2181.84174270307 205 209 212
-469.557664421527 515.841867214086 2187.36965317503 204 208 211
-477.09793323472 516.955204683849 2190.99788489428 203 207 210
-482.079791069428 517.424318330901 2196.07139877473 203 207 210
-485.349787831333 517.463671186195 2202.09735287358 202 206 209
-490.339363182517 517.932343048555 2207.18543206296 200 204 207
-503.084639628048 520.333943080785 2208.08372059446 200 204 207
-512.408682015778 521.876361373282 2210.8915678078 201 205 208
-513.977270605315 521.485442707046 2217.88903332623 204 208 211
-513.810699963638 520.664561561678 2225.795524609 206 210 213
-524.896128588824 522.636296341474 2227.74188379376 210 214 217
-544.681163968695 526.756609295062 2225.18552654144 207 211 214
-550.612702879793 527.439259212988 2229.95509255275 202 206 209
-555.681810723579 527.906900567425 2235.18863234775 203 207 208
-558.141390998442 527.729663197459 2241.77374888152 194 198 199
-566.707998862736 529.056474820752 2245.23900203468 202 206 207
-574.416242171717 530.168357736117 2249.17522779833 202 206 207
-585.63915355826 532.139912688595 2251.37438875357 203 207 208
-596.008478000408 533.896473873632 2254.05429813949 199 203 202
-603.764503978891 535.008142861719 2258.07834060618 195 199 198
-611.533187169627 536.119650469717 2262.126117706 198 202 201
-614.911536411424 536.156053977566 2268.35046482647 202 206 205
-623.581498725366 537.482325575991 2272.00513900345 197 201 202
-627.850475806344 537.73333480701 2277.81725019869 197 201 202
-637.429271168288 539.274399372523 2281.09322745478 195 199 200
-639.939240076056 539.094955320018 2287.77035426928 191 195 196
-645.107888518368 539.560473041474 2293.18632874037 189 193 194
-649.392879424957 539.810668458186 2299.02764754749 183 187 188
-654.570137236251 540.275771674389 2304.45933156628 183 187 188
-662.42532852278 541.386019737579 2308.66583404473 184 188 189
-670.293456647738 542.496172613273 2312.89559685732 184 188 189
-678.174079921034 543.606206495523 2317.14880898455 186 190 191
-686.962513932049 544.931274185089 2321.02101215778 187 191 192
-693.077421285507 545.610819224243 2326.12689244251 176 182 180
-704.585221968375 547.581246364582 2328.84967756529 173 182 179
-711.621654334536 548.475691190672 2333.60023588777 173 182 179
-723.169053451072 550.446058072442 2336.39583162413 178 184 184
-729.330649579871 551.125095486975 2341.5874284202 182 188 188
-736.402371650959 552.019221935639 2346.4027951972 184 190 190
-738.963647905214 551.836974594676 2353.17394680604 186 190 191
-742.427439570656 551.869757092774 2359.55434919722 188 190 189
-746.797637559587 552.117645307389 2365.55118128537 188 188 188
-749.353782767793 551.934672118144 2372.31267768763 189 188 186
-750.088720965529 551.32096480377 2379.82420601538 190 189 187
-748.083484655533 550.061042712202 2388.44713002125 187 188 183
-747.886046324188 549.231373856949 2396.29420734744 183 182 177
-752.24342181773 549.478029125444 2402.26759000114 182 182 174
-752.945140801113 548.863170967834 2409.71818030193 187 184 177
-756.385895632746 548.894098520428 2416.05565593677 185 180 174
-758.909157922543 548.709435696434 2422.75566230755 177 173 164
-765.102681618119 549.386076137752 2428.00525889558 192 185 175
-766.705134010278 548.985619053065 2435.06213771224 189 180 171
-772.906742044654 549.661942142234 2440.32650743781 184 175 166
-778.193190760509 550.122700751863 2445.95821115391 183 173 163
-786.255168949042 551.229622437418 2450.54352786665 179 169 157
-786.930790217302 550.613020606914 2457.94559535469 184 172 160
-793.154874271677 551.288813644178 2463.25114317845 193 181 169
-798.458853154937 551.749073826589 2468.91443393487 204 194 184
-806.553423414889 552.855524946794 2473.56005614043 202 193 184
-813.730445174548 553.74648842924 2478.56813705988 211 206 202
-829.299106201775 556.57671010606 2480.55844131079 218 214 211
-848.631287828411 560.269020594176 2481.27009265883 245 244 242
-869.874830987492 564.392610746619 2481.39667824125 61 63 62
-885.555714290552 567.223282440038 2483.59351503458 89 91 90
-900.333269094699 569.838591511459 2486.17900131021 112 116 115
-906.701107957642 570.514176003977 2491.74887770614 84 90 88
-933.735788756418 575.931675105957 2490.22622645747 83 89 87
-144.232546193973 466.900373202602 1971.93125201243 123 108 105
-148.79890121931 467.368970678548 1976.24042529557 88 67 64
-153.370951473655 467.837562112633 1980.56007132563 92 68 64
-158.735949364572 468.517068162687 1984.28722398957 86 61 57
-166.475644998416 469.829928110591 1986.22693507316 157 133 131
-168.701199602057 469.665148833316 1992.38538216961 141 117 113
-169.342033856956 469.077972539374 1999.73231888542 128 107 102
-173.146042593918 469.335070608327 2004.69109961867 137 116 111
-176.953340362871 469.592150641568 2009.65541981332 143 121 110
-180.7635608514 469.849101097736 2014.62558069923 131 109 96
-181.390944893399 469.261129434924 2021.94754083848 135 112 98
-180.415545845772 468.250503234252 2030.42418823937 114 88 75
-178.62848710742 467.028263110296 2039.45971232076 135 107 93
-174.425165155494 465.171851024766 2050.20548125536 172 144 130
-173.405954161471 464.160067906651 2058.60120259437 169 140 124
-176.389045241043 464.204468732031 2064.10100289916 153 126 109
-182.589718314865 465.093939528533 2067.312951806 157 130 113
-190.412437576608 466.406148413904 2069.4051626804 151 123 109
-196.63734802991 467.295671475254 2072.66170426145 156 128 114
-200.448612602088 467.551038970147 2077.63330937736 139 117 104
-205.881905845194 468.229114800978 2081.48513529654 144 126 112
-211.323428767965 468.907126137259 2085.35207770125 155 137 125
-224.081833719342 471.48797672319 2084.2136170972 154 140 129
-232.804899158095 473.011849219037 2085.91058108461 160 147 138
-244.805172651666 475.381634664719 2085.42961036531 141 132 127
-249.490929324249 475.84833024157 2089.95781309202 184 176 173
-254.999498588547 476.526386587382 2093.94807947039 193 189 186
-258.879073383569 476.78132666057 2099.04519099788 203 203 203
-266.86100439109 478.093850822827 2101.43031609262 181 182 184
-274.858713547275 479.406354174397 2103.84495806341 176 179 184
-282.872592290433 480.718919011506 2106.28885309686 189 193 196
-290.078737614143 481.819933338732 2109.29836076485 190 194 195
-303.073375040899 484.402191746032 2108.59530233188 195 199 200
-314.447177548744 486.561508679879 2109.0131400257 170 174 175
-319.225778201403 487.02769779257 2113.712451688 183 187 188
-325.667908060611 487.917074658842 2117.36845537133 188 192 195
-332.951145030787 489.018120665917 2120.51975815056 179 183 186
-341.910673918695 490.542534062659 2122.65178416651 182 186 189
-348.390147845386 491.431779508785 2126.37643087344 186 190 193
-354.880305319804 492.320974908938 2130.12071152135 190 194 197
-359.710349754375 492.786641046003 2134.91397615811 193 197 200
-368.72955347153 494.310967355547 2137.15572886921 197 200 205
-376.091227847777 495.411765624441 2140.45121782988 195 200 204
-383.465958586128 496.512481127182 2143.77119917386 198 203 207
-390.854144482913 497.613166703277 2147.11541376225 200 205 209
-399.097451561533 498.925656868818 2149.9812468526 200 205 209
-408.199778343186 500.449968503192 2152.37587361173 201 206 210
-413.942332900927 501.126807896155 2156.7961156148 201 206 210
-419.692683382134 501.803428020635 2161.23113404689 205 210 213
-427.145617064809 502.903850563769 2164.6943525114 206 211 214
-435.460136381587 504.216095586595 2167.69108416343 205 210 213
-444.640128691197 505.740238924251 2170.22850136923 204 209 212
-451.285259649087 506.62851735839 2174.25753073926 204 209 212
-457.088631322604 507.30467760761 2178.78942226657 202 206 209
-462.899916533166 507.980754825474 2183.3358432611 201 205 208
-468.719115019569 508.656675148027 2187.89677103 200 204 207
-475.402427507746 509.54444805816 2191.99587116934 199 203 206
-480.381199153808 510.008074024385 2197.06205872439 199 203 206
-485.365034218498 510.471477727703 2202.13799623369 199 203 206
-491.214444317998 511.146827164538 2206.75431698637 203 207 210
-501.379209693411 512.882444812347 2209.05120256617 200 204 207
-507.250807101646 513.557585747011 2213.70826712125 198 202 205
-511.401978249371 513.808300053583 2219.3036230502 196 200 203
-514.690420861097 513.846705561337 2225.36321754029 195 199 202
-524.045639202532 515.369877657645 2228.22261527303 201 205 208
-539.494956576239 518.378156481507 2227.93217106732 203 207 210
-545.418538104793 519.052660810504 2232.68465245067 199 203 206
-553.961669586178 520.363639669245 2236.10146276559 197 201 204
-558.160773981671 520.613462321851 2241.78470853164 197 201 204
-565.855350324682 521.711990943533 2245.69178233494 193 197 200
-572.688196476015 522.598176451152 2250.06542476117 183 187 188
-581.283024993087 523.908766412486 2253.57719839454 180 184 185
-589.016106052364 525.006953965474 2257.55549106425 185 189 190
-594.127031669478 525.468268545292 2262.86403876839 192 196 197
-601.882151523749 526.566321575507 2266.88232009986 194 198 199
-608.768964023218 527.451894081895 2271.35503213084 190 194 195
-617.430708361779 528.761995700437 2274.98972929737 190 194 195
-621.689726931826 529.010330759915 2280.78272079632 189 193 194
-627.721047445569 529.683193158998 2285.73286004097 192 196 197
-632.87358797201 530.143479870124 2291.1181402879 193 197 198
-636.256206729292 530.178900167676 2297.35004415307 193 197 198
-642.305043874656 530.851217774792 2302.33223584439 192 196 197
-647.471373805017 531.311035374405 2307.74223200187 191 195 196
-657.099600299408 532.832701822802 2311.10328869142 187 191 192
-663.174940813346 533.504611196664 2316.13410214223 187 191 192
-668.363838654871 533.96395892729 2321.58546350077 189 193 194
-672.662167152107 534.210634898395 2327.45025419524 190 194 195
-681.445949826115 535.519501218886 2331.30903061647 185 191 191
-692.938561319075 537.465652191014 2333.9970839361 176 182 182
-702.65615644194 538.986907514282 2337.5218779389 173 179 179
-714.192252075946 540.933059271149 2340.28990675299 178 182 183
-722.144398510852 542.029218888179 2344.66998647621 179 183 184
-728.302831027996 542.700167798172 2349.85333242892 179 183 184
-730.850832068047 542.520790670159 2356.600931634 186 190 191
-735.207555451647 542.766361692023 2362.57228463872 186 187 189
-738.659308508195 542.799104239133 2368.93053382053 186 187 189
-742.110643748303 542.831664544842 2375.28795975791 187 188 190
-743.742229185916 542.438777968143 2382.40069616591 187 191 192
-743.546485519468 541.620474318863 2390.25430804843 185 191 191
-746.076543261818 541.439747951481 2396.96799627073 182 188 188
-749.516993572247 541.471380941941 2403.30512397574 177 183 181
-753.8716866224 541.715433910389 2409.2727905604 177 181 180
-755.480190366753 541.321371373775 2416.34272189275 183 185 184
-758.000551473506 541.139776157898 2423.0383149542 183 185 182
-763.273959991063 541.595994037239 2428.6441656316 187 187 185
-765.791791339677 541.413938416953 2435.33547179751 186 186 184
-771.070666863582 541.869822549029 2440.95127693081 185 184 182
-777.276691706802 542.53828035109 2446.22140471375 183 182 180
-784.413819345492 543.419344129097 2451.15313602441 180 179 175
-785.084507072785 542.811192319201 2458.54867093233 183 180 175
-788.526344616943 542.841010079923 2464.8878041348 183 180 175
-794.750998109469 543.5089658763 2470.1920424343 192 188 185
-803.770077828193 544.815109330907 2474.48275416979 199 198 196
-812.804162240234 546.121254195892 2478.80106269438 212 212 212
-827.442985156239 548.704020750607 2481.12211376799 215 215 217
-845.844331918323 552.138156311727 2482.15895081075 217 217 219
-860.549606694885 554.721258127314 2484.60181553996 219 220 222
-877.156298594808 557.730083143585 2486.44015822068 213 214 216
-885.367250720432 558.823593026133 2491.29543193375 230 234 235
-895.466663138041 560.342730907646 2495.52232499544 165 169 170
-900.886299553382 560.79757125912 2501.39720541263 174 178 179
-907.251401630482 561.465234823614 2506.95966636946 235 237 234
-914.565566766165 562.345659146813 2512.21680959682 241 243 242
-923.776215484685 563.651853214167 2516.85986684836 238 240 239
-953.593009459579 568.819142287024 2522.4930802341 248 250 247
-150.866197078933 464.476388185695 1943.21858878259 243 232 230
-142.947353006763 461.60744653082 1957.40084713616 227 209 207
-139.688394985624 459.98753721099 1967.83979551477 105 84 81
-146.600257366972 461.075312347341 1970.30408192566 63 39 37
-150.384674251737 461.32978402445 1975.22603986116 74 46 43
-155.745264708234 462.000952290833 1978.94207485753 78 50 47
-158.750779609499 462.046993951581 1984.48361009022 75 46 42
-165.702345526472 463.134887346951 1987.02095410036 71 43 39
-170.296025439068 463.597604010532 1991.37911858875 67 42 35
-171.729028382761 463.226580950958 1998.13269618736 67 47 38
-173.950072484268 463.063784634742 2004.28394821104 60 40 31
-177.757835085197 463.317812364221 2009.24820542383 69 45 33
-183.159705171367 463.988689264901 2013.04007356073 61 34 23
-182.194964539164 462.991468277944 2021.54085920605 159 133 120
-176.429069904073 460.742808896001 2033.52441376963 171 143 131
-169.835581998753 458.28499007142 2046.03827837226 137 108 94
-168.816824278516 457.286581163913 2054.4388552735 154 125 111
-171.795677700822 457.330724716757 2059.93078438713 116 88 74
-179.594819573695 458.626298163546 2061.97513376177 123 95 81
-186.605638009865 459.713405150888 2064.62121746131 111 85 72
-192.823817025211 460.591872332424 2067.8620539636 101 77 65
-201.474502565734 462.096343853756 2069.42006384503 88 61 50
-204.484249671453 462.140146225535 2074.96870947109 108 84 72
-209.923903988641 462.809907212224 2078.82973411433 115 93 80
-211.316312957956 462.436066755487 2085.50780474641 117 95 84
-224.890033004133 465.192971978866 2083.80700122757 115 97 87
-236.870446655064 467.532681151334 2083.28046006497 120 106 97
-252.139827713267 470.7077039375 2080.59442434198 113 104 97
-255.204092263231 470.751283946916 2086.24327061235 156 149 143
-258.26878855174 470.794662287123 2091.89285028236 185 180 177
-260.515032083477 470.629080550316 2098.08910677062 152 152 152
-267.680349328008 471.716343287538 2101.0193887667 162 162 164
-274.037368705622 472.594735441129 2104.51555543031 152 156 159
-282.873591869224 474.099717551452 2106.41495635168 161 165 168
-290.904332819975 475.395894038447 2108.88493573238 168 172 173
-302.252570667948 477.527768185801 2109.24800697394 188 192 193
-311.973682112146 479.24191060289 2110.7229783237 176 180 181
-320.06006563084 480.538247429761 2113.29534274288 167 171 174
-328.16238297693 481.834611503339 2115.89702056756 159 163 166
-336.280605721826 483.131002485097 2118.52795941057 173 177 180
-343.582724151064 484.218341290748 2121.71037083077 173 177 180
-347.565589246982 484.469623647509 2126.99584784476 176 180 183
-352.385568450964 484.929731882185 2131.76943355323 186 189 194
-358.046987258257 485.598765593546 2136.03810479354 188 191 196
-367.064833762874 487.104004871086 2138.27162146761 193 196 201
-375.262806583001 488.400208062481 2141.04917875739 191 196 200
-381.797160452544 489.278141563918 2144.8713579367 191 196 200
-388.342148119782 490.156024426958 2148.71307937947 191 196 200
-394.897977166577 491.03386101055 2152.57422193342 192 197 201
-403.151502670488 492.329928028095 2155.45390978036 193 198 202
-408.885912038695 492.998381353952 2159.85715367129 194 199 203
-416.32101787628 494.085148928637 2163.28347714133 196 201 204
-422.074205510195 494.753443677395 2167.72070575292 197 202 205
-432.079319381719 496.467732900188 2169.71805346118 201 206 209
-438.705201804684 497.345148047436 2173.70791020321 201 206 209
-445.341434919712 498.222403892812 2177.71726009245 202 207 210
-452.840859364721 499.308842348129 2181.26228247161 200 203 208
-462.061531274191 500.813793570668 2183.86874539704 199 202 207
-465.313308298638 500.853623756643 2189.86133362242 195 198 203
-470.278496143758 501.311888162984 2194.90092575755 193 196 201
-475.248964704142 501.769993869729 2199.9501823659 192 195 200
-483.661356625255 503.065277024405 2203.12232302034 193 196 201
-489.508022076929 503.732454312721 2207.73113832696 197 200 205
-497.086270311227 504.818296985923 2211.4204486085 197 200 205
-502.087940374902 505.275812163201 2216.52741712575 196 199 204
-507.959401437733 505.942605198735 2221.18172052624 194 197 202
-515.570217962651 507.028141404322 2224.93083766705 192 195 200
