ply
format ascii 1.0
comment KinectMotionCapture
element vertex 764
property float x
property float y
property float z
property uchar red
property uchar green
property uchar blue
end_header
-1003.95267670297 125.366560476378 2518.73144817983 191 193 190
-1038.77324946041 123.8695285489 2518.12275614165 198 200 195
-915.883574329157 107.91946325728 2282.16850731131 204 209 205
-912.247027793173 108.649634456814 2293.05493761878 208 213 209
-903.871504760955 109.680526527748 2305.66495404814 212 216 217
-902.111476415024 110.286491872903 2315.78064461925 212 216 219
-891.818287153603 111.433347071654 2328.98601337191 203 207 210
-879.61293987021 112.697395903702 2342.80919662318 202 206 209
-870.235686984688 113.777905497844 2355.53332417289 217 221 224
-870.338934765496 114.256694708001 2364.81949706159 217 221 222
-874.240104411487 114.495801624579 2372.75684738315 209 213 212
-880.996432256855 114.556132695842 2379.70942618483 199 203 202
-883.953657447923 114.855591213533 2388.00812348181 196 197 199
-885.96047369265 115.214541913922 2396.64018696892 184 185 187
-887.967541561239 115.573275867416 2405.27348673892 183 184 186
-888.068344132035 116.050222562361 2414.55105474383 190 191 193
-886.259392569971 116.644764818702 2424.45679376436 197 198 200
-884.445726143317 117.238172203516 2434.34242387418 206 207 209
-887.402500420832 117.536048475157 2442.64006481217 193 194 196
-891.316566662565 117.775120211983 2450.63317923286 192 193 195
-896.189549129406 117.955753935258 2458.32979539866 205 206 208
-904.894085340425 117.902561458722 2464.8212596254 211 212 214
-906.904741257442 118.259819798624 2473.47123830812 205 206 208
-906.999172420869 118.733565747299 2482.72261280215 196 198 197
-903.256240293535 119.439480761782 2493.15451370384 196 198 197
-909.100260293914 119.562649568431 2500.60638631667 197 199 198
-923.589426304042 119.164369470591 2505.45061694855 189 190 192
-939.055456567711 118.71078916272 2510.07559310781 178 179 181
-955.500199169159 118.202243224649 2514.48926172757 170 171 173
-968.116451483185 117.927419360836 2520.12055647144 168 170 169
-1001.92138995385 116.388217420743 2519.61760464312 174 176 173
-1029.98862925004 115.200728075413 2520.9647931403 194 196 191
-933.720808815046 97.7092696771058 2275.64028562084 212 217 213
-920.644041575033 99.090169145349 2290.11225602182 216 221 217
-909.44000778298 100.341002145089 2303.79916954729 218 222 223
-905.792350376055 101.084232325448 2314.6289581011 214 218 221
-899.295614990782 102.014770458702 2326.46420640799 183 187 190
-888.048522075985 103.257248249203 2339.96629093501 160 164 167
-873.938720530961 104.684571711402 2354.41521895684 198 202 205
-872.147048681615 105.294167531708 2364.38933472566 194 198 199
-877.949324034604 105.402758366691 2371.66583070009 177 181 182
-882.806253762798 105.574450313748 2379.29696852766 190 194 193
-885.765017958703 105.871123740724 2387.60408566449 177 178 180
-886.822139520197 106.292149037 2396.57114390466 169 170 172
-887.878023794197 106.71278485778 2405.53406543188 186 187 189
-887.9803391882 107.194912583997 2414.81416608195 194 195 197
-886.17309086504 107.800045843851 2424.72226768089 198 199 201
-885.315615131686 108.342369138734 2434.29397752683 187 188 190
-885.409086620859 108.82224021509 2443.53752054411 193 194 196
-887.411103977725 109.178450571651 2452.15004915202 216 217 219
-892.281282736077 109.350268022982 2459.83949600894 215 216 218
-900.981736894858 109.277436545354 2466.32452338483 203 204 206
-904.905086087918 109.511723635324 2474.36135800106 183 184 186
-905.957332078645 109.929386260274 2483.30999589635 181 183 182
-906.050379199308 110.407565588799 2492.55157752214 190 192 191
-909.977145130182 110.641719762946 2500.60463283759 193 195 194
-919.665031054836 110.511688709924 2506.91700301205 186 187 189
-932.243757222821 110.201336105463 2512.40491922934 179 180 182
-950.601959617911 109.530149810368 2516.23215357325 173 174 176
-964.173723794038 109.164349715077 2521.57108639797 171 173 172
-991.230993906205 107.956946555766 2523.03588843675 176 178 175
-938.322096698406 88.3150055004444 2274.10099707892 217 222 218
-929.97970888176 89.4096317013341 2286.82062640216 210 215 211
-914.058125409864 91.0285610793668 2302.28700326369 212 216 217
-909.469803470558 91.8540437607263 2313.47971062399 215 219 222
-907.714094469895 92.4808478445542 2323.60109163845 223 227 230
-897.42521584097 93.6964976206173 2336.78499279345 209 213 216
-878.586460465002 95.4979111384365 2352.9596056174 193 197 200
-874.902469180203 96.2491820556225 2363.62347049899 174 178 179
-880.705715227969 96.3469620913703 2370.91168888252 167 171 172
-885.564155373737 96.5105416515531 2378.55425391962 175 179 178
-889.47572595489 96.7395761372497 2386.54336101836 178 179 181
-889.585007782747 97.228377531508 2395.85023454904 163 164 166
-890.643704521451 97.6517567261405 2404.82393585039 164 165 167
-888.843942125028 98.2687172539673 2414.75698192461 198 199 201
-886.086347892865 98.9491053087269 2424.98837002813 201 202 204
-888.091661073075 99.3060601078722 2433.61498407243 180 181 183
-889.142618013164 99.7271151722971 2442.55594634713 181 182 184
-889.237820257065 100.211944696991 2451.8031132572 179 180 182
-891.241924164161 100.567937960816 2460.42496409234 177 178 180
-897.071285040675 100.667753873669 2467.82706199448 177 178 180
-900.035100979263 100.959864293526 2476.15912382678 177 178 180
-904.915466689699 101.124435901472 2483.89772202189 192 194 193
-905.967241120877 101.544086641929 2492.84202619941 199 201 200
-909.894248269677 101.772600285408 2500.89837562512 192 194 193
-915.742519038823 101.874476802877 2508.38258940961 184 185 187
-925.435859736228 101.723651270742 2514.73231349412 187 188 190
-943.784914810584 101.005365795037 2518.54694168177 189 190 192
-953.504230231138 100.858520428248 2525.00769792162 202 204 203
-974.77578278839 99.9571546821555 2528.13790833464 194 196 193
-936.310034521262 79.3690757130015 2275.05389004791 213 218 214
-927.026036420839 80.5616146036596 2288.12197343087 195 200 196
-913.000021535042 82.0942910424399 2302.8792348924 217 221 222
-903.683836392287 83.280661658058 2315.80911163285 227 231 234
-900.979493856662 83.9857040379093 2326.26174288002 216 220 223
-893.53294052139 85.0307523260356 2338.40060187239 222 226 229
-879.439012058604 86.550437334271 2352.86515177876 212 216 219
-880.50068070643 86.9776593783909 2361.8486023718 193 197 198
-884.408600892478 87.2007681402522 2369.82510904746 187 191 192
-889.269178133349 87.3563438638576 2377.48179894999 180 184 183
-890.33226598558 87.7831753689931 2386.47173307615 178 179 181
-887.59019961309 88.4799912350362 2396.76296996852 175 176 178
-888.64884166448 88.9056187715331 2405.73402147427 184 185 187
-886.84974798077 89.5329348586183 2415.66392347955 211 212 214
-887.904535235035 89.9573884830519 2424.61867898887 201 202 204
-887.051269896662 90.5157701464366 2434.20058365933 165 166 168
-891.919123265376 90.671029753305 2441.88952229544 162 163 165
-892.017223549101 91.1614216725725 2451.14727442749 167 168 170
-893.068561902405 91.5843378057012 2460.08773639776 169 170 172
-895.074742370774 91.9401411723323 2468.7188494475 171 172 174
-898.037639754832 92.2291131284222 2477.04870954214 187 188 190
-902.916440128401 92.3851263583303 2484.7854437212 200 202 201
-905.883437595625 92.6743312371591 2493.13323414282 198 200 199
-914.602509141951 92.5659061774955 2499.72123541829 189 191 190
-920.45346916626 92.6573017095975 2507.22237777043 183 184 186
-929.188384320344 92.5511581967132 2513.8788531626 190 191 193
-938.89237521552 92.3804397172476 2520.28720852575 195 196 198
-948.606661249864 92.211187935755 2526.73898111874 197 199 198
-960.253969523181 91.9119989966287 2532.67237427783 195 197 194
-921.084763828732 71.429095096355 2280.98306342297 211 216 212
-914.628586387018 72.4378448527313 2292.95103183307 211 216 212
-903.436164148129 73.8009542457141 2306.62307523229 220 224 225
-886.552340071078 75.587981968772 2322.30680259265 209 213 216
-884.785341690816 76.2331782426806 2332.36870483272 200 204 207
-879.226104896217 77.1612006035937 2343.77909842282 217 221 224
-876.499796626149 77.8747460979539 2354.1299347565 216 220 223
-880.405160296862 78.0918309584698 2362.0976326067 204 208 209
-886.21078515443 78.1678948157214 2369.40910614133 193 197 198
-891.072249385836 78.315221239406 2377.0745566031 169 173 172
-888.337334221135 79.0263952526308 2387.38777442606 181 182 184
-883.695048444976 79.8768799273871 2398.32798072865 185 186 188
-883.800694032674 80.3747110770559 2407.61460629721 192 193 195
-882.952269720689 80.9420015754755 2417.21260342837 191 192 194
-886.863141027608 81.1585507663458 2425.20488615473 180 181 183
-886.963940550913 81.6548627463312 2434.47105070242 169 170 172
-892.785168301377 81.7319804976268 2441.85065969086 181 182 184
-892.885399603382 82.2276460662774 2451.11361411616 186 187 189
-892.983135268354 82.7227186566093 2460.36700651043 185 186 188
-892.123030742019 83.2865685967449 2469.91555752346 193 194 196
-895.084372905058 83.5723207343124 2478.24045821192 207 208 210
-901.874838326496 83.581234059371 2485.37370904659 204 206 205
-907.714042216789 83.6601349716321 2492.83148244881 187 189 188
-918.349059822133 83.3947791705088 2498.8406471542 183 185 184
-923.242971461439 83.5444429134389 2506.647704822 188 189 191
-931.978141004972 83.4194693901925 2513.31637639752 192 193 195
-935.922405598933 83.6391271827707 2521.45398077426 194 196 195
-946.593207698462 83.3791293616207 2527.61876756373 188 190 189
-910.586793538727 63.1986790486641 2285.13114953181 216 221 217
-906.015713112862 64.0820059792141 2296.36581081828 219 224 220
-894.822596171761 65.4817870338681 2310.01431029684 211 215 216
-879.831127060603 67.1739364780507 2324.97874793079 206 210 213
-880.900009803192 67.6074701279474 2333.99027569405 213 217 220
-875.341252875605 68.5564584225618 2345.3915387873 226 230 233
-877.351095649695 68.9149354253441 2354.03721751691 181 185 188
-882.204848504804 69.0529136763063 2361.67418550952 172 176 177
-888.011041202968 69.1180262425948 2368.99460246808 180 184 185
-890.97530844668 69.4035924341492 2377.3314157011 175 179 178
-886.342829066817 70.2743155539999 2388.30401744393 181 182 184
-881.702169690679 71.1433196538475 2399.24049807939 191 192 194
-878.955128936383 71.8647735622101 2409.49423728215 198 199 201
-880.008241348687 72.2937950064602 2418.44001224267 188 189 191
-883.917241297649 72.5043361323104 2426.42758243722 183 184 186
-883.064680316789 73.0780692270626 2436.00356170141 177 178 180
-886.976006625316 73.2885794278078 2444.0014013633 193 194 196
-887.073566504549 73.7888137476836 2453.25098318375 201 202 204
-888.123700943595 74.2161783954844 2462.18352354435 201 202 204
-886.306852393576 74.8595390072629 2472.02575053178 209 210 212
-894.044339980561 74.7815432377709 2478.82792321503 211 212 214
-904.65937452204 74.4888912124559 2484.76508579567 202 204 203
-914.328666983072 74.2697877530433 2491.0479119561 184 186 185
-923.050100268269 74.123994708364 2497.66829903975 181 183 182
-926.029864712297 74.4090762793176 2506.07477329895 184 185 187
-933.806331634914 74.3367492235571 2513.04429079054 183 184 186
-934.872846547455 74.7651288997496 2522.0484159318 196 198 197
-948.421638155933 74.2666427156236 2527.3652464458 194 196 195
-909.527502177987 54.2523437489411 2285.72524480814 214 218 217
-902.127122973977 55.384704616792 2298.01621917136 218 222 221
-889.992242466616 56.8983950917299 2312.00417491499 218 222 223
-882.564610997858 58.0255726308185 2324.17810879068 208 212 215
-879.853520915163 58.7678468131949 2334.57802152381 210 214 217
-874.297329239111 59.7381060143267 2345.97807773816 213 217 220
-877.254018786364 60.0198414843503 2354.28483879825 187 191 194
-883.055136399235 60.0731426236113 2361.5887526972 179 183 184
-889.809385765516 60.0511363925381 2368.5816870474 166 170 171
-888.979822568826 60.6377332772038 2378.25144171438 180 184 183
-883.399854756579 61.6027620423023 2389.54871655922 185 186 188
-877.81000769029 62.5659333346447 2400.80463664423 186 187 189
-876.013300192867 63.2246277989276 2410.72659782197 189 190 192
-878.016927731787 63.5802203647416 2419.34658518244 186 187 189
-879.068973736619 64.0110834989078 2428.28549130587 196 197 199
-880.120019754241 64.4415275505622 2437.22023740117 223 224 226
-880.216756954797 64.9468115480623 2446.46322397076 217 218 220
-881.26515983053 65.3763928054362 2455.38683033015 218 219 221
-880.403703872393 65.9555128772046 2464.92044476468 216 217 219
-882.403724594164 66.309236877433 2473.52563744363 205 206 208
-889.181894267566 66.2890165642111 2480.62292800589 180 181 183
-900.747732788875 65.8965169979074 2486.25220084495 169 171 170
-911.369383500806 65.5805542452043 2492.23222868636 167 169 168
-922.002382705743 65.2663692104322 2498.26121891924 167 171 170
-925.939871568886 65.4741491973105 2506.37703807701 168 172 173
-931.797763015924 65.5337265763267 2513.92743866271 175 176 178
-933.823264311987 65.8904034562811 2522.64317661937 188 190 189
-949.288218623912 65.2110590441868 2527.39619858938 195 200 196
-972.455415528941 63.9435547288195 2529.98116062823 199 201 198
-904.845099754816 46.1461831156421 2297.20027436897 227 231 232
-892.717502030284 47.7005753894145 2311.19638277352 217 221 222
-892.853758980897 48.2201548153427 2320.60402157637 211 215 216
-886.369988687051 49.2937638873486 2332.4122518791 213 217 218
-878.929452424638 50.4444066752028 2344.51551831895 214 218 219
-879.996422845454 50.8816442281969 2353.5164407778 162 166 167
-882.956771558535 51.1607738347701 2361.84085891082 170 174 175
-884.023080184559 51.5975496451936 2370.8391367031 164 168 169
-880.345939298403 52.4273531031624 2381.48808451589 177 181 182
-873.814327395057 53.4914025296211 2393.09111984304 178 179 181
-873.919795157504 54.0041575079239 2402.36818410266 198 199 201
-871.172247121776 54.7513253472786 2412.60456383725 192 193 195
-874.124279303505 55.0278862956383 2420.89384535087 217 218 220
-873.271549135758 55.6170075278799 2430.46002828041 224 225 227
-876.224297130583 55.8932312569919 2438.751576009 220 222 221
-878.225533470542 56.2474116903719 2447.36185694176 219 221 220
-878.320047979149 56.7570689746458 2456.59247682781 202 204 203
-877.458321882209 57.3437931242469 2466.12042840517 195 197 196
-879.457121516339 57.6969585036826 2474.72056883219 190 192 191
-886.232676216356 57.6626194064241 2481.81355411483 167 169 168
-893.970253261699 57.551851755458 2488.63539635345 166 170 171
-901.715693215467 57.4422162796176 2495.49013476982 182 186 185
-910.425838997497 57.2565752857271 2502.08421988501 179 185 183
-916.27173746159 57.3033582902649 2509.58929772349 189 195 193
-924.997745679023 57.1200744188567 2516.25189546966 196 200 199
-933.73260067382 56.93812046642 2522.95269499009 197 202 198
-956.870877965785 55.6069742584219 2525.44765266387 183 190 183
-985.797938402657 53.8208605117554 2526.37939296256 209 214 208
-907.409066604203 36.3577895359695 2286.91519165813 208 212 213
-902.844669862918 37.2966401971665 2298.14664785784 207 211 212
-893.552739316248 38.6446824551675 2311.08940072884 205 209 210
-893.690628506218 39.1694459275206 2320.50226944083 204 208 209
-882.485802578305 40.6769448343245 2334.03472985594 218 222 223
-880.720692183612 41.3629658387475 2344.07985346248 186 190 191
-878.004480372057 42.1296902421354 2354.44390250166 190 194 195
-880.964095192161 42.4055414198314 2362.76592853436 199 203 204
-877.292320332822 43.2519955211522 2373.42872878286 217 221 222
-871.716989105021 44.2598260509685 2384.72234689586 234 238 239
-865.183539628425 45.3470175959592 2396.30258696951 239 240 242
-866.234004573295 45.7827395893984 2405.23275462166 233 234 236
-865.383614985309 46.3802208372819 2414.80433440361 229 230 232
-870.233563615399 46.4911887473512 2422.44042539323 213 214 216
-871.282530192889 46.9260453621152 2431.36341295384 209 211 210
-879.945355622306 46.7146931843232 2437.76409985847 203 205 204
-881.94969871511 47.0690791091014 2446.38795006774 198 200 199
-881.094918584624 47.6648742216089 2455.94117432403 186 188 187
-880.236636988775 48.2598603453513 2465.47944493089 183 185 182
-884.146706637405 48.4525226072267 2473.48224460128 184 186 183
-886.149439399502 48.8058486014862 2482.09962218381 199 204 200
-888.152366864713 49.159034766645 2490.71793998315 193 197 196
-892.068003601072 49.352111744809 2498.74502752134 208 214 212
-901.727093545745 49.0663010606606 2505.02321694846 216 222 220
-912.353888811658 48.7023303855605 2511.05415134561 209 215 211
-923.95002678041 48.2604817361285 2516.84596649543 194 200 196
-944.18700702557 47.1048937651428 2520.12318747276 173 179 175
-965.406967007684 45.873804429172 2523.21998397422 181 188 181
-1001.05073978267 43.4572368426012 2522.22321952823 189 196 188
-913.887894089666 26.7288263768005 2284.67465275821 209 213 214
-913.102147361829 27.3471225971234 2294.51884347339 212 216 217
-900.047526610315 29.0680770411417 2308.88839480893 217 221 222
-893.582423207155 30.1920122899811 2320.7481955438 212 216 217
-881.437804204574 31.8218595532618 2334.62491824716 216 220 221
-880.619246532391 32.4337348000863 2344.32830167771 196 200 201
-876.013434827336 33.3825647356611 2355.37139024455 210 214 215
-877.078829055743 33.8237813579731 2364.3630267345 225 229 230
-871.512593604979 34.8542453891944 2375.68341378608 239 243 244
-866.884712786133 35.7986885581378 2386.63183329768 239 243 244
-862.248431635641 36.7414741784663 2397.54421103267 238 239 241
-865.196194833798 37.0115105155038 2405.81851851273 240 241 243
-868.145690559688 37.2816026874711 2414.09934125556 238 239 241
-870.146211909572 37.6354857187387 2422.70664645304 224 225 227
-872.146968393377 37.9892359241505 2431.31506590964 217 219 218
-878.905595635675 37.9256117345986 2438.35177002344 204 206 205
-882.814357338057 38.1129565017146 2446.35193370717 188 190 189
-882.914505622905 38.6335401136416 2455.60095274245 164 166 165
-881.105714609125 39.3197470656407 2465.45348505071 160 162 159
-885.970341580588 39.4238855385102 2473.15827410639 157 159 156
-889.884088696084 39.6114414232308 2481.18136862569 160 165 161
-892.845557262057 39.882031022086 2489.51465801769 193 197 196
-893.896366937489 40.3180730602846 2498.44615651109 206 210 209
-898.772333407363 40.4234381031705 2506.20019249009 192 198 196
-909.395006182084 40.0344846150297 2512.22765489478 185 191 187
-926.733229451106 39.0708185053351 2516.28870763851 167 172 168
-954.633447950778 37.2057378359823 2517.29844353415 150 156 152
-974.895526793288 36.003486711038 2520.7137091097 181 188 181
-991.34271846701 35.1333298680201 2525.35085747503 199 204 197
-932.606854352145 15.9142571100126 2277.83089001139 186 190 189
-923.352166814321 17.331810250694 2290.89578655751 207 211 210
-907.480542042828 19.3598418173805 2306.34168963941 245 249 248
-896.304788918866 20.9461662630874 2319.9558989419 238 242 241
-887.945048034507 22.2672259676063 2332.46587987659 223 227 226
-889.022555000982 22.7130861736453 2341.50816085264 202 206 205
-879.697018423142 24.1173547559609 2354.268669324 238 242 241
-879.819378799841 24.6484532411333 2363.6093831059 224 228 227
-872.364537975118 25.8744720060134 2375.60528172914 191 195 194
-872.477557410159 26.4036053853602 2384.90598976085 140 144 143
-865.951725295725 27.5391930907143 2396.49133127223 136 140 141
-863.209734654207 28.3262849859601 2406.72980446673 189 193 192
-864.259440690178 28.7661726069575 2415.65309143313 177 181 180
-868.157926866934 28.9465726372542 2423.6131463191 159 163 162
-870.158075226204 29.2998125450494 2432.21918616964 154 158 157
-873.109840806067 29.5667689452921 2440.51185555307 158 162 161
-874.15907084553 30.0059506085717 2449.43454663695 156 160 159
-877.11254157688 30.2728697210533 2457.73475182996 168 173 169
-875.301710939226 30.9691061318605 2467.57348379283 177 182 178
-882.069776984163 30.8927134522832 2474.65820429791 180 185 181
-886.935506102164 30.9885241904597 2482.37274814669 175 180 176
-894.670025308009 30.8283149753971 2489.20910928854 166 168 167
-898.589741592209 31.0108882497619 2497.26143800692 155 157 154
-902.512356277861 31.1937482323064 2505.32528370611 149 154 150
-912.178284715339 30.8657767929957 2511.65840504487 168 173 169
-928.556499709595 29.9438429137505 2516.02096964066 164 166 161
-960.282048048575 27.6655305042431 2515.90364797247 168 173 167
-973.831730151285 27.0061558641277 2521.31794544105 200 205 199
-943.77952298396 5.70932319481188 2273.82867926131 167 171 170
-929.825411808227 7.61249944215869 2288.68378752583 145 149 148
-915.850605847121 9.51185962446077 2303.44994714851 147 151 150
-910.346397532484 10.5956191533513 2315.01122835414 204 208 207
-902.944320022127 11.8577217136223 2327.21840917654 219 223 222
-894.585308150392 13.2075297585131 2339.71469372522 197 201 200
-881.486442918321 15.0041989448484 2353.84474549414 156 160 159
-875.935771523039 16.0791727378534 2365.20645112678 147 151 150
-869.428777222986 17.2419434663819 2376.85990112674 137 141 140
-870.488529743779 17.6863047815012 2385.82482740258 149 153 152
-866.808169644558 18.5775385784808 2396.42345819194 150 156 154
-864.06923203481 19.3779894952207 2406.66644104959 189 195 193
-865.120271613089 19.8204205659292 2415.5951948069 189 195 193
-863.321538151711 20.5298036489905 2425.47841503211 211 217 215
-864.368977910522 20.9712367431087 2434.39080648111 209 215 211
-861.611621507799 21.767888193547 2444.55594667618 212 218 214
-864.55771521921 22.0306369129355 2452.82609736557 203 209 205
-868.457120401923 22.2048469196005 2460.79384269009 190 196 192
-869.501157872496 22.645025391418 2469.6919796282 197 204 197
-876.264286021754 22.5541806692987 2476.76452755497 201 208 201
-882.080118964257 22.5526275126671 2484.16554916497 185 190 184
-891.719335168959 22.1988698875191 2490.39612763533 177 179 176
-896.592574360398 22.2873760662725 2498.14806149028 173 173 171
-899.557908795693 22.5524146467602 2506.5027374642 182 182 180
-909.220261203243 22.2021599739765 2512.83212061801 168 169 164
-926.549458245535 21.1511509666164 2516.90477085537 196 197 192
-957.306772564695 18.8758606239635 2517.07548172962 177 178 173
-965.101252504924 18.7088411618248 2524.18006991764 76 77 71
-929.700430637268 -1.4988593795498 2288.93455990833 177 181 180
-922.329364510458 -0.204889146355081 2301.25965119795 135 139 138
-919.661901403625 0.622215537633752 2311.80300135815 127 131 130
-906.607154018668 2.46906198793717 2326.09794910727 198 202 201
-895.421777296176 4.126916175066 2339.62767984191 252 255 255
-878.54928142781 6.33715232391407 2355.11240843035 244 248 247
-871.108591393158 7.61815145094102 2367.13832591984 236 240 239
-864.601985010905 8.80449157300467 2378.77962256119 233 237 236
-868.500175420214 8.97392249136719 2386.74373938851 211 215 214
-865.768530393798 9.78875283704273 2397.01148646264 213 219 217
-863.979225334548 10.5103414403651 2406.92907476184 186 192 190
-862.185219600107 11.2309711846939 2416.82651315217 175 181 179
-859.437021252241 12.0424569621326 2427.02328393739 199 205 203
-857.632997478844 12.7610332426353 2436.8777848667 185 191 187
-856.77476905283 13.3870370175092 2446.39804620103 212 218 214
-860.669193378205 13.5547598004025 2454.34657216603 215 221 217
-864.566098781443 13.722838426772 2462.30690830212 207 213 209
-866.560961970044 14.0738033489031 2470.89099672326 203 210 203
-873.321456437013 13.9687932133973 2477.95918435409 203 210 203
-879.13453893342 13.9558280867209 2485.35588447537 196 201 195
-889.72440661683 13.488834395792 2491.28468947895 186 186 184
-898.415709187724 13.2053566112439 2497.85328497352 164 164 162
-903.293750182156 13.2862337449257 2505.63086548931 180 180 178
-912.956410122803 12.9145244173264 2511.97530914868 184 185 180
-928.369912564103 12.0013119125556 2516.6391581592 189 190 185
-954.332552833069 10.0965249635125 2518.24697589837 93 94 89
-956.375681456705 10.4544906979515 2527.0396319363 67 68 62
-960.336354525972 10.6319243210178 2535.27437636987 44 45 39
-991.158975936781 8.2874023348597 2535.77358764207 48 49 43
-927.860689164161 -9.86984695537918 2299.42144673684 126 131 127
-919.542101733856 -8.45508395855138 2312.05766024261 113 118 114
-908.380065578098 -6.75620520631826 2325.66611362889 112 117 113
-890.592576285892 -4.3925670614024 2341.58503488307 115 120 116
-874.668617311526 -2.22419891438153 2356.71778197448 116 121 117
-862.502615746262 -0.4408148775078 2370.40997549285 162 167 163
-858.83194770503 0.483382574279878 2381.03084050817 252 255 253
-860.833202523659 0.836322399707323 2389.64193255365 252 255 253
-860.940319767666 1.37896863460341 2398.90868431678 229 234 230
-864.836539567567 1.54199826084822 2406.86788253665 152 157 153
-866.838611566401 1.89470359939747 2415.48271346563 152 157 153
-863.146763466789 2.81457990208234 2426.01387493168 175 180 176
-858.498161909246 3.8274663522998 2436.83073084857 184 189 185
-860.492937735249 4.17847399343951 2445.41440917393 124 129 123
-868.1930570817 3.96410699534427 2452.13212500054 15 20 14
-870.192019796914 4.31557953876582 2460.73397972746 47 52 46
-870.287109067566 4.85494352483928 2469.94857342326 14 19 13
-876.096199918137 4.83042535082123 2477.33447918239 0 2 0
-887.630670318095 4.24399746137055 2482.93958834409 0 1 0
-893.45382165758 4.2216689135946 2490.38616483742 0 1 0
-903.10073708241 3.82585783931416 2496.67431855455 11 10 6
-912.757532304295 3.43165525598776 2503.00614868846 2 1 0
-927.203751858526 2.57235093268005 2507.9322919286 17 16 12
-940.709900023257 1.80898250790379 2513.21591957636 9 8 3
-952.316859775321 1.23435883151884 2519.13351566205 33 32 27
-954.359372504427 1.59197201427325 2527.92366507385 40 39 34
-962.152030397046 1.39197973412186 2535.03961780689 29 28 23
-914.54976150053 -17.6040768391072 2304.55248868121 133 138 132
-909.054190397151 -16.4563865077487 2316.11531480768 132 137 131
-897.890436745937 -14.7210839686628 2329.69477663931 128 133 127
-897.090806812271 -14.0683266228564 2339.45752105633 137 142 136
-884.010999521243 -12.1419940138249 2353.59528928379 2 7 1
-861.461843463 -9.24008722573838 2370.99917885033 0 5 0
-861.575444616122 -8.69124702978785 2380.28977294997 4 9 3
-866.417844711787 -8.63138961326299 2387.92266227859 67 72 66
-863.689368119525 -7.79023757125913 2398.18888973373 153 155 152
-869.482181664802 -7.82755462352353 2405.51059620627 88 90 87
-870.539942653733 -7.37725414595952 2414.46325342594 55 57 54
-865.904471645651 -6.34367478684755 2425.32579920239 2 4 0
-862.209835711059 -5.40884224292171 2435.83587909148 0 1 0
-873.707088201363 -6.02810440047713 2441.29629678207 0 1 0
-893.772066087612 -7.51767664003289 2444.01201508061 15 17 12
-901.495492808902 -7.74447083786733 2450.83865946812 5 8 1
-878.768943973765 -4.87515695147978 2467.48002451506 9 12 5
-903.631313809992 -6.84192460330246 2468.83336533925 16 19 12
-902.79164145352 -6.19813526442975 2478.42493450035 18 21 14
-918.160634811451 -7.19370042248513 2482.94108803192 20 21 15
-925.913058789694 -7.41610098013662 2489.89292681526 20 19 14
-928.898742209288 -7.15645964026923 2498.33936018751 16 15 10
-933.796758262003 -7.08881269357015 2506.21274386237 24 23 18
-932.961800855328 -6.4448936394329 2515.82501350973 23 22 17
-944.561201552786 -7.047749335857 2521.72590520552 22 21 16
-954.25832762735 -7.45705805621916 2528.2443412085 36 35 30
-966.839576727939 -8.1516431984629 2533.96936794809 33 32 27
-1004.35906458116 -11.3275241403293 2532.56970146228 53 52 47
-889.00683908575 -23.9527588586672 2314.20501608354 114 119 113
-889.150889652022 -23.3930994347832 2323.62451070411 0 2 0
-911.920292333169 -25.2569695835856 2324.80732551355 4 9 3
-880.941814023773 -21.3676091829519 2345.4968983298 10 15 9
-875.409698529284 -20.2059486358214 2356.88938561579 21 26 20
-874.591174047175 -19.5492543678822 2366.56655421641 26 31 25
-861.592965354403 -17.0330053729709 2389.83082161811 29 34 28
-874.008191317451 -17.7840431409733 2394.85637210805 19 21 16
-879.807131067481 -17.8313559205057 2402.21095332246 19 20 15
-881.820305608862 -17.4775301393976 2410.87404943165 26 27 22
-877.195121676252 -16.4239167285835 2421.77014260416 34 35 30
-875.408544724799 -15.6715196577579 2431.68163198093 23 24 18
-910.652182995527 -18.8107217717758 2429.34667480626 19 20 14
-919.33287970729 -19.1521382157059 2435.90261241293 15 16 10
-906.153002385539 -17.2026271278059 2449.58469529629 20 21 15
-898.662200366952 -15.8532860425316 2461.34959405548 7 8 2
-906.392594180246 -16.0953916581038 2468.21703154382 25 26 20
-909.367403749158 -15.8402154646262 2476.61817472931 12 13 5
-888.509901395713 -13.1071765035715 2492.46297402899 24 25 17
-913.413156105686 -15.1314953219895 2494.02924042733 27 28 20
-922.118349571776 -15.4695146261898 2500.69112673589 22 23 15
-928.921937275444 -15.6085198271039 2507.97028914991 9 10 4
-933.820413179223 -15.5492178618655 2515.85060743859 33 34 28
-942.548504160118 -15.8836325326044 2522.61127323889 29 30 24
-951.285448259826 -16.2166077142416 2529.41010431194 32 33 27
-910.543073692529 -35.3552711826812 2306.45128896479 10 15 9
-907.877174269096 -34.4767315592193 2316.9701908512 3 8 2
-905.205173731196 -33.5993009671637 2327.46394642493 28 33 27
-881.779156057686 -30.4445209285136 2345.41155359346 29 34 28
-867.757252517154 -28.3302575902783 2359.84377517581 39 44 38
-866.935329028098 -27.6666313791752 2369.50188865435 25 30 24
-863.275087314911 -26.6939794691058 2380.14128514827 23 28 22
-853.934176536555 -25.1038878957314 2392.72583744587 10 12 7
-884.319116907699 -27.843455239102 2391.52872710872 28 29 24
-884.44344659752 -27.2833051935176 2400.85994522722 17 18 13
-865.616614943525 -24.6674962560086 2416.60810003912 21 22 17
-878.996891150074 -25.5482601493441 2421.40611162628 27 28 23
-899.981626812826 -27.2471832090554 2423.74153900819 17 18 12
-892.512504111978 -25.8674173551216 2435.58407445459 5 6 0
-904.979415624423 -26.6396952731324 2440.85096037453 24 25 19
-897.499010034099 -25.2621296603495 2452.6450710307 20 21 15
-877.641395831006 -22.5588153419858 2468.35594326495 23 24 18
-894.87481430372 -23.8403425604031 2472.14212132239 14 15 9
-884.508750454197 -22.1623056200396 2484.71393897435 23 24 16
-884.609879261308 -21.6072678799872 2493.9470139617 26 27 19
-896.152466743573 -22.2733976650444 2499.63476970852 21 22 14
-917.250442235219 -23.9535719949673 2502.45708310368 25 26 18
-927.86939670753 -24.5129293537288 2508.56947293155 28 29 23
-946.143810044481 -25.8815886902659 2512.43771535967 32 33 27
-952.010179129971 -25.9299546333347 2520.08896203295 21 22 16
-928.222440839783 -22.8410136722947 2536.48243093172 31 32 26
-955.141589962894 -25.1147038846495 2537.96574767551 21 22 16
-1045.31980269766 -34.0462732225587 2521.376305362 47 48 42
-1018.6631553113 -30.6540087351214 2538.61852372111 41 42 36
-827.942659276965 -10.0410534244355 2601.97433407966 43 44 36
-980.051311770376 -52.3257222741372 2280.97059170589 21 26 20
-914.510729934189 -43.7180586581038 2324.29737680181 21 26 20
-886.386366177308 -39.957801288581 2343.96836326278 10 15 9
-867.656492010611 -37.2662615194478 2360.09922612555 21 26 20
-862.116127197133 -36.0645213815314 2371.43178866124 15 20 14
-879.237230611944 -37.4075413152969 2374.76029639464 31 36 30
-870.856697461468 -35.8891919760517 2387.06152891593 28 30 25
-854.895685563361 -33.5273358731928 2401.9171962183 29 30 25
-889.075985605143 -36.7682331834586 2399.51169260647 23 22 18
-875.942629662412 -34.7255368877231 2413.34505335654 30 31 26
-882.692112814667 -34.9001061367455 2420.40671761118 34 35 30
-879.96472044126 -34.0205754204624 2430.65406326477 25 24 19
-896.210668349792 -35.2461535927021 2434.61346307644 17 16 11
-887.786166858358 -33.7362012502965 2446.725884639 12 13 7
-890.750708990707 -33.4884601308279 2455.08724307212 24 25 19
-878.503564353527 -31.5626195429495 2468.33699884589 18 18 10
-878.606757162277 -31.0020104129969 2477.57589210196 13 14 6
-881.563927729631 -30.7558788097868 2485.90571384496 20 21 13
-875.948465631881 -29.5686869878018 2496.91591139932 19 20 12
-929.555862443991 -34.2942126810641 2498.96983959748 17 18 10
-936.362419515219 -34.4599371676983 2506.277802164 31 32 24
-962.279110002597 -36.7069713970427 2507.88443741106 13 14 8
-961.464577945856 -36.0364821984138 2517.57108520634 22 23 17
-950.125997593946 -34.2238656756388 2530.33468648536 14 15 9
-954.082615987294 -34.0749770567185 2538.56943933462 22 23 17
-971.44926089168 -35.3772933372504 2542.9549171207 20 21 15
-950.936388336646 -57.6426523901614 2301.6165941653 8 11 4
-858.003558964444 -45.6888955914549 2354.41378435304 22 25 18
-876.98594613149 -47.2969732490266 2356.98617871417 24 27 20
-880.891917930542 -47.1606306196948 2365.00404627104 31 34 27
-888.577885413737 -47.4585697007443 2371.70746880816 29 32 25
-864.143550975048 -44.0638894822352 2389.62824333067 34 37 30
-869.932697548349 -44.1460547731346 2396.96016928496 50 53 46
-882.350506139612 -44.9858740043674 2402.04931867737 32 33 27
-884.367316845019 -44.6326694232758 2410.72880318611 15 18 11
-863.646508760985 -41.6842673405998 2427.04820008933 26 29 22
-885.557621897616 -43.6022706809803 2429.03822929939 18 19 13
-890.41935493923 -43.5732620065246 2436.77445492954 21 22 16
-883.893680956329 -42.2499418647604 2448.25116158197 17 20 13
-886.856018121255 -42.0056126559074 2456.60481043486 15 18 11
-887.91894350146 -41.545956833385 2465.57472242435 18 19 13
-888.980872857407 -41.0865747780055 2474.54040637899 19 22 15
-863.39255595401 -37.6209276403187 2491.89073602203 20 23 16
-949.196325767913 -46.7119376414599 2474.34547042535 22 25 16
-939.809936902577 -45.0680031869493 2486.69795149138 21 24 15
-929.455309812225 -43.3196842126581 2499.27882848489 21 24 15
-933.398376688529 -43.1783985853447 2507.45725097687 20 23 14
-937.343887699865 -43.0367345878432 2515.6473075991 20 23 14
-943.203329967457 -43.1081754882726 2523.28160266519 20 23 14
-972.96994214501 -45.8442354793729 2523.91521216577 25 28 19
-942.622350124466 -41.2960556515112 2551.55374272594 29 32 23
-963.817869858107 -43.0670895810361 2554.85933280166 28 31 22
-948.612073386481 -40.798818241457 2568.54155114511 24 27 18
-944.215939985498 -66.063579932802 2304.2959568304 15 18 11
-950.990053532955 -66.2606664875769 2311.4783143054 14 17 10
-926.679830454129 -62.7698669574949 2329.88946062043 48 51 44
-869.338847759909 -55.3787461675368 2359.93911474689 30 33 26
-858.263384242868 -52.8910345998169 2382.57898964287 26 29 22
-874.56133071908 -53.6345446618189 2395.59680029298 26 29 22
-864.278616271584 -51.8383424441565 2408.4664023905 17 20 13
-849.247826745688 -49.4901984749429 2422.87173710681 10 13 6
-878.708322690303 -52.3561006093018 2422.23170492426 28 31 24
-904.414000949361 -54.7727456525705 2423.00934488473 24 27 20
-927.306132270829 -56.8521220715413 2424.85972641904 16 19 12
-894.237546074945 -52.4055884178323 2445.12418264226 17 20 13
-882.013801343558 -50.3963383150365 2458.42907951703 20 23 16
-846.967143820274 -45.7428908347597 2478.96921422908 20 23 16
-844.200126330421 -44.8448775861583 2489.03107800789 23 26 19
-874.727112020813 -47.8013201533258 2488.58745996649 24 27 20
-915.76400976104 -51.9611737084947 2485.04064106377 20 23 14
-910.171242180066 -50.7281446124488 2496.12388372385 20 23 14
-906.475200383682 -49.7164177490813 2506.5825418499 20 23 14
-944.87904812127 -52.9556674757162 2513.67463748282 19 22 13
-936.415377878199 -51.3955955203079 2525.58498027879 19 22 13
-948.009404332232 -52.1340605732548 2531.54195096182 22 25 16
-974.918350069094 -54.6181092363656 2533.10403168817 22 25 16
-988.461343787888 -55.5688708736047 2538.66132701647 21 24 15
-917.747628016957 -46.9239101371426 2568.28318375472 19 22 13
-934.856189486234 -73.5185390368491 2317.56000150025 14 17 10
-851.446320048341 -61.5863756620869 2375.88011003273 26 29 22
-849.673664704718 -60.7798767748027 2385.82112509886 26 29 22
-856.394816407709 -61.0002834570478 2392.78490477485 21 24 17
-855.5634576456 -60.3084891888989 2402.38378707195 24 27 20
-873.639099018391 -61.8931171471455 2405.50315159515 17 20 13
-848.21304145252 -58.2447630797737 2423.4610269514 13 16 9
-865.356145884241 -59.7134784617321 2426.95932736588 26 29 22
-953.573545222338 -69.6885647855214 2406.90066849527 22 25 18
-967.959247003322 -70.8022177886771 2411.70973520735 22 25 18
-872.427843281391 -58.1998574527378 2461.78852323118 19 22 15
-851.636275938035 -55.1371833604531 2477.72890307756 19 22 15
-831.765610739433 -52.1926396526696 2493.24038187087 20 23 16
-863.226757367231 -55.3451544988375 2492.47104510871 21 24 17
-908.050518775594 -60.0688519013902 2487.7162496914 20 23 14
-899.598881796673 -58.4773431573247 2499.66112787756 20 23 14
-896.85144468699 -57.563183614529 2509.80086376044 20 23 14
-932.495830720051 -59.9871696435859 2527.03678889135 20 23 14
-941.218383873281 -60.417253803057 2533.82932150679 22 25 16
-966.203001193267 -62.749034441601 2535.93604377129 23 26 17
-947.20988968492 -59.93093806362 2550.83140863478 22 25 16
-974.419892005237 -61.3190954273191 2571.30334708897 20 23 16
-985.608555862948 -91.5378782922639 2260.17187954679 40 43 36
-1010.47725562193 -93.3889330629246 2270.5978670753 6 9 2
-921.384505290139 -81.6346660888208 2313.09337877551 48 51 44
-892.388195131454 -77.4062696852045 2333.2042162029 47 50 43
-849.22881609104 -71.4276487077271 2358.2265232805 33 36 29
-815.431496000436 -66.6298876526321 2379.63067074718 28 31 24
-880.709849544217 -73.5323641734138 2375.15633467738 28 31 24
-861.96340679744 -70.6116320125984 2391.07829695687 26 29 22
-858.303288099647 -69.5614919269728 2401.67265951316 24 27 20
-890.553961558022 -72.9399368164171 2399.9599971543 18 21 14
-853.799124293439 -67.8143335695586 2421.80801485061 16 19 12
-855.798145847432 -67.4655481637763 2430.41170934163 22 25 18
-898.521436052451 -72.1126614535976 2425.46879743389 19 22 15
-928.978302467307 -75.241509464979 2424.81759678813 17 20 13
-901.625832757525 -71.2899033819175 2443.22104131956 16 19 12
-906.498710700545 -71.2842272944482 2451.02010126079 19 22 15
-905.67821709457 -70.5834043310121 2460.66263771164 18 21 14
-778.481586976835 -54.502700743514 2510.41982803926 17 20 13
-870.749058989315 -65.1400372049361 2490.36983587204 18 21 14
-905.098710060827 -68.7158409957862 2488.90757135134 19 22 13
-920.449963221072 -69.97791700126 2493.50230434545 19 22 13
-895.807428553865 -66.3981337507475 2510.39675735948 19 22 13
-883.523116409166 -64.3207927527231 2523.3936241253 19 22 13
-890.297946637299 -64.546599393754 2530.59711833491 19 22 13
-932.39623504776 -69.0221980943224 2527.35561576032 19 22 13
-961.175038313149 -71.8818706286165 2528.26439550078 21 24 15
-935.510775098838 -68.1992594925896 2545.15245088041 22 25 16
-917.461558815825 -65.4394458056164 2559.68612137981 23 26 17
-954.892328989871 -69.3226458061054 2558.31153574506 22 25 16
-1031.63099551022 -77.8861043537044 2546.07832828639 20 23 14
-1001.14465203454 -73.637993615083 2564.16803260039 21 24 17
-992.733466245391 -102.449169991763 2247.86118648091 10 13 6
-984.518892635528 -100.75721876719 2260.79271163865 14 17 10
-988.49442466513 -100.631635205112 2269.12342970989 9 12 5
-939.870818428413 -93.7745072401585 2296.89002226432 52 55 48
-905.279704993673 -88.7303577871283 2319.20774808965 31 34 27
-892.273500079605 -86.4542111627585 2333.46410154199 25 28 21
-872.117068721173 -81.4488002979555 2378.40121021142 20 23 16
-870.358323001418 -80.6195391421124 2388.39013105726 19 22 15
-864.817661411426 -79.3137734244717 2399.66128778687 21 24 17
-860.212414068412 -78.1289812677551 2410.56807798517 15 18 11
-856.544216530216 -77.0648122725068 2421.11858917774 17 20 13
-846.245982707086 -75.16887204821 2433.86114134227 18 21 14
-833.091636262738 -72.9190258244463 2447.4801670474 18 21 14
-891.917957844905 -79.7010685830399 2437.28674846913 18 21 14
-908.159113237378 -81.1292233953193 2441.34417866248 17 20 13
-913.035956580333 -81.1312163749728 2449.16522313129 17 20 13
-915.069052826964 -80.7771578381593 2457.9159688322 19 22 15
-917.365467147423 -79.242486060266 2485.35935759299 18 21 12
-913.686720461333 -78.1806758528369 2495.8647705347 18 21 12
-910.953225749597 -77.2381387746321 2506.04816749156 18 21 12
-883.436819186727 -73.2332587548253 2523.69896438317 19 22 13
-898.792828303248 -74.5322988767836 2528.33639594207 19 22 13
-959.013441216252 -81.3559080803555 2519.75506891895 19 22 13
-903.882908877889 -73.3636152836632 2554.63524290078 21 24 15
-926.930965276117 -75.5936018351505 2557.26130396262 23 26 17
-964.356428947598 -79.5764933156497 2555.92305650894 27 30 21
-975.023913883521 -80.2735469787486 2562.32920152974 34 37 28
-1026.89294444287 -85.9979831506941 2557.31041474199 28 31 24
-981.331713211898 -110.34233675343 2252.38581939961 1 4 0
-992.807179711538 -111.208043851589 2257.89409994036 28 31 24
-995.84964896119 -110.964322721536 2266.60121449748 28 31 24
-935.9808382598 -102.485029823276 2298.54208163719 56 59 52
-919.25313203564 -99.6690974248096 2314.3085859189 12 15 8
-920.365331413909 -99.1887340429619 2323.48453438357 12 15 8
-864.084793964764 -91.2304902657369 2353.31606454879 13 16 9
-855.742686672452 -89.5322536640763 2365.68190609895 35 38 31
-834.198245814302 -86.123139366268 2382.65733340086 24 27 20
-872.956386322797 -90.5445564745597 2378.33674105214 21 24 17
-848.560256917814 -86.7728044207924 2396.20300117682 17 20 13
-824.129508131011 -83.007054201583 2413.92132488801 15 18 11
-850.67124371988 -85.8323932930637 2414.06600239047 15 18 11
-846.999362169427 -84.753311201004 2424.59150830973 18 21 14
-843.3205366548 -83.6755423956347 2435.08610115087 18 21 14
-859.509226017761 -85.1530787586219 2438.94138045848 18 21 14
-843.612468074462 -81.9067639434198 2462.67278987288 16 19 12
-878.791805682839 -85.8060539678203 2460.50154588373 16 19 12
-868.467604206657 -83.880698274718 2473.11128200532 19 22 15
-860.02622081197 -82.2002580484182 2485.05012319795 19 22 15
-891.47786207877 -85.6031847358524 2484.38618441528 18 21 14
-920.115617260158 -88.6367898988 2484.77681307817 20 23 14
-900.267710516419 -85.5056594360147 2500.27883447719 20 23 14
-906.095636312761 -85.6370789557704 2507.81061372034 20 23 14
-912.881504854106 -85.8882092279875 2515.07655720874 21 24 15
-932.06577541904 -87.7039108659751 2518.6606835759 21 24 15
-926.472217159235 -86.3872424236204 2529.69124811836 21 24 15
-966.684210877042 -90.84286499111 2527.2397953155 23 26 17
-900.928890474866 -81.9573928703024 2555.78661654293 25 28 19
-945.123025790188 -86.2934750532478 2561.69856176859 28 31 22
-973.958301473695 -89.2932916444685 2562.93861961996 26 29 20
-1004.74352206097 -92.5264380779447 2563.79568123174 16 19 12
-936.786154141247 -111.807516762149 2298.46113697284 28 31 24
-920.066058547113 -108.937545225674 2314.22939401147 27 30 23
-920.240137698009 -108.329386304209 2323.75159961527 19 22 15
-913.828135383524 -106.844432211612 2335.63414120426 28 31 24
-875.543880409634 -100.50269704292 2368.2551725159 27 30 23
-854.004630715215 -97.0266098309025 2385.21408378994 24 27 20
-844.693640081928 -95.1792962208115 2397.77919185339 24 27 20
-841.973446804275 -94.2079426331656 2408.00534005979 23 26 19
-843.024517352767 -93.7363293249114 2416.91597984001 28 31 24
-840.29521401071 -92.7666895362743 2427.10190545315 33 36 29
-822.431934319285 -89.8068937637683 2442.33729658232 24 27 20
-884.962213689437 -97.4206429200475 2430.72811850343 24 27 20
-866.264540145184 -93.739566090228 2455.5327608186 19 22 15
-836.986584895729 -89.2985165234338 2474.27743234625 17 20 13
-863.634509243778 -92.1752816829161 2474.92028572831 19 22 15
-881.77201023875 -93.9322044168869 2478.41357748469 21 24 17
-900.880790552316 -95.8091727027481 2481.69999901799 27 30 23
-903.854364795782 -95.581248659666 2490.11281388451 23 26 17
-951.529640084851 -101.156660713077 2484.75298861142 17 20 11
-930.743281365999 -97.8389623473592 2500.56632370415 19 22 13
-926.116286785201 -96.6218845710113 2511.35938012868 19 22 13
-925.292914636845 -95.8989928846961 2520.9751655536 18 21 12
-971.189358523543 -101.206071241222 2516.7339457178 17 20 11
-1015.76863439054 -104.433277748913 2541.91754759858 23 26 17
-986.285745821448 -100.028309760419 2559.78038706139 26 29 20
-1002.71108101698 -101.505780150211 2564.67733879695 37 43 33
-905.686454171928 -116.777072282561 2310.15567169736 14 17 10
-898.342682031599 -115.139143549523 2322.39873083277 22 25 18
-904.141119209903 -115.29722247419 2329.81624645621 41 44 37
-900.542720231222 -114.174121589873 2340.63966843313 41 44 37
-888.469656211529 -111.900977790608 2354.45333753165 38 41 34
-872.612808580652 -109.11980787918 2369.52029940548 37 40 33
-862.384998792504 -107.108899418852 2382.50555980981 37 40 33
-845.542581538724 -104.207572208672 2397.71635488122 33 36 29
-856.031445286719 -105.00772100588 2403.39711581808 30 33 26
-847.653436670071 -103.258272938785 2415.57354816301 40 43 36
-843.040224968008 -102.020259298449 2426.41393967623 46 49 42
-829.912076087802 -99.6392038138754 2440.07123391403 31 34 27
-850.812629214929 -101.835743894189 2442.32838670761 26 29 22
-894.451903430838 -107.07481762785 2437.21359298664 20 23 16
-882.271715872297 -104.820553103722 2450.56523192489 20 23 16
-858.701386786409 -101.04863208736 2467.5139378437 18 21 14
-885.355794546131 -103.993894967334 2468.22564898859 18 21 14
-901.604808360905 -105.541773721591 2472.38812562291 19 22 15
-898.882821116543 -104.558141133576 2482.59806006264 21 24 17
-931.309170937225 -108.248899575923 2481.84322142595 19 22 13
-953.470580077717 -109.93561529736 2493.91297492107 19 22 13
-949.813453786702 -108.823118976044 2504.4838478413 17 20 11
-908.044936607144 -102.6768354753 2526.42258021944 16 19 10
-967.261573509914 -109.871998012904 2518.19209899017 18 21 12
-1001.75261315867 -113.787003829543 2517.55346782273 19 22 13
-991.426198220696 -111.793659822017 2530.11454806306 18 21 12
-1013.55667973729 -114.06826889454 2533.28098436724 21 24 15
-982.194041514659 -109.319426521094 2551.77112202415 23 26 17
-1013.90550423827 -112.843322230995 2552.32434245174 26 29 20
-1012.16254133949 -111.981251660302 2562.36351405777 32 38 28
-905.39110966498 -126.51536914934 2300.91165776085 19 22 15
-884.295446953921 -121.654729059143 2337.23871636571 31 34 27
-865.648228448352 -118.426025828652 2353.41786560469 29 32 25
-860.141429999011 -117.030970017662 2364.78463888052 21 24 17
-877.211853730165 -118.770307990206 2368.12292410722 23 26 19
-887.710399826724 -119.593233897778 2373.85866138238 27 30 23
-866.179981977605 -115.98341880485 2390.77783647414 27 30 23
-851.335066037522 -112.682806573721 2414.5559247591 24 27 20
-844.838610702099 -111.165650212583 2426.04737744321 26 29 22
-837.386509329305 -109.520514048825 2437.80883650098 26 29 22
-846.940527150402 -110.213513389536 2443.86351279045 28 31 24
-874.480380483599 -113.368537536739 2444.04397512955 20 23 16
-847.145293606438 -109.002983603316 2462.28054781239 20 23 16
-858.612174672757 -109.951799864716 2467.8009645023 19 22 15
-896.634213220532 -114.520247384139 2464.87848161234 19 22 15
-917.629346415024 -116.754116292066 2467.5743641764 19 22 15
-877.901703945274 -110.719005061562 2489.45894024303 19 22 15
-854.266573374713 -106.886815881546 2506.08664578513 19 22 13
-966.671684372493 -120.880256057873 2490.17039136431 21 24 15
-979.203988484183 -121.938115678332 2495.89340451682 19 22 13
-970.800076521614 -120.164464614865 2507.94145640965 18 21 12
-910.925775087148 -111.454696545097 2535.16616427176 18 21 12
-977.789845057139 -119.833735253463 2524.8775680812 21 24 15
-978.902274497789 -119.347149134735 2534.05087032243 24 27 18
-1037.68203921734 -125.309864952745 2545.95459680817 24 27 18
-951.914584790219 -142.969511555171 2274.09173611815 23 26 19
-886.683487913222 -132.348618068895 2317.59817387982 19 22 15
-830.660434288014 -123.094954989694 2356.91630090705 24 27 20
-819.502046664971 -120.880662366703 2370.23876863139 25 28 21
-838.413006740538 -122.936790422794 2372.75885634828 22 25 18
-851.701660512463 -124.189501157835 2377.37189377816 22 25 18
-917.725174732738 -132.895553188349 2363.57275048747 26 29 22
