ply
format ascii 1.0
comment KinectMotionCapture
element vertex 771
property float x
property float y
property float z
property uchar red
property uchar green
property uchar blue
end_header
-964.468581968156 761.223971067641 2420.99950589216 20 26 14
-941.92605339362 750.187347321545 2383.55865426916 23 29 17
-878.449776179042 725.138247201689 2301.26839080462 19 25 13
-851.305693827568 709.739585522144 2248.1044167299 20 26 14
-885.145378304968 748.699961852889 2390.21073197949 24 30 18
-1005.71396351288 772.107255989975 2484.69887110435 157 163 153
-962.925596488847 746.518458147961 2394.85119188951 13 16 5
-962.921824825912 752.420417505618 2417.69733565748 16 19 8
-956.761610119232 753.784606943771 2424.30498253045 16 19 8
-916.665605799792 729.494667454126 2338.91035756932 26 29 18
-894.934032186805 730.618669764489 2347.95761838689 22 25 14
-899.23733738364 740.002842995426 2383.3678262869 21 24 13
-848.36595033287 749.536979273665 2431.36973030933 25 28 19
-974.724847008118 747.565293854661 2426.90877591779 19 21 10
-975.346955208451 753.942883012715 2451.6965135297 27 29 18
-973.717608046131 758.737662904898 2470.78301790525 18 20 9
-968.470263119212 760.889963171684 2480.31837214301 29 31 20
-911.748186058906 736.100643627946 2395.5939092767 23 25 14
-905.287330423461 737.184983993765 2401.22286468742 22 24 13
-909.703215387821 746.750784251433 2437.67242841666 21 23 12
-891.644424749351 738.823729065158 2410.57022416343 21 23 12
-819.001948737616 711.574815273983 2319.71152397157 24 25 17
-974.612746460494 739.797667287272 2427.42998266554 23 25 14
-980.241138151944 749.776747747291 2465.6032922919 17 19 8
-978.925926192749 754.789213157842 2485.65889481364 23 25 14
-903.104823221479 734.031483264562 2419.91089671887 22 24 13
-835.117034717276 717.361145519233 2368.69107858703 25 25 17
-794.641752671101 728.806406204555 2422.65965368231 31 36 29
-982.486602664378 731.985298415289 2426.1130260816 24 27 16
-971.256234969488 729.694990332538 2419.35430772314 20 23 12
-974.393304291727 737.760846169791 2450.82205020094 17 20 9
-937.165482773073 722.290537800741 2397.04973783755 21 23 12
-891.751311124971 717.773780294317 2388.67704173722 23 21 9
-873.482343239834 715.749201712952 2384.49576087386 23 24 16
-814.85037402609 687.72661144812 2285.28821926243 27 28 20
-807.811320589442 725.883453366701 2438.98676420266 33 34 26
-810.434635007612 734.777274336303 2473.90356743985 28 31 24
-807.107400082176 738.7175398637 2490.34283501729 28 33 29
-1009.00671341471 737.216243454404 2473.40350652232 11 12 4
-991.085282379167 730.350116081583 2449.53111177689 22 25 16
-978.711296072388 727.320674483138 2439.93222118647 19 22 13
-962.826077100853 721.725154387144 2420.74915327509 16 19 10
-938.631009514398 721.586063566071 2425.26315608217 17 19 8
-910.190180956649 706.479603588162 2370.45901890765 16 18 7
-923.799989142106 722.430793966521 2431.78211524934 19 19 9
-889.925002335021 708.883261975201 2384.40332524733 20 20 10
-874.37870759533 703.0004058803 2364.00862293176 21 21 11
-879.042420567752 712.542572305803 2401.43291446568 20 21 13
-879.867925231091 719.261324892905 2428.30585860978 19 20 12
-801.643813409327 694.170742590475 2343.9045051354 30 31 23
-822.974483242953 717.919901301573 2435.00992182632 31 32 24
-798.625696182546 704.269649089431 2385.22871153789 34 35 27
-817.851648108258 726.74831710565 2471.66970093684 32 33 25
-801.671991314371 719.803935192007 2447.15854976798 28 31 24
-795.369081971165 721.120521539544 2453.81445123202 25 30 24
-785.426550579111 719.336116712816 2448.75935156941 22 27 21
-959.416652403648 700.453705845598 2367.05133409561 21 24 15
-966.711602748364 711.139307059274 2408.93916205588 19 22 13
-954.129464253047 707.884762613498 2398.33210606061 17 20 11
-933.807868341737 699.045822945837 2366.64997100344 16 19 10
-932.306674289006 715.153261933385 2432.40894921855 15 16 8
-888.010006193651 694.135203965094 2356.25385411898 14 15 7
-882.664158841011 695.945728050814 2364.73265419114 18 18 10
-896.169860568196 712.002212029742 2427.16807712651 18 18 10
-870.207637226986 698.296282138182 2376.90233162335 17 18 10
-864.118739151109 699.599144934035 2383.479439293 17 18 10
-866.247745074659 707.269026952833 2414.21701596645 19 20 12
-821.534250395769 715.649137116994 2457.76108654063 29 30 22
-792.332228419829 698.053197753256 2392.37935903596 30 31 23
-799.662399982794 710.597941045798 2441.86106731617 26 29 20
-782.730591105598 702.955403022013 2414.37060123488 25 30 24
-789.170006189515 714.998614900252 2462.00474666958 20 25 19
-977.012846435513 699.554819367409 2391.52257320111 16 19 10
-958.321819709711 697.637790281251 2387.50275694591 18 21 12
-937.576585248516 688.648019967505 2354.89660903289 16 19 10
-936.286254773132 704.58709682144 2420.56601509439 14 15 7
-909.26262100179 690.808097566711 2369.61359611835 15 16 8
-899.758658816312 689.58739524927 2366.57479252213 16 17 9
-885.153529864718 684.592589950959 2349.10531150431 14 15 7
-882.201105991202 688.147464295986 2364.31250722794 17 17 9
-894.348343989033 703.030456339414 2422.88648995709 17 17 9
-867.401203154604 688.716576798296 2369.73280817781 16 17 9
-860.001382781374 689.000234650079 2372.44284325348 14 15 7
-863.800117844995 697.851142344651 2407.9958903902 14 15 7
-850.104267619842 693.347451320939 2392.36620209474 20 21 13
-797.874923520552 676.553504932269 2334.34512090915 25 26 18
-785.908062370066 673.039697864553 2322.42839353183 25 26 18
-804.840461741286 700.883402668308 2432.84685955135 26 27 19
-788.768447068152 694.085539700803 2408.30765304603 20 23 14
-790.766971513486 702.206405379665 2441.26003275812 19 25 15
-774.5293370972 695.149486531968 2415.69489970797 15 20 13
-985.669230877964 703.307524201554 2437.72567841532 19 20 12
-908.760348644917 666.461745413084 2300.76124462166 16 17 9
-902.893363211375 667.738486831549 2307.2557521949 14 15 7
-917.983252195717 683.926204519437 2371.2588489795 14 15 7
-910.534083693618 684.21506632317 2373.98720673012 15 16 8
-889.993299408909 675.052300780198 2340.22716538623 16 17 11
-884.692985059034 676.829125569183 2348.68687894276 14 15 9
-903.460455380967 696.278960166177 2425.46615255554 16 17 11
-869.958297366195 677.396582642946 2354.08335987706 17 16 11
-854.233269486279 671.452002063604 2332.6823845752 16 17 9
-860.863796633113 682.198394577425 2375.88276547342 14 15 7
-852.136579912491 681.484870434443 2374.73337526286 18 19 11
-837.211073352563 694.097930882102 2430.17319506321 20 21 13
-764.534427915816 654.705252154909 2281.87909398196 28 29 21
-772.069217315154 679.283108946901 2382.32607797991 23 26 15
-774.358445362148 687.570435837881 2416.25169585275 20 23 14
-999.32105624624 704.799503560166 2474.47677472034 29 31 18
-980.047996875088 697.249728939683 2446.77741577737 24 24 14
-929.581984293067 673.532227837603 2357.72739337591 26 26 16
-922.856755804875 674.312823285239 2362.3631854011 12 12 4
-908.083594917076 669.439235955083 2344.96364848006 22 22 14
-910.416353745646 676.611115931549 2374.52306278451 15 15 7
-891.944655898133 669.026926193556 2346.52994242973 17 16 11
-870.41864779446 664.671152594524 2332.68984891728 15 14 9
-842.560450115357 649.927488170125 2276.63458302533 10 9 4
-860.1240367212 668.437161202407 2350.58066739967 15 16 8
-851.113686529812 667.486338421056 2348.44943510807 16 17 9
-819.377441543247 660.923065319839 2327.48621944235 16 17 9
-824.970553980761 671.075457024208 2368.88534697426 13 14 6
-812.882517962344 705.207420900416 2514.51517867523 24 26 15
-777.798820234038 682.957871210275 2428.51990140119 20 22 11
-985.805620684678 687.883687059968 2439.71229275163 25 23 11
-979.211945222316 688.911985220012 2445.38553242478 26 23 14
-928.765690549999 665.460802050603 2356.34842534603 26 23 14
-919.930944143218 664.777637289182 2355.24014106723 15 12 5
-916.006934967157 667.496969692152 2367.53738422727 21 21 13
-894.34762054843 657.812943231159 2330.94449390064 19 19 11
-858.431323627484 648.678299921008 2299.57315256625 15 14 9
-797.383113778357 648.445966838574 2311.070150339 18 19 11
-796.183006748034 653.36286577422 2332.14327651167 21 22 14
-828.948976091998 691.090026045167 2485.21298996112 24 25 17
-807.734004751675 680.611535483705 2445.19878650444 29 30 22
-819.371071341247 702.727568960532 2536.50310836748 19 21 10
-991.180579694307 678.299064790475 2431.70290343635 54 54 42
-988.225435025172 681.71868408568 2446.90088251771 33 27 15
-974.423240633736 677.938852861459 2433.49781620947 36 30 18
-955.355735417442 670.553030651477 2405.73614219375 27 20 10
-938.577071933638 664.601582595725 2383.650917876 25 18 8
-927.206632674339 662.249766079663 2375.87189563024 24 17 7
-902.624810700936 650.758065982205 2331.67125737364 22 18 9
-897.35575232704 652.486206406242 2340.11594114722 26 22 13
-895.152474655151 656.380686673126 2357.20993451126 22 17 11
-892.872588665535 660.27745997789 2374.33168126223 24 21 14
-838.52667205366 660.582786549576 2386.63422880324 17 18 10
-842.663448899525 669.559794320122 2424.20733389773 17 18 10
-809.031659723465 650.03215093783 2347.4896649512 17 18 10
-818.870118045989 669.446272460222 2428.57729988169 23 24 16
-816.652105591093 673.841895131927 2447.84757141534 28 29 21
-782.28342059868 653.071652341791 2365.97059848531 30 31 23
-797.047504207291 677.115092457156 2465.88395259333 11 13 2
-999.834401139758 670.87494229425 2432.26521677814 136 136 124
-976.534570848788 666.257364541651 2416.91649915968 42 34 23
-970.356744772055 667.504686882935 2423.52172709569 41 33 20
-952.032610643002 660.678799977465 2397.66557324008 30 22 11
-945.192547984494 661.4481616266 2402.34224122385 25 17 6
-930.256802235171 656.751246684502 2385.01510770259 26 18 7
-915.079313189289 651.811769158547 2366.69095062778 23 16 6
-910.407229865304 654.003137062837 2377.08704897989 27 20 10
-895.03399432243 648.818942017339 2357.74899339352 18 11 3
-885.580796466561 647.67641255953 2354.69764347702 37 30 24
-879.207280424497 648.675561163926 2360.28869158428 25 20 14
-870.128703827556 647.768733766041 2358.18556802996 22 17 11
-855.403444220715 642.808591145076 2339.69579410755 15 15 7
-834.72289071153 644.603526315182 2351.61172582416 17 18 10
-836.765101484815 651.806281157037 2382.34559294379 19 20 12
-843.472997082118 662.596669559961 2427.65429501338 19 20 12
-824.16974038499 654.041787884455 2394.55703546821 16 17 9
-834.109414424262 667.469475420849 2450.62363532605 21 22 14
-786.565840304064 661.230366521182 2433.29490789668 17 17 7
-983.225511717694 652.479891708946 2389.97987938079 229 227 215
-973.48177453087 651.369976982513 2387.03655414783 194 190 178
-970.277294319508 654.480632324717 2401.23525813427 71 61 49
-959.830739429614 652.899762097202 2396.37864614729 55 43 29
-959.762991213159 658.1248678034 2419.19671100565 41 32 17
-942.95320811024 652.314880584769 2397.13346706026 31 21 9
-934.70924535105 652.138241269295 2397.98211382962 31 21 11
-927.870877781902 652.9010455188 2402.65767115749 26 18 7
-913.404271539709 648.490019464454 2386.24846295082 31 23 12
-901.789541831479 645.956436949891 2377.47767552182 22 13 4
-887.848052848134 641.772537819047 2361.96162012629 51 42 33
-877.389700616888 639.938821922178 2356.02340640425 29 22 14
-887.477222478472 652.471794444174 2408.76885690175 19 12 4
-879.956819195387 652.760343514084 2411.52307332721 14 14 6
-844.305178174332 633.00934749367 2332.32251707963 13 14 6
-860.647107695615 650.269705721009 2404.48484577428 17 18 10
-834.912579335643 637.342239228614 2353.12829589737 19 20 12
-825.952282522493 636.441508613024 2350.98265686762 20 21 13
-826.319358940848 642.387474538269 2376.89704667877 19 20 12
-835.155358188004 654.716038038821 2429.01524311781 17 18 10
-821.320627811861 650.274004822314 2412.37411113935 21 22 14
-986.423638914153 646.83171260663 2399.05804082375 201 197 185
-975.926862355836 645.27555392923 2394.22154078087 181 175 163
-969.085099558598 646.035884278724 2398.89789075765 84 72 58
-962.592004715188 647.027914934878 2404.5318492736 62 48 35
-958.221541765975 649.412638020725 2415.89950281101 50 36 23
-946.729633302786 647.154956049978 2408.17171749051 39 25 12
-935.645078385053 645.126754107323 2401.37979620101 38 24 11
-928.795548084896 645.884469981337 2406.05877113695 34 20 7
-920.20529770101 645.479596752796 2405.94946035437 26 14 0
-908.194792720871 642.747941959937 2396.24097183765 29 19 9
-894.545719688619 638.849705808587 2381.70678071097 63 53 43
-880.311678931858 634.481877278189 2365.21633205174 29 22 14
-874.241471602642 635.698254929912 2371.78012322897 16 9 1
-882.818361328358 647.165516172192 2420.72755423953 15 15 7
-843.184704355808 624.847169008095 2329.98041111576 13 14 6
-844.092223457113 630.955049145666 2356.77746503273 13 14 6
-836.07852967134 630.769291466626 2357.54175844133 15 16 8
-844.76735237482 648.370834649947 2433.57704743831 15 16 8
-994.381547135347 644.105954412949 2420.49354470145 156 147 130
-980.552281566591 640.511791943909 2407.11432337265 143 125 111
-972.951408407685 640.809857947553 2409.89849559385 104 82 69
-964.633009038207 640.648752722193 2410.77536005106 91 69 56
-957.393374958433 641.174752381483 2414.51228904967 65 43 29
-944.490686146869 638.02862722799 2402.96332519369 48 26 12
-934.473122522929 636.715576518999 2399.03760821703 50 29 12
-926.930866264862 637.008493196097 2401.80009419192 38 17 0
-919.734557712055 637.530371693174 2405.520716146 43 24 7
-910.129374214546 636.442733694846 2402.52872996911 50 34 19
-899.191512497921 634.433512782753 2395.68494167974 67 55 43
-885.260176247787 630.350991000123 2380.17284649775 26 19 9
-862.696569266326 620.279508081849 2339.6125518507 21 14 6
-845.027530127429 613.422553504737 2312.44947704056 15 15 5
-868.185107684566 634.89479748108 2403.78586893174 14 16 5
-834.442693511239 616.743466436861 2329.34535163977 16 16 8
-842.776855597765 628.088663779035 2378.37176480096 15 15 7
-843.437534822846 634.137422082906 2405.25378977288 15 15 7
-846.21375462101 641.805777449094 2438.9560171691 16 16 8
-840.562109956782 643.477526793313 2447.53545411275 19 19 11
-800.114646928579 636.989153266871 2426.54307938154 24 22 9
-1021.37649929953 467.452064646631 1657.11275953267 174 165 156
-1020.37870338852 469.913635324278 1668.3273509874 187 174 165
-1015.46095150199 470.605249878353 1672.2997051339 214 200 191
-1008.60849445305 470.41073370608 1672.6414167841 220 206 195
-1001.28737277096 469.994016888471 1672.07009026502 213 201 189
-1000.46678007741 500.97588374812 1811.23499003305 250 253 244
-999.212816684463 503.686361015167 1823.62824769653 246 249 240
-995.662733115934 505.283852709506 1831.43825140762 208 209 201
-997.205076421203 638.087723337247 2428.6133343834 154 145 128
-982.62757911116 634.087399777852 2413.34196146266 142 124 110
-975.008275942287 634.38624560603 2416.13288883761 112 90 77
-965.596139624927 633.551396878883 2414.15664526728 105 83 70
-957.277452741514 633.395007487111 2415.03397000627 68 45 29
-943.667169842269 629.83581925528 2401.57782291191 58 32 17
-934.003588633864 628.768329086481 2398.6085750024 121 96 76
-926.460776562452 629.061207933743 2401.37126007083 125 103 82
-918.917980190493 629.353431096964 2404.13388996265 124 101 83
-909.315758287502 628.281875461542 2401.14204116722 109 92 76
-899.403571355315 626.981261889692 2397.17897528295 73 60 44
-880.735654478977 619.766531453607 2368.21846872711 26 18 7
-874.317318964358 620.734320835447 2373.82343532851 17 10 0
-864.553470443859 619.426302073777 2369.8059137951 17 17 7
-862.095893668774 623.125340053101 2386.97730283545 17 19 8
-861.201496934679 627.965545290791 2409.00012255217 15 16 8
-851.682071022083 632.412703944313 2430.92741457295 13 14 8
-841.573097156985 630.874573429458 2425.9511171963 15 16 10
-824.515576758691 624.314691108788 2399.65482547603 19 20 14
-1017.55811763952 456.858588956813 1637.43473198684 242 237 231
-1019.0755997767 460.383503092354 1653.14894922639 194 179 172
-1016.14248004051 461.943231839054 1660.73219183801 189 170 163
-1013.17830831548 463.503995488868 1668.32679488841 199 179 172
-1003.45086754721 462.00121585503 1663.21453948984 204 184 173
-998.068876407962 462.467717427549 1666.27202781974 204 186 174
-996.487357615666 464.6871219862 1676.61362535555 209 195 182
-995.332916224934 467.127480301454 1687.88353148918 206 192 179
-993.18576053227 469.131080628338 1697.348061447 201 189 175
-993.338005140024 472.233332823183 1711.39306345325 210 198 186
-996.68264437277 476.874997494391 1731.86070200576 221 209 197
-997.146699556506 480.202781490901 1746.87598449189 238 228 216
-1002.60433365025 485.950607552821 1771.99264410007 250 240 228
-999.018748840232 490.641967142221 1793.91523232632 249 241 228
-1000.09619416597 494.420843582961 1810.87504956372 239 231 220
-997.489369139642 496.441396101155 1820.50787372299 237 230 220
-991.707078133454 496.92105451113 1823.71154442673 255 255 248
-983.693398425367 496.298688434635 1822.30977744471 250 247 240
-976.584950523265 496.116141983628 1822.74540332005 255 255 248
-975.647602796523 499.021413156868 1836.10487637039 251 254 245
-975.523645312611 502.370271918414 1851.33539606585 254 255 248
-976.632839057494 506.384136617044 1869.36796438702 252 255 250
-993.070478927946 627.771809037915 2418.67091142792 148 137 119
-982.88311799271 626.506127738425 2414.8104622887 137 120 104
-975.258140487784 626.80519532824 2417.60346809531 124 102 88
-967.991480607598 627.327441187136 2421.34967904666 116 94 80
-957.872910428201 626.057344436837 2417.46390248962 71 48 32
-946.023540099802 623.664660751726 2408.78899985142 72 46 29
-935.638487875249 622.165831447512 2403.91623175509 138 113 93
-927.73162077236 622.234922526158 2405.7277503064 136 111 91
-918.792885376719 621.629904328236 2404.66314541551 118 97 78
-909.531646956245 620.799162995833 2402.63238488184 133 116 98
-899.274325349194 619.292854298914 2397.71238881794 80 64 48
-885.002269918474 615.088194745179 2381.24806367723 27 17 5
-875.52833956059 614.02615593645 2378.21031980531 19 13 1
-873.075431913616 617.685038448418 2395.37723688719 17 17 5
-865.591285620267 617.971455917973 2398.11811895402 16 18 7
-842.702472726878 607.678015055943 2355.52612427154 14 15 7
-841.51758987374 612.237246042355 2376.56673231098 13 14 8
-811.025171725728 607.218844082368 2359.53462989315 16 19 12
-1017.26442350978 453.552040872179 1650.09164983077 122 109 101
-1014.33788884785 455.095552365163 1657.67127621992 118 99 92
-1010.4136999506 456.207872288709 1663.44748698652 124 104 95
-1003.10370575311 455.807335561704 1662.87333824807 165 141 129
-1000.11212375902 457.352912787937 1670.47675463868 196 174 161
-997.089549205187 458.899582146568 1678.09151419329 201 184 168
-994.50898807383 460.663776741401 1686.62864253582 208 191 175
-992.833449577714 462.862604433152 1697.00310270867 208 190 176
-989.239591107654 464.196040159108 1703.74253180352 206 190 175
-989.343328227399 467.265171605034 1717.80265938844 206 190 175
-989.84319119544 470.553681194844 1732.80196824509 209 193 178
-989.810978450906 473.627947111551 1746.91187892524 218 202 187
-988.33865757803 476.053156125702 1758.29613957356 216 203 187
-995.009237885648 482.391325557934 1786.21655563826 170 158 142
-998.367683173433 487.213415573704 1807.7593475503 162 148 135
-998.01762019857 490.299686695235 1821.9856509677 166 154 142
-992.677395762779 490.994710706001 1826.11176250603 255 254 248
-982.43111470534 489.294916593606 1820.10659997483 255 254 248
-973.557804042857 488.246445916784 1816.85165214885 255 255 250
-968.234250373506 488.939686923396 1820.97157204116 253 254 248
-967.273927599058 491.813221575809 1834.33699821797 250 253 246
-961.903548666454 492.507591653476 1838.47376237187 245 250 244
-958.251838367269 494.075037269643 1846.31867817143 248 253 247
-955.858318349235 496.298351653737 1856.95585555464 250 255 249
-959.398963332334 501.581358568986 1880.60059117118 253 255 252
-970.889780388086 511.021325289008 1921.93647430762 254 255 251
-993.695811149265 620.380930118126 2421.08597414859 133 122 104
-982.411262334165 618.471489358696 2414.37567887358 137 120 102
-975.868115407935 619.433854087173 2420.02558484928 133 110 92
-968.593060670904 619.953688644117 2423.7746640308 134 108 91
-959.534450364461 619.366681264907 2422.75522744713 97 70 51
-948.024202771849 617.228297463865 2415.04285235322 99 72 51
-936.920776379641 615.308681469307 2408.26598076229 138 112 89
-928.652731438855 615.159410657437 2409.12569679518 141 115 92
-919.703936851173 614.565610335594 2408.06584749844 133 111 88
-911.46141113206 614.414164847965 2408.91587305172 91 70 49
-901.186926837691 612.930084668923 2404.00379001383 41 23 3
-891.629112643191 611.887984997557 2400.99828303498 31 15 0
-882.437199960255 611.066160614841 2398.94275235021 42 29 13
-875.26718526764 611.575994413588 2402.6529119657 24 21 6
-868.752525908298 612.529980477674 2408.2918351549 22 20 7
-858.291512934305 610.815279944067 2402.36382238509 18 16 4
-842.990078391987 611.162894468613 2406.88282571958 13 14 6
-825.265385301718 604.320931785421 2378.67454700493 13 16 9
-815.321513651825 602.81898795951 2373.64099213664 12 17 11
-1005.73501072258 445.277513439851 1641.92351064134 255 245 234
-1003.78585708958 447.231107415855 1651.31207165075 140 121 107
-1002.27609931735 449.399694953124 1661.62401579287 109 87 73
-1003.11012850197 452.638163115264 1676.49813380798 96 70 55
-1002.92149655592 455.452060750898 1689.57867601826 83 56 39
-1000.779417228 457.412837243752 1699.03787611021 97 71 54
-997.655432698049 458.947152647442 1706.68854959191 153 130 114
-990.75772502489 458.770067077762 1707.04801766005 181 155 140
-988.057412854887 460.519871437194 1715.62782459112 195 172 156
-984.39540576985 461.842214033968 1722.39117764276 212 189 173
-982.088083699586 463.808601045837 1731.91109425648 212 189 173
-980.654783642223 466.205308073938 1743.27902665676 208 185 169
-985.086145362858 471.393654810123 1766.5929891705 204 181 163
-993.019972905475 478.304076909297 1797.29726616402 194 171 155
-995.395562983331 482.64310914276 1817.02760632848 157 143 134
-991.409672124256 483.977097225753 1823.90951718904 172 161 155
-978.945190457159 481.226454232625 1813.29798652407 242 233 228
-970.090295718282 480.193461940149 1810.03751537026 255 253 249
-964.783954448573 480.880789696276 1814.15073518719 255 255 251
-962.964788962309 483.290671269505 1825.65986102922 250 252 249
-959.355529257921 484.840736160602 1833.48804153001 249 254 250
-956.57945521779 486.822597910492 1843.17918662655 251 253 252
-952.9030717401 488.374452374129 1851.03189074109 251 253 252
-949.195758618967 489.927277407574 1858.89590598767 251 253 252
-946.730746783736 492.128387709216 1869.55712939418 254 254 254
-944.641562991251 494.547200414797 1881.1652912007 253 255 254
-940.404015619837 495.887033640246 1888.13907934835 250 255 249
-936.974276223068 497.659939591029 1896.98540333084 248 253 249
-934.751291534149 500.082744540231 1908.64222694375 250 255 249
-995.7831565369 613.846193918498 2427.30090917122 120 109 91
-984.84489530768 612.182614424844 2421.54990147417 140 123 105
-974.673850395277 610.95345583247 2417.68627980769 138 113 93
-967.76132242596 611.689084692229 2422.38673196744 140 113 92
-958.349731961667 610.894128071222 2420.41304568604 122 94 72
-948.610696558742 609.878717052756 2417.4751425741 124 96 74
-938.551909528774 608.642789178023 2413.57022264998 142 114 90
-929.920358074652 608.2805612908 2413.47913575635 148 120 96
-921.649527312803 608.13610395014 2414.34022716674 121 95 72
-912.70331219282 607.552399878495 2413.27994812547 87 62 40
-903.777676831183 606.967282308866 2412.2123393397 60 38 15
-894.534907226318 606.161664695375 2410.17676401644 43 25 5
-885.652774525286 605.573610078124 2409.09287317017 51 34 16
-878.454026159228 606.081754203506 2412.813599625 34 27 9
-868.940264183705 605.052298594825 2409.7927865301 32 26 10
-867.315833799301 609.294112744611 2429.90233854473 25 19 5
-848.705579299487 602.108823569219 2399.85654623473 19 15 3
-835.104085127693 598.214948251903 2384.23858641044 17 14 5
-829.594329897712 599.816776779408 2392.76119395678 16 16 8
-815.806247017079 595.696763534493 2376.12741011247 14 17 10
-802.749892475679 592.01255811471 2361.39401105932 16 19 12
-1007.30448741464 442.748960323934 1658.2286487731 206 194 178
-1031.23513360774 456.068174199532 1716.66976648054 194 177 161
-1023.30966171051 455.478866119833 1715.23844456689 192 166 151
-1029.1886151064 461.008762436434 1740.18557990289 84 57 40
-1023.59297832058 461.476123760678 1743.32050428391 85 58 41
-1014.70018804827 460.464800564242 1740.07543696845 74 47 30
-1003.49917630505 458.394950888437 1732.25613019172 99 72 55
-993.749171373895 456.956938553019 1727.15721430226 143 117 100
-987.277477467773 456.997943958418 1728.44490711989 199 173 156
-980.350519124072 456.826811558754 1728.81570653657 210 184 167
-977.093033574299 458.349266691105 1736.51373677067 212 186 169
-976.989124931608 461.356003842796 1750.64460210996 216 191 171
-982.247080622602 466.909216859383 1775.81912851562 213 187 170
-986.027651206544 471.831266128085 1798.28289908283 177 160 150
-982.539015677224 473.362026637713 1806.06579574444 155 142 136
-972.793075258609 471.92112976061 1800.9649311164 255 253 248
-967.067165408322 472.39006879343 1804.14730763472 255 252 248
-962.215040423598 473.283904199833 1809.17763118688 255 255 251
-959.532660489554 475.241366503018 1818.83314702408 254 255 255
-956.808933005694 477.199922455514 1828.50351419124 247 251 250
-954.908044601989 479.585723131133 1840.04051609606 252 255 255
-951.667412811587 481.334206637998 1848.81628747093 250 254 255
-947.110186742309 482.444633238268 1854.82261586648 249 250 252
-943.805070413141 484.194981827979 1863.62195761945 254 254 255
-941.307296055619 486.372837171357 1874.29333025694 254 255 255
-937.086542037862 487.698720330611 1881.26021849902 251 255 252
-932.839796923614 489.025156537612 1888.23633770562 252 255 255
-929.395592379473 490.779497969219 1897.08677100202 252 255 253
-927.149881080419 493.175737700283 1908.74984765775 249 254 250
-923.21676735691 494.718642217571 1916.69490191896 250 255 251
-919.659310239099 496.476099590123 1925.58671923123 252 255 253
-917.68129730451 499.090483659906 1938.23554659403 252 255 251
-913.389916819998 508.016254212621 1981.00016430643 224 229 223
-909.992474104958 509.995171098092 1990.91710808825 207 212 206
-905.380466890632 511.331594566475 1998.02669428784 155 160 156
-1003.35215622284 610.505827567745 2447.76478872068 89 77 61
-989.45420742035 607.143756807601 2434.42777997486 145 129 114
-977.445556997027 604.856199981297 2425.81893607144 142 116 93
-966.213963647483 602.997393040148 2419.09322048953 146 116 90
-956.810242119943 602.215528058169 2417.11766291297 143 111 86
-946.726451967257 601.000050802216 2413.22337059415 141 109 84
-939.4805087759 601.511541860595 2416.96124292757 144 112 87
-930.838636755664 601.157756818097 2416.87454290932 144 114 86
-923.247600216586 601.451686624442 2419.65482903444 147 117 91
-912.915814404301 600.013781458391 2414.76730407365 132 105 78
-903.645108109919 599.223071685005 2412.74300401919 131 103 79
-895.07495476053 598.864101693866 2412.6298547018 79 53 30
-885.850320442371 598.07041401198 2410.58833597496 89 64 42
-878.645659970381 598.576182600744 2414.31077697661 66 49 29
-871.106205275149 598.864523398869 2417.07189978114 56 43 24
-863.56688688541 599.152322903209 2419.83293221928 39 26 9
-854.404150985546 598.353820371736 2417.76881448967 25 17 4
-844.62274370966 597.119498415767 2413.76323325318 18 14 3
-833.598729217887 595.013862457744 2405.87666229057 18 15 6
-822.948227681095 593.122995927096 2398.93739528329 17 17 9
-800.712139519316 583.182021264051 2356.13483533065 18 19 11
-862.157986181425 637.287196142811 2600.28348082054 17 20 13
-1041.45027319386 448.577793163914 1709.19339272223 159 156 139
-1041.72120218623 451.536843501544 1723.18421312036 166 160 144
-1040.96509830069 454.082318914801 1735.3841300746 174 163 145
-1044.45187504432 458.504041933367 1755.7835297826 146 123 109
-1044.50998535128 461.471395855911 1769.85255602543 96 68 54
-1040.24770484706 462.565187768421 1775.75021020167 81 53 39
-1032.67405138805 462.199669267018 1775.27450095554 81 53 39
-1020.90752972333 459.955174424927 1766.58093167659 83 55 41
-1008.73665645465 457.499140139831 1756.95150698908 89 61 47
-997.093985285648 455.248687238894 1748.21223432358 110 82 68
-986.891728689738 453.62250568954 1742.19663023763 139 112 95
-978.56433241967 452.830541946879 1739.82949561185 195 168 151
-975.264370284783 454.33828036635 1747.54184878502 216 189 172
-974.646887193641 457.102954690276 1760.77449474411 222 195 178
-974.86707420388 460.288709934808 1775.86766739987 212 194 184
-974.121216348813 463.05816313127 1789.1473173053 190 175 168
-968.423306657318 463.523744904764 1792.31926700381 223 212 206
-964.930017601229 465.037834104274 1800.10259658949 240 235 231
-960.526742812304 466.133205863831 1806.0515984863 225 224 220
-956.976565297426 467.648922831752 1813.8557206032 238 240 239
-955.132749327715 470.00575424421 1825.36980017225 238 242 243
-952.805800796429 472.154111401397 1835.97713399181 252 255 255
-949.144670871504 473.673211727562 1843.82182456581 250 254 255
-943.318956104874 474.141346690394 1847.04040328998 252 253 255
-940.032785381275 475.872136468743 1855.8313856494 255 255 255
-936.710472971236 477.60392185584 1864.63557476106 252 253 255
-933.35211675334 479.336699026442 1873.45293477336 251 255 254
-929.12472032007 480.649025749328 1880.42121359967 248 252 251
-926.113242634412 482.594530255282 1890.19514646897 248 252 251
-923.472061769022 484.752309598087 1900.91736361528 251 255 252
-921.19344449851 487.122620143301 1912.59043984773 250 254 253
-917.644605984077 488.860995542496 1921.47743162711 245 250 246
-915.270952068674 491.234246089361 1933.18526006952 247 252 248
-908.834040907226 491.494802646777 1935.54369103748 248 253 249
-907.579172536263 494.504775190515 1950.09298738521 250 255 251
-907.049841179162 497.940137742427 1966.5441320242 252 255 251
-906.050055201161 501.166186946064 1982.08360692556 249 254 250
-900.677890082791 502.064803271613 1987.30324131609 251 255 254
-892.571216833743 501.479837429214 1985.93808428721 248 250 249
-888.729294710916 503.225974763762 1994.93214999853 223 223 223
-890.217771711971 507.942788142056 2017.14642832435 212 210 211
-888.933617708632 511.177912423743 2032.79016384299 13 12 10
-996.662161032552 598.745378474455 2431.17518868033 86 74 60
-990.793189989865 600.112093911134 2438.74401692598 130 114 101
-978.412700057521 597.64442099228 2429.18987569093 139 112 91
-965.740818407507 594.960303881002 2418.65872071256 140 110 86
-955.626928675772 593.765535972914 2414.77692725456 140 110 86
-947.312040534569 593.635379595476 2415.65485109067 144 114 90
-941.458193331225 594.998347720939 2423.21790153691 150 120 94
-932.103196009293 594.226250688271 2421.22537763401 148 118 92
-923.463806265745 593.879872169274 2421.13833454544 141 113 89
-912.78510012925 592.249740833011 2415.29554445265 142 112 88
-903.851929138044 591.686475541278 2414.23232243337 143 115 91
-895.613973768378 591.549666159877 2415.08204602989 121 95 72
-886.04714221257 590.5557527372 2412.0831968212 133 107 84
-878.504443569665 590.844815832328 2414.84555277221 83 65 45
-870.302482146826 590.704767336578 2415.68169971451 67 52 31
-863.746530823266 591.635355370998 2421.33386040631 43 27 11
-855.877168949815 591.70834035613 2423.13204570074 35 22 6
-847.691021824784 591.565887257834 2423.96226528366 25 13 1
-841.751535760809 592.924936952349 2431.55613589222 25 15 5
-832.617617847866 592.136934474738 2429.4820854463 26 17 8
-835.454760293635 599.510376941941 2464.20648194499 28 24 15
-1053.44163719009 444.639626973394 1718.40533292785 172 173 157
-1049.34417059127 445.717257064342 1724.24213889277 152 146 130
-1045.70829179501 447.000643991883 1730.99305928841 130 123 105
-1044.4472333509 449.312130202871 1742.29197979542 91 78 61
-1044.56733410413 452.242164053783 1756.33566672209 60 38 24
-1046.04578485771 455.79181561813 1773.13248824505 69 43 30
-1042.71745907625 457.287011464117 1780.85445494425 87 61 48
-1037.47838429548 457.959740419804 1784.94213281678 84 58 45
-1029.42420224892 457.396617129789 1783.55929751296 82 56 43
-1020.92525349951 456.626364986811 1781.25613252036 84 58 43
-1010.13989668966 454.823843651927 1774.37252928429 89 63 48
-998.485534057639 452.606184332191 1765.63997889444 96 68 54
-983.691747542906 448.940896094073 1750.47247091439 156 128 114
-976.268400906892 448.575339457125 1749.94214667739 192 166 149
-972.024553225404 449.655176782369 1755.83230492626 212 184 170
-970.456977385378 451.975962323106 1767.24329636357 212 192 181
-970.178845023425 454.919058548414 1781.43266191343 209 192 184
-967.611773729244 456.829746284666 1791.04249827039 219 208 202
-963.67793217289 458.120655277883 1797.90250158372 236 231 225
-959.278809724575 459.205145422503 1803.84917374404 216 215 211
-956.169172702299 460.911944612304 1812.57420465192 226 230 229
-953.891861466622 463.03454112403 1823.16155969604 230 235 238
-952.431508262697 465.573489692201 1835.61661010921 219 224 227
-949.198173634988 467.284051238039 1844.38686887831 218 223 226
-943.795969936875 467.957319436115 1848.53385829943 225 230 233
-939.231177407115 469.0463190067 1854.54106486537 240 241 243
-935.488503314751 470.551276610412 1862.41431640676 236 240 241
-931.714889094774 472.057264745531 1870.29888741369 243 249 249
-927.077498554192 473.147672311518 1876.33257779884 249 254 255
-923.660833740888 474.86319525946 1885.16982165494 242 246 247
-921.441802295013 477.204616969992 1896.81906841089 239 243 244
-919.171416034403 479.547628841341 1908.4870942798 242 246 247
-915.22513340867 481.058280803803 1916.43475409622 250 254 255
-911.651464272624 482.778153162337 1925.32937168897 251 255 254
-907.239673505758 484.08174008696 1932.36373416452 250 252 251
-903.599154075528 485.803437190645 1941.28303296486 249 251 250
-903.881797536367 489.615387251043 1959.60068326298 250 252 251
-902.897254367403 492.803263517637 1975.13173967032 248 252 251
-898.71446899059 494.320418979745 1983.16582051738 251 255 255
-891.782949034769 494.373604860912 1984.62175874899 250 251 253
-887.942004806244 496.100885589437 1993.61404639355 255 255 255
-885.980841732833 498.87622169204 2007.33545189433 255 254 255
-884.71951611177 502.072519269832 2022.96796346757 255 254 255
-878.849818609047 502.7554365043 2027.28528467433 248 246 247
-877.475708035644 505.955202750135 2042.95878266762 231 231 229
-876.402938688341 509.36713978424 2059.60561124424 73 72 67
-875.253404538618 512.781481384335 2076.28051278478 11 8 1
-996.187262929275 590.648269990965 2430.73679723056 40 31 24
-990.316901717027 592.001461933007 2438.30511020776 129 116 108
-979.378527682029 590.410182808604 2432.55959867561 131 109 95
-966.69805482397 587.764157335327 2422.03443928068 131 108 92
-956.574469234038 586.588646296342 2418.1576216536 128 105 87
-946.839106585778 585.621805164293 2415.22204876745 138 110 88
-940.283942536324 586.549742148916 2420.87372338706 138 110 88
-930.934269750594 585.790955298022 2418.88026915467 141 113 91
-922.644776404975 585.663365874008 2419.74941409385 150 124 101
-912.654082252576 584.479504987908 2415.82368200756 146 118 96
-903.718338143389 583.927013732113 2414.76195351163 141 115 92
-895.477572519689 583.795792951007 2415.6131198478 132 107 85
-885.573976241491 582.606801144215 2411.65535469673 142 117 95
-877.034487556321 582.261461145279 2411.53209215992 93 75 55
-868.839954675519 582.126541550322 2412.36592701769 84 67 49
-862.290606279759 583.048832030946 2418.01506255416 74 58 42
-855.401727293223 583.759299044792 2422.70502364889 66 53 37
-848.502713529321 584.469461209997 2427.39838978227 45 33 21
-842.870932856957 586.027285701308 2435.96201357962 39 29 19
-836.575187988116 587.161482455941 2442.60155033503 36 27 18
-828.688337323427 587.235448688804 2444.40616400081 28 24 15
-812.003472145937 586.743785551531 2445.09826984948 26 23 14
-808.431656966143 589.788700133778 2460.49178211187 35 32 23
-1054.54809024992 438.861963905169 1720.76730609177 143 135 122
-1051.41223847512 440.3342136435 1728.41760843564 92 74 62
-1048.24528227934 441.807559885935 1736.07929491674 73 54 40
-1045.04730206001 443.281939938558 1743.75233159331 77 53 41
-1045.16012318821 446.177360897018 1757.79605188314 67 45 34
-1047.10563112271 449.887163336159 1775.50181386887 68 48 37
-1044.71307997115 451.77274813954 1785.04634644763 69 47 36
-1039.46069695333 452.440816189257 1789.13850802967 70 48 37
-1032.79591085177 452.499061192028 1790.49791355378 79 57 46
-1026.60034078976 452.760309590729 1792.76870843741 77 55 42
-1018.09361400048 452.003595629983 1790.46913667101 74 50 38
-1008.23329948889 450.634865441437 1785.41552784335 84 60 48
-995.214027400179 447.838042268684 1773.93527846242 83 61 47
-982.270881165536 445.037634772492 1762.42735356217 90 68 54
-975.278767076967 444.884784140785 1762.82295159118 166 140 127
-971.891405635915 446.363468801226 1770.56512236725 198 178 167
-971.600757139107 449.272037681085 1784.75643035558 204 187 177
-968.133467322834 450.753310096589 1792.52783736229 207 197 188
-963.751605970822 451.826763627441 1798.46740518795 235 230 224
-959.348945403042 452.900672711939 1804.41456452205 220 219 215
-956.672001663397 454.793368341868 1814.06321843675 209 213 212
-954.387760059533 456.892011786251 1824.65102994146 231 239 241
-951.625763296084 458.78737634654 1834.33078818888 218 226 228
-947.5355521841 460.069343568706 1841.24667745799 212 220 222
-942.566667315497 460.941956171706 1846.31782296642 217 222 225
-938.853712616485 462.430149708685 1854.1790114605 232 236 237
-934.267057670085 463.508688841782 1860.19337220672 233 237 238
-930.497221497968 464.998390770437 1868.07534168669 235 240 243
-926.280086240664 466.283353168769 1875.03757325519 241 246 250
-924.105473754931 468.596584201079 1886.66880820834 241 246 249
-920.646094515961 470.294541241927 1895.52024644367 238 243 246
-918.376266286318 472.610613862896 1907.18603694952 239 243 246
-914.837105473073 474.310795610432 1916.0666306846 246 250 253
-910.858490666912 475.806096193884 1924.02487971034 249 253 254
-905.646303910857 476.683989220512 1929.18482434794 253 254 255
-902.011816292889 478.386705446548 1938.10024512158 252 253 255
-901.111684638478 481.533884214032 1953.59756096436 254 255 255
-899.353423240019 484.270845919396 1967.24260356248 252 255 255
-894.798924771571 485.564645696461 1974.32807864941 249 254 255
-889.442489344117 486.44585365677 1979.54068436354 251 252 255
-886.383867800533 488.567065159226 1990.41181428305 248 247 252
-885.194011935405 491.723244264548 2006.01507690188 251 249 254
-882.030300212571 493.847669572263 2016.92463251684 253 251 255
-876.930925424661 494.938564382216 2023.12621589195 252 250 253
-873.312287047476 496.857893186065 2033.11877804354 248 250 249
-871.143844293341 499.607074080173 2046.91377688961 255 255 253
-870.394851971637 503.187024565062 2064.52219823416 92 91 87
-875.0790330736 509.879999792761 2096.39078710456 31 23 20
-985.852407016061 581.606862954618 2427.41005817483 128 117 113
-976.382971826639 580.869252465454 2425.46171591162 126 109 99
-964.436874388664 578.675917337367 2416.83699903182 122 104 92
-952.907003462039 576.687345065555 2409.14331165646 122 104 92
-941.785627569208 574.903791947268 2402.38322795448 124 106 94
-932.464333190414 574.157996125351 2400.38069728025 119 101 89
-923.515727390505 573.618751622384 2399.32464140823 118 100 88
-915.277064747058 573.494594877085 2400.17557664548 119 101 89
-907.048575384339 573.369339613512 2401.02247835758 123 105 93
-898.151288402017 572.826229694518 2399.94773908532 135 117 105
-891.633617439598 573.741565194358 2405.58484025623 123 105 91
-882.759499659659 573.196358750641 2404.5015245565 129 111 99
-874.569696696753 573.067269041413 2405.33408073165 107 93 80
-865.731573700742 572.519286174256 2404.23747728958 98 86 74
-858.547977652267 573.014822339265 2407.95149274239 56 46 36
-851.359459681131 573.509955341837 2411.6672660953 54 44 35
-844.809401217063 574.422804826925 2417.31594728807 47 38 33
-838.56334672486 575.54487623804 2423.93651478701 27 19 16
-831.663931469466 576.248608801757 2428.62979597889 35 27 24
-823.812439564121 576.323753890884 2430.4216514261 18 13 10
-816.58919902186 576.817206759096 2434.14991402427 79 75 72
-809.979018500077 577.72948786391 2439.82039693326 160 159 154
-803.966499597482 579.061139446282 2447.43873588348 182 181 176
-794.282927128948 577.875413287984 2443.40101991263 182 182 180
-1050.08463070862 433.524916725419 1726.25309339379 72 48 38
-1046.92151117244 434.981988162026 1733.91190360702 68 40 29
-1043.72748029132 436.440134865761 1741.58228050862 74 46 35
-1041.93415209291 438.499807762083 1751.98903865232 71 48 40
-1044.36690441493 442.363672013713 1770.59594690107 59 41 31
-1043.87433438204 445.028836637416 1783.77569908927 79 59 50
-1040.97198512575 446.693887905623 1792.42226461984 80 60 51
-1035.69813847343 447.357316015331 1796.52187465546 73 53 44
-1029.48442592261 447.619392553666 1798.79932387106 71 51 40
-1022.34628082558 447.47945481001 1799.24895474759 74 52 41
-1016.1366721557 447.740775443848 1801.52485583492 77 55 44
-1006.27167795766 446.393488159311 1796.47456521445 79 60 46
-995.538297191845 444.642055783018 1789.57593187316 82 63 49
-986.210789181207 443.491649785748 1785.41176358075 90 68 55
-981.859979355354 444.554301926178 1791.33923423868 117 99 85
-977.934885394915 445.81879902577 1798.1938120971 140 124 111
-971.763340896715 446.07630953157 1800.45559556114 176 166 156
-966.474459222854 446.736692569076 1804.56043862916 221 217 208
-961.613974596907 447.598994436663 1809.59142029706 195 194 189
-958.483599514685 449.268967324352 1818.32120751763 193 202 199
-955.317047795028 450.94005629045 1827.06422327908 195 205 206
-952.114354388932 452.612140865296 1835.82044579275 225 237 237
-948.446765685146 454.083197050119 1843.66385807648 228 238 239
-943.469375491601 454.948221656422 1848.7375213624 222 230 232
-940.17107563333 456.622970742538 1857.52868233223 218 224 224
-935.573213087013 457.691347654135 1863.54634846456 219 225 225
-931.373210276849 458.962644493295 1870.5015783886 225 230 234
-926.731221925698 460.031852630169 1876.53533980022 221 226 230
-924.962887345369 462.521201399148 1889.09854902945 226 231 235
-922.316235820032 464.606541271816 1899.81728819827 230 235 239
-919.214941770086 466.490273404992 1909.6194482068 232 235 240
-915.260693676024 467.968913700141 1917.56733254033 221 225 228
-910.872333904622 469.245130187954 1924.59137081738 228 232 235
-906.858838576395 470.725119433579 1932.56113798181 240 241 245
-903.610704776311 472.612757869883 1942.41669081761 243 244 248
-901.508405654988 475.112286297706 1955.10226428321 247 248 252
-897.77733190749 476.798886933851 1964.05156247795 253 254 255
-892.838757259092 477.875279274112 1970.19362688912 248 253 255
-889.8193174839 479.971198300792 1981.04861224302 252 255 255
-887.139054924291 482.272344347989 1992.86240272075 247 248 253
-885.173127687404 484.983074215306 2006.58066457742 239 236 243
-880.864063331092 486.470862978384 2014.65841155573 232 229 236
-875.768666097787 487.550823452439 2020.85772472277 255 254 255
-871.027929194634 488.835511255923 2028.01043401941 250 251 253
-869.242452319855 491.756228493356 2042.7457859079 255 255 255
-868.130505888592 495.088183819182 2059.40055993753 255 255 253
-869.514486620369 499.855266420563 2082.72340911813 22 14 12
-891.11405288075 546.75989475848 2310.94054855275 199 188 182
-892.067719707082 551.976696618836 2336.58704575177 251 238 232
-889.137115521486 554.935259147968 2351.7413208846 255 249 243
-882.067194976845 555.426710013487 2355.41372551548 235 220 213
-877.687130509398 557.564608561472 2366.76624433952 173 159 150
-873.261104204805 559.703542884651 2378.1352866707 124 109 102
-867.462306336351 561.01951704664 2385.67478985664 176 166 157
-860.321273392807 561.511365017804 2389.37306225488 213 204 195
-852.848666237273 561.79631913874 2392.10964130761 235 226 221
-845.052178845237 561.874495580279 2393.88174026986 223 215 212
-839.190052603525 563.190516775825 2401.44400227557 252 243 244
-834.259602684526 565.12644028426 2411.91470122688 255 253 253
-828.339151229579 566.443371224548 2419.49822361463 255 253 253
-821.451855149539 567.140496310758 2424.18660291023 255 251 252
-814.243233342969 567.630638471005 2427.90930417452 252 250 251
-807.956055242663 568.741215645269 2434.54394616614 255 255 253
-800.730172604169 569.230768104564 2438.27312875026 255 255 253
-794.106722102972 570.134277729756 2443.94777131897 248 248 246
-783.252906419304 568.136627479436 2436.00750843174 245 245 243
-1024.18103122653 422.109109202202 1704.93763957828 154 148 134
-1037.35862401856 433.088366967816 1757.50967723879 77 63 54
-1038.31582339496 436.31294267526 1773.40480523244 67 50 42
-1038.25700410781 439.144800403498 1787.5060929838 70 53 43
-1036.26364505747 441.187590476616 1797.98400170683 73 55 45
-1030.50900820344 441.648050663126 1801.17643038718 75 57 47
-1026.13412681436 442.702710777343 1807.11204413689 74 56 44
-1020.36055310748 443.163329217362 1810.31111092228 69 51 39
-1013.66797668851 443.227067145577 1811.68102816235 75 57 45
-1007.43414304118 443.488739009561 1813.96575759462 80 62 48
-1003.90958230274 444.941342242898 1821.75581014255 83 65 51
-1000.35392063052 446.394863188468 1829.55723207056 89 73 60
-990.069370175548 444.867954961248 1823.57901876478 101 87 76
-977.610471368005 442.344462791152 1812.98259852961 98 88 78
-969.636603568239 441.807202455729 1811.57253344499 223 218 212
-964.31603693931 442.463345017897 1815.68856889647 189 190 185
-961.16635441793 444.115313632945 1824.42401278364 173 179 179
-957.54674296731 445.56907086184 1832.24868789569 183 193 194
-953.896114478835 447.023742524187 1840.08470165788 231 241 242
-949.357097477702 448.080172261188 1846.08008556033 235 245 246
-944.797242811321 449.137118606361 1852.08307954802 222 230 232
-942.334399217953 451.193002590536 1862.73281189852 199 205 205
-937.299186831261 452.051413748165 1867.82698516343 196 202 202
-933.503638520889 453.509783884943 1875.7159327951 216 221 225
-929.261147948226 454.768998421259 1882.68543418457 214 219 223
-927.472904972823 457.22945472182 1895.25395120375 202 207 211
-924.395697727967 459.091177838291 1905.04544465072 205 210 214
-921.277294061362 460.953975006488 1914.85198734373 218 221 226
-916.495129827542 462.016320502186 1920.93641642577 221 225 228
-912.095222421253 463.279424155746 1927.9634067027 227 231 234
-907.669598220583 464.543280961815 1935.00005198862 233 237 240
-904.412081037902 466.409728340814 1944.85741526059 236 237 241
-900.718015009909 468.076481133894 1953.79176960958 240 241 245
-895.809205449585 469.141407737334 1959.92215413828 246 247 251
-891.660472531725 470.608757162053 1967.94010450313 244 249 252
-889.032003965253 472.881378442992 1979.73292403889 245 249 252
-886.737550215159 475.356913629339 1992.486504169 245 246 250
-884.769244392196 478.035340242396 2006.2031929232 241 240 246
-880.458735562221 479.507046903052 2014.28025131273 242 241 247
-874.984659707588 480.374748663138 2019.53458114761 227 226 232
-868.745018967745 480.839170157256 2022.90327453547 254 255 255
-866.96975825896 483.724471636532 2037.63224233168 250 251 255
-864.758053569131 486.409955327911 2051.438153808 245 246 248
-865.791066181644 490.91505606689 2073.80194539419 255 254 255
-870.364782424903 497.44463669334 2105.69859621787 246 240 242
-873.606541921099 520.250719340139 2219.30459754098 253 251 252
-869.316741676583 522.147564741901 2229.5393215955 254 252 253
-865.679941526721 524.451017678421 2241.70083216049 255 253 254
-862.336484137965 526.958795390211 2254.83798745732 255 254 255
-859.962202541849 530.076997760032 2270.86873101934 240 236 235
-858.534197457377 533.806446483293 2289.8016993188 255 253 253
