ply
format ascii 1.0
comment KinectMotionCapture
element vertex 754
property float x
property float y
property float z
property uchar red
property uchar green
property uchar blue
end_header
-1001.22034549713 419.759392738342 2240.9999370575 163 165 164
-995.975434780121 420.117080211639 2243.00003051758 181 181 181
-993.370532989502 421.599596738815 2250.99992752075 181 177 176
-988.093614578247 421.959489583969 2253.00002098084 173 167 167
-984.116077423096 422.882229089737 2257.99989700317 183 178 175
-977.515637874603 422.682374715805 2256.99996948242 168 160 157
-972.21451997757 423.04539680481 2259.0000629425 187 179 176
-968.188107013702 423.971205949783 2263.99993896484 41 36 33
-965.836882591248 425.647109746933 2273.00000190735 147 146 142
-963.016867637634 427.136659622192 2280.99989891052 191 193 190
-958.897352218628 428.065419197083 2286.00001335144 78 82 81
-953.919470310211 428.620606660843 2289.00003433228 38 42 41
-948.927640914917 429.176777601242 2292.00005531311 20 22 19
-945.155620574951 430.295616388321 2298.00009727478 38 40 37
-942.170321941376 431.78990483284 2305.99999427795 20 22 19
-940.361022949219 433.846771717072 2316.99991226196 73 75 72
-936.881482601166 435.15557050705 2323.99988174438 192 194 191
-933.766305446625 436.652600765228 2332.00001716614 68 70 67
-930.609464645386 438.150405883789 2339.99991416931 158 160 157
-925.831317901611 438.900202512741 2344.00010108948 133 135 132
-922.60205745697 440.399825572968 2351.99999809265 201 203 200
-921.278893947601 442.836493253708 2365.00000953674 51 53 50
-918.339431285858 444.525092840195 2374.00007247925 184 186 183
-911.511301994324 444.3419277668 2372.99990653992 197 199 196
-907.741665840149 445.657759904861 2380.00011444092 109 111 108
-907.722353935242 448.846846818924 2397.0000743866 69 71 68
-907.236099243164 451.849609613419 2413.00010681152 195 197 194
-902.558505535126 452.793270349503 2417.99998283386 198 200 197
-897.855222225189 453.737854957581 2423.00009727478 193 195 192
-892.758071422577 454.495877027512 2427.00004577637 130 132 129
-890.561282634735 456.752747297287 2438.99989128113 109 111 108
-890.475392341614 460.13417840004 2457.00001716614 188 190 187
-889.933168888092 463.329195976257 2473.99997711182 111 113 110
-890.013933181763 466.899633407593 2493.00003051758 122 124 121
-891.055345535278 471.032798290253 2515.00010490417 178 180 177
-893.736600875854 476.10330581665 2542.00005531311 176 178 175
-893.132448196411 479.489088058472 2559.99994277954 176 178 175
-890.700697898865 481.939226388931 2572.99995422363 181 183 180
-887.168943881989 483.828186988831 2582.99994468689 179 181 178
-883.92448425293 485.905259847641 2594.00010108948 177 179 176
-881.297290325165 488.357722759247 2607.00011253357 182 184 181
-879.270672798157 491.185575723648 2621.99997901917 180 182 179
-876.498281955719 493.639588356018 2634.99999046326 178 180 177
-871.676385402679 494.970232248306 2641.99995994568 179 181 178
-865.83548784256 495.739579200745 2645.99990844727 180 182 179
-861.920177936554 497.633576393127 2655.99989891052 179 181 178
-857.951164245605 499.52831864357 2665.99988937378 179 181 178
-856.800258159637 503.11017036438 2684.99994277954 166 168 165
-856.179594993591 507.067620754242 2706.00008964539 163 165 162
-853.249371051788 509.714007377625 2720.00002861023 162 164 161
-848.377764225006 511.236786842346 2727.9999256134 165 167 164
-844.387829303741 513.322472572327 2739.00008201599 169 171 168
-840.338349342346 515.40869474411 2750 167 169 166
-837.137758731842 518.057823181152 2763.99993896484 164 166 163
-831.760406494141 519.395649433136 2770.99990844727 168 170 167
-827.534973621368 521.483838558197 2782.00006484985 175 177 174
-820.891678333282 522.072851657867 2785.00008583069 171 173 170
-815.692067146301 523.599624633789 2792.99998283386 171 173 168
-810.449123382568 525.126934051514 2801.00011825562 164 166 161
-804.875910282135 526.467323303223 2808.00008773804 164 166 161
-800.116360187531 528.37061882019 2818.00007820129 170 172 167
-794.177234172821 529.524385929108 2823.99988174438 174 176 171
-790.154993534088 531.991183757782 2836.99989318848 175 177 172
-785.234689712524 533.896088600159 2846.99988365173 176 178 173
-781.078994274139 536.364018917084 2859.99989509583 177 179 174
-774.418771266937 537.144541740417 2864.00008201599 177 179 174
-768.004059791565 538.112878799438 2868.99995803833 176 178 173
-763.946533203125 540.769755840302 2882.99989700317 173 175 170
-759.288191795349 543.052017688751 2894.99998092651 171 173 168
-753.525853157043 544.584333896637 2903.00011634827 170 172 167
-747.205853462219 545.741856098175 2908.99991989136 169 171 166
-741.615176200867 547.462522983551 2917.99998283386 173 175 170
-736.226201057434 549.371004104614 2927.99997329712 173 175 170
-730.036318302155 550.717055797577 2934.99994277954 167 169 164
-723.807692527771 552.063405513763 2941.99991226196 165 166 161
-717.053771018982 553.034782409668 2947.00002670288 164 165 160
-710.993647575378 554.569244384766 2954.99992370605 171 172 167
-704.651415348053 555.916309356689 2961.99989318848 168 169 164
-698.740839958191 557.639122009277 2970.99995613098 144 145 140
-691.153168678284 558.048129081726 2973.00004959106 151 150 145
-684.243083000183 559.020459651947 2977.9999256134 178 171 165
-677.531898021698 560.180604457855 2983.99996757507 105 95 86
-672.581970691681 562.842786312103 2997.99990653992 116 103 94
-666.225433349609 564.378798007965 3006.00004196167 116 102 91
-658.51092338562 564.788401126862 3007.99989700317 134 116 104
-652.297914028168 566.51246547699 3016.99995994568 131 113 99
-649.45113658905 571.241319179535 3042.00005531311 127 109 97
-646.889090538025 576.346158981323 3069.00000572205 122 102 91
-642.306864261627 579.761326313019 3086.99989318848 109 91 81
-638.652563095093 584.11580324173 3109.99989509583 63 50 42
-1135.00607013702 398.597478866577 2154.00004386902 170 169 165
-1130.02872467041 398.912936449051 2155.99989891052 148 147 143
-1122.96116352081 398.489981889725 2154.00004386902 138 137 133
-1116.42944812775 398.253738880157 2153.00011634827 122 121 117
-1108.87765884399 397.649139165878 2150.00009536743 118 117 113
-1104.42614555359 398.155838251114 2153.00011634827 127 126 122
-1099.96366500854 398.663938045502 2155.99989891052 125 124 120
-1095.48985958099 399.173438549042 2158.99991989136 125 124 120
-1090.50047397614 399.499475955963 2161.00001335144 127 126 122
-1086.00699901581 400.011777877808 2164.00003433228 136 135 131
-1080.50382137299 400.155693292618 2164.99996185303 142 141 137
-1074.50413703918 400.116294622421 2164.99996185303 149 148 144
-1069.49627399445 400.447845458984 2167.00005531311 150 149 145
-1065.46378135681 401.15025639534 2171.0000038147 158 157 153
-1061.90204620361 402.038782835007 2176.00011825562 161 160 156
-1058.31706523895 402.928411960602 2180.99999427795 165 164 160
-1053.74419689178 403.449892997742 2184.00001525879 170 169 165
-1048.67947101593 403.787821531296 2186.00010871887 173 172 168
-1044.08502578735 404.311686754227 2188.99989128113 178 179 174
-1039.95251655579 405.021548271179 2193.00007820129 177 178 173
-1037.21642494202 406.286597251892 2200.00004768372 176 177 172
-1033.03968906403 406.998723745346 2203.9999961853 177 178 173
-1028.37908267975 407.527357339859 2207.00001716614 183 184 179
-1025.09534358978 408.611088991165 2213.00005912781 185 186 181
-1021.78239822388 409.6959233284 2219.00010108948 191 192 187
-1017.52471923828 410.412579774857 2223.00004959106 172 173 168
-1012.79377937317 410.945743322372 2226.0000705719 168 169 164
-1008.0498456955 411.480009555817 2229.00009155273 169 170 165
-1003.74233722687 412.199974060059 2233.00004005432 183 184 179
-999.416172504425 412.921041250229 2236.99998855591 183 179 178
-994.183361530304 413.273990154266 2239.00008201599 175 169 169
-990.707814693451 414.36630487442 2244.99988555908 176 168 166
-985.886871814728 414.905965328217 2247.99990653992 198 188 187
-982.360005378723 416.000336408615 2253.99994850159 203 192 190
-977.070808410645 416.357487440109 2256.00004196167 182 171 169
-972.203850746155 416.900217533112 2259.0000629425 173 159 158
-966.895461082459 417.259305715561 2260.99991798401 188 178 176
-963.703513145447 418.542176485062 2267.99988746643 191 183 180
-960.898220539093 420.010596513748 2276.00002288818 180 176 173
-958.051562309265 421.479880809784 2283.99991989136 187 186 184
-953.080177307129 422.027468681335 2286.99994087219 180 180 178
-948.094666004181 422.575920820236 2289.99996185303 199 201 198
-944.329082965851 423.678934574127 2296.0000038147 181 183 180
-941.758573055267 425.336450338364 2305.0000667572 180 182 179
-939.953088760376 427.363932132721 2315.99998474121 185 187 184
-936.47712469101 428.654164075851 2322.99995422363 184 186 183
-932.965219020844 429.945230484009 2329.99992370605 183 185 182
-928.223967552185 430.683702230453 2334.00011062622 146 148 145
-923.857748508453 431.607484817505 2338.99998664856 193 195 192
-919.858574867249 432.71666765213 2345.00002861023 86 88 85
-918.5551404953 435.11837720871 2358.00004005432 78 80 77
-914.861798286438 436.413794755936 2365.00000953674 195 197 194
-909.979581832886 437.156409025192 2368.99995803833 201 203 200
-905.840218067169 438.268929719925 2375 118 120 117
-906.971335411072 441.965788602829 2394.99998092651 108 110 107
-905.363321304321 444.371670484543 2407.99999237061 70 72 69
-901.44670009613 445.671200752258 2414.99996185303 80 82 79
-896.011114120483 446.233332157135 2417.99998283386 196 198 195
-891.66384935379 447.349816560745 2424.00002479553 74 76 73
-889.111042022705 449.38987493515 2434.99994277954 146 148 145
-886.86215877533 451.615303754807 2447.00002670288 188 190 187
-885.628283023834 454.395145177841 2461.99989318848 84 86 83
-885.385274887085 457.729578018188 2480.00001907349 68 70 67
-887.17132806778 462.172269821167 2503.99994850159 159 161 158
-891.289591789246 467.907935380936 2535.00008583069 170 172 169
-891.751825809479 471.798777580261 2555.99999427795 182 184 181
-890.37013053894 474.767506122589 2572.00002670288 180 182 179
-886.841893196106 476.62952542305 2582.00001716614 176 178 175
-884.623050689697 479.230642318726 2595.99995613098 182 184 181
-882.329046726227 481.832563877106 2609.99989509583 183 185 182
-879.624426364899 484.250634908676 2622.99990653992 180 182 179
-875.519454479218 485.930979251862 2631.99996948242 178 180 177
-869.056701660156 486.319661140442 2634.0000629425 181 183 180
-864.873886108398 488.001257181168 2642.99988746643 181 183 180
-862.590134143829 490.791499614716 2657.99999237061 178 180 177
-860.868990421295 493.951797485352 2674.99995231628 176 178 175
-860.651731491089 498.03614616394 2697.00002670288 159 161 158
-859.04997587204 501.382648944855 2714.99991416931 160 162 159
-854.213953018188 502.88325548172 2723.00004959106 161 163 160
-848.712742328644 504.01496887207 2729.00009155273 163 165 162
-845.028817653656 506.255507469177 2740.9999370575 167 169 166
-841.280102729797 508.496642112732 2753.00002098084 167 169 166
-838.071942329407 511.107861995697 2766.99995994568 164 166 163
-832.086622714996 512.057244777679 2772.0000743866 168 170 167
-827.561378479004 513.93073797226 2782.00006484985 176 178 175
-820.918560028076 514.511704444885 2785.00008583069 173 175 172
-815.427362918854 515.832006931305 2792.00005531311 166 168 163
-810.476839542389 517.52233505249 2801.00011825562 161 163 158
-805.190742015839 519.028425216675 2809.00001525879 165 167 162
-800.144910812378 520.719826221466 2818.00007820129 172 174 169
-793.643772602081 521.487712860107 2822.00002670288 173 175 170
-789.348959922791 523.734390735626 2834.00011062622 170 172 167
-784.437000751495 525.611996650696 2844.00010108948 176 178 173
-781.109094619751 528.598964214325 2859.99989509583 177 179 174
-775.530755519867 530.107915401459 2868.00003051758 177 179 174
-770.176410675049 531.80205821991 2877.00009346008 175 177 172
-765.567660331726 534.051239490509 2888.99993896484 170 172 167
-759.319722652435 535.191655158997 2894.99998092651 168 170 165
-752.778887748718 536.147594451904 2900.00009536743 170 172 167
-746.980905532837 537.658333778381 2907.99999237061 167 169 164
-742.409765720367 540.094017982483 2921.0000038147 164 166 161
-737.767398357391 542.530179023743 2934.00001525879 171 173 168
-731.810212135315 544.04205083847 2941.99991226196 161 163 158
-725.316882133484 545.18449306488 2947.99995422363 166 167 162
-718.790113925934 546.32705450058 2953.9999961853 159 160 155
-712.951898574829 548.024833202362 2963.00005912781 165 166 161
-706.588089466095 549.352824687958 2970.00002861023 166 167 162
-700.420737266541 550.866067409515 2977.9999256134 138 139 134
-692.81417131424 551.269590854645 2980.00001907349 135 134 129
-685.8851313591 552.228212356567 2984.99989509583 166 161 155
-679.609298706055 553.742110729218 2993.00003051758 80 71 64
-673.962116241455 555.811107158661 3003.99994850159 106 96 87
-667.367577552795 557.140290737152 3010.99991798401 102 89 80
-660.296440124512 558.099567890167 3016.00003242493 116 99 89
-653.845548629761 559.61400270462 3023.9999294281 111 94 84
-650.125980377197 563.534557819366 3045.00007629395 110 93 83
-644.604921340942 565.974831581116 3058.00008773804 118 104 95
-639.220356941223 568.600416183472 3072.00002670288 115 102 94
-1130.20801544189 395.15432715416 2167.99998283386 168 167 163
-1124.15742874146 395.10390162468 2167.99998283386 148 147 143
-1116.56534671783 394.508391618729 2164.99996185303 133 132 128
-1110.02171039581 394.278913736343 2164.00003433228 126 125 121
-1103.48951816559 394.051045179367 2163.00010681152 124 123 119
-1096.96817398071 393.82466673851 2161.99994087219 118 117 113
-1091.97199344635 394.146293401718 2164.00003433228 121 120 116
-1088.47510814667 395.015627145767 2168.99991035461 132 131 127
-1083.95767211914 395.522028207779 2171.99993133545 138 137 133
-1077.93986797333 395.483434200287 2171.99993133545 146 145 141
-1072.42059707642 395.628422498703 2173.00009727478 147 146 142
-1067.39127635956 395.956754684448 2174.99995231628 155 154 150
-1063.33160400391 396.650373935699 2178.99990081787 159 158 154
-1057.79898166656 396.799296140671 2180.0000667572 162 161 157
-1053.71260643005 397.495478391647 2184.00001525879 168 167 163
-1049.12877082825 398.010849952698 2187.00003623962 171 170 166
-1045.0097322464 398.709416389465 2190.99998474121 176 177 172
-1041.82136058807 399.773091077805 2197.00002670288 176 177 172
-1038.13254833221 400.655925273895 2201.99990272522 176 177 172
-1033.01417827606 400.994092226028 2203.9999961853 177 178 173
-1027.42266654968 401.151448488235 2204.99992370605 182 183 178
-1023.68259429932 402.037769556046 2210.00003814697 183 184 179
-1020.37882804871 403.107017278671 2216.00008010864 184 185 180
-1016.58833026886 403.995424509048 2220.99995613098 186 187 182
-1012.7739906311 404.884994029999 2226.0000705719 181 182 177
-1008.03124904633 405.411839485168 2229.00009155273 168 169 164
-1003.27527523041 405.939698219299 2232.00011253357 159 160 155
-998.506128787994 406.468629837036 2234.99989509583 184 180 179
-994.611978530884 407.362401485443 2240.00000953674 185 180 177
-990.252315998077 408.075332641602 2243.99995803833 184 176 173
-986.3121509552 408.971160650253 2249.00007247925 169 159 157
-982.347667217255 409.867882728577 2253.99994850159 124 113 111
-977.492690086365 410.402029752731 2256.99996948242 172 158 157
-971.76319360733 410.573482513428 2257.99989700317 152 138 137
-966.458737850189 410.927772521973 2259.99999046326 190 180 178
-961.995780467987 411.646693944931 2263.99993896484 179 171 168
-958.779990673065 412.912011146545 2270.99990844727 183 178 175
-955.948054790497 414.360076189041 2279.00004386902 186 182 181
-950.991213321686 414.899975061417 2282.00006484985 190 190 188
-946.434259414673 415.622591972351 2286.00001335144 194 196 193
-942.680478096008 416.709780693054 2292.00005531311 185 187 184
-941.347420215607 418.888658285141 2303.99990081787 194 196 193
-939.139664173126 420.70484161377 2313.99989128113 186 188 185
-935.670137405396 421.976506710052 2321.00009918213 183 185 182
-931.764006614685 423.067182302475 2326.99990272522 185 187 184
-927.827179431915 424.158751964569 2332.99994468689 189 191 188
-923.859477043152 425.251096487045 2338.99998664856 193 195 192
-919.076561927795 425.980716943741 2342.99993515015 204 206 203
-915.831744670868 427.438408136368 2351.0000705719 184 186 183
-911.771416664124 428.533375263214 2357.00011253357 183 185 182
-907.680034637451 429.629027843475 2362.99991607666 173 175 172
-903.176188468933 430.543720722198 2368.00003051758 180 182 179
-901.67623758316 432.913720607758 2381.00004196167 80 82 79
-899.731040000916 435.102730989456 2392.99988746643 192 194 191
-896.602332592011 436.74710392952 2401.99995040894 84 86 83
-892.684996128082 438.028633594513 2408.99991989136 56 58 55
-889.46658372879 439.674615859985 2417.99998283386 43 45 42
-887.660920619965 442.048639059067 2430.99999427795 64 66 63
-885.42366027832 444.241642951965 2443.00007820129 146 148 145
-884.201288223267 446.980953216553 2457.99994468689 205 207 204
-883.612871170044 450.084775686264 2474.99990463257 103 105 102
-885.767698287964 454.644411802292 2500 157 159 156
-890.249073505402 460.477918386459 2532.00006484985 164 166 163
-891.418039798737 464.675575494766 2555.0000667572 172 174 171
-890.03974199295 467.601031064987 2571.00009918213 177 179 176
-887.20178604126 469.799786806107 2582.99994468689 179 181 178
-883.958637714386 471.817404031754 2594.00010108948 179 181 178
-881.670832633972 474.381446838379 2608.00004005432 179 181 178
-879.307627677917 476.946234703064 2621.99997901917 178 180 177
-875.871181488037 478.966057300568 2632.99989700317 178 180 177
-870.396137237549 479.895114898682 2638.00001144409 178 180 177
-866.530537605286 481.734395027161 2648.00000190735 172 174 171
-865.207314491272 485.029757022858 2665.99988937378 169 171 168
-865.39614200592 489.235639572144 2688.99989128113 158 160 157
-863.546133041382 492.350786924362 2706.00008964539 157 159 156
-859.389364719391 494.19292807579 2716.00008010864 164 166 163
-853.609919548035 495.125889778137 2720.99995613098 170 172 169
-849.047660827637 496.787250041962 2730.00001907349 171 173 170
-845.361709594727 498.995274305344 2742.00010299683 171 173 170
-841.916263103485 501.385807991028 2755.00011444092 168 170 167
-837.794661521912 503.413081169128 2766.00003242493 168 170 167
-832.112550735474 504.530906677246 2772.0000743866 169 171 168
-826.992809772491 506.013154983521 2779.99997138977 176 178 175
-820.945382118225 506.949961185455 2785.00008583069 175 177 174
-816.622912883759 508.979380130768 2796.0000038147 163 165 160
-811.661958694458 510.64532995224 2805.0000667572 159 161 156
-806.078851222992 511.947631835938 2812.00003623962 162 164 159
-800.457417964935 513.250410556793 2819.00000572205 165 167 162
-794.516384601593 514.371573925018 2825.00004768372 168 170 165
-790.492355823517 516.767740249634 2838.00005912781 175 177 172
-786.397457122803 519.164502620697 2851.0000705719 173 175 170
-783.051073551178 522.108018398285 2867.00010299683 172 174 169
-778.535842895508 524.323701858521 2878.99994850159 172 174 169
-773.151934146881 525.993466377258 2888.00001144409 173 175 170
-767.453849315643 527.481496334076 2895.99990844727 170 172 167
-760.400116443634 528.059124946594 2898.9999294281 167 169 164
-754.108309745789 529.183566570282 2904.99997138977 153 155 150
-747.783362865448 530.308246612549 2911.00001335144 153 154 149
-742.950320243835 532.52637386322 2923.00009727478 143 144 139
-738.554239273071 535.109281539917 2937.00003623962 160 161 156
-733.58416557312 537.32818365097 2948.99988174438 155 156 151
-726.579964160919 538.08981180191 2953.00006866455 139 138 134
-720.03972530365 539.215981960297 2959.00011062622 134 133 129
-713.706910610199 540.524661540985 2966.00008010864 140 139 135
-708.524703979492 542.744874954224 2977.9999256134 155 154 150
-702.335894107819 544.236361980438 2986.00006103516 136 135 131
-695.637762546539 545.363485813141 2992.00010299683 124 123 119
-688.906013965607 546.490788459778 2997.99990653992 121 118 113
-682.822048664093 548.165142536163 3006.99996948242 73 65 62
-675.790905952454 549.110531806946 3012.00008392334 83 76 70
-669.17484998703 550.420641899109 3019.00005340576 87 78 71
-660.111427307129 549.725234508514 3015.00010490417 76 63 55
-661.231398582459 557.599663734436 3058.00008773804 88 75 66
-645.693123340607 558.579981327057 3062.99996376038 60 49 43
-640.503287315369 561.349868774414 3078.00006866455 65 56 51
-1124.76933002472 391.466110944748 2180.99999427795 157 156 152
-1117.15698242188 390.881240367889 2177.99997329712 128 127 123
-1110.07702350616 390.477538108826 2176.00011825562 127 126 122
-1103.01375389099 390.075296163559 2174.00002479553 119 118 114
-1097.48089313507 390.212863683701 2174.99995231628 128 127 123
-1091.94767475128 390.351891517639 2176.00011825562 129 128 124
-1087.41211891174 390.850961208344 2178.99990081787 132 131 127
-1080.88028430939 390.633940696716 2177.99997329712 140 139 135
-1074.85210895538 390.59767127037 2177.99997329712 143 142 138
-1067.84737110138 390.204161405563 2176.00011825562 149 148 144
-1063.78626823425 390.887886285782 2180.0000667572 154 153 149
-1059.22257900238 391.393482685089 2183.00008773804 158 157 153
-1054.64661121368 391.900330781937 2186.00010871887 165 164 160
-1049.57890510559 392.229110002518 2187.99996376038 168 167 163
-1045.45843601227 392.917633056641 2191.99991226196 173 174 169
-1042.26839542389 393.965780735016 2197.99995422363 174 175 170
-1038.1064414978 394.656538963318 2201.99990272522 177 178 173
-1032.52065181732 394.810855388641 2203.00006866455 178 179 174
-1027.39918231964 395.145535469055 2204.99992370605 178 179 174
-1022.73368835449 395.660549402237 2207.99994468689 178 179 174
-1018.51582527161 396.355867385864 2211.99989318848 180 181 176
-1014.73748683929 397.231489419937 2217.00000762939 195 196 191
-1011.39008998871 398.287266492844 2223.00004959106 182 183 178
-1007.10868835449 398.985773324966 2226.99999809265 173 174 169
-1002.35939025879 399.506211280823 2230.00001907349 173 174 169
-998.043656349182 400.206804275513 2233.99996757507 169 165 162
-994.153261184692 401.087611913681 2239.00008201599 171 166 163
-989.797353744507 401.790261268616 2243.00003051758 181 176 172
-985.422492027283 402.493923902512 2246.99997901917 174 167 161
-980.592846870422 403.019487857819 2250 177 170 164
-977.049112319946 404.083400964737 2256.00004196167 190 181 176
-971.323370933533 404.252648353577 2256.99996948242 186 179 173
-966.450154781342 404.781132936478 2259.99999046326 166 161 155
-961.563169956207 405.310571193695 2263.00001144409 159 154 148
-957.506775856018 406.199127435684 2267.99988746643 167 164 159
-954.264402389526 407.44686126709 2275.00009536743 193 189 186
-950.15287399292 408.337265253067 2279.99997138977 142 142 140
-946.430385112762 409.407675266266 2286.00001335144 131 133 130
-942.266166210175 410.299867391586 2290.99988937378 136 138 135
-940.528213977814 412.267535924912 2302.00004577637 96 98 95
-937.920868396759 413.877844810486 2311.00010871887 184 186 183
-934.057116508484 414.951711893082 2316.99991226196 172 174 171
-930.963695049286 416.384696960449 2325.00004768372 194 196 193
-927.430748939514 417.639374732971 2332.00001716614 175 177 174
-925.046622753143 419.432193040848 2342.00000762939 182 184 181
-919.471859931946 419.793158769608 2344.00010108948 179 181 178
-915.445923805237 420.871168375015 2349.99990463257 186 188 185
-911.389112472534 421.950101852417 2355.99994659424 186 188 185
-907.685399055481 423.208892345428 2362.99991607666 190 192 189
-903.945028781891 424.468457698822 2369.99988555908 193 195 192
-901.304543018341 426.266193389893 2380.00011444092 181 183 180
-897.858798503876 427.706450223923 2388.00001144409 196 198 195
-893.997848033905 428.968399763107 2394.99998092651 183 185 182
-889.359176158905 429.872900247574 2400.00009536743 132 134 131
-886.901438236237 431.852787733078 2411.00001335144 90 92 89
-884.385287761688 433.833479881287 2421.99993133545 46 48 45
-882.897973060608 436.352372169495 2436.00010871887 97 99 96
-881.695449352264 439.05109167099 2450.99997520447 184 186 183
-881.483733654022 442.288100719452 2469.00010108948 198 200 197
-882.592439651489 446.242421865463 2490.9999370575 149 151 148
-886.395812034607 451.630830764771 2520.99990844727 159 161 158
-887.944221496582 455.94534277916 2545.00007629395 169 171 168
-888.324797153473 459.723204374313 2565.99998474121 177 179 176
-886.531412601471 462.426960468292 2581.00008964539 179 181 178
-884.657382965088 465.131491422653 2595.99995613098 175 177 174
-882.364869117737 467.657625675201 2609.99989509583 175 177 174
-879.661560058594 470.005363225937 2622.99990653992 176 178 175
-876.223206520081 471.99547290802 2634.0000629425 176 178 175
-872.725546360016 473.986178636551 2644.99998092651 173 175 172
-871.459662914276 477.232128381729 2663.00010681152 168 170 167
-870.745599269867 480.837285518646 2683.00008773804 159 161 158
-869.601726531982 484.263956546783 2701.99990272522 155 157 154
-864.206790924072 485.361546278 2707.99994468689 165 167 164
-859.095752239227 486.638814210892 2714.99991416931 170 172 169
-853.947043418884 487.916767597198 2721.99988365173 175 177 174
-850.937724113464 490.450084209442 2736.00006103516 173 175 172
-847.544193267822 492.804706096649 2749.00007247925 167 169 166
-842.858076095581 494.442969560623 2757.99989700317 167 169 166
-837.820112705231 495.902538299561 2766.00003242493 165 167 164
-832.13859796524 497.004061937332 2772.0000743866 166 168 165
-826.721847057343 498.285323381424 2779.00004386902 177 179 176
-822.151362895966 500.105082988739 2789.00003433228 175 177 174
-817.526400089264 501.92528963089 2799.00002479553 164 166 163
-813.136577606201 503.925442695618 2809.99994277954 158 160 157
-806.680202484131 504.670679569244 2813.99989128113 161 163 160
-801.905632019043 506.492495536804 2823.99988174438 165 167 164
-796.51403427124 507.956027984619 2832.00001716614 166 168 165
-793.864130973816 511.213779449463 2849.99990463257 163 165 162
-789.185523986816 513.216495513916 2861.00006103516 166 168 165
-785.539329051971 515.937209129334 2875.99992752075 161 163 160
-779.918432235718 517.402708530426 2884.0000629425 155 157 154
-773.718178272247 518.509745597839 2890.00010490417 156 158 155
-767.484843730927 519.617021083832 2895.99990844727 148 150 147
-760.693848133087 520.365953445435 2900.00009536743 143 145 142
-756.216704845428 522.730052471161 2913.00010681152 141 141 139
-750.897943973541 524.556279182434 2923.00009727478 143 143 141
-746.032476425171 526.741743087769 2934.99994277954 143 143 141
-740.095436573029 528.209745883942 2943.00007820129 153 153 151
-736.104488372803 531.114041805267 2959.00011062622 156 155 153
-729.319274425507 532.044112682343 2963.99998664856 135 134 132
-722.992837429047 533.333599567413 2970.99995613098 139 138 136
-715.905666351318 534.084618091583 2974.99990463257 148 147 145
-710.93738079071 536.451697349548 2987.99991607666 154 153 151
-704.956769943237 538.100957870483 2996.99997901917 134 133 131
-698.461294174194 539.391279220581 3003.99994850159 122 121 119
-694.91446018219 543.016254901886 3023.9999294281 52 52 50
-1130.4475069046 389.528870582581 2203.9999961853 169 168 163
-1117.17534065247 387.010544538498 2190.00005722046 154 153 148
-1108.04522037506 385.907769203186 2184.00001525879 133 132 128
-1101.4769077301 385.690212249756 2183.00008773804 128 127 123
-1095.42107582092 385.650664567947 2183.00008773804 132 131 127
-1090.86763858795 386.142492294312 2186.00010871887 135 134 130
-1083.82129669189 385.752409696579 2184.00001525879 137 136 132
-1076.79092884064 385.363757610321 2181.99992179871 141 140 136
-1069.77653503418 384.976595640183 2180.0000667572 146 145 141
-1065.21773338318 385.473698377609 2183.00008773804 151 150 146
-1059.67652797699 385.61886548996 2184.00001525879 155 154 150
-1054.13413047791 385.765254497528 2184.99994277954 163 162 158
-1049.07059669495 386.089503765106 2187.00003623962 167 166 162
-1045.90785503387 387.120991945267 2193.00007820129 173 172 168
-1042.2420501709 387.977063655853 2197.99995422363 173 172 168
-1036.66710853577 388.128250837326 2198.99988174438 175 174 170
-1031.09073638916 388.280689716339 2200.00004768372 176 175 171
-1027.37641334534 389.140099287033 2204.99992370605 177 176 172
-1022.71211147308 389.647722244263 2207.99994468689 178 177 173
-1018.4953212738 390.332847833633 2211.99989318848 182 181 177
-1015.17558097839 391.371965408325 2217.99993515015 185 184 180
-1012.28165626526 392.588555812836 2224.99990463257 187 186 182
-1007.99596309662 393.27684044838 2229.00009155273 184 183 179
-1003.69167327881 393.966197967529 2233.00004005432 178 177 173
-998.922049999237 394.480109214783 2236.00006103516 167 166 162
-995.027184486389 395.347833633423 2240.9999370575 169 165 162
-990.225493907928 395.863801240921 2243.99995803833 191 188 183
-985.848903656006 396.557152271271 2247.99990653992 189 184 178
-980.581820011139 396.898716688156 2250 167 162 156
-976.172745227814 397.594004869461 2253.99994850159 172 167 161
-970.883965492249 397.937536239624 2256.00004196167 185 182 175
-966.442048549652 398.634791374207 2259.99999046326 187 184 177
-961.556017398834 399.156540632248 2263.00001144409 180 180 172
-957.078397274017 399.855643510818 2266.99995994568 170 171 165
-953.420162200928 400.908380746841 2273.00000190735 174 175 170
-948.898255825043 401.609301567078 2276.99995040894 188 190 187
-944.770872592926 402.487456798553 2282.00006484985 188 190 187
-940.207123756409 403.190165758133 2286.00001335144 184 186 183
-937.666475772858 404.775500297546 2295.00007629395 182 184 181
-935.078978538513 406.361728906631 2303.99990081787 182 184 181
-930.832147598267 407.243371009827 2309.00001525879 158 160 157
-927.761137485504 408.654928207397 2316.99991226196 171 173 170
-924.648582935333 410.06737947464 2325.00004768372 137 139 136
-923.469245433807 412.362456321716 2338.00005912781 100 102 99
-918.298304080963 412.894636392593 2341.00008010864 98 100 97
-914.671003818512 414.133101701736 2348.00004959106 186 188 185
-910.233378410339 415.019601583481 2352.9999256134 106 108 105
-906.922817230225 416.436046361923 2361.00006103516 186 186 184
-903.570234775543 417.85329580307 2368.99995803833 151 151 149
-900.554299354553 419.447720050812 2378.00002098084 157 157 155
-897.490799427032 421.042859554291 2387.00008392334 195 195 193
-892.886698246002 421.933233737946 2391.99995994568 193 193 191
-888.256728649139 422.82435297966 2397.0000743866 188 188 186
-885.072290897369 424.421757459641 2405.99989891052 193 193 191
-882.205247879028 426.196366548538 2415.99988937378 186 186 184
-881.097316741943 428.853780031204 2430.99999427795 191 191 189
-878.470003604889 430.806249380112 2441.99991226196 184 184 182
-878.640472888947 434.17090177536 2460.99996566772 187 187 185
-878.708779811859 437.536358833313 2480.00001907349 173 175 172
-883.245944976807 443.196266889572 2512.00008392334 165 167 164
-885.866105556488 447.974920272827 2539.00003433228 171 173 170
-886.263608932495 451.695919036865 2559.99994277954 175 177 174
-885.861158370972 455.064803361893 2578.9999961853 178 180 177
-884.334146976471 457.905203104019 2595.00002861023 173 175 172
-882.382929325104 460.569828748703 2609.99989509583 170 172 169
-880.015671253204 463.058859109879 2624.00007247925 176 178 175
-878.903746604919 466.254442930222 2641.99995994568 169 171 168
-879.014790058136 470.156818628311 2664.00003433228 161 163 160
-877.043604850769 473.001092672348 2680.0000667572 154 156 153
-874.661326408386 475.66956281662 2694.9999332428 160 162 159
-870.267331600189 477.279752492905 2703.9999961853 171 173 172
-863.910019397736 477.831453084946 2707.00001716614 172 174 173
-858.48593711853 478.913307189941 2713.00005912781 175 177 176
-854.597985744476 480.878323316574 2723.99997711182 177 179 178
-852.205693721771 483.726680278778 2740.00000953674 162 164 163
-848.493754863739 485.869556665421 2752.00009346008 167 169 168
-843.188762664795 487.13031411171 2759.0000629425 169 171 170
-837.239861488342 488.038390874863 2763.99993896484 158 160 159
-831.864178180695 489.300072193146 2770.99990844727 143 145 144
-827.343106269836 491.092085838318 2780.99989891052 180 182 181
-824.241697788239 493.767589330673 2796.0000038147 169 171 170
-820.4745054245 496.090561151505 2809.00001525879 142 144 143
-815.768718719482 497.88424372673 2819.00000572205 150 152 151
-809.575080871582 498.795300722122 2823.99988174438 155 157 156
-805.341780185699 500.943243503571 2835.99996566772 154 156 155
-801.886916160584 503.621637821198 2851.0000705719 132 134 133
-800.021708011627 507.360517978668 2871.99997901917 105 107 106
-795.835673809052 509.686827659607 2884.99999046326 107 109 108
-790.759205818176 511.483609676361 2894.99998092651 103 105 104
-784.275889396667 512.397408485413 2900.00009536743 99 101 100
-776.961624622345 512.781322002411 2901.99995040894 104 106 105
-770.69616317749 513.872444629669 2907.99999237061 141 143 140
-765.446543693542 515.670657157898 2917.99998283386 138 140 137
-762.478768825531 519.059956073761 2937.00003623962 130 130 128
-756.581485271454 520.505666732788 2944.9999332428 122 122 120
-749.369084835052 521.06785774231 2947.99995422363 126 126 124
-743.397057056427 522.514164447784 2956.00008964539 123 123 121
-739.868640899658 525.728404521942 2973.99997711182 128 127 125
-734.765589237213 527.88257598877 2986.00006103516 123 122 120
-728.623032569885 529.329836368561 2993.99995803833 121 120 118
-721.955001354218 530.423760414124 3000 109 108 106
-715.729415416718 531.871497631073 3007.99989700317 135 134 132
-709.459543228149 533.319473266602 3016.00003242493 132 131 129
-706.400573253632 537.243485450745 3038.00010681152 109 108 106
-1127.84481048584 384.685873985291 2210.99996566772 164 163 158
-1114.59934711456 382.208496332169 2197.00002670288 134 133 129
-1107.49173164368 381.820410490036 2194.9999332428 131 130 126
-1099.39694404602 381.085962057114 2190.99998474121 137 136 132
-1092.32747554779 380.70085644722 2188.99989128113 138 137 133
-1083.78565311432 379.795491695404 2184.00001525879 136 135 131
-1076.75671577454 379.413276910782 2181.99992179871 140 139 135
-1069.74375247955 379.032522439957 2180.0000667572 146 145 141
-1065.67418575287 379.696190357208 2184.00001525879 150 149 145
-1060.61661243439 380.013316869736 2186.00010871887 154 153 149
-1054.58760261536 379.983991384506 2186.00010871887 162 161 157
-1048.56300354004 379.955977201462 2186.00010871887 167 166 162
-1044.45052146912 380.624383687973 2190.00005722046 172 171 167
-1040.31991958618 381.29386305809 2194.00000572205 173 172 168
-1035.69996356964 381.790727376938 2197.00002670288 176 175 171
-1031.06760978699 382.288694381714 2200.00004768372 177 176 172
-1028.28621864319 383.482784032822 2207.00001716614 177 176 172
-1023.61750602722 383.982926607132 2210.00003814697 178 177 173
-1018.93591880798 384.484112262726 2213.00005912781 180 179 175
-1015.15686511993 385.333865880966 2217.99993515015 183 182 178
-1010.89906692505 386.010855436325 2221.99988365173 186 185 181
-1006.62279129028 386.688947677612 2226.0000705719 186 185 181
-1003.22663784027 387.715458869934 2232.00011253357 182 181 177
-998.907566070557 388.395518064499 2236.00006103516 171 170 166
-994.125783443451 388.902962207794 2239.00008201599 165 164 160
-988.889217376709 389.237612485886 2240.9999370575 179 178 173
-984.960436820984 390.094369649887 2246.00005149841 183 182 177
-980.571448802948 390.778362751007 2250 172 172 164
-974.86400604248 390.942275524139 2250.99992752075 172 172 164
-970.014572143555 391.454547643662 2253.99994850159 177 177 169
-965.579092502594 392.141371965408 2257.99989700317 181 182 174
-961.974322795868 393.1764960289 2263.99993896484 181 182 174
-957.494795322418 393.865138292313 2267.99988746643 174 177 170
-953.415274620056 394.728392362595 2273.00000190735 175 177 172
-949.311077594757 395.592570304871 2278.00011634827 178 180 177
-945.181787014008 396.457523107529 2282.99999237061 182 184 181
-940.204918384552 396.976083517075 2286.00001335144 184 186 183
-936.030805110931 397.842735052109 2290.99988937378 184 186 183
-932.643473148346 399.057626724243 2298.00009727478 187 189 186
-928.816735744476 400.099635124207 2303.99990081787 177 179 176
-926.160633563995 401.663511991501 2312.99996376038 191 193 190
-922.264337539673 402.707189321518 2319.00000572205 180 182 179
-919.917106628418 404.44627404213 2328.9999961853 190 192 189
-915.556013584137 405.317932367325 2334.00011062622 164 166 163
-912.727475166321 406.88493847847 2342.99993515015 172 174 171
-909.078001976013 408.105492591858 2349.99990463257 156 158 155
-905.776381492615 409.500509500504 2358.00004005432 171 171 169
-902.814030647278 411.06989979744 2367.00010299683 144 144 142
-900.182962417603 412.813782691956 2377.00009346008 113 113 111
-897.122919559479 414.384692907333 2385.99991798401 95 95 93
-892.522275447845 415.261715650558 2391.00003242493 116 116 114
-887.895703315735 416.139423847198 2395.99990844727 154 154 152
-884.714722633362 417.7126288414 2404.99997138977 178 178 176
-881.120800971985 419.112890958786 2413.00010681152 174 174 172
-878.934323787689 421.208590269089 2424.99995231628 194 194 192
-877.403259277344 423.652470111847 2438.99989128113 189 189 187
-878.296613693237 427.313059568405 2460.00003814697 195 195 193
-878.368318080902 430.627048015594 2479.00009155273 190 192 189
-881.854176521301 435.679018497467 2507.99989700317 178 180 177
-883.788049221039 440.036982297897 2532.99999237061 180 182 179
-884.548664093018 443.874716758728 2555.0000667572 172 174 171
-884.160399436951 447.192072868347 2573.99988174438 169 171 168
-885.033130645752 451.205283403397 2596.99988365173 173 175 172
-884.429574012756 454.524278640747 2615.9999370575 173 175 172
-883.052825927734 457.496583461761 2632.99989700317 170 172 169
-881.917297840118 460.643470287323 2651.00002288818 153 155 152
-882.004678249359 464.48627114296 2673.00009727478 149 151 148
-879.68236207962 467.11340546608 2687.99996376038 146 148 145
-875.331938266754 468.698561191559 2697.00002670288 163 165 162
-870.289266109467 469.936728477478 2703.9999961853 165 167 166
-864.251673221588 470.654159784317 2707.99994468689 177 179 178
-859.774589538574 472.241103649139 2717.00000762939 172 174 173
-855.876326560974 474.176287651062 2727.9999256134 167 169 168
-853.162884712219 476.807445287704 2743.00003051758 164 166 165
-849.751651287079 479.091554880142 2756.00004196167 156 158 157
-845.04759311676 480.680972337723 2765.00010490417 169 171 170
-839.385807514191 481.749325990677 2770.99990844727 150 152 151
-833.991706371307 482.992023229599 2778.00011634827 135 137 136
-830.047130584717 485.10468006134 2789.99996185303 153 155 154
-828.985452651978 488.956660032272 2812.00003623962 146 148 147
-825.17546415329 491.244435310364 2825.00004768372 131 133 132
-821.005463600159 493.358731269836 2836.99989318848 134 136 135
-815.336942672729 494.604200124741 2844.00010108948 126 128 127
-813.037753105164 497.937053442001 2862.99991607666 105 107 106
-810.916602611542 501.444578170776 2882.99989700317 101 103 102
-791.337966918945 509.044229984283 2926.00011825562 100 102 101
-784.756779670715 509.94485616684 2930.99999427795 104 106 105
-779.473125934601 511.715769767761 2940.99998474121 114 116 115
-1118.61741542816 377.582758665085 2204.99992370605 155 154 150
-1108.46185684204 376.173704862595 2197.00002670288 148 147 143
-1099.3595123291 375.108748674393 2190.99998474121 143 142 138
-1090.79456329346 374.21652674675 2186.00010871887 143 142 138
-1083.75108242035 373.839318752289 2184.00001525879 142 141 137
-1078.20379734039 373.976975679398 2184.99994277954 146 145 141
-1072.16513156891 373.944699764252 2184.99994277954 146 145 141
-1066.61927700043 374.084949493408 2186.00010871887 149 148 144
-1061.07234954834 374.226361513138 2187.00003623962 156 155 151
-1055.52423000336 374.368995428085 2187.99996376038 160 159 155
-1049.01576042175 374.170690774918 2187.00003623962 164 163 159
-1044.42453384399 374.657839536667 2190.00005722046 170 169 165
-1039.34681415558 374.975085258484 2191.99991226196 172 171 167
-1035.6764793396 375.80668926239 2197.00002670288 177 176 172
-1032.45115280151 376.810342073441 2203.00006866455 178 177 173
-1029.19673919678 377.815067768097 2209.00011062622 178 177 173
-1024.5236158371 378.307700157166 2211.99989318848 177 176 172
-1019.3772315979 378.630369901657 2213.99998664856 178 177 173
-1014.68110084534 379.125148057938 2217.00000762939 180 179 175
-1009.9720954895 379.620939493179 2220.00002861023 182 181 177
-1005.70237636566 380.288779735565 2223.99997711182 188 187 183
-1002.76207923889 381.470561027527 2230.99994659424 189 188 184
-1000.23376941681 382.824271917343 2239.00008201599 184 184 182
-995.000779628754 383.153080940247 2240.9999370575 176 176 174
-989.318668842316 383.311927318573 2242.00010299683 163 165 160
-984.072387218475 383.642703294754 2243.99995803833 170 172 167
-980.125665664673 384.487360715866 2249.00007247925 182 185 178
-974.855065345764 384.82004404068 2250.99992752075 180 183 176
-970.00652551651 385.324597358704 2253.99994850159 173 176 169
-965.571999549866 386.001080274582 2257.99989700317 172 177 170
-961.968004703522 387.020319700241 2263.99993896484 176 181 174
-957.911670207977 387.869536876678 2269.00005340576 181 186 180
-952.991485595703 388.377726078033 2272.0000743866 178 183 179
-948.474109172821 389.057755470276 2276.00002288818 179 181 178
-943.937122821808 389.7385597229 2279.99997138977 184 186 183
-939.791858196259 390.591263771057 2285.00008583069 187 189 186
-935.212850570679 391.273826360703 2289.00003433228 182 184 181
-931.831657886505 392.470002174377 2296.0000038147 183 185 182
-928.414404392242 393.666982650757 2302.99997329712 186 188 185
-925.761759281158 395.206689834595 2312.00003623962 181 183 180
-921.868920326233 396.234393119812 2318.00007820129 186 188 185
-918.34032535553 397.433817386627 2325.00004768372 178 180 177
-914.383053779602 398.463100194931 2331.00008964539 182 184 181
-911.563575267792 400.005966424942 2339.99991416931 194 196 193
-907.922983169556 401.207715272903 2346.99988365173 186 188 185
-903.861820697784 402.239292860031 2352.9999256134 180 180 178
-900.532484054565 403.613597154617 2361.00006103516 192 192 190
-896.40349149704 404.646664857864 2367.00010299683 180 180 178
-894.123315811157 406.535238027573 2378.00002098084 188 188 186
-891.038358211517 408.082723617554 2387.00008392334 198 198 196
-888.646721839905 409.972816705704 2398.00000190735 196 196 194
-884.725213050842 411.179780960083 2404.99997138977 175 175 173
-880.401611328125 412.216514348984 2411.00001335144 188 188 186
-877.133965492249 413.766860961914 2420.00007629395 132 132 130
-875.617146492004 416.172832250595 2434.00001525879 156 156 154
-875.453531742096 419.263541698456 2451.99990272522 122 122 120
-875.193297863007 422.354996204376 2470.00002861023 140 142 139
-877.649366855621 426.815271377563 2496.00005149841 152 154 151
-882.407903671265 432.473450899124 2529.00004386902 183 185 182
-885.257244110107 437.277555465698 2556.99992179871 173 175 172
-885.894894599915 441.056549549103 2578.9999961853 175 177 174
-885.732352733612 444.494217634201 2598.99997711182 175 177 174
-887.828767299652 449.129998683929 2625.99992752075 163 165 162
-887.431740760803 452.569365501404 2645.99990844727 155 157 154
-884.931027889252 454.98338341713 2660.00008583069 146 148 145
-882.354855537415 457.398027181625 2674.00002479553 144 146 143
-877.739548683167 458.787024021149 2681.99992179871 140 142 139
-873.730480670929 460.518807172775 2691.99991226196 171 173 170
-869.989395141602 462.422311306 2703.00006866455 170 172 171
-866.188943386078 464.32638168335 2713.99998664856 166 168 167
-862.645626068115 466.402262449265 2726.0000705719 157 159 158
-858.09600353241 467.965394258499 2734.99989509583 155 157 156
-855.053186416626 470.384687185287 2749.00007247925 166 168 167
-851.934671401978 472.804695367813 2763.00001144409 124 126 125
-849.045813083649 475.396424531937 2778.00011634827 122 124 123
-843.955099582672 476.790815591812 2786.00001335144 104 106 105
-838.220715522766 477.84349322319 2792.00005531311 97 99 98
-834.53631401062 480.094701051712 2805.0000667572 124 126 125
-835.203349590302 484.914004802704 2832.99994468689 122 124 123
-1128.21650505066 374.767780303955 2223.99997711182 186 185 180
-1112.96474933624 371.696323156357 2206.00008964539 163 162 158
-1100.82828998566 369.637697935104 2194.00000572205 146 145 141
-1090.75951576233 368.254691362381 2186.00010871887 145 144 140
-1084.70976352692 368.220746517181 2186.00010871887 144 143 139
-1079.65171337128 368.524938821793 2187.99996376038 146 145 141
-1073.11546802521 368.32520365715 2187.00003623962 146 145 141
-1067.07727909088 368.295073509216 2187.00003623962 149 148 144
-1061.04350090027 368.2661652565 2187.00003623962 155 154 150
-1055.49669265747 368.40695142746 2187.99996376038 159 158 154
-1049.46911334991 368.380486965179 2187.99996376038 163 162 158
-1043.44570636749 368.355274200439 2187.99996376038 168 167 163
-1038.37478160858 368.667870759964 2190.00005722046 170 169 165
-1035.65359115601 369.823217391968 2197.00002670288 176 175 171
-1032.42933750153 370.811313390732 2203.00006866455 178 177 173
-1029.17611598969 371.80033326149 2209.00011062622 178 177 173
-1023.57769012451 371.948897838593 2210.00003814697 178 177 173
-1018.89836788177 372.435122728348 2213.00005912781 179 178 174
-1013.74840736389 372.754067182541 2214.99991416931 180 179 175
-1008.59093666077 373.074054718018 2217.00000762939 183 182 178
-1004.33039665222 373.731672763824 2220.99995613098 186 185 181
-1001.39939785004 374.895006418228 2227.9999256134 188 187 183
-999.327003955841 376.39582157135 2236.99998855591 188 187 185
-994.988441467285 377.056270837784 2240.9999370575 185 185 183
-988.865971565247 377.044677734375 2240.9999370575 168 169 164
-983.623385429382 377.370536327362 2243.00003051758 165 166 161
-979.244530200958 378.033846616745 2246.99997901917 177 180 173
-974.413454532623 378.529876470566 2250 180 183 176
-969.568729400635 379.026800394058 2253.00002098084 178 181 174
-965.56544303894 379.861056804657 2257.99989700317 173 175 170
-961.537480354309 380.69623708725 2263.00001144409 174 176 171
-957.062423229218 381.363987922668 2266.99995994568 181 183 180
-951.72917842865 381.696254014969 2269.00005340576 182 184 183
-947.220802307129 382.365792989731 2273.00000190735 178 180 177
-943.106830120087 383.204400539398 2278.00011634827 180 182 179
-938.967823982239 384.043842554092 2282.99999237061 182 184 181
-934.394955635071 384.71582531929 2286.99994087219 183 185 182
-930.614292621613 385.725140571594 2292.99998283386 185 187 184
-927.609145641327 387.071698904037 2301.00011825562 188 190 187
-925.36324262619 388.75550031662 2311.00010871887 189 191 188
-921.871542930603 389.935374259949 2318.00007820129 193 195 192
-917.948603630066 390.947788953781 2323.99988174438 193 195 192
-914.779543876648 392.297565937042 2332.00001716614 182 184 181
-911.178827285767 393.479734659195 2338.99998664856 183 185 182
-907.541811466217 394.662767648697 2345.99995613098 183 185 182
-903.099954128265 395.510077476501 2351.0000705719 184 184 182
-899.013876914978 396.526336669922 2357.00011253357 196 196 194
-894.896507263184 397.543281316757 2362.99991607666 192 192 190
-892.2518491745 399.233967065811 2372.99990653992 187 187 185
-890.300989151001 401.261925697327 2384.99999046326 185 185 183
-887.174427509308 402.785807847977 2394.00005340576 179 179 177
-882.896482944489 403.805702924728 2400.00009536743 194 194 192
-879.317462444305 405.162751674652 2407.99999237061 190 190 188
-876.78337097168 407.025277614594 2418.99991035461 191 191 189
