ply
format ascii 1.0
comment KinectMotionCapture
element vertex 752
property float x
property float y
property float z
property uchar red
property uchar green
property uchar blue
end_header
-931.774510838739 459.498245316629 2504.47858613934 170 174 177
-933.433595231104 459.183882675404 2511.66551195063 175 179 182
-933.188001181032 458.519088673765 2519.47360350573 164 168 171
-931.02973382626 457.50372190505 2527.88861851622 161 165 168
-929.807572315837 456.66336831686 2535.96262937697 161 165 168
-931.431693400061 456.348448995747 2543.08508388858 162 166 169
-931.140801298485 455.682982633822 2550.80966188035 169 173 174
-928.926912509802 454.666850117964 2559.12214866287 167 171 172
-925.739716037427 453.475270693933 2567.70658395905 163 167 170
-915.823793565761 451.056540462269 2578.35174363553 164 168 167
-907.791049560517 448.988018887016 2588.33511973508 161 166 162
-900.687746974387 447.094429245025 2597.9657144038 157 162 158
-895.480034242093 445.55109626146 2606.95837522168 155 160 156
-893.139609801927 444.533456954686 2615.03768676149 151 156 152
-886.923159754631 442.81431425435 2624.2370254413 141 146 142
-886.477993307202 442.146951699501 2631.67729457578 128 133 129
-880.216424235169 440.427293878511 2640.79349624041 113 118 114
-880.710454017472 439.934949873208 2647.89895086553 119 124 120
-878.285649719475 438.916335312507 2655.82277919267 135 140 136
-882.644850143314 439.125328509038 2661.78819244083 136 141 137
-874.360713919324 437.054020156916 2671.30837440185 158 163 159
-861.174617732351 434.105204909553 2682.12458308601 140 145 141
-851.845536757051 431.857698110703 2691.78523818099 131 136 132
-848.342044645185 430.662566423707 2699.78687992415 155 157 154
-846.775748402115 429.818166569808 2707.22674750998 126 128 125
-843.237597084191 428.622659090211 2715.16453164924 113 115 112
-839.680877141819 427.426967425213 2723.06810931636 105 107 104
-840.032543101341 426.933098026528 2729.91127221361 106 108 105
-839.39269304241 426.2635777793 2736.99333809401 102 104 101
-842.679548081156 426.296107217145 2743.04824568911 100 102 99
-839.066611501939 425.099849527675 2750.84826050247 105 107 104
-837.409091615107 424.254555417668 2758.12008226408 109 111 106
-829.808788930298 422.355702955774 2766.835524797 131 136 129
-821.190564364733 420.281044085308 2775.7402498528 146 152 142
-1214.8328349297 526.864551928799 2110.52403977287 237 241 240
-1207.20659966045 524.673957654816 2123.33365319556 243 248 244
-1196.82492281458 521.966771739529 2137.26505956072 213 217 216
-1187.30966133459 519.431102751622 2150.72623689061 168 172 171
-1180.48367607311 517.411014036052 2162.9441312326 199 204 200
-1169.07132244865 514.530128081238 2177.04249921337 194 199 195
-1164.00002592888 512.853265144547 2188.36069830744 169 173 172
-1160.72917414224 511.520185735775 2198.86402772983 167 171 170
-1157.43721775565 510.186812583248 2209.32794936854 164 169 165
-1154.12393522383 508.853111617401 2219.75254975998 164 169 165
-1143.44959957508 506.14189414071 2233.14449088619 165 167 166
-1127.22065844892 502.397186930914 2248.6995124205 172 172 172
-1121.97458126877 500.71781430717 2259.69550331778 167 167 165
-1109.33113624965 497.660581368631 2273.59194217008 177 179 178
-1094.79522225476 494.258365669124 2288.13364070958 170 172 171
-1070.04358704549 488.961150168982 2306.58120489316 176 178 177
-1051.68748192268 484.868576808777 2322.34897211193 191 193 192
-1036.04791128008 481.291945243654 2336.92369797023 167 169 168
-1020.35348274188 477.714684474125 2351.39683670395 177 179 178
-1008.32042336254 474.825823633031 2364.35121548728 170 172 171
-995.312102206251 471.764098015138 2377.57522959645 173 175 174
-986.915173105051 469.563292240508 2388.96432582172 171 173 172
-979.417067961658 467.534389315893 2399.94291437247 174 176 175
-974.689990201202 466.022003228885 2409.82885686735 164 166 165
-974.617093327355 465.37101697169 2417.95872227805 186 188 187
-971.72242997429 464.202767451309 2427.08819507953 174 176 175
-965.994408834033 462.517168340637 2437.19593078404 178 180 179
-953.663203953641 459.624555861262 2449.6013417136 71 73 72
-948.81399589758 458.110599152176 2459.26168777853 36 40 39
-945.824851131099 456.941106366502 2468.21701816935 169 173 172
-939.043225679248 455.081657870826 2478.45000691138 72 76 75
-933.177340147016 453.394306274937 2488.30365786975 130 134 135
-928.2307966344 451.879063041371 2497.78510365369 160 164 165
-929.891306055805 451.570746301481 2504.97596423997 170 174 175
-930.597305619416 451.089819285446 2512.47470324631 167 171 172
-932.244643374338 450.781210860315 2519.64175526602 162 166 167
-931.984033685262 450.127538761266 2527.42557491734 158 162 163
-931.712385195872 449.473690895293 2535.1890393467 162 166 167
-931.429794552895 448.819690571523 2542.93233331459 166 170 171
-930.181006097424 447.992970335378 2550.96197645428 176 180 179
-927.962401612947 446.993533304576 2559.27081089992 163 167 166
-925.727651591907 445.993889239997 2567.54988850254 159 163 164
-914.846904824622 443.440881637712 2578.49447549936 161 166 162
-906.807097999431 441.405171691614 2588.47523318383 160 165 161
-899.69731646004 439.54172875594 2598.10297763181 153 158 154
-899.297766848153 438.886254433792 2605.63071948258 152 157 153
-898.887037420877 438.230608164535 2613.13835215166 149 154 150
-895.569520780639 437.056931830102 2621.48848875322 130 135 131
-895.133242382341 436.401012754211 2628.94854592667 118 123 119
-892.750096075671 435.399594195445 2636.95416209318 106 111 107
-896.166133268491 435.434082945668 2643.24724841429 119 124 120
-889.876543336458 433.741612002284 2652.32009028325 140 144 143
-891.335056426287 433.430535351032 2659.13861284678 142 146 145
-879.164482529672 430.701271648905 2669.77327232773 153 158 154
-867.926396021937 428.144295002867 2680.05995710051 130 136 132
-857.624870522231 425.759685353111 2690.00567908869 142 148 144
-851.194450009021 424.065722046408 2698.81905907329 148 153 149
-852.563394249099 423.753628621728 2705.47304668074 117 122 118
-851.967785866814 423.095937802313 2712.63953418178 109 114 110
-855.28448500821 423.129310106344 2718.74958398721 112 117 113
-853.690279451083 422.298648398406 2726.14225261148 94 99 95
-851.099090720075 421.294988817959 2733.76456693015 108 113 109
-844.55333911928 419.599844182874 2742.36547678009 103 105 102
-838.967172108641 418.077272347863 2750.66833454157 128 130 127
-1269.75517039077 532.061087772182 2037.5579827301 205 209 210
-1257.82119757263 529.06244926812 2052.7763865772 169 173 174
-1239.53350684985 524.878329273589 2070.75775386817 176 180 181
-1217.57157990428 520.016277318742 2090.23736417481 180 184 185
-1212.70037331641 518.36976077593 2101.93269091642 176 180 179
-1202.37408667252 515.707065361772 2115.97884494999 170 175 171
-1196.53590688987 513.890308783795 2127.95984054585 163 168 164
-1186.13173755348 511.226499400669 2141.86292336705 168 173 169
-1178.41163804255 509.070166732971 2154.51020653927 165 170 166
-1169.74730227256 506.744007004988 2167.48459587965 157 162 158
-1166.51388498657 505.433592596884 2178.06308577257 162 167 163
-1161.43389719777 503.784050696138 2189.37351605502 167 172 168
-1155.41334537025 501.964701418723 2201.01831655122 161 166 162
-1150.27903345281 500.314379674853 2212.22860034749 164 169 165
-1148.78408639358 499.341382603687 2221.87632371055 165 170 166
-1139.9307774393 497.012595886177 2234.50236694136 161 161 161
-1119.09229704688 492.480343988763 2251.91727519939 179 179 179
-1111.98887514658 490.489309984447 2263.63365038054 176 176 176
-1101.16701431899 487.819898899409 2276.76683789265 176 178 177
-1083.84214682173 483.963459443804 2292.38745018466 190 192 191
-1055.36571786499 478.072132888825 2312.26547961053 178 180 179
-1037.90469258985 474.214064675606 2327.63518313818 182 184 183
-1024.09086234708 471.033429149245 2341.45675983175 168 172 171
-1013.93980695479 468.53040444867 2353.75891738566 172 176 175
-1002.82006648739 465.857359456621 2366.34265292757 146 150 149
-995.381006355397 463.862077533757 2377.44045080589 170 174 173
-988.842453480908 462.036022584843 2388.13003221178 23 25 24
-975.741006436569 459.022261166302 2401.19719469805 180 182 181
-965.396474447982 456.516853179854 2413.14229259001 173 175 174
-971.859325112109 457.064406728869 2418.84891562037 146 148 147
-968.019858117369 455.745852199301 2428.31032176537 84 86 85
-963.220305150609 454.257302141714 2438.07013715066 186 188 187
-948.998652454026 451.071686575087 2451.13965219595 206 208 207
-950.726171062657 450.770229871261 2458.45632208957 42 44 43
-945.850892893708 449.280711600585 2468.07657386817 106 108 107
-939.064346177581 447.451459791636 2478.30908804952 179 181 180
-930.358546461859 445.282362706051 2489.13965041267 156 160 161
-926.349886998759 443.961584729292 2498.28971638661 168 172 173
-928.005794817399 443.659144219238 2505.47388089407 172 176 177
-931.553538392517 443.696109822015 2512.00994409213 171 175 176
-935.100604437051 443.733030426311 2518.54474765601 159 163 164
-933.889514145218 442.920873908749 2526.64810420694 162 166 167
-933.617727627821 442.278362038895 2534.41472375242 161 165 164
-933.334956313952 441.635697203451 2542.16109425569 170 174 173
-932.085668460182 440.82300458107 2550.19403731228 170 174 173
-930.823028451361 440.010177006077 2558.20187849577 170 174 173
-929.546567621672 439.197123876536 2566.18473708639 163 167 166
-920.582762392885 437.024858433276 2576.53982750833 156 161 157
-911.584726289107 434.852207525827 2586.8318451968 152 157 153
-904.476197421665 433.019010751014 2596.47098919964 142 147 143
-906.006715397189 432.714789037074 2603.42400329294 141 146 142
-904.637920411307 431.900621617038 2611.23670745563 139 144 140
-905.187066957848 431.426202609712 2618.44892228039 123 128 124
-905.727856450214 430.951676700212 2625.64573481205 118 123 119
-905.29208347162 430.307071738299 2633.11012393877 100 105 101
-908.723544814471 430.342283344005 2639.43179546016 118 123 119
-902.445878092791 428.67746016143 2648.53488055428 152 156 155
-899.058310845358 427.522397222523 2656.76177876887 152 156 155
-888.838093908863 425.176927082826 2666.86881210161 162 168 164
-883.45462442571 423.681261233303 2675.55255875017 135 141 137
-874.14338854535 421.505117086784 2685.26749449132 120 126 122
-865.775364596117 419.498684397635 2694.65340537435 118 124 120
-860.311572934522 418.002150701846 2703.18916392173 112 117 113
-854.824299980033 416.505427910083 2711.68117498387 118 123 119
-857.162164180349 416.36924617033 2718.05528402298 104 109 105
-852.620067582993 415.042236070134 2726.2218835355 125 130 126
-1297.21411067182 534.144728866386 1944.86963083288 224 228 229
-1273.09884849123 528.86904530371 1966.60937962044 224 228 229
-1267.60778205235 527.087534238557 1979.23887473199 219 223 224
-1266.54836425368 526.137856302424 1989.69462832057 200 204 205
-1260.11230291609 524.189048069101 2002.65109936002 189 193 194
-1252.75000786679 522.073330457389 2015.9686639413 175 179 180
-1249.83383568676 520.789627607462 2027.13865812099 172 176 177
-1245.99897496131 519.339029479344 2038.68413126235 226 230 231
-1243.93769790597 518.221142764653 2049.3614984789 212 216 217
-1232.85832592859 515.43751560057 2064.10152816392 174 178 179
-1223.53669361504 512.986387133627 2077.9447521854 172 176 177
-1214.17581310546 510.534741482275 2091.71513185078 162 166 165
-1208.3908376123 508.748903296468 2103.8027734023 165 170 166
-1195.3354918868 505.629822277104 2119.03785207137 165 170 166
-1188.57537863014 503.676394455611 2131.39694337902 166 171 167
-1180.87591376997 501.555886275252 2144.09295061789 162 167 163
-1179.5054910297 500.601426513174 2153.97527145517 164 169 165
-1169.92596594674 498.146793158283 2167.34262544576 146 151 147
-1167.60005177308 497.02500175501 2177.53210256037 155 160 156
-1159.77772150758 494.902786748365 2190.00162465305 163 168 164
-1151.92105711497 492.780103801069 2202.40785931038 163 168 164
-1143.11438152569 490.490219059129 2215.13187269053 164 169 165
-1140.68887169825 489.366990540491 2225.13774307975 164 169 165
-1131.81768580855 487.076258247791 2237.74235114272 170 172 171
-1111.87616373914 482.783925708023 2254.7642787362 173 173 173
-1102.91552068745 480.492069067667 2267.20402066339 166 166 166
-1095.7618736352 478.533268126261 2278.83771580532 177 179 178
-1071.03328444692 473.404847963681 2297.37842616334 188 190 189
-1046.22342285382 468.275435961179 2315.76986773722 187 189 188
-1030.59204690955 464.813410334409 2330.39362533444 179 181 180
-1016.75991636965 461.684377656573 2344.19706251961 66 70 69
-1006.59214622538 459.222192888887 2356.48025579021 148 152 151
-997.314410968902 456.926351606161 2368.33611335398 96 100 99
-993.58670139414 455.631389546604 2378.010156514 182 186 185
-988.905066936112 454.16921601851 2387.99477750494 26 28 27
-972.995116443228 450.703784483364 2402.1051615202 185 187 186
-963.575088363467 448.406184185074 2413.69828343795 189 191 190
-965.3536381642 448.111391751767 2421.11081307973 60 62 61
-957.750430063743 446.146949364551 2431.91598703854 80 82 81
-947.298977735877 443.681224005749 2443.67637235387 183 185 184
-933.047143670778 440.547067920379 2456.70635756606 21 23 22
-937.575078105975 440.752250172741 2462.98095737369 28 30 29
-933.620141774143 439.454338548311 2472.23620212849 103 105 104
-933.420084597997 438.824240056231 2480.1384779684 181 183 182
-928.482070815565 437.358762427399 2489.65057705454 149 153 154
-929.200110221553 436.895306536542 2497.17671346312 165 169 170
-930.857621655576 436.598769944712 2504.36610698904 169 173 174
-930.610957761701 435.967990894787 2512.18245992481 167 171 172
-929.402812457299 435.169963982588 2520.29497767263 157 161 162
-929.13284377789 434.53885571588 2528.06836985904 159 163 164
-932.664327892528 434.576056093342 2534.57459954844 165 169 168
-932.37731460069 433.944661724811 2542.31706179405 174 178 177
-931.123894917811 433.145999664648 2550.34612070809 174 178 177
-930.813783220315 432.514317354393 2558.04550994284 166 170 169
-930.49246708329 431.882433259464 2565.72473573482 162 166 165
-925.362618957347 430.414532812086 2574.88278367281 155 160 156
-918.286752777854 428.611887867873 2584.59169213843 148 153 149
-914.068598143639 427.310605476087 2593.36181681376 133 138 134
-912.719344963882 426.510711707255 2601.2147543086 131 136 132
-911.356736775737 425.710705110087 2609.04259133579 130 135 131
-909.980363672791 424.910481010186 2616.8455510129 120 125 121
-911.492666555669 424.611943871836 2623.76677370452 112 117 113
-910.093096674874 423.811436157818 2631.52698499177 120 125 121
-914.499520024357 424.014565793037 2637.57748650711 123 128 124
-910.167281460823 422.711924885875 2646.13738151517 123 127 126
-906.786169695872 421.576349449234 2654.38201284406 144 148 147
-897.543733154519 419.436551634237 2664.2344132191 159 166 159
-896.067599375757 418.635176511181 2671.85354869924 122 129 122
-890.672867815556 417.164232613972 2680.52351250817 98 105 98
-876.455262556224 414.186592850334 2691.54871921464 122 127 121
-849.464911285482 409.032436092329 2705.92189745465 171 176 170
-825.33455713848 404.379609933748 2719.36149437865 183 188 182
-1317.19310137827 533.156241045451 1873.45504789775 231 235 234
-1305.73374887436 530.262368204881 1889.57787024152 216 220 219
-1297.76079695424 528.022423780218 1903.84976722902 212 216 215
-1289.75095136111 525.781919960009 1918.05414605149 208 212 211
-1292.33651408718 525.505085627117 1926.95581564407 196 200 199
-1286.04355986724 523.591115493524 1940.18596330435 177 181 180
-1274.38775961313 520.694482339531 1955.94665235659 173 177 176
-1262.68459235329 517.797172459268 1971.62052559273 169 173 172
-1257.17279628438 516.045424206428 1984.2208454473 172 176 175
-1254.30953439662 514.784502281611 1995.49500200307 176 180 179
-1247.84978509658 512.868139711785 2008.41766366354 175 179 178
-1240.46343881232 510.787574130733 2021.70156460357 167 171 170
-1237.52475761125 509.525478937938 2032.83716271767 164 168 167
-1232.76963490116 507.935459688758 2044.76297879778 169 173 172
-1232.48318011842 507.164192361825 2054.57870052844 163 167 166
-1224.08059735847 504.918112598593 2068.05858309341 163 167 166
-1222.85386741533 503.982359315829 2078.21080660195 158 162 161
-1215.29080307279 501.89923881887 2091.16892251618 164 168 167
-1209.5020096052 500.143446076886 2103.25857742011 157 162 158
-1192.81807956766 496.420416560266 2120.09810968533 162 167 163
-1183.32816205952 494.007922384515 2133.64344472317 164 169 165
-1174.70703943118 491.758870936744 2146.72049900216 167 172 168
-1175.14299500401 491.148754728498 2155.79852727014 165 170 166
-1169.19297908598 489.39070049705 2167.59148887802 168 173 169
-1165.03793906536 487.960205804533 2178.55413948684 159 164 160
-1157.20584382979 485.873416355067 2191.01635523771 154 159 155
-1149.33966253876 483.786208122563 2203.41525034094 169 174 170
-1142.35476899625 481.862521134674 2215.3698734468 169 174 170
-1133.50389237211 479.610357078062 2228.02343223727 165 170 166
-1120.94194685366 476.701498727456 2242.11438291065 169 171 170
-1106.49324641345 473.463952886759 2256.86600279171 174 176 175
-1095.67634292623 470.882052074793 2270.03462395357 171 173 172
-1084.81732723935 468.299612858875 2283.12563119765 181 183 182
-1055.44250652776 462.43459417906 2303.47456937249 119 121 120
-1033.37362958361 457.881423449974 2320.73506274693 166 170 169
-1022.34673314194 455.29695186684 2333.51669551804 21 25 24
-1008.49496711233 452.219498751924 2347.29953052987 66 70 69
-1002.02441477174 450.454749281102 2358.13261316694 174 178 177
-994.594416864174 448.525414829063 2369.26690993217 141 145 144
-992.721511789776 447.580810948253 2378.22803807429 195 199 198
-983.37043191428 445.322376545427 2389.95974631901 93 95 94
-971.180219806569 442.570835087266 2402.66638745532 51 53 52
-962.686699089412 440.475663413494 2413.90960051672 186 188 187
-958.842215315781 439.201306562482 2423.37507107182 79 81 80
-946.534534603534 436.448283150126 2435.86572462975 135 137 136
-940.757102480438 434.844679462945 2445.90724229899 183 185 184
-929.310049857165 432.255047731707 2457.91407528685 86 88 87
-927.239052574285 431.307878151658 2466.51010420365 56 58 57
-926.094910087552 430.524789089432 2474.74533116761 86 88 87
-927.770685734282 430.23453585094 2481.96970120235 187 189 188
-925.65762507686 429.2867804388 2490.488191737 139 143 144
-930.157360878221 429.4892892051 2496.71012514499 165 169 170
-932.762617213561 429.363066506718 2503.57850769223 169 173 174
-932.51580155294 428.743619596269 2511.39798931629 165 169 170
-932.257739285461 428.123966705974 2519.19722868262 160 164 165
-930.084690375557 427.175402819609 2527.60464252135 159 163 164
-932.662506270309 427.048700057719 2534.42291697722 166 170 169
-932.372975279814 426.428644779503 2542.16365437753 173 177 176
-933.028423737888 425.97287476897 2549.57698593587 174 178 177
-932.718187275566 425.352535998856 2557.27955694879 153 157 156
-933.355530526633 424.896520846553 2564.65951601321 153 157 156
-932.064508085413 424.111379903282 2572.62398693419 148 152 151
-928.837592804349 422.997069739074 2581.15860861157 143 147 146
-926.554389521844 422.047048214922 2589.3634943896 138 142 141
-925.21900076119 421.26139192217 2597.24570834479 133 137 136
-923.869874087657 420.475529527352 2605.10309803978 126 130 129
-920.574531667429 419.360400837361 2613.51162359229 109 113 112
-918.228339437199 418.409656976995 2621.59993975263 115 120 116
-915.865820390228 417.458690957976 2629.65866535831 113 118 114
-918.338321253607 417.330523597641 2636.28280584656 129 134 130
-916.921769821288 416.543893430902 2644.0154539956 146 151 147
-915.491451571944 415.757060510948 2651.72322573153 152 157 153
-912.099505000437 414.640810999721 2659.95374159319 111 118 111
-909.664234815374 413.688997122844 2667.87840963133 102 109 102
-902.329547307151 411.913669443256 2677.11900915212 140 145 139
-1311.26191798036 524.957650192505 1845.27592272778 222 227 223
-1292.84797045724 520.826650381562 1865.15585442353 179 184 180
-1299.00105812763 521.199951970769 1872.35516490084 191 196 192
-1296.34817418158 519.964114494182 1884.02378824992 193 198 194
-1291.02697073962 518.245155126235 1896.98450298668 169 174 170
-1285.6767137593 516.525722337252 1909.89214484889 176 181 177
-1280.29780248632 514.805920674681 1922.74647107379 172 177 173
-1281.09431554457 514.212506619464 1932.49265294547 160 165 161
-1273.89140815562 512.169973796412 1946.12536869577 162 167 163
-1265.76529709113 509.965917007936 1960.12687452855 166 171 167
-1260.27339629582 508.244467032759 1972.77289675185 167 172 168
-1256.5355123489 506.844643423379 1984.51199683479 168 173 169
-1251.88111755407 505.283432829688 1996.63173327884 169 174 170
-1245.41219478575 503.399716500813 2009.54683643364 168 173 169
-1234.43418246017 500.710107982175 2024.50206263404 162 167 163
-1231.48252346787 499.469811579689 2035.61984334063 160 165 161
-1224.9173356213 497.584732839422 2048.35799201436 160 165 161
-1224.61613739507 496.827113004261 2058.15070195671 159 164 160
-1221.59935922201 495.585806611596 2069.14891714323 169 174 170
-1216.75758802565 494.021895716867 2080.92322220582 164 169 165
-1211.88937163575 492.457610823182 2092.64877726956 165 170 166
-1206.99469726467 490.892940699138 2104.32555543816 156 161 157
-1199.35599803786 488.844302577324 2117.15493460157 154 159 155
-1188.05449304788 486.15035999537 2131.51339126083 155 160 156
-1175.79991519067 483.294617205568 2146.18511580074 172 177 173
-1173.50520297832 482.211929983631 2156.44373846517 171 176 172
-1172.10279662461 481.290215948716 2166.27708294528 166 171 167
-1169.77196594179 480.206987835514 2176.46911450402 162 167 163
-1161.02673853205 477.994443289417 2189.32940012195 157 162 158
-1151.32992392148 475.62015504432 2202.50519878115 163 168 164
-1142.5097780187 473.40666485764 2215.22690702154 168 173 169
-1134.57016663631 471.354022456649 2227.50164973094 161 166 162
-1118.32661075635 467.848804884844 2243.10181169029 166 168 167
-1103.86571757949 464.665619463441 2257.84735423958 178 180 179
-1083.8236529897 460.513529485662 2274.72653973533 175 177 176
-1069.24995897449 457.328971283636 2289.26420816557 97 99 98
-1043.53528051172 452.206902621671 2308.10853424927 80 84 83
-1027.91575917408 448.859487698086 2322.78856050049 152 156 155
-1018.72750293271 446.641414616478 2334.83186858233 113 117 116
-1005.79047587768 443.777059522425 2348.24635904203 81 85 84
-998.381468284479 441.880902188632 2359.429237884 176 180 179
-990.010313397348 439.822880904911 2370.9086759139 189 195 193
-983.468546928899 438.087422331735 2381.61959118913 137 143 141
-969.432621130566 435.059541609385 2395.07863030241 52 56 55
-964.691119417614 433.646287862039 2404.96735147633 31 35 34
-958.989767173391 432.071147618086 2415.15735346692 38 42 41
-951.387801057489 430.172578043219 2425.98462101524 106 110 109
-938.124284968611 427.304231701273 2438.79743840029 178 182 181
-931.390837837314 425.56638718295 2449.15510050673 177 181 180
-923.68720210249 423.666566299279 2459.79500280586 52 56 55
-924.431810508676 423.22083398826 2467.37483005971 85 89 88
-925.167715715646 422.774933370467 2474.939104175 120 124 123
-925.895267197334 422.328900038844 2482.48797435752 180 184 183
-926.614364978121 421.88273649592 2490.02125748646 151 155 156
-930.167139152157 421.921427565306 2496.567091757 171 175 176
-932.770464805312 421.798378163838 2503.43338194968 167 171 172
-933.470990508387 421.35193256931 2510.93191858086 164 168 169
-933.211510450822 420.743604128726 2518.73195587541 159 163 164
-932.941237762364 420.135163828347 2526.51160567266 164 168 169
-932.659966063141 419.526570393114 2534.27098023411 171 175 174
-933.322740255292 419.079566267003 2541.70042123982 173 177 176
-933.020735131209 418.470685313965 2549.42157679249 166 170 169
-933.665348685842 418.02342430689 2556.81753982725 140 144 143
-933.342707734737 417.414271770413 2564.50066066314 143 147 146
-934.929452530963 417.128544035365 2571.5631519008 154 158 157
-932.664133330135 416.195494501286 2579.80603360148 139 143 142
-932.308464064805 415.585904345994 2587.42827774826 123 127 126
-931.94184979255 414.976183857181 2595.030352839 113 117 116
-931.564234607304 414.36632498303 2602.61215363091 112 116 115
-928.275222295446 413.270676722246 2611.03868382885 116 120 119
-925.935886231982 412.336755065949 2619.14466852313 108 112 111
-924.549471663222 411.56449697837 2626.93757008881 114 119 115
-928.002691927637 411.601648024298 2633.29984346243 121 126 122
-933.399109765283 411.962643163275 2639.10329519229 114 119 115
-931.987595605407 411.190064030643 2646.84993749153 126 131 127
-924.715944178384 409.445655449173 2656.21576988066 124 129 123
-926.196973512815 409.158587603819 2663.08342812242 134 139 132
-1304.33158837871 517.298769574202 1806.96229077513 215 217 214
-1294.79536565812 514.821424301218 1822.5177592861 194 196 193
-1299.2167977863 514.873679712428 1830.66529289501 197 199 196
-1292.24670104084 512.869904210427 1844.7378449878 171 176 172
-1296.65099328521 512.921811490659 1852.853750537 155 160 156
-1286.99324025264 510.442742052346 1868.1851841675 168 173 169
-1292.25673592218 510.652475212206 1875.81347941961 152 157 153
-1286.94471681167 508.963566511241 1888.80062693308 165 170 166
-1285.13512758351 507.907189465587 1899.95939118671 160 165 161
-1276.23458846251 505.584594769681 1914.6152309058 169 174 170
-1273.4921823602 504.369234581691 1926.12586889756 164 169 165
-1271.61553184574 503.311852157553 1937.16099288803 167 172 168
-1267.94436376946 501.937595930598 1949.030484268 163 168 164
-1260.69239799974 499.929784402728 1962.58341414814 160 165 161
-1256.07808923928 498.396468300715 1974.78526457936 171 176 172
-1250.54562044027 496.704452575755 1987.36552635626 163 168 164
-1248.55691026399 495.64541444661 1998.19405430499 165 170 166
-1242.07709165029 493.794260985765 2011.0994146048 161 166 162
-1232.87853138373 491.467570873493 2025.20590755715 164 169 165
-1224.53737288388 489.298699877732 2038.8224830884 165 170 166
-1218.85481642915 487.604612539521 2051.12608334139 165 170 166
-1219.44111624077 487.019083785589 2060.48801602787 159 164 160
-1220.91749865747 486.591787358033 2069.41975732664 163 168 164
-1216.06964501691 485.055169476549 2081.19108325479 161 166 162
-1211.19533149296 483.518181114224 2092.91363322475 160 165 161
-1206.294551454 481.980818499047 2104.58739390549 168 173 169
-1202.27346762451 480.601586686942 2115.81183019428 157 162 158
-1192.78347303719 478.270933103017 2129.38163467345 152 157 153
-1177.8014038692 474.988635501318 2145.25363377412 156 161 157
-1168.22465568922 472.656867605681 2158.66354749215 163 168 164
-1166.81123515612 471.751661456011 2168.48109491719 169 174 170
-1162.64338931411 470.370456721205 2179.43501582423 166 171 167
-1160.27970123146 469.306107635501 2189.57229396234 162 167 163
-1147.8289214092 466.496848597628 2203.89765023464 164 169 165
-1140.83065695636 464.638740427895 2215.84689849946 166 171 167
-1131.96454357207 462.462898107968 2228.49588992284 168 173 169
-1123.06174006305 460.286628153909 2241.07676867901 170 172 171
-1103.07607940375 456.20595375376 2258.08116746091 174 176 175
-1071.96102851971 450.220381765792 2279.42285092383 147 151 150
-1055.51590694538 446.772646623091 2294.66958303186 161 165 164
-1024.22292645252 440.784931797875 2315.68388137155 33 37 36
-1012.27018982738 438.129183158972 2328.85609012496 49 53 52
-1005.83461208425 436.42528311053 2339.77179613291 92 96 95
-998.441506563469 434.562238610979 2350.99387951599 131 135 134
-991.016841327233 432.698834956472 2362.15730658246 75 79 78
-980.767623106288 430.358664108802 2374.32789842065 181 187 185
-970.47908464053 428.018038000481 2386.4255320137 152 156 155
-954.550057167689 424.72405217178 2400.55289159578 199 203 202
-952.587401005819 423.811731396633 2409.35865935028 37 41 40
-950.608792899636 422.899233631366 2418.13453110397 63 67 66
-941.114852717214 420.715660308292 2429.62650977468 182 186 185
-934.400184483239 419.008270653729 2440.02786811923 180 184 183
-931.416094324631 417.936020465767 2449.02173776918 176 180 179
-928.413215246202 416.863528073487 2457.98097833614 172 176 175
-925.391604105128 415.790794153946 2466.90569459441 185 189 188
-923.294955546119 414.876722684923 2475.46449944547 181 185 184
-923.072207861958 414.280291164867 2483.33567192424 167 171 170
-925.677974723115 414.160596458488 2490.20695652731 168 172 173
-929.228108580834 414.199780498897 2496.74808302191 177 181 182
-930.879740899573 413.920998407399 2503.93149869492 169 173 174
-934.42598669833 413.960084446076 2510.46544486946 166 170 171
-935.116767472244 413.522099858724 2517.94910744886 158 162 163
-935.799134334804 413.084007692139 2525.41726296085 169 173 174
-932.656467706999 412.00966235973 2534.11885153586 170 174 173
-934.272244247128 411.73030368763 2541.23665275282 172 176 175
-933.968805216438 411.132761764554 2548.95858097709 159 163 162
-936.528294895573 411.012274053085 2555.74501918093 140 144 143
-938.125508341167 410.732674059819 2562.82810267033 141 145 144
-938.756105368126 410.2938657041 2570.20082864857 145 149 148
-936.492524236856 409.377584813696 2578.45194966312 132 136 135
-935.176146126545 408.620255259037 2586.37764611988 119 123 122
-938.668603712241 408.658490282403 2592.81241005166 112 116 115
-939.263016375992 408.21921041857 2600.11844460044 109 113 112
-940.816023594197 407.938986109862 2607.12054128209 110 114 113
-939.458341596804 407.181142548834 2614.97011779203 111 115 114
-943.904907726499 407.378335391249 2621.09266387477 112 117 113
-955.150061507716 408.690062503799 2625.24961194443 112 117 113
-969.332138507922 410.479736117332 2628.60641922068 104 109 105
-922.71806298772 401.796801021151 2656.58603151762 128 133 127
-1293.23556883174 506.628508958932 1802.38062150639 186 188 185
-1287.19395523927 504.816270863345 1816.10311911679 189 191 188
-1283.74285624574 503.469818081862 1828.38571872444 175 177 174
-1286.39538009931 503.211047902976 1837.41647854998 170 172 169
-1285.53619220785 502.330369407925 1848.26124101836 155 160 156
-1289.92878438394 502.382233382438 1856.35561498722 152 157 153
-1287.28760326042 501.190212874363 1868.05893865224 158 163 159
-1289.90838019254 500.930824604291 1877.03112423158 146 151 147
-1282.82381586784 498.960718217345 1890.90327460734 166 171 167
-1277.47154011556 497.301216123983 1903.82472176903 163 168 164
-1270.32148750952 495.330215416007 1917.57615832169 164 169 165
-1268.45175905158 494.292097081495 1928.62980635622 165 170 166
-1268.33750145703 493.564827664693 1938.77596544135 168 173 169
-1265.54516618252 492.370615745279 1950.2006300775 164 169 165
-1259.17303987599 490.55365708084 1963.31433925389 161 166 162
-1254.55133863082 489.047526066008 1975.51076869182 161 166 162
-1249.01113444492 487.385409424047 1988.08579497201 156 161 157
-1247.01608083463 486.345477418607 1998.90840180694 164 169 165
-1242.31793328889 484.838284663851 2010.96391328137 164 169 165
-1234.904986336 482.863691770614 2024.23075898276 163 168 164
-1229.25279208069 481.20004212275 2036.59935411257 156 161 157
-1222.67272501406 479.380274918743 2049.3297777555 161 166 162
-1220.56135168115 478.338714033233 2059.93796158751 153 158 154
-1219.33264662885 477.452604956255 2070.1014815774 163 168 164
-1211.76943336425 475.476001104045 2083.09135541399 167 172 168
-1209.59565602726 474.433556773889 2093.58450124153 162 167 163
-1206.49786553553 473.235037155473 2104.44658690472 162 167 163
-1202.47252450152 471.880466681299 2115.67010536279 162 167 163
-1193.88375927142 469.746460235805 2128.84177151225 158 163 159
-1181.62180993161 466.988716868755 2143.52940906015 153 158 154
-1172.04369866708 464.697873808036 2156.94912278429 157 162 158
-1168.808496588 463.497553587841 2167.55743777792 167 172 168
-1162.81284113878 461.829326510619 2179.29296866105 165 170 166
-1158.61661473487 460.472468113615 2190.20201400447 163 168 164
-1146.15563474432 457.712164450478 2204.5233322296 165 170 166
-1140.98301057734 456.198631012798 2215.70428796688 167 172 168
-1137.62039969736 454.996620031207 2226.07776651307 168 173 169
-1122.28244920841 451.767027601149 2241.31108458504 165 167 166
-1098.6015676398 447.133064463691 2259.81311882878 160 162 161
-1072.07599998811 442.030278250177 2279.28666988473 152 156 155
-1036.22986186535 435.366566339813 2302.2980957835 174 178 177
-1010.44372481737 430.417624161776 2321.06255507517 37 41 40
-1006.79833974319 429.212111058719 2330.91541143666 186 190 189
-1006.84106438577 428.630479455557 2339.2787823004 168 174 172
-994.800738672814 426.020053948433 2352.30352839027 120 126 124
-988.29500359195 424.345433336619 2363.09951146341 178 184 182
-976.173034774643 421.734006076246 2375.97379976002 161 167 165
-968.669015016602 419.902521848486 2387.00087825147 181 185 184
-956.463915526323 417.290051075534 2399.72246453114 177 181 180
-953.565388578971 416.238300575212 2408.87986520817 179 183 182
-945.966195134687 414.405642392439 2419.73154891617 180 184 183
-938.335014049788 412.572549710085 2430.52477510546 174 178 177
-932.550233419672 411.0514238626 2440.57758036933 182 186 185
-932.380637820323 410.467053439242 2448.54963200065 161 165 164
-928.43355444577 409.257726119852 2457.84646320053 123 127 126
-926.351190246225 408.36059674147 2466.43613019381 171 175 174
-923.308083331159 407.306967583058 2475.32756125843 180 184 183
-926.86462519606 407.34680035179 2481.8806683322 162 166 165
-927.580265485933 406.917842144333 2489.41276651514 172 176 177
-930.183645204047 406.801313493334 2496.28061282728 171 175 176
-928.036964878993 405.903294478851 2504.75222745847 165 169 170
-932.528756377202 406.099170153317 2510.95705088989 162 166 167
-932.262475426794 405.513439700029 2518.75137579803 162 166 167
-934.845126951165 405.396582970052 2525.58100052476 170 174 175
-932.651830872816 404.497953457933 2533.96669670233 172 176 175
-934.265783075171 404.224557677088 2541.08243155376 163 167 166
-935.873673083787 403.951047196907 2548.18748667779 150 154 153
-939.392573223303 403.990228609346 2554.67116788335 137 141 140
-940.031776697531 403.5601903097 2562.06236002838 137 141 140
-939.701665355065 402.973638867236 2569.73853808234 141 145 146
-937.435899148014 402.074079903556 2577.99066898289 139 143 144
-938.044715789051 401.643653905154 2585.32585761576 132 136 137
-942.504691044924 401.838966058592 2591.47199571766 110 114 115
-947.932442398362 402.190704669909 2597.33079610177 107 111 112
-951.429976603098 402.229535636959 2603.77507607389 113 117 116
-956.86439238177 402.581355495541 2609.6456537391 117 121 120
-965.213158554264 403.402717203933 2614.67305610338 149 153 152
-982.316150860939 405.632981724278 2617.18955174185 167 171 170
-992.646295056475 406.767817872951 2621.72523489149 188 193 189
-1315.98012461894 502.671043400341 1768.99838774664 118 115 110
-1296.08384177505 498.449559247019 1790.35492697338 166 167 162
-1282.21703874705 495.295975695247 1808.31681076244 173 174 169
-1279.64519911809 494.126784053918 1820.15453119545 162 164 161
-1277.92654678136 493.109965808238 1831.49294537697 151 153 150
-1284.07076733817 493.467494116268 1838.67070001214 166 171 167
-1285.83519906113 493.061287917938 1848.13855874936 140 145 141
-1290.22650361536 493.113228885463 1856.23058770046 156 161 157
-1286.70153557385 491.790119133032 1868.38434841403 145 150 146
-1287.55740862651 491.230656705173 1878.24991410659 146 151 147
-1283.99174984101 489.906970079899 1890.32866364994 151 156 152
-1278.63564648329 488.277339742687 1903.25205421925 155 160 156
-1271.48106460178 486.341623821399 1917.00577149377 153 158 154
-1269.6089035693 485.322588013438 1928.06068410147 154 159 155
-1266.83096413542 484.150428795627 1939.51845702727 153 158 154
-1264.92033211879 483.130811116403 1950.50294374839 159 164 160
-1260.32147359423 481.65226954713 1962.74968184381 152 157 153
-1252.13118667802 479.561724244329 1976.66678766242 158 163 159
-1249.25971063197 478.38828130936 1987.95214367445 157 162 158
-1244.57923558182 476.90864228424 2000.04844407997 154 159 155
-1238.08193560722 475.122721363723 2012.94126978207 149 154 150
-1230.65664336661 473.183416202929 2026.19602202051 160 165 161
-1226.7882421366 471.855622256405 2037.71673788807 156 161 157
-1224.69432385108 470.83353213467 2048.36288000481 149 154 150
-1227.08386107989 470.576300194444 2056.90991784661 149 154 150
-1224.95902125206 469.553732872629 2067.49955035272 132 137 133
-1218.30090918278 467.765706844987 2080.09547601731 137 142 138
-1211.61091798233 465.977232837728 2092.63313967809 157 162 158
-1206.70054108675 464.494523759675 2104.30568547018 157 162 158
-1201.76369434729 463.011466240426 2115.92944361271 166 171 167
-1191.35118107066 460.609390501086 2129.89588927263 162 167 163
-1184.53473462456 458.819323914432 2142.19999552928 150 155 151
-1173.1322904957 456.263083857465 2156.41472103801 152 157 153
-1165.33371684516 454.318945879291 2168.98148741848 164 169 165
-1154.76081642364 451.914891963537 2182.65185277173 164 169 165
-1149.63383272517 450.429400406858 2193.92518243573 165 170 166
-1140.81616286743 448.330732343789 2206.68647826914 167 172 168
-1135.63094938577 446.844499375288 2217.85248979374 168 173 169
-1127.66336925022 444.898226991649 2230.10778059316 168 173 169
-1111.38264734944 441.57233495109 2245.69301021992 129 133 132
-1083.06860208828 436.253315785746 2266.04230207944 108 112 111
-1051.89559832223 430.473385770318 2287.33974478529 52 56 55
-1025.24239554652 425.458750432626 2306.60506043263 56 60 59
-1004.05348150459 421.36293689255 2323.50670364063 172 176 175
-999.468555959084 420.026027049012 2333.70685939285 170 176 174
-995.787560793004 418.842178026087 2343.50023291193 182 188 186
-989.298227554371 417.197995091643 2354.33503097345 174 180 178
-985.570407164004 416.013518263987 2364.04259982298 169 175 173
-976.231983707672 413.908514293546 2375.84372531805 178 184 182
-968.722227101317 412.109826093798 2386.87061940626 187 191 190
-957.444161745373 409.697120189158 2399.24196036672 173 177 176
-950.801393279831 408.051047361005 2409.7939947579 101 105 104
-942.255867582774 406.097722901682 2420.98421765541 102 106 105
-930.861873292535 403.683614353028 2433.14192237786 107 111 110
-931.63721304803 403.26409186123 2440.78665627578 105 109 108
-931.463631151257 402.690982064328 2448.75476268933 123 127 126
-928.453193977857 401.657224623349 2457.71175096497 91 95 94
-922.594302187791 400.162685105992 2467.63624737625 136 140 139
-922.376008064321 399.588996711319 2475.52194586141 173 177 176
-926.875693234936 399.782846537111 2481.74118222294 168 172 171
-929.483246156373 399.669613764914 2488.61769495713 172 176 177
-931.138941425529 399.402723601184 2495.81266353547 170 174 175
-928.040486062799 398.367833096589 2504.60742958716 163 167 168
-930.629197725019 398.254322412913 2511.44920623877 162 166 167
-932.262269781452 397.987116688155 2518.60247171092 164 168 169
-935.796726227268 398.027100083687 2525.11500497157 169 173 174
-934.556305459512 397.298852944191 2533.18914652105 172 176 175
-934.258150241021 396.724047333397 2540.92813417464 161 165 164
-936.821612374892 396.610163963139 2547.72336026822 151 155 154
-939.381778694615 396.496226574044 2554.51250851445 141 145 144
-942.898675783296 396.535927011298 2560.99266182634 139 143 142
-940.646927131984 395.653295841487 2569.27566411309 134 138 139
-940.304351827996 395.077950236189 2576.93228850402 134 138 141
-942.8423127952 394.963672677083 2583.68099900866 132 136 139
-949.237996193394 395.464418515942 2589.24950888217 119 123 124
-956.60741970121 396.119030620801 2594.53987155069 112 116 117
-963.986275072076 396.773708837046 2599.848105259 115 119 120
-972.343780843227 397.582276666762 2604.8877339466 107 111 110
-989.447065765535 399.775390819853 2607.39359585414 152 156 155
-1000.75568207989 401.045850518482 2611.65485309777 181 185 184
-1006.24681496184 401.39347279702 2617.62848154864 183 188 184
-1001.99996118408 400.202471848902 2626.37949148598 150 155 151
-1317.5984700917 495.619729130923 1736.01503000461 117 106 100
-1312.55975309 494.024222082671 1749.53291775414 129 120 113
-1310.96534682314 493.028096456423 1761.10556156269 138 131 125
-1302.39684574904 490.832136698668 1776.41016156472 116 111 105
-1289.43517776715 487.885829207023 1793.98428664007 176 175 170
-1282.52605996659 485.988727687495 1808.20106925525 167 168 163
-1281.69682180337 485.141153887149 1819.11087001565 159 161 156
-1283.47602454384 484.743397843807 1828.60843648652 155 160 154
-1285.24733623693 484.345509056656 1838.09144996459 168 173 169
-1287.01072620173 483.947490853389 1847.55985502275 143 147 146
-1288.76618910786 483.549343170531 1857.0136418384 149 153 152
-1288.75400579225 482.85094279881 1867.35571141206 132 136 135
-1287.84727488993 482.002232015795 1878.12264699073 140 144 143
-1286.92475973976 481.15330003603 1888.86048594308 143 147 146
-1278.03197895597 478.953055850397 1903.5678922987 153 157 156
-1272.64058609124 477.352883842979 1916.43523778001 145 149 148
-1270.76598206127 476.352928590933 1927.49139519857 149 153 152
-1269.7605720501 475.502876546774 1938.0764385704 154 158 157
-1264.29425757948 473.901714504661 1950.80569184284 156 160 159
-1261.46982659687 472.750735177086 1962.18483182624 142 146 145
-1254.16622175699 470.848431991978 1975.67451664672 151 155 154
-1252.18611835917 469.847061648992 1986.53621595726 145 149 148
-1247.50474390366 468.39470718912 1998.63906724066 146 150 149
-1241.90153636867 466.791767297971 2011.11601458796 149 153 152
-1233.57882107364 464.737624280132 2024.80050742878 156 160 159
-1231.50624024019 463.735036381812 2035.49175774045 148 152 151
-1231.2138121071 463.032783625175 2045.31775178239 143 147 146
-1233.61023366657 462.781296903576 2053.87968311586 153 157 156
-1233.29510016093 462.078744266777 2063.66332341629 138 142 141
-1223.93293395799 459.872476690869 2077.50563309968 136 140 139
-1211.81757048694 457.214658402094 2092.49291836227 140 144 143
-1203.2786504053 455.157761697627 2105.77894311457 151 156 152
-1195.61006361294 453.250792846647 2118.59595655759 160 165 161
-1187.90718768794 451.343393521236 2131.34977658518 163 168 164
-1179.26003971999 449.28511382224 2144.43683888291 160 165 161
-1175.13202612982 447.978628373548 2155.48598399092 156 161 157
-1164.59282464151 445.618616385793 2169.23207640956 154 159 155
-1154.92521464534 443.408545387727 2182.51147553358 157 162 158
-1147.04824090227 441.498971340813 2194.94444396705 164 169 165
-1142.80250077127 440.191002753471 2205.77662250467 166 171 167
-1136.69725255402 438.581648724985 2217.32880093894 166 171 167
-1132.40104245586 437.273040362584 2228.06796361705 166 171 167
-1112.43668463061 433.404812613398 2245.17542941196 77 81 80
-1070.28727829016 425.922285397853 2271.15286922993 171 175 174
-1032.62195149894 419.191153463714 2295.02779966287 200 204 203
-1016.09403809676 415.922198651513 2310.17602555641 173 177 176
-1006.91195042633 413.85741596305 2322.2767764408 165 169 168
-1003.25310628571 412.695881830144 2332.11810453708 128 134 132
-997.717015639807 411.232824968308 2342.64575857203 139 145 143
-989.366423551703 409.317485494321 2354.20592278633 96 102 100
-984.704094728268 408.004415818812 2364.27038480788 128 134 132
-974.426100010072 405.786923077107 2376.42494333615 90 96 94
-965.041964224832 403.719671610985 2388.15334850907 164 170 168
-952.817356054293 401.19983934895 2400.86640889473 167 173 171
-944.291208918936 399.282365042879 2412.10305340054 175 181 179
-936.667781867794 397.515207946412 2422.93036890169 188 194 192
-929.951177424158 395.898444650893 2433.35541947467 180 186 184
-928.843389893367 395.185923070439 2441.67873096712 181 187 185
-926.781087290673 394.322452731708 2450.31592112439 170 176 174
-923.760403327917 393.307987594806 2459.25986529292 173 179 177
-921.664444366472 392.444092470216 2467.83502753191 178 184 182
-921.442120351583 391.881671568964 2475.71670268704 169 175 173
-925.93951331299 392.073315204111 2481.9310598098 169 175 173
-927.596654958823 391.81241580029 2489.12998584313 169 173 174
-929.247706695663 391.551395827535 2496.31817941055 166 170 171
-928.043054751913 390.837659887641 2504.46247017059 163 167 168
-930.629891400236 390.727332396385 2511.30225982756 165 169 170
-934.166209656707 390.767891918762 2517.81839055081 168 172 173
-937.701932101691 390.80843511359 2524.33342055814 169 173 174
-937.416124721249 390.245165924169 2532.09808313867 168 172 171
-936.162894262643 389.530805346611 2540.15284131676 157 161 160
-939.684947073902 389.571150679066 2546.64267087555 150 154 153
-942.247073861518 389.460460620652 2553.43690556474 145 149 148
-944.806168547597 389.349754808138 2560.22505468515 142 146 145
-945.438623182158 388.936943585662 2567.6090150323 144 148 151
-947.025775119911 388.675088871581 2574.67892995782 138 141 146
-949.571019843199 388.564162697059 2581.44204444956 135 138 143
-955.009970022041 388.906432795019 2587.31808988704 141 145 148
-962.386926686198 389.550886372135 2592.61975676163 144 148 151
-972.677936771736 390.648736015489 2597.07234252486 144 148 149
-980.078122922337 391.293440358837 2602.41680806831 167 171 170
-995.25372521617 393.147275449108 2605.50538480675 172 176 175
-1006.57170378587 394.396897892074 2609.77709049451 195 199 198
-1012.06967289659 394.739765497274 2615.76236642847 184 189 185
-988.335219581219 390.547604164445 2630.06812456975 151 156 152
-1346.68805962374 493.189067907649 1687.26770828818 65 59 59
-1331.39097838471 489.858584137726 1706.77595502911 103 89 80
-1319.49276993541 487.116133024989 1724.25197635435 118 101 91
-1308.41080144833 484.520219803066 1741.15898369593 119 105 94
-1303.35284694507 482.954268100404 1754.64987385097 112 100 88
-1303.47734363995 482.27131094956 1765.24847121636 103 94 85
-1298.3699337932 480.704722321407 1778.64821244663 91 84 76
-1289.74911433234 478.548689118051 1793.86910040948 164 164 156
-1286.32412903884 477.275874540688 1806.22136819743 139 138 133
-1288.11798840842 476.886489736305 1815.7484082891 134 136 131
-1290.7789583084 476.644287408702 1824.79968423762 128 133 127
-1292.55834280969 476.254684074059 1834.30003669242 111 117 113
-1289.06382740971 474.98091777233 1846.52464398597 143 147 146
-1289.94065285803 474.443639670869 1856.43541624987 141 145 144
-1288.16611548026 473.46409830098 1867.6817533625 120 124 123
-1290.78090414023 473.221227868221 1876.64789268274 129 133 132
-1294.27333023956 473.125696698436 1885.1571716684 148 152 151
-1284.50032735546 470.818837080077 1900.32842697275 149 153 152
-1278.22750431625 469.101216486822 1913.6541417751 138 142 141
-1273.69662874504 467.678073165185 1926.04257233821 140 144 143
-1272.69172387053 466.844442709089 1936.63348306868 150 154 153
-1268.1134737326 465.420694626008 1948.93460130704 147 151 150
-1263.50891555073 463.996612954096 1961.18723394184 149 153 152
-1257.98589862821 462.424661601236 1973.82148959229 142 146 145
-1257.79388937376 461.737538525093 1983.83621782125 139 143 142
-1256.69381179032 460.902671343904 1994.25171668941 141 145 144
-1250.20242813502 459.182254198015 2007.17512195682 135 139 138
-1240.98810229165 457.018760231661 2021.30169568772 153 157 156
-1234.42963879026 455.297509212743 2034.10147813247 162 166 165
-1234.13826289661 454.609105009603 2043.9330677446 140 144 143
-1234.73429787605 454.068093589029 2053.32679673007 142 146 145
-1233.51508469541 453.231726530634 2063.52222823878 138 142 141
-1230.47216265373 452.099805096867 2074.50525446749 137 141 140
-1221.07326992647 449.934013589534 2088.29168515026 134 138 137
-1211.63472070881 447.767698108212 2102.00552699542 140 145 141
-1199.43412387614 445.157854909816 2116.85047970445 151 156 152
-1188.09484710308 442.69509749672 2131.20949370629 160 165 161
-1180.35182151483 440.822719436525 2143.90000282583 164 169 165
-1176.22064043045 439.540904568493 2154.9507413024 157 162 158
