ply
format ascii 1.0
comment KinectMotionCapture
element vertex 783
property float x
property float y
property float z
property uchar red
property uchar green
property uchar blue
end_header
-829.324752249223 -161.284845423258 2361.03193868876 20 23 14
-818.63131075253 -160.584413626415 2354.3037909783 28 31 22
-812.668693573288 -160.494574604541 2361.81030201768 29 32 23
-802.349503562932 -159.837367218738 2356.00946957403 27 30 21
-792.997326113502 -159.303172053701 2353.04792670043 28 31 22
-782.155239737077 -158.568987963794 2345.30977768404 23 26 17
-772.878401257102 -158.037967923126 2342.32062176532 23 26 17
-763.63282318258 -157.508251470206 2339.32000940956 23 26 17
-757.976986353488 -157.45943918028 2347.77851633175 24 27 18
-755.524509813846 -157.848094340375 2366.7729960702 24 27 18
-748.031494767837 -157.557466839493 2369.51741814152 23 26 17
-735.917836408162 -156.632340397598 2356.92265039278 21 27 17
-723.600523355792 -155.670934546191 2343.33755053346 22 25 16
-713.357075963131 -154.989324900844 2336.44448290435 20 23 14
-711.318472496919 -155.45150616726 2357.41640613044 15 18 9
-704.725983778182 -155.281746587499 2363.02443650818 14 17 8
-701.430867730389 -155.581554292327 2380.19867003232 16 19 10
-693.957957521405 -155.292464361151 2382.93567124924 20 23 14
-688.381918837187 -155.276314186032 2392.42927633734 19 22 13
-687.063664325544 -155.880845426206 2417.39520845808 15 18 9
-680.313486190411 -155.705518624114 2423.06095337856 14 17 8
-671.969650014357 -155.297685316435 2422.92343106627 15 18 11
-672.104145819233 -156.985116100742 2485.67863984535 5 7 2
-664.1535028762 -156.649786021128 2487.52589765588 12 15 8
-655.956144603302 -156.276534730977 2488.39935569473 14 17 10
-650.523923719713 -156.323767109312 2499.96903653486 15 18 11
-643.807684511906 -156.178973998509 2506.68695689541 12 15 8
-633.883872731635 -155.539756990207 2500.74111128984 8 11 2
-629.588735926642 -155.773761354548 2517.21684433473 11 14 5
-627.384043519405 -156.345205053117 2542.50734914048 14 17 8
-623.637332764232 -156.686130627494 2561.97567404715 15 18 9
-614.164848790154 -156.121747189495 2557.99356456797 16 19 10
-606.124016747386 -155.783829128558 2559.87404103802 24 27 18
-597.169937191812 -155.296663705592 2557.83086201753 21 24 17
-588.924672986898 -154.922515340886 2558.72179376627 34 37 30
-857.531163472706 -168.864775223452 2296.87994595674 15 18 11
-864.619245312851 -170.510854152705 2341.11241507206 14 17 8
-868.209437191783 -171.709294395359 2375.98299442999 14 17 8
-855.71869237048 -170.755234680607 2364.59372134785 13 16 7
-848.136034155702 -170.459681988366 2367.37108576244 13 16 7
-823.464018593548 -168.56416971223 2344.47939911799 16 19 10
-823.189203713134 -169.269969955717 2369.05856952689 23 26 17
-814.378566780728 -168.802409737343 2368.02860371319 25 28 19
-802.496734520132 -167.903855731528 2357.48071237868 24 27 18
-789.153946437158 -166.792756044356 2342.14638827322 25 28 19
-780.774347914819 -166.373438493433 2342.02272626887 20 23 14
-773.918175337229 -166.169301594307 2346.66260048125 20 23 14
-767.35113427415 -166.007690214866 2352.2607699753 24 27 18
-763.140103460136 -166.187125742279 2365.51013844344 26 29 20
-758.579382242897 -166.321907224467 2377.82337554909 25 28 19
-749.89056434514 -165.859904384416 2376.74872899219 22 25 16
-734.872062701454 -164.466158711482 2354.57817837227 22 25 16
-726.56806967106 -164.05048822796 2354.42677087631 19 22 13
-717.429504670103 -163.508942000917 2351.38816922746 19 22 13
-715.908654855444 -164.105298340796 2374.29521616455 16 19 10
-709.269389905859 -163.941669489439 2379.91952522512 15 18 9
-699.85705069577 -163.358599904508 2375.9169727941 18 21 12
-695.946890980261 -163.612996220562 2391.18473436203 18 21 12
-693.595100668402 -164.115119990443 2412.26743640503 18 21 12
-684.442993438172 -163.573640031214 2409.23375015662 15 18 9
-680.103010026099 -163.780466447211 2423.59471580279 14 17 8
-676.491278022853 -164.109223066541 2440.8815492468 15 17 12
-673.324540252307 -164.517760433818 2460.1343010751 9 11 6
-672.392523178539 -165.293867571354 2488.14687597184 6 8 3
-669.796121076655 -165.818327323557 2510.38332561632 13 16 9
-661.031906945167 -165.354867877876 2509.33592894056 14 17 10
-649.036642307084 -164.360556790328 2495.63655385585 13 16 9
-641.587027039902 -164.104256957198 2499.42942762301 10 13 6
-628.496562679718 -162.911612606214 2480.80965449073 8 11 2
-625.462915141522 -163.388398505113 2502.14201265366 12 15 6
-620.413413014684 -163.537469711577 2515.69832027458 15 18 9
-618.632194384397 -164.250264654336 2542.95766275687 15 18 9
-614.610502178449 -164.595431156634 2561.45876822391 16 19 10
-605.630489780098 -164.093092587025 2559.42641072249 24 27 18
-606.784469939358 -165.356929987742 2600.51051276645 18 21 12
-590.930801198899 -163.651979865376 2569.06712153702 34 37 28
-890.93229534558 -180.744336326415 2368.11177461407 10 13 6
-867.695988319137 -178.246086537998 2326.6111910865 16 19 12
-881.286568856969 -180.943369832406 2389.73413945414 16 19 10
-864.134887048155 -179.292228433402 2365.15840550488 17 20 11
-856.866099481322 -179.042602285972 2368.88481993212 16 19 10
-846.695331841352 -178.375085007217 2364.09739420271 15 18 9
-834.969408200431 -177.47769334782 2354.5595782534 17 20 11
-834.713617683875 -178.246937759072 2379.12704943269 17 20 11
-820.201592653905 -176.936259319152 2361.03268853817 22 25 16
-811.412048206225 -176.458461668599 2359.99583146325 22 25 16
-795.535213605351 -174.925402375753 2337.08084633331 19 22 13
-781.942864017716 -173.718595463442 2320.77786232017 20 23 14
-777.571043702818 -173.88749826477 2333.01989012591 20 23 14
-773.44971932856 -174.10014739409 2346.23441316157 19 22 13
-769.272286548485 -174.310686802529 2359.46922736473 21 24 15
-763.557870908353 -174.292048372894 2367.94674150293 26 29 20
-757.519503626473 -174.226993842875 2375.47865106461 25 28 19
-747.963136586824 -173.618412554503 2371.53035425172 22 25 16
-734.115706599839 -172.33451769172 2353.19275446117 21 24 15
-725.242771560557 -171.820479604763 2351.12212017598 18 21 12
-724.614083049688 -172.610299399866 2376.89008299245 17 20 11
-721.05484235941 -172.947241789244 2393.09092480958 17 20 11
-712.415972381213 -172.476480294945 2391.99853684692 18 21 12
-705.176814792365 -172.229752827155 2395.71422118567 18 21 12
-706.12662403898 -173.318674344467 2428.3524910572 14 17 8
-702.58950412924 -173.690766547018 2445.60919969193 14 17 8
-690.93662718001 -172.730192411158 2433.91598926967 16 19 10
-680.157835039254 -171.905405276932 2425.09486868216 14 17 8
-679.955690835975 -172.848215035798 2454.96304215622 14 16 11
-680.652037965365 -173.961701072602 2488.75836144403 10 12 7
-673.453333775261 -173.751086732562 2493.52292468283 9 11 6
-665.990199365987 -173.49636519803 2497.32059137687 14 17 10
-662.311963216251 -173.89752542335 2515.69293584982 12 15 8
-652.051641815696 -173.161206754069 2508.80987275943 10 13 6
-641.348768413055 -172.339951184979 2499.96115588631 7 10 3
-633.647341842577 -172.04236968367 2502.78182638169 9 12 3
-625.946972706127 -171.744918836275 2505.60210281353 14 17 8
-618.967100275254 -171.577297198995 2511.3507229307 16 19 10
-616.717510636104 -172.271926052577 2536.64824607024 15 18 9
-610.361955652241 -172.230486454223 2545.36043059424 16 19 10
-604.208874988024 -172.230917622955 2555.0624456153 19 22 13
-606.973620735797 -173.900867040719 2602.99705650188 13 16 7
-901.830766675462 -190.531375147783 2399.67921241654 22 25 18
-888.474678421694 -189.3879069415 2386.48527549393 19 22 15
-861.369837624521 -186.171075224747 2333.64505595495 20 23 14
-853.526489380281 -185.828415098959 2335.45388263571 19 22 13
-848.282899698215 -185.880045246951 2344.82158238277 18 21 12
-844.290532685836 -186.126970467381 2357.98666418012 16 19 10
-824.422935491187 -184.803368573933 2349.30556114636 14 17 8
-815.646476496172 -184.314934958474 2348.26475213561 20 23 14
-805.333575210059 -183.583652621585 2342.46722383562 21 24 15
-790.433990976389 -182.124542918275 2322.39176465536 20 23 14
-779.94651656461 -181.350001388909 2315.59437306564 19 22 13
-775.282121345696 -181.498084743118 2326.8777189446 20 23 14
-772.981402041876 -182.031255432743 2345.80615565264 20 23 14
-768.204878217448 -182.175136483694 2357.13030483015 23 26 17
-763.086689579904 -182.269178563659 2367.51605216306 24 27 18
-756.460527992161 -182.121473381132 2373.1346531192 23 26 17
-751.565021973342 -182.260974936604 2384.50261774142 21 24 15
-736.819987068336 -180.771879259988 2363.30645693292 20 23 14
-730.777388072588 -180.720378608429 2370.83888137339 17 20 11
-727.25877546534 -181.096847062927 2387.02197917745 17 20 11
-724.791505998843 -181.660819998829 2407.07516197306 17 20 11
-716.114796806342 -181.177397631981 2405.9977320063 18 21 12
-716.021147469808 -183.190128868074 2464.54481078957 13 16 7
-712.113594467887 -183.551885721106 2480.87008095403 13 16 7
-700.636068571073 -182.593479422781 2470.1798058851 15 18 9
-688.170145842291 -181.450153899128 2455.59587139452 14 17 8
-676.848240113779 -180.497944854142 2444.84858608156 12 14 9
-676.78457574459 -181.55907526001 2475.72407338702 9 11 6
-668.331040290402 -181.121578201332 2475.62864711957 9 11 6
-668.308854256733 -182.221138453066 2507.55272043224 13 16 9
-659.550999749459 -181.735326422747 2506.50495390963 11 14 7
-645.317335933176 -180.230542299513 2484.05762026125 9 12 5
-638.637385737001 -180.118786931679 2490.75960840534 8 11 4
-634.140786381424 -180.421789807822 2506.23677807534 10 13 4
-632.000436779403 -181.182919623249 2531.48959260317 15 18 9
-625.430167659258 -181.112306756754 2539.21543576859 16 19 10
-617.887051512428 -180.85736376489 2543.0419252356 15 18 9
-612.685055668133 -181.059960152466 2556.64960099051 17 20 11
-597.68615298301 -179.342603621244 2529.16331079652 19 22 13
-610.144240539294 -183.053784176834 2618.22062036753 16 19 10
-598.336082710588 -181.973669922723 2604.45948203296 35 38 29
-904.692327872034 -199.247122785621 2408.64820798225 20 23 16
-881.689766630101 -196.540158295394 2368.14499992796 21 24 17
-864.850600787357 -194.781701973519 2344.53011620634 20 23 14
-851.42258507346 -193.549731813986 2330.30268891272 18 21 12
-852.025101607242 -194.556481921022 2356.67349719822 16 19 10
-846.38961786098 -194.57264707978 2365.11970642881 15 18 9
-838.490557976934 -194.225240288079 2366.94938768931 15 18 9
-819.521732035392 -192.069414818524 2335.60531308656 15 18 9
-807.015416600359 -190.952421055447 2323.16743478983 20 23 14
-801.440143244331 -190.971218476698 2331.59156871607 22 25 16
-797.68673272334 -191.297150224703 2345.73016940973 21 24 15
-788.055080554178 -190.646515994118 2341.81239947333 23 26 17
-775.423899799047 -189.485596578846 2328.35664745981 23 26 17
-770.406079166096 -189.605092912424 2338.70400676331 25 28 19
-763.855340082612 -189.468188757285 2344.29438893643 20 23 14
-756.697894358003 -189.229018083361 2347.97955980884 18 21 12
-755.988959346162 -190.106847533822 2372.70348248625 17 20 11
-748.18439027281 -189.763915204143 2374.49849408137 19 22 15
-743.843772039662 -190.028190961035 2387.78854519467 19 22 15
-735.734222985351 -189.634157308741 2388.63141260393 18 21 14
-730.466214182437 -189.744411876901 2399.07037197122 17 20 13
-724.035792305284 -189.652033522989 2405.68023507946 15 18 11
-719.253151117353 -189.860040735393 2418.06857904627 14 17 10
-714.144529693102 -190.016065154877 2429.51272982224 11 14 7
-707.626576605006 -189.920500434278 2436.15463672306 14 17 10
-713.789459714606 -192.168577126236 2488.1439915573 14 17 10
-707.379186746851 -192.116719320483 2495.8102870127 12 15 8
-689.014804390621 -189.828327267047 2459.99011846132 12 15 8
-684.770628546543 -190.175798589788 2475.37221797466 9 11 6
-677.861016057933 -190.025967106515 2481.09396772071 7 9 4
-668.877710214778 -189.48057901616 2479.0658007013 7 9 4
-665.527449713192 -190.020507529381 2498.37506525286 9 12 5
-657.802364754786 -189.721044870695 2501.20447366537 8 11 4
-647.58112023061 -188.930842902443 2494.31153236449 9 12 5
-635.435014764336 -187.750851340366 2479.61441706829 12 15 8
-634.877848715238 -188.872155748037 2510.66467184273 14 17 8
-631.994939525031 -189.548739351691 2532.9937422845 16 19 10
-626.855420062331 -189.783259304525 2546.57630933973 15 18 9
-622.134529821164 -190.112877803633 2562.13296412033 16 19 10
-620.629070475309 -191.118878616525 2591.40310252234 19 22 13
-617.132247588408 -191.732509423375 2612.89342451692 21 24 15
-597.7227650357 -189.010404025019 2566.81937918944 20 23 14
-595.797087378751 -189.960891680108 2595.17983100391 28 31 22
-905.879386203889 -207.742135324263 2412.90897834179 20 23 16
-891.163455695048 -206.284290034283 2395.96661848184 21 24 17
-877.542811428309 -204.995435528445 2381.81321808503 18 21 12
-865.321045629293 -203.929502240418 2371.40146640518 19 22 13
-856.411162580237 -203.413507374811 2370.41121490427 16 19 10
-840.772400059562 -201.751643242011 2349.5528145579 14 17 8
-819.052905379188 -200.020955292898 2335.1756989908 17 20 11
-805.294321627151 -198.642968467206 2318.94602989025 21 24 15
-800.661705362588 -198.841029546202 2330.2140583825 22 25 16
-804.314446232763 -200.498201017687 2367.16041181404 20 23 14
-797.072839832774 -200.258073709152 2370.87648790528 22 25 16
-782.544126032274 -198.724072875348 2351.73848446163 25 28 19
-769.337427450834 -197.409971914049 2336.3700306998 27 30 21
-759.211728931958 -196.636804740415 2330.507644882 19 22 13
-753.864400095324 -196.723208419417 2339.91041324134 16 19 10
-748.774869035568 -196.86180612032 2350.28238640727 15 18 9
-752.943760958398 -198.707858291745 2391.29368498742 18 21 14
-746.53892531218 -198.626987068122 2397.89338342574 19 22 15
-740.685137210301 -198.651819884584 2406.41825683841 18 21 14
-733.386731771105 -198.410006225129 2410.15484308627 17 20 13
-726.924903193156 -198.327107422354 2416.77565648635 14 17 10
-718.498909593375 -197.873141273631 2416.67146584801 13 16 9
-716.418506343393 -198.634412994046 2438.70256589038 10 13 6
-708.23839648135 -198.232221109141 2439.57168624264 15 18 11
-711.142023878434 -199.987430525605 2479.9830009348 15 18 11
-706.088889124431 -200.2122230769 2492.46835889178 11 14 7
-683.764560242088 -197.02858906352 2442.15491997464 11 14 7
-686.648407923625 -198.825309317864 2483.6368455587 12 15 8
-679.975062175135 -198.734646572909 2490.3350968921 6 8 3
-671.995825874121 -198.382708093471 2492.19399687369 6 8 3
-666.314869112182 -198.49916714494 2502.78252760434 8 11 4
-662.862898121706 -199.08130684946 2522.1255624944 7 10 3
-647.845327634654 -197.276867182163 2496.78573805045 9 12 5
-643.598030950896 -197.701870480972 2513.22967780808 14 17 10
-635.369236892607 -197.298400041886 2514.11683773136 15 18 9
-629.812293662771 -197.462064028718 2525.72330423822 16 19 10
-623.253083189789 -197.418362794279 2533.44284455096 15 18 9
-618.089838343211 -197.681653292466 2547.03186114555 16 19 10
-613.808211179553 -198.147716670303 2564.55198694995 20 23 14
-609.9141599643 -198.713133787556 2584.05690793366 18 21 12
-598.146080157022 -197.540712301781 2570.28842678209 17 20 11
-598.244560825723 -199.019458291368 2607.47333697846 23 26 17
-913.41263499489 -217.363532245768 2435.04504622222 18 21 14
-900.296022088958 -216.134619899428 2422.83761065713 19 22 15
-884.301054471709 -214.390234709384 2402.11485934498 17 20 11
-874.30965950127 -213.686575658097 2398.33179828563 17 20 11
-857.878086879866 -211.835665147132 2375.64260699866 14 17 8
-830.020498733359 -207.926157750136 2318.86141876665 15 18 9
-822.563604683353 -207.635151634569 2321.5927452907 15 18 9
-826.803062808405 -209.458196823345 2359.38021741553 16 19 10
-832.106898666857 -211.502023120572 2401.03078210549 21 24 15
-814.810407371328 -209.438424422253 2374.40541666275 21 24 15
-804.458397928835 -208.631449279143 2368.62780896776 19 22 13
-799.658124317808 -208.847564140435 2379.95539148357 18 21 12
-789.04989217621 -207.985890883089 2373.2084499401 19 22 13
-775.787150743729 -206.617480637046 2357.86445637297 18 21 12
-754.57286867084 -203.729226213624 2316.72517795368 16 19 10
-751.32926507735 -204.230277017589 2332.79870041277 16 19 10
-743.619358639672 -203.8850927827 2334.55948742719 15 18 9
-742.885520038957 -204.887391238827 2359.28306712843 13 16 9
-747.215715658339 -206.893761721166 2401.29021798282 14 17 10
-744.774259679742 -207.605541352687 2421.3231238229 17 20 13
-749.87483891434 -209.821321115603 2467.30129867417 16 19 12
-735.413619633439 -208.182507060207 2447.07986971909 15 18 11
-725.518008702015 -207.438733132629 2442.19847721529 13 16 9
-715.664080340126 -206.69661547356 2437.30156059525 14 17 10
-711.846400204385 -207.175754101857 2453.58557423516 13 16 9
-705.334557298851 -208.402036514907 2491.05794523301 12 15 8
-687.737031414923 -207.35901063183 2488.9972724053 9 12 5
-679.749363006605 -207.003626109401 2490.85975040283 8 10 5
-673.31023168281 -206.977536781865 2498.53433260466 9 11 6
-668.628042398976 -207.333696128015 2513.00836708734 8 11 4
-655.318825878101 -205.829874936252 2494.49155361971 8 11 4
-655.590667775367 -207.275562200904 2528.41604648729 12 15 8
-643.358016557778 -205.99305678143 2513.75811134696 17 20 13
-635.61546030056 -205.692315799333 2516.59396419 16 19 10
-629.324203066068 -205.717083492841 2525.2777914811 15 18 9
-621.329301298158 -205.361759899677 2527.14263872735 15 18 9
-613.813882000506 -205.114817327868 2530.9587155497 17 20 11
-615.655331498603 -207.025375423342 2573.87735053104 17 20 11
-599.233919722345 -204.728250931824 2540.55180969472 18 21 12
-601.315409052045 -206.737926514573 2585.50911739809 21 24 15
-914.593545005214 -225.965340330215 2439.30024690865 22 25 18
-900.141105950426 -224.450350376989 2423.33301860169 17 20 13
-884.147540496266 -222.637583730033 2402.61491732116 15 18 9
-872.849782336886 -221.673605278247 2395.05966932757 16 19 10
-862.579700389918 -220.892373205702 2390.31716248362 14 17 8
-837.580837509011 -217.349820144417 2342.06911946157 15 18 9
-840.252306877736 -218.97507293832 2375.10818904615 16 19 10
-829.805655813717 -218.139526850043 2369.36712392991 18 21 12
-815.645030458096 -216.588694283052 2352.23001689215 21 24 15
-809.984542523081 -216.653027414513 2360.68167673307 21 24 15
-804.601830976632 -216.775766944365 2370.0945593617 16 19 10
-790.318903733422 -215.172731902089 2351.93901741011 14 17 8
-791.00173980365 -216.482940214123 2380.39111296563 17 20 11
-773.814438515383 -214.2912986365 2352.66892518971 17 20 11
-766.625138354425 -214.058500762681 2356.36544344243 16 19 10
-754.113900990847 -212.762431839336 2342.87630873655 16 19 10
-745.497294499508 -212.236316033947 2341.78000818419 14 17 8
-738.643507617193 -212.064257304355 2346.41659523477 13 16 9
-747.316037296945 -215.065005475061 2402.77060075435 13 16 9
-749.143582561957 -216.705387074863 2437.18171440379 14 17 10
-745.716137549801 -217.285116537565 2454.38290746658 15 18 11
-744.732375273914 -218.388062509732 2480.25625604639 14 17 10
-724.760382108191 -215.517653203534 2440.79762775119 14 17 10
-716.834405496923 -215.161373897213 2442.63750400967 15 18 11
-711.909775118732 -215.44515374699 2455.07172081513 13 16 9
-704.237219344539 -215.146378037453 2457.88199157091 12 15 8
-708.588464357508 -217.455990577337 2504.12534785287 11 14 7
-705.300615225079 -218.13652970741 2523.40132671461 9 12 5
-691.444483223908 -216.503225093581 2504.0264416736 7 10 3
-682.637498436119 -215.970188898454 2503.00008916561 8 10 5
-674.365779124103 -215.553146587744 2503.90361515973 8 10 5
-668.140094875508 -215.596282409152 2512.56223141791 8 11 4
-655.841676626673 -214.261573959504 2497.93213071187 9 12 5
-649.617976113743 -214.304849917854 2506.58976132557 13 16 9
-644.598019048556 -214.632846206781 2520.12208823811 17 20 13
-636.837504821517 -214.330999563991 2522.96454930985 16 19 10
-628.836551058774 -213.972270838353 2524.83210670105 15 18 9
-626.099446184643 -214.864850967384 2548.15845991386 15 18 9
-624.201568835149 -215.980387285684 2575.42954710471 16 19 10
-602.532479987735 -212.331057477633 2520.64694741734 17 20 11
-603.834204758087 -214.237087881619 2561.62865950276 19 22 13
-893.743904707745 -230.417082547375 2381.47505088298 22 25 18
-886.737828245211 -230.243879062469 2386.16705683082 17 20 13
-881.693333405641 -230.448862980073 2396.51740339534 16 19 10
-873.021283612459 -229.959363160372 2396.50554959004 17 20 11
-859.835767782983 -228.589964635953 2383.26668410322 14 17 8
-855.402875637482 -228.919446189475 2395.51878567526 13 16 7
-826.405336675531 -224.419606632344 2334.92984663391 16 19 10
-829.015394669364 -226.129922452329 2367.98481113611 17 20 11
-813.921016614256 -224.334287533234 2348.00551923147 21 24 15
-802.988655759516 -223.354587585053 2340.31844058157 21 24 15
-794.886037454276 -222.937784473561 2341.16076208673 17 20 11
-786.793977203869 -222.521406349492 2341.99896108283 16 19 10
-787.195202165851 -223.844046077148 2369.48588232213 14 17 8
-770.942425680545 -221.751995617842 2344.61655529837 14 17 8
-770.920965901588 -223.007932400567 2371.19553038403 15 18 9
-763.685709279584 -222.775911571464 2374.9084334104 15 18 9
-755.860580036429 -222.420371423572 2376.71186656735 14 17 8
-749.491624545186 -222.373023236325 2383.29599903127 13 16 9
-743.10276987776 -222.324928996095 2389.8874179041 13 15 10
-742.108559455333 -223.44249958611 2414.69690299971 12 14 9
-729.98294298363 -222.165201146015 2402.13279771654 12 14 9
-731.372686069435 -223.828296045158 2435.63471134696 14 16 11
-733.708026150727 -225.729394760199 2473.04157556456 15 17 12
-719.376638722134 -223.963950868212 2452.78278255041 14 16 11
-707.618438028557 -222.751357284994 2441.1468554696 12 14 9
-687.27263569312 -221.002956702147 2428.40507480669 10 12 7
-693.702324268741 -223.918577289352 2482.38048872262 7 9 4
-695.670938147307 -225.855839025973 2520.98468032684 6 8 3
-681.631895418999 -224.101931402584 2500.61854276909 7 9 4
-675.162951863542 -224.10132336855 2508.30228857523 8 10 5
-667.398327961201 -223.798819227582 2511.14629245564 9 12 5
-657.621614124875 -223.015647129015 2506.22441852173 10 13 6
-648.883241879393 -222.474111553726 2505.17377779222 14 17 10
-649.533731673894 -224.209305124331 2541.07221672585 16 19 12
-640.253197431552 -223.546116030322 2538.09437598253 15 18 9
-626.659495148587 -221.809733949988 2517.56510718626 14 17 8
-622.981735027254 -222.521495190485 2536.98065390031 14 17 8
-620.399200685783 -223.527369249454 2561.3088538633 16 19 10
-613.965981173204 -223.578659381123 2570.04226022102 16 19 10
-613.975159180538 -225.289014033056 2606.17533164187 19 22 13
-900.596628989 -238.796981145526 2377.28636583291 20 23 16
-900.937204191296 -240.081996731176 2402.66479542905 24 27 20
-888.906045458016 -238.923042326707 2393.25736387328 17 20 13
-882.19737209139 -238.819896314911 2398.90258239678 16 19 10
-871.562644646191 -237.927506470511 2393.23439575035 17 20 11
-877.787679650178 -240.449311881534 2436.64755668833 14 17 8
-859.734559232334 -238.048341819248 2409.25574768598 13 16 7
-824.753594190414 -233.396401115875 2356.18532381057 17 20 11
-810.319948495545 -231.666792058883 2338.09409374415 20 23 14
-799.104638589234 -230.592852667105 2329.45062969501 21 24 15
-795.033498918062 -231.016813275582 2342.63072064958 19 22 13
-796.097336926415 -232.54225991222 2371.99495436005 18 21 12
-778.547750806713 -230.108090224514 2343.35614116455 14 17 8
-779.781631653525 -231.69319143598 2373.72039282519 14 17 8
-771.044627691974 -231.140080903718 2372.67012829573 14 17 8
-773.541918885382 -233.039556526684 2407.88515958234 14 17 8
-766.504554219749 -232.870819581492 2412.58794239657 13 16 7
-754.528430402233 -231.608321353025 2401.0352146611 13 15 10
-746.078478639811 -231.119482696125 2400.94236010941 13 15 10
-735.65082180414 -230.182457053199 2394.13549423371 13 15 10
-730.07340872054 -230.335789871986 2403.61681093018 13 15 10
-722.78265290473 -230.104252899786 2407.34984239012 14 16 11
-723.523875536822 -231.723285588561 2438.95734564022 14 16 11
-721.091866877692 -232.635466525011 2460.03825455331 13 15 10
-721.826940516151 -234.30729373301 2492.71056477037 11 13 8
-710.279887441545 -233.11467350932 2482.06322335087 11 13 8
-699.60605275627 -232.115159522016 2474.28396174094 9 11 6
-700.089714437068 -233.777226305212 2507.04835580349 7 9 4
-688.899278744561 -232.651571546034 2497.33294548271 6 8 3
-683.737184709888 -232.980274317386 2509.85005224622 8 10 5
-676.472053179081 -232.80289989372 2514.63649733302 8 10 5
-665.895113972314 -231.807246237635 2506.82173868874 9 12 5
-657.135792591935 -231.253552227409 2505.77937263475 11 14 7
-653.874063254245 -232.080519105731 2526.10162352939 15 18 11
-647.811352851361 -232.215146310498 2535.76067833549 15 18 11
-642.688913446646 -232.598494158339 2549.32581026188 14 17 8
-634.134074227016 -232.105855030741 2549.27135201397 13 16 7
-613.940106469915 -232.060628627798 2571.54505012817 15 18 9
-606.316362893792 -231.816398081425 2575.40002629705 21 24 15
-899.10902434728 -246.734131826877 2374.02807475424 12 15 8
-881.447191006537 -244.37225374993 2348.62451368962 20 23 16
-900.998215668534 -249.705525042668 2428.58245746724 15 18 11
-882.700495826339 -247.207360912466 2401.28685406919 13 16 7
-869.779233198848 -245.810870207114 2389.02083016121 15 18 9
-856.940437259558 -244.417621698956 2376.72485268472 14 17 8
-835.20700136851 -241.116540815869 2337.93846323459 16 19 10
-824.912343042291 -241.550161262667 2357.64579694739 15 18 9
-817.67377677093 -241.323056246781 2361.3595315877 17 20 11
-799.258492143987 -238.653174714347 2330.91967722568 17 20 11
-796.719293983183 -239.445571444285 2348.84864700228 19 22 13
-794.098296827844 -240.234779254999 2366.80757803455 19 22 13
-789.57978395288 -240.615504138005 2379.08692244201 15 18 9
-780.509535079747 -239.982528797465 2377.09720799364 14 17 8
-782.472501725529 -241.842444505937 2410.37574322801 13 16 7
-774.539282142718 -241.476804860649 2412.21921168784 13 16 7
-765.734695102436 -240.909949913882 2411.19453966695 13 16 7
-756.371574071049 -240.209824057755 2408.24949274327 14 17 10
-747.039899674729 -239.510933231936 2405.2929268911 14 16 11
-741.440165118952 -239.682284661088 2414.78099428377 15 17 12
-734.112710611551 -239.451801333546 2418.52753456264 14 16 11
-725.103572577999 -238.821252248425 2416.51517888117 13 15 10
-708.810884178822 -237.961959403738 2418.23328020189 12 14 9
-716.990638199634 -241.513713686516 2476.85812211336 10 12 7
-716.795758626989 -243.066504706603 2506.6773777088 10 12 7
-706.323688258097 -242.100212210594 2499.88885716845 9 11 6
-698.545097685481 -241.796414110754 2502.73803329594 8 10 5
-695.737189587045 -242.745617211471 2523.95272721061 6 8 3
-689.465696483415 -242.835070422651 2532.62449282513 8 10 5
-678.804918015646 -241.80569364759 2524.84248629083 9 11 6
-666.170578014627 -240.253428641205 2509.28429732489 9 12 5
-654.891140607467 -239.03271279586 2498.54158663752 11 14 7
-656.619471879662 -241.217972831822 2538.28092630603 15 18 11
-649.291342898074 -241.043261820804 2543.08980546855 15 18 11
-641.223211037281 -240.672479404041 2544.98268065584 14 17 8
-631.473827335658 -239.845935960918 2540.05440340009 13 16 7
-629.637088864175 -241.167488570908 2567.28773228234 13 16 7
-614.460773159948 -238.847226696706 2539.91139307173 14 17 8
-608.312812599116 -238.997289872632 2549.60025779306 15 18 9
-611.132169035378 -241.671036810317 2597.43928843981 21 24 15
-917.773946010551 -258.949907317947 2427.12299102344 21 24 17
-898.637279716675 -256.214463085372 2398.01674475997 10 13 6
-885.297703166522 -254.699353310114 2384.84510377046 14 17 10
-889.437588947614 -256.965576206336 2421.56875956407 17 20 13
-867.020492013751 -253.458895407316 2381.97972644985 13 16 9
-849.68001440419 -251.027471827456 2356.464652099 12 15 8
-826.084991749893 -247.182471964728 2311.99609485656 15 18 11
-814.19062150064 -245.899195386241 2301.48178697665 13 16 9
-808.989858785816 -246.105099527875 2310.82228585899 17 20 13
-810.008202583076 -247.723186353804 2339.12924893196 19 22 15
-804.684791532011 -247.924288373181 2348.51467288864 19 22 15
-799.94102840371 -248.26495872414 2359.81232511325 16 19 12
-793.93123361432 -248.322307755193 2367.32461767124 15 18 11
-786.988859786135 -248.167848499855 2371.99206377765 16 19 12
-780.03665638403 -248.013001135281 2376.66311062087 15 18 11
-778.426591721384 -249.1191428309 2398.4972980008 14 17 10
-775.240500252979 -249.871395239855 2415.5975268202 13 16 9
-766.426276509855 -249.29302212758 2414.57722523934 14 17 10
-757.633166834955 -248.715469765169 2413.54919019767 14 17 10
-748.57407527979 -248.069052825567 2411.55618176154 14 17 10
-740.679355082481 -247.701974164572 2413.38577052483 12 15 8
-732.508445653323 -247.26563224027 2414.25412468931 12 15 8
-726.304081989097 -247.315349276836 2421.83794157788 10 13 6
-718.967535516403 -247.086977870144 2425.58737165613 10 13 6
-714.094715537564 -247.481000146055 2437.99444583071 11 13 8
-711.463230857206 -250.125396661814 2488.88299683737 11 13 8
-703.171191193788 -249.684295196014 2489.79572127994 7 9 4
-698.585936379668 -250.206455181608 2504.22201081613 7 9 4
-700.475094042084 -252.443038370534 2542.83223326079 7 9 4
-690.268787980412 -251.517919438664 2537.01060019327 8 11 4
-679.084427026715 -250.320752796322 2527.29837837752 9 12 5
-667.460326212523 -248.989494214665 2515.62293554336 11 14 7
-662.946348996603 -249.572870159585 2531.08526464687 12 15 8
-658.863890304865 -250.290008832329 2548.51382672856 13 16 9
-653.229459210613 -250.595765618105 2560.137726358 11 14 7
-641.706875929511 -249.268447544354 2548.42484676876 14 17 10
-643.921366857576 -253.738867105984 2627.28050558437 12 15 8
-611.615084539344 -246.455183375625 2529.70498084531 14 17 10
-888.493839675204 -262.260606655802 2370.31362663809 17 20 13
-887.462178858733 -263.444082340565 2391.93182320609 17 20 13
-873.20828822627 -261.663105076794 2375.91252396826 16 19 12
-856.453970918565 -259.294864119695 2352.31307511716 14 17 10
-849.529185365081 -259.146511959014 2356.97341564755 14 17 10
-835.227882135567 -257.302452943994 2339.90954656821 14 17 10
-814.680432368581 -253.990429109773 2303.8932468061 16 19 12
-821.131253484081 -256.934842777158 2348.25904094012 16 19 12
-816.416162020766 -257.301145299665 2359.54434168382 15 18 11
-808.865077232039 -257.005864409907 2362.31021377907 15 18 11
-801.929208790448 -256.856987924403 2366.97462070007 18 21 14
-792.849426613815 -256.19598142472 2364.9904850546 19 22 15
-786.516454048734 -256.193025713649 2371.55819408692 18 21 14
-776.866296102877 -255.38731075316 2367.65884908289 15 18 11
-773.790267329397 -256.18471436467 2384.71568126155 13 16 9
-770.343221333816 -256.906426220341 2400.84672706201 13 16 9
-767.408849996584 -257.770533134942 2418.91386744617 13 16 9
-756.866766092107 -256.746325416535 2412.15515524863 14 17 10
-746.089651316604 -255.651718695054 2404.4203397675 14 17 10
-736.507055650582 -254.848557634373 2400.49625415412 12 15 8
-730.624035050819 -254.985454229515 2409.02329344003 12 15 8
-724.710896796819 -255.121157032206 2417.56136567431 10 13 6
-722.935028598666 -258.049348482245 2470.25073877467 11 13 8
-726.339471091254 -260.690802138861 2512.54633246652 12 14 9
-712.053368219366 -258.663496594679 2492.2908437521 11 13 8
-704.550552643388 -258.431030383203 2496.10099459929 7 9 4
-702.055901981815 -259.55689101656 2518.25509746743 7 9 4
-699.720805789189 -260.75016742309 2541.41295211997 8 10 5
-685.379602650637 -258.659464129632 2520.11545632043 9 12 5
-668.862564667834 -255.933023674766 2490.05697566869 9 12 5
-660.887980916688 -255.559670169013 2491.91580100212 11 14 7
-664.214194394239 -258.381489970277 2537.42638664216 12 15 8
-657.875575055005 -258.500375437407 2546.12032102824 13 16 9
-657.6539299733 -260.388018773771 2579.12395941386 12 15 8
-653.868229948953 -261.27971200194 2598.56489428726 13 16 9
-647.10767309897 -261.320870343115 2606.35144281497 14 17 10
-636.340524972221 -262.245006600027 2633.65958758251 14 17 10
-628.543690767856 -262.000870773969 2637.57770123541 16 19 12
-908.073648883194 -273.528986975762 2401.81496180252 19 22 15
-888.963381627059 -272.07875904491 2397.1347257527 16 19 12
-867.157232494576 -268.477537148638 2359.46421241532 14 17 10
-858.582572816044 -267.95050452035 2359.41955072902 14 17 10
-849.700855990147 -267.347516480297 2358.4256291554 15 18 11
-843.721022072946 -267.433265087205 2365.92514731526 14 17 10
-826.566130675174 -267.912765898633 2391.32126830076 15 18 11
-808.702734383312 -265.104743363249 2362.82468192014 16 19 12
-799.305793029795 -264.353606242302 2359.89577207099 19 22 15
-792.073100683636 -264.134532746541 2363.60702080792 19 22 15
-786.346320895569 -264.293894817796 2372.07534257809 18 21 14
-775.496462948034 -263.166277246248 2364.3697024498 18 21 14
-769.752729571205 -263.324938328999 2372.84449129141 15 18 11
-767.806431227426 -264.463024739839 2393.73187847756 15 18 11
-765.471216965575 -265.521942883042 2413.6997362518 14 17 10
-761.597656238405 -266.20109023292 2428.92215188902 13 16 9
-748.769062572298 -264.548535153756 2414.50866585828 13 16 9
-730.634105593763 -261.473979038862 2381.86412449739 12 15 8
-727.614977811558 -262.378221279286 2399.95903180657 11 14 7
-742.621021136269 -269.931271162708 2510.19990500167 10 13 6
-740.803606390758 -271.2659163814 2534.22555627804 10 12 7
-715.538587840499 -266.186651683016 2475.52409396811 11 13 8
-715.599065539234 -268.042093510763 2506.29428942776 10 12 7
-713.11572044582 -269.222772415942 2528.44014843227 7 9 4
-707.103308260131 -269.43450185549 2538.07536482565 7 9 4
-689.829207694574 -266.457355308216 2506.17750283619 9 12 5
-680.496243453489 -265.708251399692 2503.22519429034 9 12 5
-667.355625503046 -263.851465798486 2485.74031059621 10 13 6
-663.952655362807 -264.804316571887 2505.0378252003 12 15 8
-663.724310921038 -266.712180960228 2536.97581576693 13 16 9
-653.909022570686 -265.816286347764 2532.07646249629 14 17 10
-645.364314103145 -265.289644500919 2532.02088892516 14 17 10
-648.263871785807 -268.214563630973 2577.6787156293 14 17 10
-638.188111251407 -267.244504441654 2571.81304128334 14 17 10
-627.207619745149 -265.98338482099 2562.03157139547 14 17 10
-636.0734236082 -270.867209441413 2634.17288710855 16 19 12
-625.944868942825 -269.895012537758 2628.32655614699 16 19 12
-616.324289025735 -269.070499005076 2624.41788271661 21 24 15
-925.803946738098 -284.527440150306 2427.60855999271 28 31 24
-929.053722365462 -286.85427289879 2461.45113010507 28 31 24
-907.173465379651 -283.199215757399 2424.87816112652 7 10 3
-888.151046524241 -280.189124552771 2395.75138133603 12 15 8
-872.252407318831 -277.901036310207 2375.03465355785 13 16 9
-854.85691200112 -275.221107434779 2349.55831932791 15 18 11
-848.581773664083 -275.242275880718 2356.10319480708 15 18 11
-842.606311085606 -275.34179176068 2363.60008593268 15 18 11
-830.574922598522 -273.937998399402 2353.14465510793 16 19 12
-821.763971531604 -273.32665654301 2352.12565198529 16 19 12
-824.527347205367 -275.634126456278 2386.14641042411 18 21 14
-804.823981947626 -272.263831566869 2351.9609321797 18 21 14
-794.842022899708 -271.339958487089 2347.12424765275 17 20 13
-788.556263159867 -271.360468706405 2353.67328625594 17 20 13
-782.854235614697 -271.53705206913 2362.13131523277 16 19 12
-778.020178505166 -271.9475191512 2373.45650837689 16 19 12
-773.734048540511 -272.512670030446 2386.70406034753 14 17 10
-776.160485229663 -274.873343249087 2421.91003764136 13 16 9
-767.035967200324 -274.182744453258 2419.94413469195 12 15 8
-774.130018959271 -277.858962639079 2471.48765973532 12 15 8
-763.76798679423 -276.853280647918 2465.72868642082 12 15 8
-740.956274728591 -272.427976056093 2417.81938492565 11 14 7
-735.022639757206 -272.595216338194 2426.36252483393 11 14 7
-732.963187942971 -273.847050220633 2448.34899873437 11 14 7
-734.117685863809 -276.024363865113 2481.89758714225 10 13 6
-738.393600085441 -279.123508623804 2527.04193192032 10 12 7
-719.66524230213 -275.724235013856 2491.43782709788 10 12 7
-722.363752238707 -278.428350253329 2531.85207220688 9 11 6
-715.019006902374 -278.273543616946 2536.66548689824 7 9 4
-702.658664546302 -276.656199551196 2523.14576709189 8 10 5
-689.603610552837 -274.811715731418 2506.69567715252 9 12 5
-672.518288587788 -271.743191340069 2474.73611941228 9 12 5
-677.872895295558 -275.350763145322 2526.91682964567 10 13 6
-677.649010292349 -277.34045858423 2558.84702564736 12 15 8
-671.005576089722 -277.412816995714 2566.58841071843 13 16 9
-648.954926887046 -272.750397046524 2514.15399798121 14 17 10
-642.666806409909 -272.90326055899 2522.82702053646 14 17 10
-640.965652982119 -274.501768557458 2549.99018955418 13 16 9
-634.809883577263 -274.726374402919 2559.67626715835 14 17 10
-640.036740445307 -278.59515546511 2616.15016430553 14 17 10
-624.047583478754 -277.967271374706 2622.00700035277 16 19 12
-617.205693412232 -278.031604650724 2629.82135170663 18 21 12
-906.100115377715 -289.721396067673 2398.11035449907 18 21 14
-896.041420896954 -288.842384117571 2394.36497653545 18 21 14
-881.397648513943 -286.812543167735 2377.43930259921 13 16 9
-874.067185248068 -286.595253955543 2381.18594055597 16 19 12
-862.507438277352 -285.310431841446 2372.68328056037 15 18 11
-858.101718164912 -285.831919060082 2384.91102237832 14 17 10
-840.532915969973 -282.993599069428 2358.44279736522 15 18 11
-830.737283302568 -282.124585101619 2354.60108480193 14 17 10
-825.697884406424 -282.482376070411 2364.93830458805 15 18 11
-814.375705808403 -281.206607724256 2356.34864395966 17 20 13
-806.829865516059 -280.911157737217 2359.11262329108 16 19 12
-792.531287449616 -278.825006962113 2340.99921972485 11 14 7
-781.390055929005 -277.556201167045 2332.34354319752 10 13 6
-778.761913549405 -278.5631532861 2350.28864120233 10 13 6
-776.820731818594 -281.539202427948 2397.70117818041 10 13 6
-777.446208709576 -283.505899097769 2427.1913919276 10 13 6
-784.634152588581 -287.325081592906 2478.68976124699 9 12 5
-783.469239158344 -288.874690114494 2503.52867120415 11 14 7
-769.011601552283 -286.712567174462 2484.41223592579 11 14 7
-761.76902376773 -286.567258890125 2489.18806694817 11 14 7
-747.765945532728 -284.492224944479 2470.96645841331 11 14 7
-736.942441546589 -283.304762295541 2463.25575830779 11 14 7
-725.623815796142 -281.959120105151 2453.60352265214 11 14 7
-723.948199873617 -283.419048417854 2477.56794597618 10 12 7
-735.169705902029 -288.713822600498 2547.75578358734 9 11 6
-721.06627932088 -286.565263613831 2528.50962671949 8 10 5
-710.272336484538 -285.378719248592 2520.78786234686 6 8 3
-705.065682539668 -285.86772116811 2533.30906457247 8 10 5
-686.248913195749 -282.216461557028 2495.62298326155 9 12 5
-676.169026856982 -281.196511598159 2489.76257231349 10 13 6
-673.805311538218 -282.559777180016 2512.91774510935 10 13 6
-686.519336986162 -288.675603126441 2594.23422622549 12 15 8
-662.244639169761 -283.214975011731 2534.13490713806 13 16 9
-651.445376513704 -281.958578522144 2525.35378987261 15 18 11
-648.070187601371 -283.07394355322 2545.69550479047 14 17 10
-642.418522711918 -283.475783006337 2557.31841651423 12 15 8
-642.728248188276 -285.845212249442 2593.29255952231 12 15 8
-637.397898984739 -286.398261180632 2606.92042866882 14 17 10
-626.133849007459 -284.984735477137 2596.18692926725 15 18 11
-899.585670067435 -296.39884716416 2380.77393467302 15 18 11
-879.267374800749 -292.863567045302 2347.89114253593 7 10 3
-863.763150118986 -290.526218111713 2328.10138218452 15 18 11
-869.660062836744 -293.713901992709 2369.45040820277 19 22 15
-869.500414931814 -295.366406644579 2393.91630376505 16 19 12
-861.811970124839 -295.065543502998 2396.73250510322 14 17 10
-853.484414805479 -294.595379862577 2397.66032650486 14 17 10
-819.484566176902 -287.279075141484 2322.03524989335 14 17 10
-817.676308730708 -288.506252643698 2341.79920333482 15 18 11
-829.189038524045 -293.355650573062 2402.31480940703 15 18 11
-811.927058415321 -290.444246899968 2375.74087299327 14 17 10
-797.279058455662 -288.212009698263 2356.69889373993 9 12 5
-779.707257824561 -285.14414117938 2328.11596549944 8 11 4
-784.628415327411 -288.293011142681 2369.82219429803 10 13 6
-784.853081403238 -290.176296677062 2397.33096438985 11 14 7
-778.124571679817 -290.128758947403 2402.97919447303 11 14 7
-771.381187910299 -290.080580365658 2408.63287720905 11 14 7
-779.483971647871 -294.291179709334 2462.96924084281 10 13 6
-778.934190754155 -296.071770417225 2489.7005888538 11 14 7
-765.088703129475 -294.014707266672 2472.48692204423 11 14 7
-767.238516292736 -296.621958526541 2508.84135858393 11 14 7
-732.043161720888 -292.212858747773 2477.16315832068 11 14 7
-734.127987190689 -294.889402938946 2514.60253530511 9 11 6
-729.257386827314 -295.490867965153 2528.05996166594 9 11 6
-721.111512524035 -295.098732998469 2529.9824403809 7 9 4
-715.0974906997 -295.366868919869 2539.61373135207 6 8 3
-709.31169519549 -295.71600147455 2550.22279834759 8 10 5
-698.534225808173 -294.499602919225 2542.4973010986 10 12 7
-679.556852444349 -290.654752881437 2503.81736942366 10 13 6
-670.25362966577 -289.856552067918 2500.8582134327 11 14 7
-665.534432868253 -290.535634128212 2515.32107479519 13 16 9
-663.508662364875 -292.113261284287 2540.47065240532 14 17 10
-656.162463941125 -291.96834368433 2545.28410321958 15 18 11
-651.014066113845 -292.558339033497 2558.84307493178 14 17 10
-644.839791949282 -292.81968725022 2568.53310373949 11 14 7
-646.554040404606 -295.769208798768 2610.35300794756 12 15 8
-640.912104732299 -298.717217061309 2659.11253784674 15 18 11
-900.779681837892 -305.000899301834 2385.02435658377 15 18 11
-870.152591757556 -298.637822208536 2323.03471212798 13 16 9
-875.072464210521 -303.396540998505 2385.95259274896 18 21 14
-870.64291025979 -303.97172814421 2398.18494255018 17 20 13
-868.738616074624 -305.244487381164 2417.98035053084 15 18 11
-856.838113355911 -303.805580265832 2408.54656961735 14 17 10
-859.899505400139 -306.47012227901 2443.49866209424 15 18 11
-815.61520829811 -297.850181377594 2362.10890421885 16 19 12
-822.893480744969 -301.727463498555 2410.37040135545 17 20 13
-808.767431894618 -299.602299301131 2393.26381130822 13 16 9
-784.411348492385 -294.531823815 2343.83120461703 11 14 7
-778.126755378983 -294.584678404765 2350.37712460136 10 13 6
-783.18164685377 -297.925534095932 2393.08708773859 10 13 6
-777.352105950608 -298.145751359472 2401.58840916484 11 14 7
-772.079849308117 -298.537394872516 2412.00742638127 11 14 7
-774.630415456576 -301.256056393661 2448.20784822927 10 13 6
-768.630485053183 -301.469355235055 2456.77134626058 11 14 7
-768.894626536816 -303.574424079482 2486.38240632948 11 14 7
-755.973192611149 -301.720372156597 2472.01785591023 11 14 7
-748.483163525745 -301.500912482063 2475.82237958121 11 14 7
-745.721462908629 -302.738835424303 2495.93168966684 10 13 6
-742.8682204179 -303.973105135113 2516.07479030036 9 12 5
-740.196597149855 -305.289249643771 2537.21228050285 6 8 3
-731.743551546306 -304.807269915198 2538.18658878017 7 9 4
-719.547645129531 -303.13091423919 2525.67813197944 7 9 4
-718.057593071841 -304.867286850524 2551.68764159898 9 11 6
-712.237225744556 -305.236603728201 2562.30774689674 9 11 6
-701.688738612483 -304.073606729198 2555.56183310511 9 11 6
-685.776973217563 -301.128950021624 2528.49956766855 10 13 6
-669.259204235604 -297.936037316046 2498.47654869248 12 15 8
-667.070906174095 -299.495042928699 2522.62002745587 13 16 9
-664.270439814289 -300.880307325715 2544.86567222371 13 16 9
-658.149281583509 -301.162605611792 2554.53482130176 11 14 7
-646.601883549457 -299.585991825217 2542.8497676038 12 15 8
-645.802611269408 -301.722908002015 2573.91135913431 12 15 8
-641.736619728149 -302.758974843097 2592.37668498492 12 15 8
-604.22145745157 -299.410372165854 2579.59406934276 12 15 4
-912.014032638251 -316.350585155494 2417.41815447907 11 14 7
-906.884890160553 -316.770774110776 2427.78327345091 16 19 12
-897.100347496765 -315.922469281123 2425.00252517272 17 20 13
-889.308933108776 -315.617604264488 2427.85644117451 19 22 15
-871.783952012978 -312.604143566388 2402.45231949916 17 20 13
-860.529203172947 -311.310134667797 2394.90634592889 15 18 11
-862.742577197405 -313.801713333303 2426.97968254244 14 17 10
-859.729000737344 -314.847297238107 2443.99535215608 15 18 11
-840.301027870303 -311.215913062258 2411.86262559238 15 18 11
-818.570623090442 -306.873699380209 2372.0873880258 16 19 12
-822.104435263614 -309.804558292187 2408.98110527319 17 20 13
-819.937076159681 -311.115661846265 2428.86894717289 13 16 9
-804.305643712279 -308.48600707599 2407.01434864723 11 14 7
-790.013528748264 -306.219045173878 2388.91223928145 10 13 6
-770.45695679988 -302.349464890251 2353.64454115786 10 13 6
-773.025641546592 -305.086958574692 2388.77040268445 10 13 6
-777.475673710998 -308.441044655317 2430.6323251276 10 13 6
-772.692519249237 -309.02859676749 2442.99221831729 11 14 7
-778.533306715524 -312.902406080421 2490.70945921751 11 14 7
-772.981871535363 -313.304542849612 2501.2293750534 11 14 7
-745.570335230501 -306.877253350078 2438.07624408122 11 14 7
-753.895146424746 -311.623799520231 2495.49142177549 11 14 7
-754.693978965502 -314.058579717387 2528.08325427279 10 13 6
-746.788528897589 -313.747594283714 2530.97906551488 9 12 5
-737.51826521549 -312.995203534149 2529.07077973611 6 8 3
-731.25050150729 -313.213636435987 2537.73145859758 7 9 4
-723.344925388115 -312.902411590583 2540.62733370282 8 10 5
-711.458963997447 -311.27165038456 2529.06937829615 9 11 6
-706.747792936838 -312.016235585181 2543.52463559574 9 11 6
-698.071658379575 -311.441905741432 2543.52041219416 9 11 6
-683.226649239905 -308.76424109708 2520.31714273134 10 13 6
-673.368916886036 -307.75564767881 2515.44171426601 11 14 7
-669.615438661643 -308.847706075752 2533.78926764002 13 16 9
-663.030680855186 -308.975553014721 2541.50540098005 13 16 9
-647.264964476531 -305.873783573613 2513.3353686203 12 15 8
-642.685054219214 -306.700534737639 2528.80329062491 12 15 8
-641.674806025858 -308.830476540652 2558.87550761801 13 16 9
-634.527518891997 -308.780832501931 2564.67579988049 13 16 9
-626.891647324727 -308.556888977058 2568.5339062211 13 16 9
-643.187082567457 -317.181469225827 2671.82560019769 12 15 8
-617.503019317232 -312.990140655681 2637.74196996321 13 16 5
-608.111401845978 -312.154180845958 2634.81752575502 12 15 4
-921.229803638455 -327.330560478869 2444.17368174246 14 17 10
-908.388874605281 -325.62341791839 2432.96871934401 14 17 10
-900.566591320527 -325.317383718483 2435.833939392 16 19 12
-886.207121837686 -323.149004488819 2419.88223101243 17 20 13
-869.680416835269 -320.333444687784 2397.30013491623 16 19 12
-864.553222390944 -320.775189387431 2407.66291967906 16 19 12
-852.044394596472 -319.080550627573 2396.33609469174 16 19 12
-849.110694296795 -320.170190674801 2413.31941819031 14 17 10
-833.853316904216 -317.644916963408 2393.45440247836 14 17 10
-811.556003786809 -312.996673404505 2351.77461335826 14 17 10
-825.640245962077 -319.169663340536 2420.85604863778 15 18 11
-815.77872878285 -318.220721556103 2417.04405076804 14 17 10
-813.547405829616 -319.578327848044 2436.95187873574 12 15 8
-798.875584243611 -317.155855457392 2417.93290832265 10 13 6
-777.155605719825 -312.529823943942 2376.04193023416 10 13 6
-774.032341792764 -313.611267692351 2393.0944934361 10 13 6
-772.299999951414 -315.148655387921 2414.94057050776 10 13 6
-770.756506267047 -316.773644475729 2437.77823282966 11 14 7
-772.854197794587 -319.585138109394 2473.06938616107 12 15 8
-767.633530466929 -320.102186387539 2484.52700759493 12 15 8
-750.189162547701 -316.687141076802 2454.8571627652 11 14 7
-756.42572596566 -323.192400017859 2535.29784273548 10 13 6
-744.642687324198 -321.604977423843 2524.76603220402 9 12 5
-733.205143702775 -320.111324079045 2515.16817155475 7 9 4
-722.916645235152 -318.983814296715 2509.39167278786 7 9 4
-719.102828675364 -320.037137521464 2526.69751573826 8 10 5
-713.09084542538 -320.361812000729 2536.32380009433 9 11 6
-703.103514349874 -319.326145533306 2531.49750241637 9 11 6
