ply
format ascii 1.0
comment KinectMotionCapture
element vertex 780
property float x
property float y
property float z
property uchar red
property uchar green
property uchar blue
end_header
-700.620946177354 -343.344524799314 2227.84595713452 11 12 6
-665.048200437593 -333.111591439025 2270.12678192282 17 18 10
-645.788426520778 -328.059574782219 2287.09065228773 16 18 7
-630.234438485503 -323.110135777562 2311.33078102963 17 18 10
-638.583931014683 -324.235291782934 2316.88821253462 17 18 10
-662.636963489568 -328.851300754251 2316.23334468932 17 18 10
-669.167366386797 -329.560797648065 2322.64315589949 23 24 16
-641.499608671975 -322.675283447961 2342.48912360174 22 23 17
-672.996865932732 -328.924673453441 2339.14398590503 22 23 17
-685.094533568795 -330.861586886185 2343.4687715146 23 24 18
-691.6483178897 -331.566456841334 2349.97997972134 23 24 18
-717.673944702889 -336.5713748259 2349.13234224833 24 25 19
-730.746625401265 -338.704631463426 2353.31158644471 22 25 18
-724.34319831298 -336.53813053721 2364.83105182311 22 25 18
-703.997599452714 -331.305564634229 2381.4603658011 20 23 16
-704.06900737675 -330.574708072422 2390.45906259514 19 22 15
-703.208326145862 -329.639710041668 2399.78677513052 17 20 13
-767.487843150694 -342.999598543385 2385.59513126798 17 20 13
-814.156704405086 -352.467343440365 2378.0908964042 16 19 12
-846.130552508877 -357.915170631742 2385.48725095883 14 17 10
-844.566040329451 -356.016617223611 2404.8170520852 14 17 10
-807.339804238603 -347.127983225824 2426.93201603385 13 15 10
-854.207410529944 -356.561156158345 2420.28214559726 14 16 11
-902.069976410823 -366.18743739691 2413.57489977776 15 18 11
-987.441327215076 -383.934269144629 2394.65772659742 16 19 12
-995.167968121811 -384.799044898007 2401.87486086053 18 21 12
-891.349185599057 -361.497520959441 2445.59521357656 26 29 20
-776.561895745092 -370.20416074813 2186.4042569274 14 15 7
-778.558438605225 -369.874628145133 2195.00835273752 11 12 6
-593.19822581306 -326.209597508835 2291.21037882055 15 16 11
-658.535979216745 -340.29815678002 2272.99770154849 17 18 10
-656.767919543839 -339.147577868698 2282.75659114998 17 19 8
-658.679425148708 -338.831415529314 2290.99382785784 17 18 10
-632.941473705374 -332.26436815152 2310.41704530487 17 18 10
-633.912975609744 -331.742615001591 2318.94756925894 17 18 10
-653.341220555496 -335.383838610428 2320.12409348971 17 18 10
-666.328915571443 -337.564675781752 2323.95682720705 23 24 16
-655.304435642318 -334.336195035524 2337.27177050324 23 24 18
-695.123771594127 -342.541814077129 2330.73926122726 23 24 18
-674.845785046597 -337.235519787188 2347.62314931209 24 25 19
-684.169652485116 -338.578377127634 2353.04587590015 24 25 19
-745.393265392089 -351.541535911562 2338.82512191233 25 26 20
-700.066586991819 -340.636169849329 2365.069615314 22 25 18
-717.769759201352 -343.839678463624 2367.49983921497 21 24 17
-711.354842515519 -341.651504819143 2378.95484122283 20 23 16
-704.92892164487 -339.464877301695 2390.3633482555 19 22 15
-809.398656371678 -360.421368554799 2380.02920838381 17 20 13
-838.410235516417 -366.082520765658 2379.05506539881 14 17 10
-850.679079198643 -368.01840590834 2384.13354631062 14 17 10
-836.844319667107 -364.169530659209 2398.3701899539 15 18 11
-812.721632858599 -358.05341752416 2416.06251880092 16 19 12
-810.04662717134 -356.687705096541 2426.25584052915 13 15 10
-834.470000276578 -361.302478891359 2427.23218000688 13 16 9
-869.211247783186 -368.178983477299 2424.88047303075 14 17 10
-913.539305982642 -376.35038423851 2429.08196265835 18 21 12
-885.608591779273 -369.419620154484 2447.74257833243 18 21 12
-727.841800369482 -367.982335124658 2207.35918433434 10 11 5
-802.300178403683 -384.381278014917 2185.12879793271 9 10 4
-617.957770624279 -340.364888080791 2281.05170782258 16 17 12
-643.752514719511 -345.549134049156 2279.29214316879 16 17 9
-642.896424056821 -344.601032939152 2288.63237758456 17 19 8
-652.164911013992 -345.976146392876 2293.8300379129 18 19 11
-671.57848450379 -349.671252990769 2294.97251707449 19 20 12
-604.351760450163 -333.531352770937 2330.99538020263 18 19 11
-632.058161631686 -339.125635406914 2328.78694793787 17 18 10
-667.18487799532 -346.400064339601 2323.81147856696 20 21 13
-664.480107961614 -345.02978849613 2333.87095741403 23 24 18
-637.734702878778 -338.185831147074 2353.24829128201 25 26 20
-687.729515602463 -348.815795135429 2342.8569804448 26 27 21
-698.911614379943 -350.600069936059 2347.61278559885 26 27 21
-689.867843186225 -346.276848613077 2378.12587847767 20 23 16
-726.131448537229 -353.725049898763 2373.70599709272 20 23 16
-730.863826319003 -354.030802654631 2381.06910479163 20 23 16
-796.938183934792 -368.178399780679 2366.13705346372 19 22 15
-778.46979481088 -363.234681215632 2382.09551179975 18 21 14
-786.031427431084 -364.162126405223 2388.62129835533 16 19 12
-862.51073265277 -380.58580547817 2370.75442248335 11 14 7
-858.951483370313 -378.990655624895 2381.47271675118 12 15 8
-853.520373228244 -376.978053510984 2392.80979567275 15 18 11
-849.945701967258 -375.384996468607 2403.46136275645 15 18 11
-866.905182119659 -378.391214002038 2407.05481754011 14 16 11
-851.18388187877 -374.081887225817 2421.82135362263 13 16 9
-855.072981571285 -374.161201792008 2429.89171549368 13 16 9
-888.902168412395 -380.918291984211 2428.00820141157 15 18 11
-753.408712453705 -382.851609257131 2196.62177371877 10 11 5
-751.721636212063 -381.667998515086 2206.71809465082 9 10 4
-693.220185730394 -366.45144545637 2249.83559931221 16 17 12
-696.078204988738 -366.346167826627 2257.81134906933 16 17 9
-642.830807153179 -353.187477449606 2288.83709202708 17 19 8
-661.301534452983 -356.723578838408 2290.2877329207 19 20 12
-622.735973729928 -346.262515657741 2323.80272108837 19 20 12
-648.601497015163 -351.503838278791 2322.38970728703 18 19 11
-676.345448396253 -357.166693510459 2320.38707495932 19 20 12
-657.949703594585 -352.154926626378 2336.62562216062 23 24 18
-642.299499786213 -347.787191603975 2351.67109619204 26 27 21
-639.572478248613 -346.407505991466 2361.6259011859 27 28 22
-679.405011393622 -354.829590321339 2355.27886414643 26 27 21
-672.990915100311 -352.594906539102 2366.71012553151 19 22 15
-698.069252091242 -357.599062596524 2366.2452285321 19 22 15
-737.086758923976 -365.789222110858 2360.72671218863 19 22 15
-739.969659314821 -365.677347941557 2368.80713624587 20 23 16
-741.925560953048 -365.352352950048 2377.23481233293 20 23 16
-800.553312163514 -377.986705398695 2365.05319635294 19 22 15
-792.321358616489 -375.31908442814 2377.3331920206 20 23 16
-781.285290135587 -372.016709740083 2390.55360748936 16 19 12
-835.394990324158 -383.566901983604 2380.60830890333 11 14 7
-903.546821586799 -398.285872241709 2366.05405234726 12 15 8
-896.284109344086 -395.823029764247 2378.16912068811 14 17 10
-895.538579912129 -394.84474254223 2387.97879698897 15 18 11
-885.455972905741 -391.749474698279 2400.96611958531 14 16 11
-907.113363507957 -395.851897042156 2403.12181889093 13 16 9
-909.356708010062 -394.740242540267 2421.46734449451 15 18 11
-910.47709909105 -394.184238676694 2430.63381464108 16 19 10
-912.532932671136 -393.839359523412 2439.49015312385 22 25 16
-753.298289179763 -391.795599980463 2196.83934252943 4 7 0
-764.605141559331 -392.880259553777 2210.84729134867 19 21 16
-714.253757527669 -380.190281360654 2241.24099998416 22 24 19
-639.942508163113 -361.874973280806 2281.21928683869 15 18 9
-645.523201844897 -362.42866569369 2287.90998631794 15 18 7
-650.189128295505 -362.76478846555 2294.99813388475 16 19 10
-670.511021617103 -366.780443645457 2295.77532285893 17 20 11
-671.586616284189 -365.498395416105 2313.43125702983 20 23 14
-676.273683446496 -365.830335623696 2320.61010268347 21 24 15
-656.962391866857 -360.543166855516 2337.20864780417 22 25 18
-651.47994039201 -358.500292346539 2348.30168205115 24 27 20
-640.441525370507 -355.163410693583 2361.49146144264 25 28 21
-646.961362009138 -355.928975277578 2367.88877523524 24 27 20
-691.438928997517 -365.535998302653 2359.92316835161 23 26 19
-746.162344501307 -377.504643447737 2348.37196676382 22 25 18
-749.051878497914 -377.395004551543 2356.48293701791 22 25 18
-738.030352185783 -374.054259026733 2369.74595158354 21 24 17
-681.514860462472 -360.168019094328 2399.61297673943 20 23 16
-808.950956459076 -388.134598341915 2371.57219903951 17 20 13
-797.000873071432 -384.57774616653 2385.17275619074 18 21 14
-858.548427616163 -397.997372588655 2372.6479547265 17 20 13
-886.652150183686 -403.672337501625 2372.23889009315 15 18 11
-875.65480587304 -400.325940922492 2385.60405428909 13 16 9
-887.018763978607 -402.131260149798 2391.17470029157 11 14 7
-874.136085347511 -398.358624762143 2405.09519577379 13 15 10
-938.728391724409 -412.379235652987 2392.67158352253 14 17 10
-926.792538570867 -408.818224817927 2406.33131487114 14 17 10
-880.246747762289 -397.336956569234 2431.42137696954 15 18 11
-955.255227215373 -413.690191314383 2416.14457574525 15 18 9
-695.474875019985 -386.889882718804 2221.66855335959 22 24 19
-750.733139195729 -398.555751573138 2216.852525486 0 2 0
-696.71977950282 -384.834910612444 2248.72876733478 22 24 19
-624.260748821673 -366.735980751072 2287.88344962551 17 20 11
-664.758075957688 -375.640055534332 2280.19187590933 17 20 9
-609.651562386162 -361.727816512567 2311.69597135968 17 20 11
-667.67633410109 -374.789872894646 2297.10775600206 18 21 12
-669.595543132806 -374.474097286088 2305.37916590157 19 22 13
-649.396154623736 -368.902073056333 2322.45419488677 20 23 14
-666.057022395874 -372.090643743496 2324.83904594992 22 25 16
-667.049553420211 -371.556208715103 2333.45477723442 21 24 17
-659.729940387373 -369.053441064057 2345.29562528509 22 25 18
-600.6496740177 -354.311245126387 2377.02763724056 25 28 21
-645.054744690982 -364.05323956224 2368.8219556732 25 28 21
-679.338269904393 -371.383286639727 2364.72110631278 21 24 17
-709.961859010069 -377.83284993176 2362.20022561755 21 24 17
-718.475862833572 -378.281283154463 2377.1984606341 20 23 16
-706.578772295006 -373.933299419567 2399.68002897219 18 21 14
-834.087097407655 -402.242055433647 2372.15879149814 17 20 13
-841.684163217187 -403.21243724086 2378.86705739161 16 19 12
-880.008095943092 -411.357755549816 2374.82228648245 16 19 12
-877.394914793745 -409.93068349795 2385.25086654458 15 18 11
-871.047249806506 -407.63520484613 2396.94019132502 11 14 7
-897.33441890795 -412.941885666409 2397.42254664121 11 14 7
-930.187484061546 -419.762229519564 2395.83128871981 12 15 8
-903.307849908942 -412.690490310283 2414.4831582553 13 16 9
-920.31543663599 -415.816648032584 2418.36022958726 16 19 12
-876.555202561283 -404.850773453966 2442.35680368951 16 19 12
-693.552317233364 -395.227169670182 2222.65678390109 4 6 1
-706.492554339454 -397.579281938606 2226.38112919136 0 1 0
-703.858994164607 -396.147569920128 2236.71826488019 14 16 11
-681.03257195886 -389.825755093142 2255.44528809707 15 17 12
-690.310697978445 -391.286684947386 2260.73589808231 18 21 12
-612.310116461265 -371.644845535311 2301.90335353241 17 20 9
-646.375408402679 -379.106166080655 2296.91696721779 18 21 12
-663.078114607858 -381.585272855792 2308.18279734912 19 22 13
-641.961349486799 -375.727576860423 2325.60372054372 20 23 14
-667.831812455704 -381.17684302554 2324.3336930205 19 22 13
-686.354556746391 -384.848534260453 2326.09330021209 22 25 18
-675.35883818304 -381.431235376392 2339.42501237602 24 27 20
-633.862204575881 -370.713486011168 2364.42943920139 25 28 21
-658.863394532339 -375.931690626595 2363.74939795877 23 26 19
-672.795709253888 -378.491278714265 2367.41103232228 23 26 19
-697.851658035912 -383.699898612343 2366.96773895172 22 25 18
-721.086454313688 -388.46142728296 2367.34924774053 21 24 17
-723.959455314846 -388.360437315731 2375.3924511255 19 22 15
-684.170275788291 -378.107072673563 2399.08122661423 19 22 15
-737.134501825008 -389.921701146807 2388.80024884695 19 22 15
-836.60185215677 -412.749160786034 2362.08066117301 17 20 13
-829.327626821516 -410.210444342663 2374.10036961772 14 17 10
-888.067094195887 -423.313610217374 2362.68569364369 12 15 8
-874.298801912133 -419.229813508142 2377.07705707778 14 17 10
-857.716301674852 -414.488916170697 2392.35122094048 17 20 13
-924.245928211892 -428.544810558481 2388.48530813766 11 14 7
-861.937884888653 -413.035496648671 2419.21298904052 12 15 8
-873.302975925341 -414.893756301331 2424.81976521835 13 16 9
-881.877931591946 -416.090890208764 2431.41305203006 16 19 12
-887.65738278332 -416.627899094624 2438.96869229281 17 20 13
-841.989084916905 -405.099101706113 2463.34113190335 26 29 22
-677.898971638905 -400.178218788898 2229.49911355584 0 1 0
-703.650105471826 -405.718155015897 2227.75658239826 12 14 9
-700.100218424935 -404.04854835169 2238.472338996 11 13 8
-677.280442940958 -397.654366926954 2257.18608782237 21 23 18
-672.785732825581 -395.763921505369 2268.16492641484 17 20 11
-687.571447573311 -398.596023290921 2271.19100979093 17 20 9
-684.91146620776 -397.15527664861 2281.40531823649 17 20 11
-664.77024158952 -391.447408215889 2298.65675165312 18 21 12
-628.0335857198 -381.702851670591 2322.42457553143 20 23 14
-652.950773034355 -387.002701811541 2321.42347797792 20 23 14
-688.958332672988 -394.989118584321 2316.19187269531 18 21 12
-689.04581952805 -394.223251973932 2325.23974432924 22 25 18
-684.516922537318 -392.336905926548 2336.07034700482 24 27 20
-678.132757545453 -390.003695673116 2347.5766392766 25 28 21
-668.965652473276 -387.000245524874 2360.09578812215 22 25 18
-689.373828383563 -391.161030511157 2361.33854841867 20 23 16
-724.611813168281 -398.896860251017 2357.12477259157 22 25 18
-724.709978743981 -398.127929037128 2366.21789831065 21 24 17
-733.144639947876 -399.370595654034 2372.21974788397 19 22 15
-738.806811960452 -399.941327822714 2379.27950997766 19 22 15
-783.440462435307 -409.889742480611 2372.20249211368 20 23 16
-846.698925568174 -424.292430939801 2358.68233091659 18 21 14
-831.074114442591 -419.717874867793 2373.71805432574 16 19 12
-889.795846176628 -432.986617890235 2362.32261199077 12 15 8
-872.3138359884 -427.965255703774 2378.02446338547 12 15 8
-829.672932000974 -416.932453430664 2402.3587653647 14 17 10
-887.57215747301 -429.959533697671 2391.75424163761 15 18 11
-829.034444864438 -415.150738080395 2421.28147976923 15 18 11
-873.94752708293 -425.050519407018 2415.40719434177 14 17 10
-889.984728780924 -428.046767057222 2419.48710184108 14 17 10
-923.78560008713 -435.262752132757 2417.74872021039 15 18 11
-898.751236298495 -428.47448763671 2435.58583085733 16 19 12
-718.993326450339 -419.180093886204 2212.1508731798 6 8 3
-695.314950688267 -412.477737336148 2231.45628280582 12 14 9
-680.765683826399 -408.059116505361 2246.76678286034 28 30 25
-697.480900417393 -410.613924499696 2258.13226593157 15 18 9
-699.424621472406 -410.296159238594 2266.51051965482 15 18 7
-674.723349935051 -403.382582357575 2285.7406352713 16 19 10
-638.953288456779 -393.746493182202 2309.27630735571 17 20 11
-632.574498568797 -391.389905468167 2320.79253556776 20 23 14
-665.773523690659 -398.801644782312 2316.51612334504 20 23 14
-674.140188005007 -400.07636649342 2322.2371932751 19 22 13
-674.218717953093 -399.307063264127 2331.24466072903 21 24 17
-670.605155368764 -397.630523281225 2341.67574833512 23 26 19
-664.215333598758 -395.27487584364 2353.14283035946 25 28 21
-707.69658666632 -405.158435996092 2345.50703382331 23 26 19
-669.955226233398 -394.330331644568 2377.88054847534 22 25 18
-717.223326612193 -405.104699482643 2369.22792638754 20 23 16
-739.544358503375 -409.760790766724 2370.07834131451 18 21 14
-743.356559409361 -409.889799573389 2377.83907143416 18 21 14
-806.528046365232 -424.483046395774 2364.04772338398 19 22 15
-775.118821176464 -416.01939572834 2384.70513554777 15 18 11
-857.893270429356 -435.337433158366 2364.38363721279 15 18 11
-843.199256746672 -430.938025653944 2379.0665137662 15 18 11
-858.240547527476 -433.761291781044 2383.21361528921 13 16 9
-899.354553582062 -442.895562500727 2378.37487729434 12 15 8
-832.507033594213 -425.874255857218 2410.99282476581 12 15 8
-868.994877886981 -433.87588537616 2407.88657753871 15 18 11
-953.526899040034 -451.758340350266 2408.13589347527 15 18 11
-930.390690168012 -445.338122542482 2425.43994105152 16 19 12
-649.45301543912 -409.73653710343 2251.03012402399 12 17 11
-687.093050253662 -418.415778216598 2244.28574153941 18 21 14
-700.948667568782 -421.095387634066 2247.67999564521 12 13 7
-712.068857254212 -423.081051966285 2252.28253088949 21 22 14
-720.448046359376 -424.37379438656 2258.06939144394 14 17 8
-648.927290095976 -405.642167447717 2296.43011271569 16 19 10
-627.859542547249 -399.578951259871 2313.94506884996 18 21 12
-680.33922458107 -411.916025189591 2301.83619688245 20 23 14
-677.66643891335 -410.451103276336 2311.98094951417 19 22 13
-668.541146385261 -407.378769697622 2324.64383349269 18 21 12
-663.087887007121 -405.227168650698 2335.80155550843 21 24 15
-655.780626476136 -402.617810345311 2347.63414264486 23 26 17
-647.538634297293 -399.780803279169 2359.77027495764 23 26 17
-696.535528856312 -411.164566862644 2349.98132903307 22 25 16
-765.000653805224 -427.351777676097 2333.1137033976 22 25 16
-670.815069617956 -403.19631833635 2377.77138481376 19 22 15
-727.321399281495 -416.394104557288 2365.68577069807 18 21 14
-753.461810541434 -421.242738918291 2374.36483055249 18 21 14
-802.712499674297 -432.58329340381 2365.66883530637 15 18 11
-801.928399464961 -431.567315086605 2375.28637790741 11 14 7
-848.487530086622 -442.206338532648 2367.98642814542 13 16 9
-839.367294482402 -439.12991825394 2380.66919217546 15 18 11
-873.706974552366 -443.379632071347 2416.0138686347 11 14 7
-918.648863822085 -453.519801000886 2410.40791178022 12 15 8
-938.448682921095 -457.502156696619 2413.42136177788 14 17 10
-954.536453145598 -460.56972772988 2417.76713978393 16 19 12
-655.782877557719 -420.030187190067 2248.52410518531 2 7 3
-680.595431708146 -425.549237412362 2247.18977365086 20 23 16
-669.702347512945 -421.96994955571 2260.87738883565 13 14 8
-711.974893416139 -431.910393501079 2252.5051965326 13 14 6
-702.918721618808 -428.796322503973 2265.44811761824 14 17 8
-715.083386504926 -430.255620481406 2278.9000257933 18 21 12
-686.696836030344 -422.258959878018 2299.48144514756 19 22 13
-688.630688480133 -421.942932938648 2307.81723454447 19 22 13
-663.866311121965 -414.885579010928 2326.6857910673 20 23 14
-658.413012458709 -412.713187129537 2337.8311114804 22 25 16
-670.465605617805 -414.954816880817 2342.13649720744 24 27 18
-678.842179586459 -416.265396680074 2347.92232533014 24 27 18
-688.151014841036 -417.80629329018 2353.39420529035 23 26 17
-730.72381753035 -427.695364456494 2346.31490128452 23 26 17
-751.167198604559 -432.010907649902 2347.80381950426 20 23 16
-748.511815328775 -430.528550264581 2358.01391569776 19 22 15
-750.478360198748 -430.205038165012 2366.48936417382 19 22 15
-778.378448990743 -436.36437735031 2365.4678651364 18 21 14
-797.045624837686 -440.2032915585 2367.96227592422 15 18 11
-840.77558785678 -450.284289178759 2361.53856474706 12 15 8
-859.504548717404 -454.112501261416 2364.29894119922 13 16 9
-832.751447243886 -446.611064976047 2383.25673911599 14 17 10
-812.4655228069 -440.732851060508 2399.76926384886 13 16 9
-860.032683887968 -451.717050655969 2392.55789140268 13 16 9
-882.903447777414 -454.856895575968 2413.16564542587 12 15 8
-871.895180366034 -451.2899806886 2426.35297449063 12 15 8
-856.204857266218 -446.573436724527 2441.01650182204 14 17 10
-662.108068842977 -430.366370178907 2246.021434022 10 15 11
-685.086624960473 -435.480834977798 2245.48138679595 11 13 8
-720.917896157745 -443.892566761805 2239.7231096503 13 14 9
-673.382244580975 -430.842134204452 2268.64224307239 13 16 7
-675.311516623724 -430.528115545797 2276.95902976666 13 16 7
-642.362773141139 -421.262468644019 2299.47354286456 14 17 8
-683.7635723617 -431.076672675144 2291.74208909122 16 19 10
-704.997703634894 -435.704044463348 2292.34250889115 17 20 11
-671.995771435148 -426.446453643425 2314.62738023475 16 19 10
-662.875474198377 -423.310370146423 2327.27478071985 16 19 10
-664.792022737152 -422.997224810491 2335.53601399776 19 22 13
-687.904633062697 -428.087861893644 2335.57267202754 20 23 14
-701.824267180613 -430.824994566495 2339.282854285 23 26 17
-706.532445910921 -431.211563378426 2346.58686041025 23 26 17
-741.716933173668 -439.340967697976 2342.36883144718 23 26 17
-728.897094982445 -435.265875457926 2356.38834280652 22 25 18
-755.817257078212 -441.275192286611 2355.5168908848 20 23 16
-815.155040524274 -455.481143495657 2342.83095597296 19 22 15
-867.543138331615 -466.190763138583 2352.14549849473 11 14 7
-851.031159211308 -461.175091098122 2367.56880545149 13 16 9
-841.921658276608 -458.03396853687 2380.25973042925 14 17 10
-807.715568897106 -448.58381447619 2401.68262566698 13 16 9
-890.781787138998 -467.773096022757 2391.68391126044 14 17 10
-870.670378547057 -461.026109179739 2417.56836768624 11 14 7
-880.164014787303 -462.553813210605 2423.8479140413 10 13 6
-926.974792707163 -473.404691035265 2417.78147283318 11 14 7
-849.717894294146 -453.252909633655 2452.81328057303 12 15 8
-888.16054197077 -462.000610367471 2449.64593768328 21 23 18
-697.926648741096 -446.798686110676 2249.48108334831 12 13 8
-706.288056238355 -448.151665932795 2255.22501758398 13 16 7
-665.144566830698 -436.630874036588 2281.31436387838 12 15 6
-676.243273645611 -438.700846772591 2285.8718206893 12 15 6
-691.945536792233 -441.959384882534 2288.63006697847 15 18 9
-692.047363972054 -441.167418004879 2297.72686541669 16 19 10
-662.726914995431 -432.760529402283 2318.50811412169 15 18 9
-643.484832313058 -426.976778903947 2335.11956029226 14 17 8
-692.340569891722 -438.792396684792 2324.96151165235 17 20 11
-682.300423512883 -435.386544997711 2337.95326492101 19 22 13
-754.419719624633 -452.328657306958 2328.51921551784 24 27 18
-683.470603132638 -433.253474095834 2364.63934942218 23 26 19
-725.115900259747 -443.140394057871 2358.02806318035 22 25 18
-748.32825470224 -448.274989794682 2358.53010620027 21 24 17
-820.590889569748 -465.969003267739 2341.05603513037 19 22 15
-854.074642480371 -473.694875785303 2338.21906019318 13 16 9
-859.815412629958 -474.307646743862 2345.64989672641 11 14 7
-841.464947317703 -468.763496566538 2361.77484093376 10 13 6
-835.143929787883 -466.300029328086 2373.48278433711 12 15 8
-824.172134982847 -462.655234426354 2386.78502620112 15 18 11
-841.042557716694 -466.106570623081 2390.2478470393 15 18 11
-859.791471243133 -470.02691345279 2393.15142111967 13 16 9
-872.983854941113 -472.525797375986 2398.07319560632 13 16 9
-867.581528475826 -470.29884465121 2409.4110379334 13 16 9
-853.789541904939 -465.948753924944 2423.54136526693 11 14 7
-912.311691450066 -477.326708692981 2442.052450218 9 11 6
-907.833568324695 -475.334839997929 2453.0447267711 24 26 21
-641.997318463122 -440.887617363886 2272.95259024532 12 12 10
-663.143416859675 -445.642656275034 2273.23908978162 14 17 10
-705.397379667685 -455.938027718774 2264.99376643648 13 16 9
-691.755676093836 -451.524562451377 2279.74905225274 13 16 9
-699.203557633948 -452.654493131671 2285.89268147983 15 18 11
-691.963979967388 -449.930406381634 2297.95603871949 16 19 12
-706.064762472974 -451.147293280785 2319.79810278772 17 20 13
-688.671283272717 -445.782057086387 2335.68781717175 19 22 15
-615.038715422008 -425.763668122888 2373.09866257402 23 26 19
-634.442411317757 -430.019577704941 2374.52746137549 25 28 21
-677.861822606284 -440.513291713207 2366.97694055411 22 25 18
-693.635385924137 -443.798342919511 2370.06605695298 22 25 18
-751.932023895201 -458.114331784763 2357.4133628148 21 24 17
-801.057896339991 -470.019848403769 2348.4996457305 14 17 10
-831.742626444919 -477.121279446724 2346.63159476433 11 14 7
-835.616000496549 -477.268489335018 2354.67368063894 11 14 7
-817.257241161479 -471.667676769387 2370.7276632347 12 15 8
-798.871387129803 -466.070966051466 2386.66574999753 12 15 8
-835.356591902829 -473.783838286882 2392.49193229696 12 15 8
-873.60441148553 -482.77427507249 2388.60883419099 13 16 9
-901.675697083362 -489.127800889994 2388.45485456612 17 20 13
-859.088356080096 -477.321877475965 2412.57046125355 16 19 12
-836.919520175758 -470.778078093735 2429.50821786933 15 18 11
-949.067644412432 -497.781902443504 2410.99791667383 15 18 11
-923.176385070295 -490.28178460895 2429.1978561866 16 19 12
-904.903770899053 -483.875696650021 2454.27170560457 15 17 12
-707.554873228518 -468.710481402086 2227.33204663008 22 26 27
-672.019687302184 -458.386262286427 2251.49797992418 21 23 22
-684.017369261757 -460.757516229667 2255.63654963052 21 21 19
-647.498345533887 -450.200096371588 2279.88637265087 14 16 11
-655.825882858438 -451.596517628959 2285.50660625912 13 16 9
-739.348194066628 -472.97381343616 2260.57790797393 13 16 9
-702.785863228782 -462.422824789201 2284.64067758861 15 18 11
-674.435396066103 -454.07138721399 2305.17243253963 16 19 12
-696.678788638637 -458.310307044191 2314.54816931232 16 19 12
-710.579446741239 -461.155900811573 2318.23852560613 17 20 13
-684.910804426181 -453.545846267471 2337.35369618249 18 21 14
-649.072253691829 -443.268604838959 2360.20937398726 21 24 17
-655.587450713306 -444.1720812967 2366.6673582184 22 25 18
-702.79086536708 -454.954486304964 2366.84831919646 22 25 18
-769.387912480017 -471.618350879979 2351.1420323546 21 24 17
-822.539233484325 -483.000036191893 2359.6586563361 11 14 7
-830.111416218218 -484.12237819999 2366.34556470391 14 17 10
-828.423679711594 -482.82231091343 2376.37048019255 13 16 9
-828.585954677199 -482.00665445527 2385.71971290304 10 13 6
-829.674248315491 -481.432925111347 2394.73431770805 10 13 6
-836.333181447359 -482.309566211148 2401.80990222821 16 19 12
-924.771861106114 -504.452048396133 2380.76781180873 19 22 15
-882.21578901639 -492.513724524637 2404.94333368804 18 21 14
-860.241169850086 -485.078227668601 2431.3252655819 16 19 12
-942.399392285926 -505.490400479436 2413.48825815576 17 20 13
-917.846285064414 -496.500725993268 2450.37797489831 21 23 18
-714.62847864895 -480.352168219531 2215.2259553595 1 5 6
-688.389283521623 -471.573760671483 2244.81005937275 17 19 16
-686.67396254757 -470.272859841553 2254.71293157009 23 23 21
-682.207982979098 -468.232722141018 2265.73032936645 17 20 13
-651.170695535723 -459.045282805844 2287.60100429477 18 21 14
-654.002880994151 -458.981461607978 2295.48729879083 20 23 16
-713.702907742551 -474.187617734961 2280.42949809473 20 23 16
-700.055902921227 -469.685140461201 2295.10906961054 19 22 15
-635.874597456291 -451.650333051356 2329.76697169255 18 21 14
-691.999937866649 -465.85541542629 2316.59495850764 17 20 13
-693.018677200742 -465.294514966069 2325.31061257559 15 18 11
-687.594365675655 -463.012869599281 2336.52049406953 15 18 11
-677.556186958269 -459.504077323996 2349.46037169415 20 23 16
-699.755307437879 -464.593490853812 2350.02735440874 23 26 19
-694.318042854909 -462.313292095728 2361.1799217173 24 27 20
-741.467680173117 -474.021858342766 2352.55474824671 24 27 20
-802.528408792237 -489.399610067344 2339.03750352698 19 22 15
-828.557367391331 -495.446797790707 2338.81757684015 14 17 10
-809.31349840176 -489.478839127426 2355.3128062872 10 13 6
-832.601425851729 -494.784746321688 2356.24862724728 11 14 7
-820.736395466858 -490.779795535447 2369.96041987713 11 14 7
-835.720434553883 -493.876447453915 2374.01494769335 13 16 9
-888.731490791083 -507.001996060334 2364.71245754319 14 17 10
-825.85057175078 -489.542766337088 2396.32524773631 12 15 8
-888.20419924013 -505.102771873455 2384.05496237976 11 14 7
-854.959599440366 -495.477699662186 2405.05544656848 12 15 8
-936.001584901592 -515.906557034473 2386.86587633931 14 17 10
-931.078119311399 -511.945227191303 2417.52154785817 18 21 14
-918.446473727339 -506.868666269118 2440.89412487053 18 20 15
-711.924025170833 -487.67448343459 2225.84203491355 16 20 19
-708.402167587372 -485.861120012738 2236.59675241797 15 17 12
-680.184041971934 -477.314881809575 2257.59710497307 22 23 18
-672.971388072806 -474.508928524588 2269.73095259464 20 23 16
-656.590324924692 -469.212619652432 2285.56608920017 21 24 17
-648.431366462129 -466.162046900884 2297.94250346116 24 27 20
-654.012303987194 -466.84835072534 2304.71227515552 24 27 20
-663.268417420819 -468.529284817393 2310.03528433443 23 26 19
-696.405855799651 -476.6773530764 2305.92057013904 20 23 16
-690.080066422654 -474.123856506104 2317.55453372652 21 24 17
-690.178900730965 -473.312131065219 2326.62652250995 17 20 13
-677.396228158334 -469.021409886297 2340.6829810604 16 19 12
-681.164634848597 -469.205008932688 2348.28283687412 19 22 15
-669.275419958542 -465.166528055614 2361.86833736038 23 26 19
-807.789864441727 -500.764147221855 2327.89583971469 20 23 16
-794.261732417645 -495.39764680448 2351.70494132024 10 13 6
-816.595445106031 -500.522495138842 2352.88585631029 10 13 6
-792.711709149592 -493.257454228687 2370.9564646564 11 14 7
-823.399216093096 -500.606124700899 2369.24606819585 12 15 8
-828.193358702439 -501.01811291612 2376.94491788647 13 16 9
-850.600007693532 -506.129720106734 2378.43944416621 13 16 9
-905.491791722842 -519.891785977455 2368.68500263678 12 15 8
-845.384603058812 -502.989874231069 2399.17793601906 11 14 7
-905.912926241439 -518.223131883072 2387.78602602705 11 14 7
-943.289077663099 -527.268448417596 2384.65054113283 10 13 6
-892.377817484516 -512.851042384935 2411.56109682036 15 18 11
-891.641300944606 -511.771441817633 2421.3498134957 17 20 13
-917.176682505818 -516.763609147019 2432.00467831913 17 20 13
-703.736648465774 -493.462291379291 2238.73526294894 13 16 9
-620.680623185349 -469.700966929621 2282.54318775535 20 21 15
-608.973149553596 -463.997319039562 2314.17685823076 26 29 22
-631.941545599387 -469.481682183882 2313.80960201176 26 29 22
-641.180849535609 -471.186961948908 2319.07285820712 24 27 20
-693.566755415621 -484.711542244801 2307.24920703414 23 26 19
-677.140056504559 -479.368844498683 2322.85596180068 24 27 20
-659.769902408617 -473.778388623348 2338.71707955905 20 23 16
-659.847624933284 -472.965039512748 2347.69399628153 17 20 13
-682.009356249906 -478.178483816606 2348.16917169077 18 21 14
-644.341416044564 -467.071244235668 2371.59031431517 21 24 17
-799.374922168202 -507.584888626732 2331.28100873961 16 19 12
-888.548970767931 -529.149473526277 2326.80978085437 9 12 5
-834.38630157716 -512.70563454636 2365.54039904916 11 14 7
-806.78413751589 -504.367603592618 2384.82108719696 11 14 7
-849.551345016116 -515.043741038889 2379.06136927854 12 15 8
-914.62249107182 -531.710730010845 2365.7468208187 12 15 8
-926.197481633781 -533.02731277288 2381.07383674133 13 16 9
-859.714171954776 -513.372646286282 2422.86174641857 13 16 9
-901.942496425698 -522.926503637559 2427.73652938499 16 19 12
-889.099971302116 -518.597265275275 2441.50658862327 16 19 12
-766.300619895735 -521.567440030148 2193.76069079462 12 16 15
-659.807803308081 -490.079419638627 2257.33610230226 19 22 13
-640.716903875563 -483.908603758552 2274.38608960608 15 16 8
-607.882009222338 -473.921310515301 2296.9789237252 20 23 16
-646.371604806166 -483.801582743906 2290.12819590012 21 23 18
-605.251338916979 -471.530466859342 2315.8774758976 25 27 22
-619.964220950773 -474.788013204421 2318.83284904285 26 28 23
-665.868022751366 -486.689424117012 2309.38763867211 27 29 24
-650.360338831666 -481.548171716267 2324.60617964139 27 29 24
-657.781955726963 -482.763441558533 2330.68426544571 27 29 24
-622.031896811334 -472.038187222034 2353.66746894819 26 28 23
-684.599366086685 -488.490379224526 2338.30784244973 23 25 20
-658.934341644819 -480.562237520495 2357.25186697697 19 21 16
-650.723265533313 -477.460526724163 2369.36854317414 20 22 17
-790.502486174146 -511.610776044858 2362.90228374871 12 15 8
-900.637699789508 -540.8996201334 2332.31059507307 12 15 8
-840.740838516867 -523.609278535811 2363.50189015573 11 14 7
-839.993018926461 -522.518722073129 2373.23544160052 11 14 7
-887.399588576065 -534.574785878785 2365.94684646824 11 14 7
-895.944398323972 -536.006465150076 2372.54524494726 13 16 9
-924.89983905307 -542.993869576531 2372.10378205535 15 18 11
-892.645899288082 -533.30917056232 2392.87712119176 15 18 11
-904.918292115481 -535.747228928971 2398.26660356849 16 19 12
-877.249075499902 -527.333340947554 2417.20720297138 16 19 12
-913.180952592344 -534.384590631489 2433.87517843713 17 20 13
-707.835567848651 -514.121164609795 2218.82460870745 20 24 23
-730.777865983752 -519.733937454472 2218.41787647618 21 26 20
-664.392592635427 -499.269736693295 2264.71805496946 15 16 8
-646.211557399948 -493.296194987353 2281.33705146659 20 23 16
-659.103507848568 -496.075776951769 2285.10004168727 21 23 18
-641.80516686831 -490.364236679981 2301.2063914481 22 24 19
-657.454820411443 -493.913161922919 2303.9036057946 23 25 20
-667.624019798752 -495.91662322831 2308.88240441603 24 26 21
-668.632833608695 -495.348751428297 2317.55130701224 25 27 22
-622.834488740087 -481.682489796746 2344.64990405622 26 28 23
-637.586249205701 -484.970455359829 2347.79340311246 29 31 26
-647.760225024781 -486.972121902487 2352.79328022912 27 29 24
-673.579399861902 -493.332669677821 2351.83323378154 20 22 17
-836.006657102021 -535.954171958362 2318.00421250088 15 18 11
-817.001677581219 -528.892644008121 2344.02282297347 12 15 8
-775.622049662158 -516.535564485763 2368.57864369462 12 15 8
-761.902876273485 -511.862458787091 2382.83984092892 14 17 10
-847.090509416167 -534.555013568262 2361.46669526649 14 17 10
-846.348472337783 -533.455848003144 2371.22066419208 13 16 9
-885.412283493924 -543.344505347026 2366.90410587095 12 15 8
-893.439409341312 -542.843204682047 2392.86857840127 14 17 10
-904.781221832336 -545.056077052539 2398.58134753803 16 19 12
-891.638937489077 -537.836008887308 2441.22721825995 18 21 14
-712.290401169031 -524.309181542112 2217.10681657778 31 33 30
-672.635128444025 -509.52099268062 2270.61544163144 19 22 15
-672.740430095342 -508.690081239374 2279.70355825836 16 19 12
-676.503300656477 -508.89895295491 2287.29496967232 12 15 8
-678.4379018177 -508.587540155776 2295.63677220902 13 16 9
-687.702744404786 -510.353694584985 2301.04728446708 14 17 10
-667.638660322261 -503.80961241167 2318.14680983775 13 16 9
-632.866268861197 -493.117461644047 2340.90015648327 14 17 10
-619.16055638453 -488.399966214934 2355.19456164798 19 22 15
-644.01910308637 -494.577702373768 2354.45031730311 19 22 15
-674.424450572526 -502.305480078762 2351.72062889723 15 18 11
-742.585192636576 -520.651327578483 2334.78135681028 17 20 13
-846.012494234774 -547.97715739129 2314.48599558784 15 18 11
-828.693673276943 -542.210503078673 2330.46968250984 9 12 5
-806.737458680016 -535.154074144421 2348.04285893149 10 13 6
-786.595572170857 -528.619807846617 2364.80422903027 12 15 8
-786.744153236799 -527.777726162811 2374.0764896777 12 15 8
-791.511444278299 -528.227716917158 2381.6793677695 15 18 11
-845.300297041776 -542.368425001372 2371.84388771242 15 18 11
-869.194339597192 -545.422801232709 2401.46584574105 15 18 11
-923.202808311383 -559.525670898283 2392.57586454973 18 21 12
-879.230168723302 -544.593347148125 2436.08881107032 15 18 9
-697.743074883385 -528.161407317013 2232.73301739464 24 26 21
-678.716562903297 -521.798536670486 2249.95377250403 21 23 18
-602.154017797349 -498.875042983946 2290.97147559754 14 16 11
-632.358591132088 -506.720036381957 2287.42600325064 13 16 9
-694.829600912841 -522.077996852341 2289.22443982471 11 14 7
-687.617106691728 -519.140374662083 2301.2815477295 13 16 9
-612.625142658415 -495.962274149141 2349.07038290634 13 16 9
-614.513543131346 -495.657649144983 2357.21259099808 15 18 11
-602.626628148713 -491.422103477414 2370.6923191253 16 19 12
-663.321620960925 -507.882679551838 2356.19922760097 15 18 11
-811.810762169405 -547.504899797541 2327.53829280045 15 18 11
-770.662012855295 -534.039758338611 2361.57366997062 9 12 5
-826.164445246514 -548.874775356878 2350.58367876193 11 14 7
-802.334601218221 -541.230814774202 2368.66889776226 12 15 8
-814.503398636174 -543.776660964899 2373.66527646144 17 20 13
-903.422861076914 -567.98636684221 2351.40125897703 17 20 13
-912.895228589551 -569.735768587489 2357.71747844111 17 20 13
-920.526391664419 -570.961514765631 2364.72510706875 16 19 12
-981.235338195219 -586.179161785622 2363.2327577296 16 19 10
-817.461469131605 -538.345138722851 2438.18572336238 12 15 6
-879.104797870813 -553.818986929958 2436.40508262037 13 16 7
-879.291085105322 -552.961480875702 2445.83551263229 12 15 8
-703.886628189703 -539.726553027349 2221.03996860437 20 22 17
-672.129435829665 -529.577200037871 2243.72896821095 14 16 11
-654.005342958553 -523.420876687151 2260.49137932103 14 16 11
-659.57978959322 -524.175210175007 2267.2725612454 19 21 16
-660.593977999449 -523.600924371744 2275.96028848616 15 18 11
-659.779676686688 -522.495618965018 2285.39220837902 15 18 11
-646.161137274843 -517.675812563838 2300.01057223125 15 18 11
-680.206437536059 -525.810155552258 2304.44583926912 13 16 9
-687.640001726316 -527.08901746864 2310.61397450751 10 13 6
-613.484203258412 -504.785991230892 2348.93290824163 12 15 8
-647.484039076762 -513.751249215694 2344.54265148797 11 14 7
-666.838468293143 -518.473269542541 2346.02850408266 10 13 6
-641.20194800014 -510.2232795784 2364.90883364807 9 12 5
-689.354857741369 -520.616925884385 2382.71546525099 16 19 12
-736.454365052385 -533.246639309549 2374.41117882392 11 14 7
-802.984297697492 -551.411186769842 2359.29288611031 11 14 7
-769.918792046498 -541.054812275829 2380.65134759202 15 18 11
-868.881632147476 -568.436017446256 2354.38587567106 16 19 12
-917.142293038603 -581.289622843308 2346.77357970398 14 17 10
-888.703714668478 -572.249827785049 2366.51219660837 11 14 7
-885.211879704721 -570.332106388174 2377.33783108957 10 13 6
-916.903782673979 -578.426047638126 2375.93531913371 10 13 6
-870.057473862542 -563.267229022755 2411.20841540417 11 14 5
-875.813427680811 -563.98442426318 2418.76757886654 13 16 7
-881.766283008187 -563.83748607114 2435.79896052135 15 18 11
-673.743491874564 -539.748913906002 2234.0409810342 21 23 18
-588.231532222783 -513.659115307907 2279.32741840844 13 16 9
-638.426646307389 -527.585809220315 2267.2002870511 15 18 11
-655.848362432377 -531.841520344013 2269.0091247206 22 25 18
-643.257821522655 -526.398349799483 2292.34720476197 20 23 16
-634.204160839833 -522.87486216721 2305.06038576856 20 23 16
-621.545395464481 -517.441252950252 2328.10345323665 15 18 11
-636.265146687957 -520.884903901297 2331.19855663367 14 17 10
-637.255056290408 -520.310745028889 2339.77937215795 13 16 9
-716.321623705576 -541.628211690809 2327.07792920074 10 13 6
-709.095161405108 -538.63904954102 2339.04425800396 10 13 6
-653.151786889381 -521.487030793004 2369.51153617813 11 14 7
-813.935616869128 -563.686425921639 2355.53296825949 12 15 8
-832.559383553322 -568.159073586916 2358.20883463267 14 17 10
-826.199574435017 -560.854504579408 2417.0221870514 10 13 6
-849.536971153771 -566.641296131084 2418.4588385353 8 11 2
-874.758178039492 -572.954603002614 2419.39350821571 11 14 5
-901.867118097008 -579.793874231219 2419.84207263927 11 14 5
-931.796248127626 -587.424235472561 2419.51300503303 14 17 10
-929.231847107026 -585.753894422663 2430.01345551781 12 14 9
-619.960099287654 -532.542202443242 2257.09277049978 8 11 4
-590.902818254732 -523.016090704958 2278.37539802594 14 17 10
-638.349683672881 -536.272667896371 2267.41406601089 11 14 7
-653.942912374033 -540.032516707108 2269.98669840578 6 9 2
-644.005120530545 -536.202528345996 2283.18002128502 11 14 7
-632.225392727566 -531.833089087511 2297.05332593559 13 16 9
-640.52962402465 -533.422995135503 2302.683574807 17 20 13
-636.956228784392 -531.492615970606 2313.14236291594 17 20 13
-631.545772510058 -529.022028272772 2324.30216890483 19 22 15
-604.15248278154 -520.061735643472 2344.13619708792 21 24 17
-654.595462741398 -534.087954820409 2333.15984284372 18 21 14
-708.771235394429 -549.184299835566 2321.03502280363 17 20 13
-720.816429703818 -551.841688752895 2325.55234090686 17 20 13
-668.613396442626 -535.592338607039 2354.8059237106 16 19 12
-674.212976357624 -536.3619142356 2361.70573584196 15 18 11
-788.615219485171 -567.247819794337 2346.29996673668 11 14 7
-834.830111791682 -579.862977468418 2338.64540258942 10 13 6
-776.027161574814 -561.749260164599 2369.61641025033 13 16 9
-831.514316386086 -577.049360018731 2358.83264377279 13 16 9
-855.692403613562 -583.182458071771 2359.62114134269 13 16 9
-905.062791158254 -595.702060997977 2361.25889589039 13 16 9
-899.737166067498 -593.212527129102 2372.78137334454 12 15 8
-812.03856280715 -566.795684792245 2412.79625089684 12 15 8
-842.754912754012 -574.799056721612 2411.59911372375 12 15 8
-886.483395382312 -586.557006743173 2406.1541213182 12 15 6
-884.830691235478 -585.146044262854 2416.26818460115 14 17 8
-913.794196438002 -592.594488318408 2416.13342687023 13 16 7
-918.652228531672 -593.059348724965 2424.14382165955 16 19 12
-765.977211603819 -587.045980466911 2176.16668948884 4 9 5
-695.528311009493 -563.075832461551 2234.39620662689 9 12 5
-658.313051355155 -550.988519863266 2259.2345867603 12 15 8
-671.29327703086 -553.109197980505 2272.11292105009 7 10 3
-636.717716055819 -541.857718710578 2295.40463726315 9 12 5
-638.629352369226 -541.551961475857 2303.64856989075 12 15 8
-671.618037767509 -550.540288313145 2299.37257716394 12 15 8
-643.368343100027 -541.213084124179 2319.77447963167 16 19 12
-601.349482117892 -527.794599848128 2345.44668061044 18 21 14
-701.348299897323 -555.851027731424 2324.14346611651 21 24 17
-717.97119757675 -559.903564616129 2326.86915581465 20 23 16
-714.424374077566 -557.951690153998 2337.43239146529 16 19 12
-813.525396716856 -582.78294176407 2346.73053895449 10 13 6
-820.150120599139 -583.81729489039 2353.74705249879 12 15 8
-780.679718385419 -571.246600985264 2377.47756677646 10 13 6
-860.175703314897 -593.768596069256 2358.26295026797 12 15 8
-879.763489904686 -598.601824232631 2360.84251847964 12 15 8
-880.897196205742 -597.995484303514 2370.03914352462 13 16 9
-897.746691749909 -602.007122143229 2373.73929825681 13 16 9
-888.712878937276 -598.411324257503 2386.49740986514 13 16 9
-864.853046435744 -590.473970128126 2404.27683149201 12 15 8
-884.497360995343 -595.296018330079 2407.09891876174 11 14 5
-900.457409333129 -599.028588347871 2411.27301136222 11 14 5
-735.88060732746 -587.003760289099 2189.33476437549 8 13 9
-696.062860478432 -573.953114345117 2215.80879228585 9 14 10
-718.027760699914 -579.730139347151 2215.74809644617 13 16 9
-711.809632363279 -576.926414376843 2227.70930032443 14 17 10
-643.658473228221 -555.318534652135 2265.55529580179 12 15 8
-697.518801972008 -570.770579027635 2252.24965922156 11 14 7
-701.29776422698 -571.011502915895 2259.92974552411 10 13 6
-669.492931248583 -560.477577005719 2282.18370634463 12 15 8
-654.174235765381 -554.062063625438 2306.59837232838 11 14 7
-650.6103050343 -552.098776286964 2317.07951099517 18 21 14
-646.124452296325 -549.860526060166 2327.89281285908 22 25 18
-641.630309417062 -547.623335779604 2338.67020701826 23 26 19
-674.690474691861 -556.689574630847 2334.75610745071 22 25 18
-734.379531067865 -573.740232413554 2320.73484061937 19 22 15
-762.955135058594 -581.412124082808 2319.02219164227 15 18 11
-814.14794573585 -593.058277430227 2337.28966809812 10 13 6
-810.644623310061 -591.082235579206 2348.0303800283 10 13 6
-789.63339168392 -583.884293324553 2365.12805541851 11 14 7
-798.086477428439 -585.483692064475 2371.4209122988 12 15 8
-834.218582091615 -595.321579903217 2367.82601242854 11 14 7
-865.781615984224 -603.778662944574 2366.0703037563 12 15 8
-856.747994865231 -600.152154456419 2378.8101106931 15 18 11
-884.666826499405 -607.502477040495 2378.57170093726 15 18 11
-883.027206679075 -606.069983578612 2388.73075746787 14 17 10
-866.576287671426 -600.251023844732 2403.95066281187 12 15 8
-913.997231786429 -613.346620240444 2397.33682896116 9 12 3
-892.906770574367 -606.157976137541 2414.09084209722 9 12 5
-890.331303495309 -604.451340939418 2424.52118213129 16 19 12
-990.74512407096 -633.133444462155 2400.85830463701 13 16 9
-762.999042666339 -604.405459486272 2177.80984890173 19 24 20
-707.770840631478 -586.475334404922 2210.97201802512 15 20 14
-709.73752533058 -586.162876660344 2219.45458447932 15 18 11
-642.567971375609 -564.61922393291 2257.10746717783 14 17 10
-653.591641152707 -567.106200687266 2261.57953578847 15 18 9
-665.538976655334 -569.870280916222 2265.72729764153 16 19 10
-691.173109536695 -576.817764166433 2264.29706619041 28 31 24
-694.947759335303 -577.06471559829 2271.96278094485 27 30 23
-657.650821434597 -564.762053766429 2296.31457836249 24 27 20
-680.584525284742 -570.8661445145 2296.15895191382 21 24 17
-656.933058791385 -562.753391571525 2314.7533901576 16 19 12
-838.252207284839 -612.3464378222 2299.92290626959 9 12 5
-805.574351582375 -600.574757782014 2331.27103824794 11 14 7
-850.808286557544 -613.305481763152 2323.91927663409 10 13 6
-828.008763228886 -605.478135437082 2341.87932731478 10 13 6
-804.255335017356 -597.378171458478 2360.03307204821 11 14 7
-789.681832575953 -592.058239773954 2374.70556818137 12 15 8
-781.54049418239 -588.683133780251 2386.96874674609 14 17 10
-793.683584751152 -591.409793306969 2391.95819478193 15 18 11
-875.083973462715 -614.922350813138 2372.60528113273 15 18 11
-837.592119425755 -601.790002319351 2404.72406972502 13 16 9
-915.704929894694 -623.271024118224 2397.02883487476 15 18 11
-910.371756704352 -620.718206420195 2408.4808295794 6 9 2
-971.769634216968 -638.080050160514 2397.61514850615 12 15 8
-977.59267583001 -638.839889523485 2405.49502125706 15 17 12
-722.033057802538 -600.797058093728 2195.66488763871 16 21 15
-712.205127407669 -596.814055785525 2209.25232543938 17 22 16
-668.737456337714 -582.393605953666 2237.06372445326 19 22 15
-658.057630366766 -577.265933855312 2259.89426735606 22 25 16
-668.183802676249 -579.495642756047 2264.81653537281 24 27 18
-684.699874676645 -583.695721436124 2267.15826895539 28 31 24
-621.906209760988 -563.387374963398 2302.03728597237 23 26 19
-721.58510189846 -592.334740238329 2279.84831537622 13 16 9
-702.665325219887 -584.674107985678 2305.88891857955 9 12 5
-824.676522230853 -620.307720614603 2276.68021127977 11 14 7
-792.813220006939 -609.585620166395 2298.56475844845 12 15 8
-822.327535722052 -617.689410370433 2296.68623584781 12 15 8
-814.266626633617 -614.274760590796 2309.28166023584 12 15 8
-838.322523670215 -620.685897714191 2309.69416463899 12 15 8
-854.14056039459 -624.566608379453 2313.32960388558 10 13 6
-862.623757809507 -626.199985748011 2319.77513522362 10 13 6
-878.474741783072 -630.074713038868 2323.55115336328 10 13 6
-819.7872833635 -611.243069423819 2354.60882349678 12 15 8
-812.599016320412 -608.114361213942 2366.66029972574 13 16 9
-812.772183969636 -607.227887828385 2376.01587966112 15 18 11
-836.923273326868 -613.620961309054 2376.83831814336 15 18 11
-833.416722688924 -611.612371470568 2387.54457464029 15 18 11
-839.320148780687 -611.512771808934 2404.38707204263 13 16 9
-863.737868665479 -617.000245109056 2414.96460548932 12 15 8
-952.826773700238 -642.928672845027 2394.45814559281 10 13 6
-951.221963458937 -641.467893034492 2404.75504245296 14 17 10
-980.211936728382 -649.220506235894 2404.91582060546 15 17 12
-732.80646001646 -613.197789323977 2191.19477568793 31 36 30
-666.828526507014 -590.634292124246 2238.05519018206 26 29 20
-680.58543223524 -594.028574150042 2241.43481135142 26 29 20
-671.736745834624 -589.426140315278 2263.52943797584 23 26 17
-632.685583619601 -576.316775275995 2288.79053603888 23 26 19
-625.482540573554 -573.168932161106 2300.76564617438 19 22 15
-665.698489238056 -584.80481509218 2293.44091741729 13 16 9
-749.778255316682 -610.072436166068 2268.70044219179 13 16 9
-672.303673325794 -585.040818411118 2309.01674888803 11 14 7
-689.776460900879 -589.559627327471 2311.20429585832 5 8 1
-805.513872523532 -622.667702639211 2293.87515634908 12 15 8
