ply
format ascii 1.0
comment KinectMotionCapture
element vertex 755
property float x
property float y
property float z
property uchar red
property uchar green
property uchar blue
end_header
-767.484080731117 430.219302533356 2460.13013974661 205 210 214
-759.021371062182 430.024010179996 2459.99030184427 205 209 212
-751.150287308538 430.145551365862 2461.79252210007 207 211 214
-743.570236994303 430.425414437491 2464.56775515953 206 210 213
-737.122029456422 431.341819626571 2471.24650891209 205 209 212
-729.532792492919 431.621088896557 2474.02503502294 199 203 206
-723.332574627578 432.696870498991 2481.69201195142 195 196 198
-716.00676150625 433.13489930036 2485.45336118527 185 186 188
-710.31208345065 434.530315467954 2495.09439453935 139 143 146
-703.772050866696 435.44740496878 2501.80630910675 137 141 144
-696.142236103883 435.725401591169 2504.59948263267 146 150 153
-687.983160690373 435.682949999473 2505.42741131949 147 151 154
-679.834999539265 435.639760411307 2506.25157306714 148 152 155
-671.697681091301 435.595505694689 2507.07146058265 177 181 184
-663.313990575193 435.390276689147 2506.9021623183 199 203 206
-654.946324158782 435.18394502265 2506.72695869921 205 209 212
-647.603238746019 435.618063357914 2510.49428855428 196 200 203
-641.004678882267 436.533257871755 2517.22757960585 137 141 144
-633.892193035454 437.127537664498 2521.98976465373 139 143 146
-626.036808715619 437.239876133319 2523.7858406612 186 189 194
-617.219414920634 436.70855872745 2521.61615241489 185 188 193
-608.907112706944 436.497562165943 2521.42048092801 179 182 187
-600.847814610411 436.446433285509 2522.21175635845 219 222 227
-593.26801552127 436.716520033491 2524.98616049916 218 221 226
-585.457207814282 436.825210721256 2526.76576491823 158 162 165
-578.339876836557 437.416702275939 2531.52950000711 155 159 162
-570.306586410023 437.363127731724 2532.3111413451 182 186 189
-562.28424357347 437.308841271092 2533.08849699203 183 187 190
-553.608389070731 436.769252909897 2530.86675814864 182 186 187
-545.396857044068 436.551684123826 2530.63423148886 172 176 179
-537.850668645446 436.818015688827 2533.39614026892 143 147 148
-529.663629891381 436.598907841259 2533.15434385347 133 137 136
-523.394635427865 437.83523612077 2541.92497964354 119 123 124
-516.260892993956 438.424615983057 2546.69477260546 121 125 126
-508.91142067922 438.852135463967 2550.46392516777 121 125 124
-500.539358726218 438.469060202234 2549.21042678827 115 119 118
-492.18853991288 438.08497607088 2547.94913385753 111 115 116
-484.057428211349 437.862193712936 2547.68673979591 120 124 125
-474.570219955639 436.502087738995 2540.36485138433 122 126 125
-466.489316457304 436.277045409203 2540.08404427847 124 128 129
-458.233436348204 435.8887149629 2538.78793615986 119 123 124
-451.505990146943 436.800444324783 2545.5675407016 111 115 114
-443.643877879606 436.736382251237 2546.28594097977 113 117 116
-437.259209083029 437.974239974302 2555.09897530333 111 115 116
-422.618492340356 438.822820980593 2562.61589109216 127 131 130
-414.764682248845 438.757898478697 2563.33120995736 111 115 116
-407.09500821298 438.855713781489 2565.05871464835 108 112 113
-1513.94743117052 395.247520841695 2208.67250155375 23 26 17
-1494.50397426614 392.361783648848 2192.05328879573 21 24 15
-1522.29996944313 402.344067227413 2253.10493689691 20 23 14
-1466.40935038294 394.257990261849 2206.67067180264 18 21 14
-1457.26949569217 394.145484130664 2206.78336677447 17 20 13
-1468.16864678755 402.147038348624 2256.75865236372 20 22 17
-1438.73770706258 396.303193437066 2222.21242265751 26 29 22
-1430.64259291564 396.483738149993 2224.10074778412 12 15 8
-1427.16536625218 397.989252803343 2234.01070681101 28 30 25
-1421.60614882041 398.906838378313 2240.36629182923 69 71 66
-1420.59364450123 401.152638219419 2254.7698701644 64 67 60
-1416.98916950054 402.66305268716 2264.72668729501 26 29 22
-1408.82076091375 402.845522719158 2266.6415340073 46 48 43
-1395.65759276075 401.549292526844 2259.59352316736 142 144 141
-1387.52317679098 401.729765314187 2261.49612269527 125 130 126
-1376.91885437669 401.16950044577 2258.90695235377 121 126 122
-1366.34429752444 400.607774534847 2256.30685682776 122 126 125
-1357.26851735648 400.489026198334 2256.39554582955 132 136 135
-1349.66874663506 400.814562077359 2259.18139013978 166 170 169
-1344.00647342695 401.733733601628 2265.57453885415 173 177 178
-1336.3947230351 402.059082593813 2268.36472172762 159 163 164
-1331.65922304039 403.276258923834 2276.57699064771 146 150 153
-1325.93831003188 404.196828902284 2282.99155091936 137 141 144
-1321.14497775483 405.415788990493 2291.22496706689 130 134 137
-1311.60160247436 405.145367166789 2290.40555068908 128 132 135
-1300.66988894706 404.426281974635 2286.85679434945 134 138 139
-1288.83951777003 403.406842588861 2281.4785250989 134 138 141
-1278.44686803253 402.833124220002 2278.81143103659 152 156 159
-1271.31571716855 403.303967348976 2282.50478236058 166 170 173
-1261.88302065537 403.026672992808 2281.64437938133 185 189 192
-1253.83970137617 403.197153982558 2283.51312616338 194 197 202
-1245.80074816114 403.367047476881 2285.38024226289 198 201 206
-1238.21746620595 403.686043315625 2288.15960212863 189 192 197
-1230.18469327915 403.85474244514 2290.0243825806 181 184 191
-1221.70982887492 403.872631165821 2290.97160203995 181 184 191
-1213.6883154272 404.039758772479 2292.83217292642 182 185 192
-1204.34741487274 403.755303779643 2291.93787674655 194 197 202
-1195.465095605 403.619929124155 2291.9552739609 199 202 207
-1186.59734542351 403.48346281125 2291.96704100654 200 203 208
-1178.17777529744 403.496451162231 2292.89380023737 201 204 209
-1170.19883541061 403.659235095926 2294.73857481328 204 207 212
-1162.22430620576 403.821205274285 2296.58143111838 209 212 217
-1154.25435362226 403.982625588913 2298.42283738223 208 211 216
-1145.8655242553 403.992149573761 2299.33816594887 204 207 212
-1138.32794780637 404.303106226651 2302.10031271834 201 204 209
-1129.95336752546 404.310928159007 2303.01058993958 208 211 216
-1121.1727989815 404.166528714292 2302.99008205478 124 127 132
-1110.34144082282 403.2633903025 2298.32441949417 179 182 187
-1102.01378193619 403.26760561119 2299.21712197999 212 213 218
-1093.28788198328 403.119104423782 2299.17644145998 214 217 222
-1084.57685605389 402.969485970273 2299.13027234913 62 65 70
-1074.67204650108 402.362886036955 2296.2834466606 234 237 242
-1064.79748839345 401.754508312772 2293.42549534879 66 71 75
-1055.7487767203 401.448556180445 2292.4236682871 250 255 255
-1049.091438973 402.054333921788 2297.02160278142 75 83 86
-1042.81614333575 402.812389305427 2302.5587728585 114 122 125
-1035.35480696728 403.113101053454 2305.29244574915 57 65 68
-1027.11804905918 403.108285043068 2306.15143906828 139 147 150
-1020.43119731348 403.712893713495 2310.76000889834 42 46 49
-1012.20404542708 403.706392144282 2311.61538481094 213 217 220
-1004.36678422456 403.851728688229 2313.40736576675 252 255 255
-996.157016214349 403.843297141731 2314.25627984442 88 92 95
-988.33205619304 403.986902347802 2316.04366068692 236 240 243
-980.884174430905 404.282800535384 2318.77208182298 87 91 94
-973.436093384907 404.578051440798 2321.50052652789 142 146 149
-966.722034685722 405.179435666054 2326.11873837635 78 82 85
-958.903946203344 405.320225283189 2327.90315578477 240 244 247
-951.090932460279 405.460147810078 2329.68591823172 246 250 253
-942.923480997858 405.445655631075 2330.518999834 63 67 70
-935.123082177461 405.583953662321 2332.29705623502 129 132 139
-931.579031561591 407.567369560271 2345.46727634297 187 190 197
-925.868388985103 408.628708725601 2352.9555367836 64 67 74
-917.338798266813 408.458123925682 2352.84186350253 223 226 233
-907.091595315882 407.515719530686 2347.96099273619 234 237 242
-899.293569955333 407.650663142386 2349.73767936854 143 146 151
-893.208178452408 408.556475734937 2356.28355489667 230 233 238
-885.407789033489 408.690307009099 2358.06127085782 89 92 97
-877.948954936703 408.977760003031 2360.79303418502 238 242 245
-871.825441383336 409.883156803397 2367.35272951354 252 255 255
-866.675425973969 411.252939444852 2376.79393238326 76 80 83
-861.489673546511 412.623417811965 2386.24791804208 245 248 253
-853.6591575312 412.755224369808 2388.03617305375 168 171 176
-846.481212212399 413.196214706214 2391.74427411965 234 237 242
-840.582351878197 414.257300759179 2399.30064773708 168 171 176
-835.295074769438 415.629186134356 2408.79162728633 228 231 236
-830.288197161423 417.15706960005 2419.25930801445 227 230 235
-823.67391910132 417.908839918822 2424.91916891786 219 222 227
-817.355368212628 418.816022990825 2431.54986341187 218 221 226
-811.633141980277 420.034661264866 2440.12075733607 220 223 228
-805.574865213834 421.098047130275 2447.73522645465 219 222 227
-798.885196054032 421.850203117207 2453.42250887514 222 225 230
-790.978352743588 421.97878557628 2455.23850750142 212 217 220
-783.375010960558 422.262476954991 2458.02249207807 192 197 200
-775.772113101423 422.545615017725 2460.80627361192 199 203 206
-767.583821478282 422.515858300955 2461.64577549348 194 198 201
-759.406328746537 422.485070337278 2462.48153022828 199 203 206
-751.815018930653 422.766028517749 2465.26093691524 202 206 209
-744.509403737086 423.202910642372 2469.01486096481 202 206 207
-738.047163274407 424.108979959885 2475.69767924269 197 198 200
-731.845124373426 425.171955837653 2483.36460591469 182 183 185
-726.450649807338 426.705472572173 2493.97328590753 158 159 161
-719.915902204163 427.612589022564 2500.68252776036 147 148 150
-713.088909054169 428.362965615326 2506.41957088548 132 136 137
-705.977346834775 428.956302342108 2511.18160349425 139 143 144
-697.519517259032 428.763915964154 2511.04021173127 148 152 153
-689.342418463194 428.727647524822 2511.87515551846 151 155 156
-680.389604276203 428.218581142178 2509.7566037667 162 166 167
-672.241949407501 428.180149607973 2510.58068626046 196 200 201
-664.105236766511 428.140978984372 2511.40099157174 197 201 202
-656.233894136265 428.258361657178 2513.20299212068 185 189 190
-649.628327659906 429.163541219163 2519.93781898837 163 167 168
-642.005297813822 429.437759116875 2522.72824218843 137 141 142
-634.87680938216 430.027350507841 2527.49614213421 170 174 175
-626.761489272633 429.984915896672 2528.30817415709 187 191 194
-618.657142854611 429.941800518317 2529.11642196602 157 161 164
-609.84608382288 429.423336949986 2526.9454019049 161 165 168
-602.48139926491 429.852926053655 2530.72049210806 220 224 227
-594.644030829066 429.965586507404 2532.50979225732 186 190 193
-587.507362420278 430.552877302317 2537.28049071233 146 150 151
-579.674255979122 430.664642877247 2539.06842910409 150 154 155
-571.394058233997 430.458585018202 2538.8614654911 155 159 160
-562.682157102024 429.934221445825 2536.65397247644 161 165 166
-553.553857421745 429.091118988186 2532.44061085926 143 147 146
-544.899792842804 428.564124073374 2530.21215941913 128 132 133
-536.920723038426 428.51261282684 2530.97400174272 120 124 123
-529.166482177884 428.619450107842 2532.73291345963 118 123 119
-523.529758543152 430.316898629881 2544.50853678923 117 121 120
-517.222147513278 431.53816699428 2553.29232143869 117 121 120
-509.23626541851 431.485717253845 2554.05682241759 118 123 119
-500.447423600093 430.795008346929 2550.79817758523 120 125 121
-491.287975621391 429.783963265811 2545.5166512328 120 124 123
-483.360736757791 429.728745244287 2546.25963605228 127 131 130
-473.681626486758 428.235861798452 2537.93064403467 130 135 131
-464.639532236388 427.21997845737 2532.6063679164 136 140 139
-456.974325833613 427.321311373755 2534.33251475807 150 154 153
-450.067997990037 428.061984836005 2540.09765104005 151 156 152
-422.477021494796 417.536489980442 2475.73060277657 161 165 164
-1467.8571825142 389.152280119396 2224.95892413868 27 30 21
-1467.71893060889 393.994396211709 2256.30692127221 23 26 19
-1441.39952850596 389.130074136976 2227.10390569316 24 27 18
-1450.28541477342 394.081225096261 2258.38124440436 14 17 8
-1430.30771212537 390.943183188999 2239.80373961459 19 22 15
-1429.82941518448 393.297603803513 2255.08822650086 14 17 10
-1419.63822953929 392.903825283368 2253.42806595429 8 11 2
-1436.73373639402 400.333550638302 2300.04228115714 13 16 9
-1420.42651028192 398.202886300186 2287.67381922319 21 24 17
-1405.20446580121 396.358511295295 2277.0657835114 18 21 12
-1386.57749706981 393.493925218589 2260.15150582286 25 28 21
-1380.9231069464 394.403246670768 2266.54130141811 5 8 1
-1371.80247782545 394.294945671058 2266.64707399704 39 42 35
-1363.67531811511 394.476756464356 2268.54688370282 70 72 67
-1355.06558892344 394.512527208459 2269.54470813671 139 141 138
-1346.94951824176 394.693235863985 2271.44065992913 144 146 143
-1338.83759608141 394.873438769121 2273.33481194304 131 133 130
-1333.6062589911 395.929147360606 2280.6484978647 149 151 150
-1327.39485050935 396.693281405704 2286.16291398365 153 155 154
-1321.16729205017 397.457808408905 2291.68322764522 130 131 133
-1313.03657013724 397.637197688397 2293.5841489259 136 138 137
-1303.97191691219 397.523195506127 2293.66915319637 129 134 130
-1293.98859093849 397.115026878764 2291.93263797379 124 128 127
-1285.88618116373 397.292104948549 2293.82335231221 120 124 123
-1279.17241600801 397.908736669661 2298.44235364797 127 131 130
-1267.85827326891 397.056743318926 2293.95596383267 139 143 144
-1258.40971474226 396.790476758843 2293.10241048868 161 165 166
-1248.07310816184 396.228860585532 2290.41586697271 169 173 176
-1240.02273040215 396.401298574791 2292.28707171928 184 188 191
-1230.18196092214 395.984045064123 2290.49807489995 183 186 191
-1223.04292974969 396.449552431843 2294.19363253899 176 179 184
-1214.12356655398 396.324810187144 2294.22503713066 174 177 182
-1205.65997318991 396.346592013188 2295.16870944412 186 189 194
-1195.01328618097 395.628813892682 2291.516490887 194 197 202
-1187.01734274926 395.796027809221 2293.36752343335 198 201 206
-1178.59261060203 395.814682979842 2294.29684009617 198 201 206
-1171.03902061657 396.128349781141 2297.06500966986 201 204 209
-1162.19994916454 395.997194261213 2297.06675736388 209 212 217
-1154.22697563441 396.161307060349 2298.90921009809 201 204 209
-1145.41221996245 396.028010205707 2298.90196138893 206 209 214
-1137.87407721036 396.338869886858 2301.66430660093 197 200 205
-1129.08127856566 396.203629293581 2301.64918772624 212 215 220
-1119.88757365403 395.918424028759 2300.70135323226 132 135 140
-1110.30093853919 395.483139509384 2298.81865938579 164 165 170
-1101.14973466175 395.19500895947 2297.85541625781 73 72 78
-1092.0183992967 394.905579642548 2296.88460185382 89 90 95
-1082.90711234347 394.614638489744 2295.90664334374 187 190 195
-1074.21857437114 394.471585155619 2295.85279886231 239 242 247
-1064.74462182519 394.028740582288 2293.92859278868 99 102 107
-1055.29574282636 393.58421516573 2291.9948954262 229 234 238
-1047.05730815561 393.586656769811 2292.85529988003 212 217 221
-1040.3986339653 394.186485694565 2297.45301680133 127 132 136
-1033.3395418602 394.636527995864 2301.11861701643 73 81 84
-1025.50009526213 394.786370477446 2302.91147768344 170 178 181
-1018.05033647531 395.085438718824 2305.64081999869 125 129 132
-1009.83579801471 395.08384972603 2306.492237947 238 242 245
-1002.77026945976 395.53165608659 2310.15975375549 223 227 230
-994.945120830605 395.67860356802 2311.94745530632 95 99 102
-988.248556941463 396.275685097315 2316.55873168275 221 225 228
-980.05350318884 396.270773882584 2317.40281943796 133 137 140
-972.976847817938 396.716513917734 2321.074222129 93 97 100
-966.628764794628 397.463121495625 2326.63697484169 220 224 227
-959.536427814431 397.908164250823 2330.31402263942 231 235 238
-951.353537107877 397.900336059503 2331.15347101267 223 227 230
-941.74375833558 397.287744200125 2328.19899746147 95 99 102
-932.877994879056 396.975416348928 2327.13021738399 187 190 197
-927.219659550031 398.021802205084 2334.59809008093 248 251 255
-922.238853764416 399.37110998585 2343.97601357357 184 187 194
-915.128169615702 399.813118008836 2347.65949861124 98 101 108
-905.587360952629 399.194660753282 2344.67977738097 93 96 101
-897.796582232648 399.332060540964 2346.45401635906 103 106 111
-891.035034386704 399.923568997078 2351.08873765542 221 224 229
-884.263314128444 400.514819935972 2355.7271355411 96 99 104
-876.809003420448 400.802096149027 2358.45724201288 243 247 250
-870.689387021422 401.696561755659 2365.01469658286 221 225 228
-865.211633026995 402.895164557059 2373.49525285359 98 102 105
-860.031836313264 404.24647267371 2382.94562815194 185 188 193
-852.208573927027 404.380675582552 2384.73142845628 145 148 153
-845.037567379297 404.818834011215 2388.4367947341 237 240 245
-839.144984613795 405.866096902732 2395.98984449547 207 210 215
-834.182025536688 407.371420814049 2406.43986581756 222 225 230
-829.494031928858 409.030004975491 2417.86784752128 227 230 235
-822.568110655703 409.620969825942 2422.56225084078 217 220 225
-815.942845309955 410.364415420726 2428.22547572397 218 221 226
-809.918636677892 411.413725753406 2435.8265045885 222 225 230
-804.480322188284 412.769227810212 2445.37137984807 222 225 230
-798.703485051262 413.972446252969 2453.96069820866 223 226 231
-791.694863214637 414.563427365999 2458.68515097568 221 225 228
-784.378533820384 415.000906873379 2462.44301297022 201 205 208
-776.171796676712 414.977812530398 2463.2899737941 193 197 200
-767.975615597404 414.953783364964 2464.13277436426 191 195 196
-760.080398881256 415.082268750317 2465.94454128784 179 183 184
-753.053469298395 415.671001455932 2470.67522199542 171 175 176
-746.58705185254 416.567096508431 2477.35905965917 169 170 172
-740.948081692843 417.924856308617 2486.97675670428 160 162 161
-735.553752945895 419.437285985109 2497.58379266335 144 146 145
-729.564404448459 420.642602608393 2506.25073699826 132 134 133
-722.445658439911 421.231991906311 2511.0150819076 136 138 137
-714.500452724075 421.358335550182 2512.844595809 149 151 150
-706.561040120544 421.484081788014 2514.67221408516 159 161 160
-697.825860565388 421.145866920514 2513.55403475558 171 173 172
-689.111815764573 420.806230556218 2512.42806912185 183 185 184
-680.680840221344 420.620060009228 2512.27738927474 197 199 198
-672.525369308233 420.58741270918 2513.10474806066 182 184 183
-665.151616220848 421.018144090179 2516.88296508252 167 169 168
-657.264694367573 421.138980420699 2518.6911410375 145 147 146
-649.887253312697 421.568962655115 2522.47064151214 150 152 151
-642.505446965855 421.998625385575 2526.25195825945 165 167 166
-635.612689271721 422.738411194681 2532.01209702167 174 176 175
-628.216986802118 423.16767786812 2535.79817856386 150 152 151
-620.816946188509 423.59657811603 2539.58580866929 137 139 138
-612.456373119759 423.403606607204 2539.40903581584 125 126 128
-605.294402877263 423.98724119081 2544.18865151026 130 131 133
-596.953276148836 423.792735515377 2544.00469731576 132 134 133
-589.553815742043 424.220064739511 2547.79199807401 125 127 124
-580.548219189463 423.556466668371 2544.61415393252 120 122 121
-571.800300210915 423.047372620533 2542.42115396943 158 160 159
-560.617515860753 420.821294972151 2529.25014704858 182 184 181
-547.305196622738 417.03135181362 2506.06855868585 180 182 177
-543.746805706597 420.106958946268 2526.793053314 130 134 133
-1467.26264013455 393.221858474584 2304.41275618421 20 21 13
-1446.08527966342 397.414238935642 2333.75651323352 24 25 17
-1431.73197135079 395.900925224759 2324.99117893038 18 20 9
-1376.18798361755 382.554190795422 2241.7683352206 22 25 16
-1379.97930408346 386.160722968015 2265.19549832379 29 32 23
-1377.74895804087 388.058898602983 2277.88222301611 17 20 11
-1367.14150152565 387.530616466214 2275.29660455935 14 17 10
-1362.40616783315 388.716342913686 2283.50644011174 42 44 39
-1353.28047383128 388.615326528779 2283.61460258794 77 79 74
-1343.20567677917 388.226944527316 2281.91256087055 135 137 132
-1336.51001635599 388.840234714884 2286.52498625827 155 157 154
-1329.8033201085 389.453658439851 2291.14143145102 140 142 139
-1322.61129478766 389.923618973548 2294.85657985282 152 154 153
-1316.35652917468 390.680693357194 2300.38621658307 137 139 136
-1309.61648692048 391.29424294858 2305.01453282391 126 131 125
-1302.39908384232 391.764050106773 2308.73914465082 121 126 122
-1295.17564641438 392.233689924722 2312.46568205228 130 135 131
-1287.484911358 392.55908861212 2315.28456677018 134 139 135
-1273.82905745467 391.009941859633 2306.26311742741 132 136 135
-1263.88858455471 390.611665221846 2304.51152413496 139 143 142
-1252.61195126297 389.778810889461 2300.01294979829 148 152 153
-1244.08210762478 389.810758654207 2300.98120605538 177 181 182
-1232.87031184637 388.97417933647 2296.45879275909 185 189 192
-1224.82081938876 389.148355591375 2298.33006130235 181 185 188
-1215.88867293187 389.03215243725 2298.36675482089 178 182 185
-1207.41200522788 389.059878139004 2299.3153717027 181 184 189
-1195.87634498514 388.071500585492 2293.83236656687 189 192 197
-1186.12932621413 387.661242938609 2292.0098344433 198 201 206
-1177.70683771954 387.685124230893 2292.93847591682 196 199 204
-1171.44741552143 388.434757962577 2298.46924315025 197 200 205
-1163.03139127272 388.457300997561 2299.3956892521 204 207 212
-1154.19927304839 388.333317717742 2299.39545173434 208 211 216
-1144.95879325648 388.062505928914 2298.46569832172 208 211 216
-1136.99969490335 388.227611122286 2300.30343886605 198 201 206
-1128.6272614734 388.246187591366 2301.21374750267 205 208 213
-1119.84906375116 388.117774494128 2301.19358440476 229 230 235
-1109.84721273528 387.549924031068 2298.3849412335 214 211 218
-1100.28576715925 387.126353304316 2296.49372460071 218 215 222
-1091.15716323552 386.847641986171 2295.52298075689 219 216 223
-1082.45364326061 386.713868743244 2295.47527999733 211 210 216
-1073.76499381073 386.578918819081 2295.4220874351 207 206 212
-1064.29125513505 386.149465056356 2293.49881401242 231 232 237
-1055.24012548959 385.865284299862 2292.49950817594 227 230 235
-1046.99878885455 385.8731531241 2293.36112220956 222 225 230
-1039.55203642313 386.173890428425 2296.08949813645 224 227 232
-1032.49467372159 386.621020343906 2299.75399594487 242 247 251
-1024.2702673156 386.626427262044 2300.60952714097 223 228 232
-1017.97907254231 387.367000241884 2306.15115489597 229 233 236
-1010.52587748707 387.665547707346 2308.88170644321 215 219 222
-1003.83146672926 388.258376458662 2313.49187962727 240 244 247
-995.618679790817 388.26082809222 2314.34296605351 220 224 227
-987.41581969728 388.262369494174 2315.19012270052 234 238 241
-979.222978141968 388.262804734152 2316.03355577466 229 233 236
-971.409550509776 388.410068315497 2317.81702249736 231 235 238
-965.434811764622 389.296192050443 2324.32120816734 225 229 232
-958.346932443177 389.738367068525 2327.99667426014 229 233 236
-950.892116916479 390.032094611769 2330.72745091468 242 246 249
-941.282693721434 389.435686962394 2327.7740692934 235 239 242
-932.77346741539 389.282469608388 2327.65430725812 226 229 236
-925.69536191046 389.721775163997 2331.32575134555 227 230 237
-920.01777086399 390.754786080123 2338.79986551245 237 240 247
-913.616853787492 391.490952601693 2344.38102702645 235 238 245
-905.46911997713 391.483312465372 2345.20746146282 238 241 246
-898.019135246028 391.772384824156 2347.9361316668 244 247 252
-890.56919592752 392.060800337663 2350.66473581066 237 240 245
-883.796566539969 392.64666758725 2355.3030578092 240 243 248
-876.67770051677 393.083218839642 2358.98910390708 236 240 243
-870.220821177186 393.817701580077 2364.59047156892 241 245 248
-864.410543293693 394.850790329658 2372.1125474141 149 153 156
-857.918130479292 395.585530286665 2377.72684512918 189 192 197
-851.084760284629 396.170496026469 2382.38716852368 170 173 178
-844.24127979071 396.755334616575 2387.05090147068 236 239 244
-838.349941661215 397.789136005581 2394.60273762244 210 213 218
-833.705779883095 399.422530027854 2406.01314724537 224 227 232
-828.384659428969 400.757207997367 2415.51361599479 224 227 232
-822.401919271025 401.792570443882 2423.09852541507 216 219 224
-816.39399364265 402.828307966789 2430.69286826794 217 220 225
-810.360737589754 403.864394061796 2438.29618661038 222 225 230
-804.30232752458 404.900794451901 2445.90892236945 222 225 230
-797.613105042338 405.636734875497 2451.59481900506 222 225 230
-791.209129477906 406.523137968898 2458.25498360927 211 215 218
-784.48745319772 407.259155698773 2463.95267776134 201 205 208
-777.160636654463 407.693710155522 2467.71412943121 187 191 194
-770.121724550757 408.278669282695 2472.44913342134 179 183 184
-762.783057656873 408.712614935557 2476.2148448334 159 163 164
-755.439724020956 409.146087901274 2479.9822161831 150 154 155
-749.231391695287 410.183345123708 2487.64948897902 150 151 153
-742.997959664542 411.221061005103 2495.3256617417 146 148 147
-737.299108672494 412.561554784893 2504.96406729843 136 138 137
-730.456167588228 413.297428474071 2510.70581063975 133 135 134
-723.323745466491 413.881827623276 2515.47449377467 137 139 138
-714.821238634367 413.708516891972 2515.35077422477 152 154 153
-706.334720939659 413.533985762368 2515.22115313978 156 158 155
-697.330196728813 413.05498921275 2513.12365839854 172 174 171
-689.145149307262 413.029869856645 2513.9623314361 189 191 190
-681.494748533131 413.307658629844 2516.76296895048 199 201 198
-674.363697382197 413.888953363194 2521.53117403234 171 173 170
-667.223077757055 414.470040219644 2526.30258571032 151 153 152
-658.801890388087 414.290156944555 2526.14882383662 154 156 155
-651.151737712974 414.565970810217 2528.94922219738 161 163 160
-644.000572417356 415.146026871459 2533.72464204359 147 149 146
-637.82609948552 416.335829626369 2542.45767849162 137 139 138
-630.157741326299 416.610925745201 2545.26463743331 125 127 126
-621.765816053531 416.427695444225 2545.09999100269 125 127 124
-611.956700425598 415.326999362986 2538.98119275658 123 125 124
-605.266688036757 416.210884279923 2545.74509528063 131 133 132
-595.985437457438 415.413123155681 2541.59072754506 137 139 136
-587.665655618151 415.225525031766 2541.39953913653 122 124 119
-579.133298182069 414.883969062398 2540.20741482275 136 138 135
-568.360989585241 413.009363396518 2529.04715254799 182 184 181
-1352.38668796087 382.930166969188 2299.50975497552 22 25 18
-1347.07652587241 383.961979167304 2306.85027795819 17 20 13
-1365.56551269849 392.029786325102 2359.40617988215 15 17 12
-1335.90310579342 385.887051773214 2320.65501993945 18 20 15
-1324.3878833565 385.088904650113 2316.24549840841 23 25 20
-1322.28993472113 387.109393327994 2329.95990310242 20 25 18
-1312.66891875862 386.873746962121 2329.17132036397 29 34 27
-1299.35742506519 385.50693541142 2321.10506574426 40 45 39
-1294.40798803881 386.681496330305 2329.39185062142 60 65 59
-1280.71278511692 385.169082547514 2320.38746981604 94 99 95
-1269.36355062703 384.361351667499 2315.9169155205 136 140 139
-1256.24034456757 382.984785785454 2307.78176725771 136 140 139
-1247.68735289847 383.02299787786 2308.75890671727 147 151 152
-1234.65959936913 381.641391425567 2300.58869664654 154 158 161
-1226.59692757191 381.818776274071 2302.46474152708 162 166 169
-1216.76542632355 381.427065606917 2300.67430445946 166 170 173
-1208.72167999866 381.602638885813 2302.54333631935 175 178 183
-1197.17679317227 380.63896494149 2297.06580177987 182 185 190
-1187.85528803821 380.384957122041 2296.16675580324 198 201 206
-1178.1206375403 379.987198410278 2294.34067288618 196 199 204
-1170.99401906046 380.443585651184 2298.0310323997 195 198 203
-1162.57780979831 380.471555136228 2298.9579551582 196 199 204
-1154.59643993797 380.641355744244 2300.80388774877 214 217 222
-1145.35104307527 380.381560869617 2299.87700644164 204 207 212
-1136.12552602648 380.120453095028 2298.94280299115 201 204 209
-1128.17312196802 380.287380980411 2300.77824877184 189 192 197
-1119.81002835976 380.310310723512 2301.68523805672 211 212 217
-1110.21863960019 379.90208356486 2299.80605860372 200 197 204
-1099.42212926397 379.061899258552 2295.13248450832 208 205 212
-1090.29612662185 378.79380561357 2294.1615966416 172 169 176
-1081.19012963752 378.524394150457 2293.18334053662 143 140 147
-1074.11616254483 378.972411198113 2296.85393827946 185 184 190
-1065.03738273578 378.700625905648 2295.86561404336 231 230 236
-1056.37589841274 378.571462791377 2295.80298799442 225 226 231
-1046.93982877825 378.152877792269 2293.86659375475 135 138 143
-1038.31338492577 378.021035102431 2293.79103400867 105 108 113
-1031.65011421059 378.609596017529 2298.38982513601 106 111 115
-1023.81505225167 378.764791772686 2300.18175091725 237 242 246
-1017.13823846165 379.352645073805 2304.78515505642 162 166 169
-1008.92318315629 379.361914718995 2305.63758009541 171 175 178
-1001.85616169058 379.804241101587 2309.30522486136 171 175 178
-994.783795329721 380.246240404008 2312.97478694972 160 164 167
-987.331806190986 380.542894632703 2315.70475749446 156 160 163
-978.764445814524 380.403859618543 2315.60718783034 220 224 227
-971.319717107165 380.698919957629 2318.33440012619 195 199 202
-964.608062654375 381.283952562936 2322.95050466581 162 166 169
-957.157891139433 381.577975026072 2325.67961622865 223 227 230
-949.707605990031 381.871465963455 2328.4087289747 177 181 184
-941.180435109263 381.727704034309 2328.29620030422 175 179 182
-933.381293360829 381.87399243867 2330.07440285019 188 191 198
-925.233349614288 381.873744937876 2330.90147135041 198 201 208
-918.500635024612 382.455729734155 2335.5249978666 204 207 214
-911.408929453967 382.891636378006 2339.20112691534 231 234 241
-903.966005117777 383.181028324496 2341.9272559261 201 204 209
-897.210268327424 383.76206675548 2346.55907586761 219 222 227
-890.444265677961 384.342924564419 2351.19435784779 227 230 235
-883.668171833797 384.92356754262 2355.83354443391 231 234 239
-876.210134751149 385.211048939896 2358.56502031903 241 245 248
-869.418809423775 385.790990737809 2363.20943386458 240 244 247
-863.279033288907 386.663898577844 2369.77284096101 239 243 246
-857.118866102286 387.536961951819 2376.34341432234 238 241 246
-849.961446159012 387.969838937728 2380.04319127799 227 230 235
-844.091528841451 388.989820863052 2387.58620174372 218 221 226
-838.516779011061 390.157257465387 2396.09964870479 225 228 233
-833.86538273355 391.766531650638 2407.51061270757 231 234 239
-828.537427356958 393.082479695241 2417.01215163825 221 224 229
-823.174005765902 394.399264155127 2426.52689419069 218 221 226
-816.844102925314 395.274554217445 2433.15930689664 221 224 229
-809.87858487969 395.854931681065 2437.86704407011 225 228 233
-803.818796885419 396.877927201882 2445.47926906378 224 227 232
-798.03639043592 398.048953397522 2454.06843631355 213 217 220
-792.523724004767 399.368189806675 2463.63733581944 175 179 182
-786.083155291344 400.244589058168 2470.31004128307 186 190 191
-779.032707271822 400.825234877413 2475.04891125868 163 167 168
-771.972390145373 401.405565465214 2479.79108896149 148 152 153
-764.902450248798 401.985782019259 2484.53700867929 137 138 140
-758.109972294438 402.713966554213 2490.25983671144 140 141 143
-751.872086173136 403.738874202259 2497.93666141083 133 135 134
-745.327127095127 404.615647280402 2504.64757832531 131 133 132
-738.202930069696 405.195496798189 2509.4129296969 133 135 134
-730.515045443552 405.477906745724 2512.22753517738 151 151 151
-723.10219677468 405.908498589053 2516.01994656386 157 157 157
-714.869123577398 405.892269581378 2516.87699426557 161 163 158
-706.108119108562 405.577217283287 2515.76994574982 172 174 169
-696.834539821497 404.962801093214 2512.69318065118 190 192 187
-688.385059030398 404.794147384428 2512.550546129 170 172 167
-680.998413732264 405.221094878454 2516.33316187486 127 129 124
-674.903204328085 406.39416251836 2525.03613621544 127 129 124
-669.291170342531 407.866625229153 2535.71925709212 148 150 147
-661.352628274926 407.994779071472 2537.54674072748 138 140 137
-1398.15269473379 387.995851646739 2385.66048794722 17 20 11
-1353.8046792012 377.855074819761 2319.94427227922 20 23 16
-1367.19062532995 386.940809824794 2380.83095084712 24 27 20
-1343.72397315939 382.716072303929 2353.83960477768 24 27 20
-1335.42342262221 382.910303208682 2355.80360530495 20 25 18
-1283.46510936117 377.991817539483 2326.31231322251 25 30 24
-1269.81908157366 376.511962446222 2317.29252184919 22 27 21
-1263.03954898954 377.113702071054 2321.93454963435 44 49 43
-1253.54384862055 376.880794511829 2321.1003873767 110 115 111
-1240.48173775624 375.533105664751 2312.94521975351 128 132 131
-1230.15441089601 375.018172797023 2310.25882689665 147 151 150
-1218.97065233771 374.222660460699 2305.72932519469 156 160 159
-1210.03011703284 374.122506847047 2305.77027766021 164 168 171
-1198.9137959443 373.32312205455 2301.21572690465 171 175 178
-1189.57975669114 373.080488386936 2300.32234754737 196 199 204
-1178.96664816402 372.416959855932 2296.66202188495 196 199 204
-1170.54053864714 372.451225583533 2297.59276253409 192 195 200
-1161.6961898884 372.344454364761 2297.59826750629 198 201 206
-1154.56772633493 372.797148255348 2301.28927304043 197 200 205
-1145.74256522048 372.688495669028 2301.28766446869 211 214 219
-1136.09175789773 372.297955058147 2299.4314084894 202 205 210
-1128.13644906972 372.467676300115 2301.26812044517 191 194 199
-1120.18568108343 372.636684112359 2303.1031287132 190 191 196
-1111.00188438921 372.382892313791 2302.15406438793 224 221 228
-1100.60830677954 371.705364962963 2298.41291866552 210 207 214
-1091.06480301947 371.307579930278 2296.51738297424 207 206 212
-1081.95120347731 371.049244473672 2295.54272486641 215 214 220
-1074.46663506915 371.353841758063 2298.28513199946 213 212 218
-1064.98300762728 370.951824699963 2296.36726737483 202 201 207
-1055.52453844582 370.548169348502 2294.44013819753 201 202 207
-1046.09136468146 370.143094859565 2292.50396547431 213 214 219
-1038.25146490458 370.302291003143 2294.2979508522 215 218 223
-1030.80577162822 370.602331843602 2297.02588939897 206 209 214
-1022.19898771549 370.476628829584 2296.94364970681 220 223 228
-1014.3758802049 370.633336289537 2298.73109174332 215 219 222
-1006.55768838657 370.789301978769 2300.5169460617 191 195 198
-1000.26124928267 371.512452563792 2306.05916473145 196 200 203
-992.819159891662 371.80931541399 2308.78555406688 158 162 165
-985.002733296025 371.963366007922 2310.57062251657 149 153 156
-976.819592718051 371.974201006077 2311.41131553969 207 211 214
-970.12256039505 372.553778903735 2316.02169574403 197 201 204
-963.415036742631 373.13318499107 2320.63562057372 166 170 173
-955.605541926737 373.284403950492 2322.41795679616 223 227 230
-948.162342484775 373.577558415847 2325.14446965124 158 162 165
-941.077777672629 374.013007332467 2328.81796965799 161 165 168
-933.988088127121 374.447987769663 2332.49355063056 179 182 189
-925.832192108885 374.45341072327 2333.32393633457 155 158 165
-917.686493784458 374.457780065092 2334.15053733676 156 159 166
-910.596683551094 374.890919111227 2337.82602322386 210 213 220
-903.847611948308 375.466887047036 2342.45478457021 154 157 162
-896.745032870224 375.899274529835 2346.13485315148 152 155 160
-891.34148706949 377.04889771274 2354.58449690291 178 181 186
-884.215986862649 377.480870846959 2358.27286232778 180 183 188
-877.085389129792 377.912342269134 2361.96278771506 165 169 172
-868.95027503769 377.912069780933 2362.78519283467 181 185 188
-862.148033285073 378.486469331773 2367.43340886133 182 186 189
-855.991759754307 379.348542096879 2374.00173825228 206 209 214
-850.466193206442 380.499168576593 2382.49604672917 207 210 215
-844.910119965046 381.650213129834 2391.00147097779 215 218 223
-839.323581983727 382.801793220717 2399.51800461768 227 230 235
-833.706572276799 383.954028225976 2408.04565919417 226 229 234
-828.689562814453 385.395732943594 2418.51026457605 217 220 225
-823.631926720714 386.838429892807 2428.98970600427 218 221 226
-817.913427311691 387.992546953988 2437.55437760505 221 224 229
-811.241857225665 388.712909529701 2443.23268508868 223 226 231
-804.860263433658 389.578130724587 2449.88311934638 223 226 231
-798.45866474478 390.443524531213 2456.54108946346 207 211 214
-792.336788748205 391.454072270829 2464.17467984982 172 176 179
-786.7844945483 392.755324382355 2473.75662066832 182 186 187
-781.786418706055 394.347940844093 2485.29254382974 144 148 149
-776.158237084277 395.650908161767 2494.90218681356 134 135 137
-768.75678081434 396.081709843394 2498.69047474631 129 131 130
-760.776518455053 396.221082027633 2500.53396337223 134 136 135
-752.801887584547 396.35969815801 2502.37534882133 131 133 132
-744.26891691531 396.205979524947 2502.2641761826 131 133 132
-735.751827020737 396.051104280426 2502.14714619386 134 136 135
-728.358179933662 396.478861381715 2505.93236703875 146 146 144
-720.685718153063 396.760192166217 2508.74128739568 152 152 150
-712.198547573315 396.602658833056 2508.61318603923 148 150 145
-704.804258022479 397.02881945125 2512.39877416339 146 149 142
-698.981616627765 402.857913950354 2553.35299484198 116 119 112
-1435.22216806952 382.326975040509 2401.62963945835 19 21 10
-1409.98855993766 380.448614192735 2390.39013725868 19 21 10
-1400.82623144461 388.308255884471 2445.51069177868 22 23 15
-1368.60344493863 387.032383953396 2438.98944608808 30 31 23
-1268.92725331986 370.882201821302 2334.25795344191 18 23 16
-1262.55080233979 371.616280685431 2339.83006798718 31 38 31
-1247.19571228911 369.620748518618 2327.12585520329 74 81 74
-1233.26334803785 368.030922742318 2317.13499261412 143 150 143
-1220.73083209915 366.847729612645 2309.8663709678 145 152 145
-1211.33706300793 366.619400201753 2308.99577298283 162 168 166
-1201.08712383279 366.115854456852 2306.28212145032 168 174 172
-1191.30244038967 365.747577759859 2304.47618754106 188 193 196
-1181.11001613266 365.240698620156 2301.74164147415 194 199 203
-1171.80784648206 365.006361429474 2300.83705437059 194 199 203
-1163.38095148108 365.04540831268 2301.76869546668 191 194 201
-1155.3887391433 365.221038189299 2303.61926166937 193 196 203
-1146.97840572866 365.258320026547 2304.54449783839 203 206 213
-1136.89763900219 364.744053687934 2301.76857071619 206 209 214
-1128.51676698454 364.778993091974 2302.68292571295 197 201 204
-1120.5605039391 364.950835941377 2304.52014445042 191 195 198
-1111.3717901741 364.708061057009 2303.57395223065 205 206 211
-1100.97362015953 364.049650676472 2299.83591750734 213 214 219
-1091.0179560978 363.527398439628 2297.0139333401 199 200 205
-1081.90182620298 363.279881208217 2296.04101085678 206 207 212
-1074.01208899461 363.44620608602 2297.85364191953 213 214 219
-1063.72956158974 362.780729178547 2294.07280240723 205 206 211
-1055.07043410576 362.667552958216 2294.01052626683 205 208 213
-1045.2430615714 362.137236058157 2291.14157478332 213 216 221
-1037.40522704136 362.298985461971 2292.93474812178 216 219 224
-1029.57225577144 362.460054696051 2294.72635744056 216 219 224
-1021.74404206875 362.620282926724 2296.51617470145 215 218 223
-1013.15215702443 362.501382073293 2296.42903492476 221 224 229
-1005.33867049918 362.659903258211 2298.21337244969 220 223 228
-998.2881133498 363.096107419097 2301.8745731798 220 223 228
-991.608673715426 363.671378795551 2306.47798206052 223 226 231
-984.544903718295 364.106954157863 2310.14419037582 225 228 233
-977.475711101247 364.542100065153 2313.81208222426 224 227 232
-970.032384157841 364.837165173045 2316.53878556643 222 225 230
-962.588885895881 365.131581905843 2319.26550223414 227 230 235
-954.417753094714 365.145580285504 2320.10207106318 227 230 235
-947.340309662429 365.578593329515 2323.77305411997 223 226 231
-940.616127072127 366.151206490579 2328.39251923028 225 228 233
-933.525698943532 366.583595510786 2332.06817303127 225 228 233
-924.66253287541 366.313759422419 2331.00140099114 227 230 235
-916.170875283715 366.183007439574 2330.87720493554 228 231 236
-909.087916480753 366.613153027058 2334.54972127419 228 231 236
-901.999842616891 367.042843448376 2338.22406176354 227 230 235
-895.936417078791 367.894320005594 2344.7578564911 230 233 238
-890.193307387279 368.886775941303 2352.25271610422 231 234 239
-883.748385618453 369.597685239275 2357.84796047766 234 237 242
-876.952581866298 370.167678244241 2362.49325055081 234 237 242
-869.48069143749 370.455045980759 2365.22975130095 234 237 242
-862.669871069488 371.024361577412 2369.88070066829 233 236 241
-855.848972674911 371.59347551997 2374.53529654603 231 235 238
-850.319227215755 372.727842695183 2383.02964228258 215 218 223
-845.081882053287 374.00438564326 2392.49554024746 218 221 226
-839.808859301832 375.281681546279 2401.97420372666 225 228 233
-834.817867073916 376.701466767407 2412.42770220919 218 221 228
-829.786283977309 378.12205047561 2422.89626343106 211 214 221
-824.713979051861 379.543643827141 2433.37944229658 217 220 225
-818.671132500435 380.540145433848 2440.98325851445 221 225 228
-811.680861967057 381.110757235679 2445.69950666677 224 228 231
-805.29039566718 381.965486742687 2452.35237302517 215 219 220
-799.182180932183 382.962683237901 2459.98024669469 192 196 195
-794.247714589915 384.529767173503 2471.49113166608 161 163 162
-787.781696418023 385.385484150517 2478.17152336308 173 175 172
-782.179542644623 386.669211390687 2487.77025775755 126 128 125
-775.665826082698 387.52554190384 2494.46802636322 126 128 127
-767.105652627109 387.382772005935 2494.36756361791 130 132 131
-756.552698190697 386.238744409235 2487.44920427591 134 136 133
-747.75780095185 385.950028473967 2486.35645739697 135 137 134
-744.620518982747 388.520892859556 2504.75649690373 135 137 134
-1259.72824879981 365.359820361622 2353.1829855304 53 61 50
-1240.37857453967 362.204154885478 2332.24310654602 39 47 36
-1222.04650164827 359.310456579187 2313.08611877982 93 100 92
-1211.76197717238 358.825056105285 2310.38640247558 161 168 161
-1201.06964827308 358.203749199697 2306.75804623851 155 161 157
-1190.84752483013 357.714659409918 2304.03537893079 183 189 189
-1181.52073658216 357.492823721247 2303.14093425175 188 193 196
-1172.64370066522 357.404064039328 2303.15967469528 188 193 199
-1163.78136748147 357.314134233731 2303.172984796 190 193 202
-1154.50875494443 357.088394720453 2302.25856149683 191 194 203
-1146.52324738548 357.265787327484 2304.10682460239 198 201 208
-1137.2826375901 357.037546509543 2303.1805847779 203 206 211
-1128.06176696472 356.807952427626 2302.24681656047 204 208 211
-1119.27570634571 356.712169594156 2302.232226659 203 207 210
-1110.50433715836 356.615230769962 2302.21195728208 189 192 197
-1101.7477650843 356.517058581711 2302.18621849891 193 196 201
-1091.78480284422 356.01128967522 2299.36812972754 205 208 213
-1083.06558188287 355.910526263597 2299.32862437049 202 205 210
-1073.95931723054 355.672747300148 2298.35285224196 207 210 215
-1063.67487242367 355.026388232256 2294.57440617059 207 210 215
-1053.82261773354 354.513791529019 2291.71557802059 208 211 216
-1044.78920612032 354.27131925086 2290.71298152891 212 215 220
-1037.73446118279 354.708044388015 2294.37574314823 215 218 223
-1029.50670616317 354.735689607163 2295.23391463148 217 220 225
-1022.06212447964 355.035091486272 2297.96140108418 218 221 226
-1013.84913590429 355.061014433785 2298.8143317208 221 224 229
-1006.40901113269 355.358991540928 2301.54009130869 222 225 230
-998.210703470985 355.383103838295 2302.38729689635 223 226 231
-991.151473419224 355.816252493184 2306.05141827479 224 227 232
-983.713099887665 356.112315051491 2308.77639711565 225 228 233
-977.388268151402 356.818590601175 2314.32765864664 225 228 233
-969.941798603535 357.113718974942 2317.05550858854 223 226 231
-962.49515424145 357.408199110229 2319.78337313638 226 229 234
-954.321274917083 357.427650804491 2320.621605647 226 229 234
-946.879475491241 357.72081010696 2323.34761018862 222 225 230
-940.154399507777 358.28815806745 2327.96700263442 224 227 232
-932.351418156495 358.442695582548 2329.74722266088 226 229 234
-923.493510788118 358.183538275738 2328.67959997403 226 229 234
-915.35752469834 358.198426039507 2329.50346578836 226 229 234
-908.276465599417 358.625744306752 2333.17533287262 227 230 235
-901.535829396332 359.190603687334 2337.80019116324 227 230 235
-894.785066170815 359.755309189241 2342.42897167629 226 229 234
-888.705110839719 360.595878694522 2348.96794934392 227 230 235
-881.928865914628 361.160329470694 2353.60596909591 230 233 238
-876.14862725942 362.139362188213 2361.1130519474 231 234 239
-868.345896462448 362.288411139954 2362.8927668172 231 234 239
-862.199818789517 363.129123180039 2369.45577996929 230 233 238
-855.705726516133 363.831413456118 2375.06823951464 226 230 233
-850.171957600875 364.949845180034 2383.5630990739 216 219 224
-844.285020656741 365.929951131271 2391.10903039795 220 223 228
-839.332962949405 367.327179233826 2401.54693484163 221 224 229
-834.340106502983 368.725300881754 2411.99947611355 214 217 224
-829.621562842288 370.26351994359 2423.42973036505 208 211 218
-824.544831379685 371.663609413073 2433.91289505551 218 221 226
-818.498118803979 372.646849249605 2441.51736962871 222 226 229
-811.811628458017 373.351596825148 2447.1999200264 222 226 227
-805.110176637689 374.056214495397 2452.88789668804 213 217 218
-799.602233691812 375.319287553193 2462.4508423598 189 193 192
-794.657998491171 376.862291146495 2473.96320551876 152 154 151
-786.698070782686 377.00878901948 2475.79984344699 158 160 157
-780.804926301337 378.13352394212 2484.42575323197 237 239 236
-1292.25468029168 364.14799213122 2401.00494956764 39 47 34
-1233.23979139883 352.086077565414 2318.07385437518 58 66 55
-1222.91813328054 351.618862403693 2315.3890022286 111 119 108
-1213.06659043021 351.281412564861 2313.60994109377 167 174 167
-1201.92695634019 350.547850409458 2309.06882725024 151 157 153
-1191.69759414799 350.075301179314 2306.35003806361 183 189 189
-1181.93076162793 349.732694624895 2304.53980940212 188 193 196
-1172.61869410211 349.520466996557 2303.64074107538 188 193 197
-1163.32631680137 349.306768913362 2302.734153297 190 193 202
-1153.62903042822 348.959717386307 2300.89832052828 190 193 202
-1145.22336772808 349.007536020151 2301.82265466946 194 197 204
-1136.4076635039 348.92215593352 2301.81936600159 199 202 207
-1127.18954878668 348.703219342317 2300.88565488918 205 209 212
-1118.82051438319 348.74786579164 2301.79669555349 206 210 213
-1109.63696741305 348.526400894616 2300.84997961043 189 192 197
-1100.88289511938 348.436170512554 2300.82393178513 189 192 197
-1090.10910367398 347.68097210282 2296.1485153851 202 205 210
-1080.99316706479 347.455064643469 2295.17715316567 199 202 207
-1071.89718716845 347.227722175105 2294.19843164927 200 203 208
-1063.22045632347 347.132146649599 2294.14387947153 208 211 216
-1054.16187565615 346.902046113092 2293.15110700482 209 212 217
-1045.91170757441 346.937282937764 2294.01824909927 209 212 217
-1038.45447163917 347.238251297691 2296.75045151032 210 213 218
-1030.99686164253 347.538698309745 2299.48275049538 215 218 223
-1023.1524807521 347.704977598027 2301.27889846469 217 220 225
-1015.31276921713 347.870313917899 2303.07302442808 217 220 225
-1006.71528836291 347.76741300065 2302.98912504 219 222 227
-998.132859796963 347.663090091134 2302.89964929873 222 225 230
-990.317992679231 347.825774310182 2304.68480255233 222 225 230
-982.881601186152 348.121699855564 2307.40905090633 222 225 230
-976.558282685742 348.819757660589 2312.95914257994 224 227 232
-969.482287216599 349.249035591831 2316.62906341186 224 227 232
-961.669132858392 349.409211247298 2318.41340508047 225 228 233
-953.860928326088 349.568478833735 2320.19587977619 225 228 233
-946.418546869424 349.861601330987 2322.92209301445 223 226 231
-939.334312008158 350.288819195653 2326.59485209164 223 226 231
-931.177690132902 350.311242797559 2327.42678425282 225 228 233
