ply
format ascii 1.0
comment KinectMotionCapture
element vertex 781
property float x
property float y
property float z
property uchar red
property uchar green
property uchar blue
end_header
-795.330461676227 -457.551635718345 2565.42310930925 11 14 7
-788.973756719253 -458.025782172285 2574.09655556544 12 15 8
-777.813077588795 -456.249338975627 2566.55280337513 16 19 12
-760.031306231678 -451.302112321674 2536.05459917702 17 20 13
-749.322153723134 -449.664263615465 2529.40288946995 16 19 12
-739.211323388108 -448.292259084915 2524.64709526013 16 19 12
-732.118444299163 -448.372497552442 2530.41807349937 19 22 15
-727.690941605659 -449.769834849483 2545.78756847757 23 26 19
-719.746955359774 -449.452344729248 2548.69787214931 24 27 20
-711.015215604788 -448.739869961031 2548.72427545944 22 25 18
-708.286744981481 -451.05193986526 2570.87383251693 21 24 17
-704.168000334679 -452.702807240126 2588.24538163242 25 27 24
-956.129527887086 -458.195151562484 2384.28734754727 11 13 8
-960.868335246214 -462.848468602744 2420.61328257432 13 16 9
-982.319462238808 -474.234553102891 2502.6238221081 10 13 4
-956.784388365204 -466.909292543995 2458.05619332086 10 13 6
-930.831750748987 -459.319252272269 2411.52689239471 11 14 7
-918.974040876945 -457.367048597281 2403.1828485155 13 16 9
-914.538605959565 -458.434388146022 2415.38020140805 15 18 11
-897.10365084422 -454.154329442795 2391.10549299265 15 18 11
-890.689202773502 -454.399373451004 2397.68434746634 14 17 10
-897.002136041531 -459.980585790931 2440.83473452571 16 19 12
-889.473707361617 -459.809246991275 2444.6495794146 15 18 11
-884.835927109241 -460.867323773344 2456.92115085686 12 15 8
-869.29539786017 -457.280377551243 2437.23911973428 13 16 9
-865.592446442892 -458.746645778268 2452.34015707496 12 15 8
-851.145930743803 -455.574158041191 2435.42902690236 13 15 10
-847.085875122738 -456.901874397157 2449.60371133362 12 14 9
-847.90678227259 -460.405222644101 2478.90672080788 12 14 9
-851.341301204726 -465.127098713006 2516.7681904568 11 13 8
-837.575598130396 -462.228324048463 2501.72241018179 12 14 9
-817.582843298922 -456.480433402808 2466.7549151965 12 14 9
-801.080738522738 -452.233586325606 2442.13876134999 83 85 80
-812.261511821795 -460.606834397281 2505.70902258015 27 29 24
-814.309574510385 -464.900695095898 2540.90661527558 19 21 16
-805.128327358308 -464.040832720828 2540.04065159168 8 10 5
-801.735473874522 -465.888197130257 2558.20018740959 16 18 13
-788.258367572481 -462.998973063482 2543.04908278652 9 12 5
-783.942643969798 -464.437541459158 2558.37485327099 10 13 6
-780.122145612793 -466.14324104697 2575.63364682563 13 16 9
-765.379693169633 -462.583569338875 2555.6595865225 17 20 13
-752.138652630524 -459.702708773938 2540.42182499761 19 22 15
-743.63634883444 -459.115697355377 2541.42195543488 20 23 16
-734.604241584838 -458.259712073144 2540.50176539595 16 19 12
-717.290513517258 -453.234316933637 2509.83965573596 18 21 14
-713.420720259144 -454.936526765757 2527.11662328706 18 21 14
-707.110526124993 -455.426663079512 2535.77221825942 19 22 15
-705.973377946326 -458.599517127986 2563.6784866084 21 24 17
-721.189131018545 -470.34954038898 2653.2604016905 22 25 18
-1010.3802066271 -491.406771248476 2554.06402408805 13 16 9
-985.949933248546 -484.492963630951 2513.33041426431 13 16 7
-953.208013923632 -474.083715770886 2449.21453372239 10 13 6
-917.139791205931 -465.066070452408 2399.00191755681 11 14 7
-884.622603309022 -454.411040680605 2332.68956150504 14 17 10
-871.40070146095 -451.738134222234 2319.56252248566 15 18 11
-899.425745942416 -466.528434723904 2423.46048528544 14 17 10
-896.185586534108 -468.176183299483 2439.44623616469 15 18 11
-880.556357028437 -464.520695239817 2419.80160476752 16 19 12
-881.129181561414 -467.838643643594 2447.07562821246 13 16 9
-879.016602589233 -470.036836203394 2466.876634151 14 17 10
-853.711960958937 -462.071310157059 2418.00711047447 10 13 6
-853.485676462716 -465.103537854948 2443.45967154322 11 13 8
-854.070361173992 -468.547528076693 2471.78643192097 11 13 8
-861.617640617836 -475.179879254228 2521.87542682818 11 13 8
-852.681654194507 -474.446960990067 2521.9775831177 12 14 9
-837.993120476815 -471.079660140121 2504.10278420839 13 15 10
-832.749965920527 -472.012171539498 2515.53722874096 14 16 11
-808.532674409571 -470.925749380024 2523.35144195811 16 18 13
-806.086259864404 -473.234343269083 2544.33222348342 7 9 4
-811.324341702235 -479.26642352424 2591.0390487462 8 10 5
-797.475003725343 -476.183671840551 2574.97098129461 7 10 3
-770.141572757168 -466.487720820897 2513.10265368921 9 12 5
-758.866030518857 -464.519618782545 2504.54854030784 15 18 11
-762.383421742938 -469.849163398613 2546.60027472835 17 20 13
-755.227025672066 -469.94323673662 2552.3932872094 17 20 13
-746.41912490237 -469.211795805746 2552.44879370361 17 20 13
-736.005902393025 -467.656675281833 2546.74987577832 13 16 9
-712.139012459805 -462.905665916772 2523.78110857209 16 19 12
-710.824314201432 -466.015842181587 2550.69006043425 17 20 13
-722.121712479142 -475.830316367583 2624.7755299082 19 22 15
-727.634708852544 -482.755953090381 2678.7814504061 21 24 17
-696.941437893449 -470.392092781275 2597.00278058762 16 18 15
-996.328115594359 -494.560475144191 2517.33297956079 17 20 13
-907.560015611707 -469.460184991336 2373.35201398178 13 16 9
-905.207029524457 -471.440836801294 2391.12367017567 14 17 10
-887.089988357762 -469.695329728297 2389.30476008786 11 14 7
-878.715585842893 -469.108045348809 2390.25869408699 15 18 11
-877.155086991738 -471.507063454956 2410.91051221375 16 19 12
-861.676496619925 -467.791583353048 2391.21567445747 16 19 12
-876.292786578224 -477.428872262149 2459.8421556018 17 20 13
-869.042990938163 -477.402456335205 2464.61163852392 16 19 12
-858.332332101247 -475.815553244303 2459.02318843192 11 13 8
-844.245633160973 -472.671491695535 2443.04598905951 11 13 8
-851.553672452124 -479.301447370894 2492.15553340575 9 11 6
-851.572298188216 -482.666757455486 2519.62734457179 9 11 6
-839.927027233219 -480.653522959273 2511.21071852891 9 11 6
-824.432451218768 -476.805661304314 2490.46512111907 10 12 7
-789.862042728463 -470.648436897587 2464.02478876205 12 14 9
-802.102410604876 -480.059268259648 2532.46506197129 13 15 10
-816.005527193404 -490.441224190539 2607.69432550286 3 5 0
-769.369657228516 -474.747665391239 2511.69333734419 8 11 4
-756.697072544399 -472.044357406747 2498.36900461353 10 13 6
-757.7236053159 -476.222625405405 2531.81285805925 12 15 8
-754.733752458019 -478.430272420619 2551.93215149749 15 18 11
-745.108618178152 -477.269926306583 2549.11702818013 16 19 12
-731.463788718953 -474.009530767936 2531.92150237896 17 20 13
-719.800038008979 -471.73295490966 2521.39809347123 17 20 13
-713.773121325695 -472.39618498194 2531.00451344956 17 20 13
-713.746144029974 -476.27216355592 2562.72084241164 15 18 11
-716.424421368412 -481.67793890349 2605.07170668884 16 19 12
-711.175378428277 -482.888486572975 2618.62067919194 18 21 14
-696.701493643471 -479.076273201934 2597.50128230167 16 18 15
-979.166270157229 -496.188251127053 2472.24744454409 19 22 15
-979.080438595343 -499.228351697604 2496.58182352891 10 13 4
-933.001481753988 -488.831219411254 2444.77727771501 16 19 12
-919.757535998539 -486.197111298795 2432.7218769153 17 20 13
-902.285988613802 -481.677906368647 2408.47850781029 12 15 8
-889.239955286457 -479.050980921871 2396.35091035462 10 13 6
-878.560825812288 -477.442129483829 2390.75266049891 15 18 11
-874.080665514555 -478.588473422098 2402.96030279442 16 19 12
-872.761849926081 -481.180785480441 2424.5765345209 17 20 13
-862.736034527299 -479.861142735661 2420.85245664913 18 21 14
-874.874644576022 -488.666431728059 2482.97554540229 18 21 14
-859.097532158384 -484.740488810925 2462.33824112889 14 16 11
-844.382118953718 -481.25261688266 2444.48230582705 13 15 10
-843.9670502129 -484.407736305088 2469.99418692469 11 13 8
-853.828071469759 -492.461211078097 2527.66849931051 10 12 7
-836.096235147566 -487.531844944256 2500.35072725172 9 11 6
-822.739102112044 -484.62494740168 2486.22366725955 9 11 6
-826.767554747584 -490.068631941191 2527.01479990497 11 13 8
-778.074492420365 -480.47397460688 2483.56591104134 4 6 1
-772.508325935092 -481.308646378404 2494.05828955171 10 13 6
-768.881043640924 -483.144617445458 2511.23730556872 9 12 5
-764.617059596178 -484.690823128828 2526.5361557235 7 10 3
-757.233172064726 -484.66000161067 2531.35443736915 10 13 6
-751.21510895239 -485.343527567712 2540.95610915575 19 22 15
-739.166993521587 -482.881658177873 2529.51977884112 22 25 18
-728.006361355273 -480.850948135009 2520.92838388387 20 23 16
-718.244884815623 -479.535978725846 2517.10790916684 20 23 16
-711.432938454225 -479.79060509405 2523.83021238775 20 23 16
-707.485910546461 -481.611534176694 2541.12653893579 16 19 12
-706.578968817523 -485.137637783503 2569.98906763046 16 19 12
-707.33425398391 -489.653930740874 2605.63959208013 25 27 22
-950.012474180076 -498.571325725978 2443.19492855054 17 20 13
-947.865583594493 -500.783022322675 2461.94082604819 17 20 13
-912.254291616484 -491.426025906702 2412.65435060474 19 22 15
-914.723401205673 -495.70727300693 2444.49973554232 16 19 12
-888.099408581085 -486.97071347212 2394.03439055735 14 17 10
-883.299295179116 -487.997138172731 2405.30077569184 14 17 10
-872.950811918804 -486.511273933113 2400.63966630631 15 18 11
-867.459999521791 -487.240076201339 2410.04609763219 17 20 13
-871.489290784826 -492.390730165903 2447.65911218001 16 19 12
-870.589337559208 -495.323296319204 2471.23059523997 16 19 12
-856.414318856382 -492.066624537209 2455.29398237602 15 17 12
-840.788200453562 -488.077962864768 2434.60680284204 16 18 13
-845.327400203608 -493.652152514974 2475.20226075568 16 18 13
-838.634687826007 -497.433059150744 2509.34767493058 16 18 13
-812.030594555402 -488.019319956807 2453.59290425198 16 18 13
-813.458250015129 -492.255458616299 2485.82009208992 0 1 0
-787.084144051844 -493.633419976477 2514.49836397172 12 14 9
-776.869817526208 -492.148301422725 2509.78870844837 11 14 7
-769.805621089308 -492.270797497149 2515.54582249379 10 13 6
-764.686934844399 -493.41392330509 2527.98570805848 8 11 4
-760.90500424278 -495.283839557754 2545.21835239486 9 12 5
-745.2261632681 -490.884449005297 2521.38139608353 13 16 9
-743.308350837298 -493.771384710543 2545.32614850805 14 17 10
-735.343552324037 -493.452232601378 2548.24413945784 16 19 12
-726.577944192488 -492.696584134653 2548.28610594557 20 23 16
-717.299256900654 -491.65070032967 2546.40327960552 21 24 17
-707.522915997786 -490.315170348958 2542.58975699783 21 24 17
-709.201976037441 -495.365354786427 2581.06402509175 20 23 16
-702.726738993076 -495.912687026223 2589.77527082753 18 20 15
-960.180491965401 -508.483411487051 2447.28558164565 19 22 13
-938.556655841568 -505.298218800162 2437.24993369269 19 22 15
-898.996086835631 -497.140425700422 2401.04077862876 15 18 11
-901.090912905447 -501.353628899165 2431.96073260853 13 16 9
-881.185248475549 -495.478374625125 2400.17112721642 14 17 10
-877.321269045404 -496.97880192117 2414.26153848775 15 18 11
-868.581791087252 -496.222328553426 2414.29407314229 17 20 13
-859.857937888015 -495.466123401691 2414.3209104978 17 20 13
-853.044503117873 -495.610700996288 2419.98550163177 16 19 12
-856.239371023222 -500.553532534047 2455.78400727559 17 19 14
-844.032176567279 -498.145174927946 2445.46799503282 18 20 15
-831.13919364553 -498.873838673596 2459.69729012666 20 22 17
-843.290890871638 -508.434824932625 2524.95852826882 19 21 16
-816.052580998227 -498.551391002412 2467.3365190427 18 20 15
-808.448898341324 -513.376974807535 2586.31018672242 11 13 8
-783.506069530758 -504.270485505169 2533.12855680021 11 14 7
-767.339650362654 -499.638370459657 2508.41950484923 11 14 7
-757.759719082387 -498.430809540626 2505.59152001697 12 15 8
-750.152431301689 -498.264099577463 2509.43492243084 13 16 9
-747.211246045005 -500.620400469115 2529.52506262427 14 17 10
-735.741002873051 -498.374192659657 2519.99586438582 14 17 10
-742.6718725795 -506.210595734403 2575.55126625885 15 18 11
-733.832672393379 -505.443525486635 2575.62083329534 16 19 12
-713.636864137817 -498.311423511658 2534.43171016469 17 20 13
-713.845659138076 -502.57914492836 2567.09962711698 19 22 15
-695.556667895294 -500.60620538224 2564.29379685514 22 24 19
-964.150325864182 -515.667202458206 2434.63483811473 27 30 23
-929.766430267849 -503.508713812235 2365.91449673394 23 26 17
-932.298292485624 -507.822563195348 2396.66806515317 21 24 17
-938.402235573344 -513.82081274523 2437.72955328998 19 22 15
-946.31270835796 -520.73216167471 2484.46561257349 18 21 14
-906.94283261386 -505.989463533894 2399.61912019655 15 18 11
-894.208011807509 -503.384288104732 2388.44310840321 13 16 9
-890.419193680954 -504.921061412887 2402.50346838565 11 14 7
-896.020143180352 -510.897985760247 2443.74932200333 14 17 10
-882.010344650896 -507.680164363869 2428.8165576647 15 18 11
-863.607390380887 -502.323787578185 2400.70829035795 17 20 13
-848.237873724711 -498.349858398983 2380.99306811492 17 20 13
-846.248749918058 -500.798079369066 2400.73060741796 17 20 13
-849.802736370372 -505.99091837162 2437.44632458215 18 20 15
-840.441431051913 -504.919608969251 2435.59518057051 22 24 19
-833.569662931745 -505.069008367838 2441.28060258841 22 24 19
-826.377495843722 -505.065092285017 2446.0274492442 22 24 19
-823.717489216828 -507.344872286513 2464.95464406784 17 19 14
-815.866574894858 -507.03358028794 2467.83066355618 16 18 13
-804.185944565171 -516.106656170036 2543.92126170653 7 9 4
-797.02531241018 -516.241967387617 2549.71270185217 16 18 13
-792.413426634053 -517.740545537505 2564.07474080198 11 14 7
-772.779997344266 -511.208153755316 2527.9693249792 12 15 8
-758.67202565576 -507.559947951302 2509.90452650411 15 18 11
-745.231917937194 -504.218521529081 2493.70728775334 16 19 12
-739.858005945685 -505.264788246894 2505.18065835222 16 19 12
-740.151047236084 -509.48130017596 2536.7550187584 16 19 12
-724.393166602702 -504.784577764973 2511.90240414421 11 14 7
-731.203631579583 -512.765750414691 2567.49063048162 11 14 7
-724.252199739833 -513.046726173762 2574.26162591149 12 15 8
-715.71049537896 -512.422667123724 2575.27886735657 14 17 10
-974.736349707735 -529.06944306422 2463.90966029494 26 29 22
-947.501082217918 -519.987322914575 2414.75904376225 22 25 16
-931.475843645711 -519.219301797315 2419.57275263161 18 21 14
-924.307140642253 -519.225771472495 2424.31029028228 17 20 13
-925.464390589373 -523.137243915416 2452.39374392738 16 19 12
-901.997755310552 -515.489364151263 2411.36539510879 12 15 8
-901.097933868525 -518.46052674655 2433.86736188621 11 14 7
-889.014976458979 -516.125595599708 2424.56748005791 13 16 9
-879.261242024348 -514.883757809399 2421.80548498864 15 18 11
-864.408574246739 -511.151124475691 2404.01763276131 16 19 12
-853.485652853547 -509.290147567284 2397.46042869717 16 19 12
-844.822636359393 -508.519511492933 2397.46625062919 15 18 11
-843.059404707218 -511.16843508493 2418.17312773336 13 15 10
-834.371270154204 -510.396132512424 2418.18820173941 15 17 12
-846.627861830162 -520.179045713984 2482.32802680904 16 18 13
-825.58810552974 -513.195678424897 2444.63398813984 16 18 13
-810.21720130486 -509.011060569368 2423.86886491752 14 16 11
-793.082449285044 -522.913495569149 2537.8422225724 13 15 10
-816.114226494089 -539.413058945953 2644.49201651567 12 14 9
-794.858914545638 -531.989089719622 2603.70987271592 13 16 9
-766.851364488909 -520.721845398549 2539.00511146277 15 18 11
-753.889233377989 -517.630557658678 2524.7486992774 15 18 11
-744.587563201465 -516.543266690268 2522.87709341381 13 16 9
-738.302849679398 -517.14833642512 2531.51475841274 13 16 9
-731.71878994948 -517.598263394408 2539.20633666273 17 20 13
-724.309616479875 -517.586061114142 2544.03240078808 16 19 12
-729.042898314634 -524.633270939003 2592.97941248251 16 19 12
-725.421078901198 -526.915599796807 2612.25587769657 18 21 14
-720.935916238281 -528.734289253321 2628.6810872512 19 22 15
-716.37989205931 -530.549895490616 2645.13253039484 20 23 16
-701.342383024239 -526.086538638377 2622.13368239663 21 23 18
-973.197658255763 -537.064121142939 2460.66559043898 24 27 20
-940.19014231371 -528.480044740492 2419.97451638167 22 25 18
-928.278323010658 -526.263981065034 2411.67004114919 19 22 15
-928.18313729282 -529.616854640087 2435.98421962751 18 21 14
-921.354816822031 -533.289398372784 2466.98715845187 13 16 9
-879.73720249946 -520.132634446826 2398.83705342655 13 16 9
-868.438928316411 -518.084393684129 2391.36380224654 14 17 10
-865.208600060467 -519.999259266516 2407.32582669422 15 18 11
-855.230997901634 -518.585622270056 2403.59132315814 15 18 11
-858.217649501097 -523.661189211174 2438.38865596451 14 17 10
-847.268910467679 -521.771094831401 2431.84302937834 10 12 7
-847.228343868079 -525.414284786328 2458.24882462548 11 13 8
-846.386055263454 -540.248116518175 2566.23224309633 11 13 8
-785.124361170337 -527.318863655784 2512.66880617377 8 10 5
-793.126013551143 -535.795415523251 2568.85340847734 8 11 4
-780.329773978302 -537.031201120308 2586.20921294343 14 17 10
-752.847254012809 -525.736251964106 2522.3823351524 16 19 12
-741.632026434812 -523.53902902581 2513.82359472763 20 23 16
-738.630131171971 -526.039291091806 2533.92493104573 20 23 16
-729.615634940405 -525.094621617701 2533.00503362648 20 23 16
-723.288233389301 -525.713476748022 2541.65716865938 20 23 16
-716.93085828557 -526.330832931319 2550.32030730753 20 23 16
-726.230474242421 -536.312510979624 2616.58607181586 20 23 16
-710.080683682746 -531.148790716227 2589.77772174944 21 24 17
-713.058637334571 -537.527142596295 2634.07968669546 21 24 17
-711.5032429691 -541.247934620701 2662.09657679583 18 21 14
-985.152616757462 -551.36630913002 2493.64160403627 21 24 17
-959.22488104097 -542.624212110509 2448.25673607354 22 23 17
-946.515671708856 -540.047309487651 2438.13609598408 21 24 17
-932.186936160158 -536.663455382273 2423.33148656982 18 21 14
-929.033733771236 -538.621651770887 2439.26221891506 16 19 12
-926.141853437747 -540.7383720517 2456.15285280564 15 18 11
-918.214534207312 -540.428054232547 2459.05655956318 14 17 10
-906.023341289238 -538.018234793867 2449.80165420106 14 17 10
-889.017549448137 -533.189978239566 2426.47893329185 11 14 7
-865.37559259092 -524.980302294362 2383.42330702565 11 14 7
-853.51596779237 -522.582369105885 2374.04703367729 13 16 9
-863.964263480396 -531.461794446158 2430.37909168082 15 18 11
-856.786234710755 -531.475865914541 2435.11918985987 19 22 15
-828.428287131936 -527.979090306667 2428.620617466 16 19 12
-830.71863486865 -532.969934113592 2462.61077987335 15 17 12
-784.097100812812 -539.574187478111 2539.84986130245 14 17 10
-780.890175451504 -541.968162882213 2558.96715601605 13 16 9
-758.999756372851 -537.975487768184 2544.82281424555 11 14 7
-732.100912048084 -526.660767075894 2481.85216751129 13 16 9
-737.59907113636 -534.149445583119 2531.55451729535 13 16 9
-726.976755246655 -532.239057030146 2524.8918201502 19 22 15
-722.534102325516 -533.987978254761 2540.24003790103 20 23 16
-720.664198702133 -537.323213961457 2565.20036884833 20 23 16
-716.848166280285 -539.541662968416 2583.48566254122 20 23 16
-710.105038674473 -540.010623314014 2591.2336000256 22 25 18
-698.726078509786 -537.623197517763 2581.68189036514 22 24 19
-956.636837588583 -546.570152539812 2417.96692231285 21 23 18
-970.054863704108 -556.48186499101 2478.47511350694 21 22 16
-961.692260948118 -556.004689945086 2480.48300852292 18 21 14
-946.234524057141 -552.070677062512 2462.93019503605 18 21 14
-932.231931125808 -548.798749848695 2449.06545124078 18 21 14
-924.648125309485 -548.653638177043 2452.8984378443 17 20 13
-910.120814187911 -545.057658020003 2437.11542740496 14 17 10
-904.547806280436 -545.898629696217 2446.54326008564 13 16 9
-893.734659472456 -544.112316672729 2441.00709352026 12 15 8
-861.024201633777 -531.17569126681 2371.73744101821 11 14 7
-850.79842939467 -529.563013144226 2367.04131442031 11 14 7
-864.431625492727 -540.236201905963 2432.74716147322 13 16 9
-862.600924584427 -543.038173349639 2453.46675068185 15 18 11
-847.238354851873 -538.801518558877 2433.76908173276 18 21 14
-832.928873607929 -535.059828773054 2416.85136330514 18 21 14
-827.331913552636 -535.89691654592 2426.28819174734 18 21 14
-832.36513646895 -542.447317898818 2468.76386254016 17 19 14
-836.578831874155 -548.662412697612 2509.4292310895 15 17 12
-831.899134510538 -550.139568628554 2522.75096863887 15 17 12
-779.625283880511 -545.788084926262 2526.07298730015 15 17 12
-766.312708248676 -542.384362249661 2510.90066794219 14 17 10
-764.819635837388 -545.799325947733 2535.71806635417 12 15 8
-748.830421943788 -540.776836104203 2510.97408347401 12 15 8
-748.605939373181 -544.997333619845 2540.60306654048 13 16 9
-738.468569294267 -543.381321475137 2535.87507167518 14 17 10
-730.792406845293 -543.223310276067 2539.74258820169 13 16 9
-724.44323976304 -543.873591885779 2548.4002602914 14 17 10
-715.163488502806 -542.744145012658 2546.52412549795 15 18 11
-710.349400539306 -544.36166626151 2560.95065764928 15 18 11
-710.904708436888 -549.366615673043 2595.57016089825 18 21 14
-699.2593647451 -546.781683827714 2585.06358428644 16 18 13
-703.146942434613 -554.034439672514 2633.23555273867 24 26 21
-969.209687349943 -564.822319024447 2477.08634100354 19 20 14
-962.893171366047 -565.347063879776 2484.67481112891 13 16 9
-948.10240946088 -561.687369647218 2468.99232958174 14 17 10
-931.06669027666 -556.860709766949 2446.74717247127 17 20 13
-928.147530662714 -559.058204275445 2463.64136909918 17 20 13
-909.299823408032 -553.23530572606 2435.72989706627 15 18 11
-895.536780968309 -549.922448960286 2421.78120378127 15 18 11
-888.043252448588 -549.782443586308 2425.5810039743 14 17 10
-876.674287986952 -547.641189293516 2418.14045524662 14 17 10
-854.482745328671 -539.836791505656 2378.79373940328 13 16 9
-859.502142222845 -546.195063854972 2419.15556336918 11 14 7
-856.760249318352 -548.550893942414 2437.0402162148 9 12 5
-862.36791069682 -555.393617685657 2480.35167198788 13 16 9
-837.403734018511 -545.938368076306 2431.47084663006 15 18 11
-825.007786588547 -543.138362125058 2420.18640968689 16 19 12
-822.435656957222 -545.653352339913 2439.06392851167 18 20 15
-822.79676003109 -549.82357884752 2467.4171288073 20 22 17
-831.703580449258 -558.796407688255 2523.23540467967 20 22 17
-776.010222195677 -552.420210303848 2515.15293468863 15 17 12
-761.321797995752 -548.140286013545 2495.21358810321 15 18 11
-754.009136041228 -548.154618051903 2500.00283821924 14 17 10
-758.570237547992 -555.258156791543 2545.80798206359 14 17 10
-742.092917842501 -549.828822454207 2519.1389309473 15 18 11
-740.964179402051 -553.627421705821 2545.92811970505 15 18 11
-732.72271425904 -553.141641283956 2547.89265016634 12 15 8
-720.761700123487 -550.353197879727 2536.44956751624 13 16 9
-711.777305856676 -549.375508375807 2535.52097003145 12 15 8
-707.511877705444 -551.355132744074 2551.85445329514 12 15 8
-715.566702213279 -571.046624810114 2681.83782805191 18 20 15
-972.215015964294 -567.813803616252 2437.36985805953 9 11 8
-973.962428677488 -572.275536575386 2466.26392161126 20 22 17
-961.506467763697 -569.75127294787 2457.11385140201 16 17 11
-956.264562443895 -570.802238844207 2467.47234822166 14 17 10
-937.807922982051 -565.219398949379 2441.53378623931 14 17 10
-931.243079529213 -565.590502429089 2448.15777361491 14 17 10
-917.006709003944 -562.053964226388 2433.33112477788 15 18 11
-901.877673362811 -558.011579670557 2415.66705859855 16 19 12
-893.73952577171 -557.535822017069 2417.59329367932 16 19 12
-885.931552034153 -557.229334674259 2420.45334872178 15 18 11
-868.774615421019 -552.008696141341 2396.14859399385 15 18 11
-874.47364992037 -558.816715610014 2438.36291273614 15 18 11
-870.439755630308 -560.538631868844 2452.49809445595 14 17 10
-855.645393128992 -556.507077566137 2434.71186610182 12 15 8
-857.194198343365 -561.269478058983 2465.78877215104 9 12 5
-824.848387795289 -547.611508698517 2394.30768936734 10 13 6
-817.773983765716 -547.64469659963 2399.00869442138 11 14 7
-816.778079819822 -551.051802437664 2422.57948950965 14 16 11
-812.952968122246 -552.936382660659 2437.69334995973 15 17 12
-821.032980156446 -561.559016990593 2490.63853608584 16 18 13
-790.616253258122 -565.356496816597 2535.53589198492 0 1 0
-767.589387801236 -560.520498785839 2517.60136036275 15 18 11
-759.657641682352 -560.202206663249 2520.50727724904 15 18 11
-731.840123727076 -547.815952408971 2454.75134504584 15 18 11
-745.164447840204 -560.402048601518 2531.09141026014 16 19 12
-735.59552033911 -559.077823877902 2528.26822981202 16 19 12
-736.798494121069 -564.44626350409 2563.69154204276 18 21 14
-722.403128588645 -560.110260578204 2543.64994746039 17 20 13
-709.711861992967 -556.781435799781 2529.31304257334 17 20 13
-711.458797608796 -562.640128715855 2567.70164566559 18 21 14
-709.745145460227 -576.334830713584 2661.15480784794 26 28 23
-968.972257320624 -578.50679615232 2453.74063147501 23 25 20
-963.064507544041 -579.234863485993 2462.23205102329 20 21 15
-942.497761271956 -572.528051326734 2430.74538386136 15 18 11
-936.30098535154 -573.084363470646 2438.28796612256 15 18 11
-919.691918364316 -568.286702157444 2416.95241280073 14 17 10
-910.863506324157 -567.462794411299 2417.02234857866 13 16 9
-904.359986006356 -567.846374841258 2423.62285924527 13 16 9
-898.818086791474 -568.745851183614 2433.03497469918 13 16 9
-898.437001951841 -572.399722249775 2457.43032032387 14 17 10
-878.282388974167 -565.546592060895 2424.73813904494 14 17 10
-859.282049615052 -559.216989955243 2394.78724310519 14 17 10
-859.803992038936 -563.383663047776 2422.01571629813 14 17 10
-863.023350261055 -569.091399076283 2457.7473561196 14 17 10
-842.042761099572 -561.566318901528 2421.13975775705 18 21 14
-829.322107558712 -558.512394923715 2408.92590102127 16 19 12
-824.354462948678 -559.75020348744 2420.23695297991 15 18 11
-809.30050676296 -555.327897598687 2400.44116081126 14 16 11
-820.617366634344 -565.817638889033 2462.73572764846 14 16 11
-819.048028201429 -569.101737741706 2485.45759785692 15 17 12
-803.123426860191 -586.148459180479 2608.35353563827 14 16 11
-784.534214634501 -579.510416127168 2576.14316735321 15 18 11
-746.354213988648 -560.77920904435 2476.23222918648 15 18 11
-749.031162860816 -566.937494410299 2515.3271293505 16 19 12
-736.472516560006 -563.725346922496 2501.99979127938 16 19 12
-744.049519427241 -573.105183885949 2559.33708663321 17 20 13
-734.697118915455 -571.931912397749 2557.49040037309 14 17 10
-725.371289774686 -570.759335739026 2555.63426161527 14 17 10
-716.861460754137 -570.09686088533 2556.64282008588 15 18 11
-718.528684296328 -576.053035319392 2595.05328473708 20 23 16
-713.29643743172 -577.591492972005 2608.57115895807 21 24 17
-691.398686662962 -568.110046187285 2559.64471876552 23 25 20
-966.747635890306 -586.072457142963 2448.64504328942 19 21 16
-952.97245140816 -582.776557970423 2435.76603842436 18 19 13
-949.145222723701 -584.575660969779 2449.82030690561 14 17 10
-924.671220237909 -575.667201189095 2407.11971841956 16 19 12
-923.891461298432 -579.045312752677 2429.54761133667 16 19 12
-904.061131616229 -572.427381899673 2398.85322637285 13 16 9
-907.169240832278 -577.904178683338 2432.50959939606 11 14 7
-916.979117316988 -587.050748079565 2485.85328530321 10 13 6
-900.217003785829 -582.012206037414 2463.52470383134 13 16 9
-881.661234007297 -575.929368786438 2435.52677273992 13 16 9
-867.74794165887 -572.299752412367 2420.58976036488 13 16 9
-864.074160765565 -574.263436110696 2435.6426681671 13 16 9
-862.848839998142 -577.620739987834 2458.23402040229 13 16 9
-860.892313375973 -580.624379382 2478.98411064918 16 19 12
-837.192417397332 -571.417360617983 2433.89167447513 13 16 9
-842.887764264243 -578.776563738003 2478.19885786097 11 14 7
-832.240374405813 -576.895133270067 2472.60964233398 10 12 7
-826.765720783557 -577.974401580053 2483.05056989034 9 11 6
-829.621482116951 -583.922806780306 2519.96296978553 9 11 6
-797.071144464906 -586.835912052097 2559.30242803526 12 14 11
-790.142402286921 -587.206149520883 2566.05844452037 13 15 10
-772.515277407346 -580.991596111426 2536.66648381948 14 17 10
-770.934763105418 -584.653200717228 2561.49704370382 15 18 11
-756.546251145428 -580.349577295958 2542.5170721133 16 19 12
-747.469415573519 -579.336176592295 2541.62475649328 16 19 12
-741.121507336545 -580.051716688622 2550.2770473402 16 19 12
-732.06161434559 -579.038306971513 2549.37883082958 20 23 16
-726.476226518101 -580.269614238214 2560.91507693663 19 22 15
-719.003973839924 -580.290945827708 2565.76152992333 19 22 15
-713.345898970808 -581.518548872858 2577.32446545175 22 25 18
-705.063113830513 -581.020702251184 2579.30491943385 21 24 17
-700.106239376305 -582.761572969485 2593.77402436507 13 15 12
-955.554538745355 -588.968448994733 2419.42762221001 14 16 11
-959.668649078446 -594.906705519949 2454.8170261533 13 14 8
-955.106303203114 -596.379829277563 2467.02987349639 14 17 10
-938.012452831551 -591.256770895468 2444.82820136965 14 17 10
-904.655149856399 -577.411337803428 2376.92869922621 14 17 10
-907.229968015591 -582.627675527274 2408.6651221897 13 16 9
-911.623350367826 -588.904765384297 2446.06060307944 13 16 9
-910.594390449374 -592.329146322955 2468.57554897257 12 15 8
-896.154458542628 -588.462880719451 2452.78118385156 12 15 8
-872.482123929797 -579.449615775202 2409.79722703802 12 15 8
-882.911141455074 -589.261392132222 2466.06568784373 13 16 9
-860.42045867728 -580.788641685168 2425.81153287784 13 16 9
-865.50193373153 -587.750096446394 2467.17210098337 13 16 9
-858.842571904555 -588.146374966914 2473.82827663159 12 15 8
-854.944638705165 -590.135332343223 2488.96072044516 12 15 8
-859.56248314278 -597.077165230724 2530.49096916156 13 16 9
-840.870839276875 -590.566173187812 2500.44159871666 12 14 9
-843.455386539674 -596.437462383589 2536.39154885198 11 13 8
-836.000077638722 -596.470427395437 2541.23122207307 11 13 8
-790.283260428801 -591.51370459887 2537.94975694294 6 8 5
-779.442822845082 -589.43185762531 2531.37924841231 16 18 13
-774.271422720304 -590.871144132683 2543.81594111149 15 18 11
-771.832289681072 -594.066703472274 2565.79371027004 14 17 10
-756.056365102497 -588.820979000228 2542.05588532366 13 16 9
-748.892749574985 -589.026236388897 2547.84313189026 13 16 9
-738.196695224558 -586.948156246867 2541.21987929529 13 16 9
-727.820619228189 -585.047314996601 2535.53354982769 16 19 12
-719.084386058361 -584.200032746614 2535.57175720395 14 17 10
-712.730520499528 -584.930347091049 2544.225097829 13 16 9
-709.210505296813 -587.585637949206 2563.4364331716 13 16 9
-703.284185961384 -588.661652339185 2574.04145905182 14 17 10
-705.229794974068 -595.158714701545 2614.44307742393 18 20 17
-970.579367395749 -605.468000554903 2460.72221115714 12 14 9
-946.11416028037 -600.320788882486 2443.33376464187 13 16 9
-920.997837853134 -590.784535016068 2398.78081070394 13 16 9
-923.578337032108 -596.085985942234 2430.50874761256 13 16 9
-890.142883679582 -581.862100249307 2361.59963905176 13 16 9
-900.589060930879 -591.496252329187 2415.74215464507 12 15 8
-898.331702918369 -594.258833702399 2434.48662397138 12 15 8
-882.690536838701 -589.620064986628 2414.92051967551 13 16 9
-860.416020463494 -581.198831848882 2375.65049251173 13 16 9
-864.226043061474 -587.384506176052 2412.19827111822 14 17 10
-866.268414347661 -592.661889105095 2444.1235460682 14 17 10
-840.201940132585 -581.910565336915 2392.54109464908 14 17 10
-853.368246384408 -593.660741718301 2458.33506557593 14 17 10
-856.614736627988 -599.822486688936 2495.08940215809 15 18 11
-854.162510411663 -602.741530901063 2514.9594252874 16 19 12
-844.327580599876 -601.345764333586 2512.23854571994 16 18 13
-834.52375440865 -599.950782788347 2509.50605150262 16 18 13
-828.633591977176 -600.888994564147 2519.04178141164 16 18 13
-796.650635875614 -604.299970869981 2560.27063594669 10 12 9
-786.03394474842 -602.367110000051 2554.67440122898 12 14 9
-772.376289346468 -598.470078527818 2538.59812700973 11 14 7
-760.768755932917 -595.826877274659 2529.14876526119 9 12 5
-753.637728330763 -596.041834837244 2534.92343951708 10 13 6
-740.758782780841 -592.509646635872 2520.66981523204 17 20 13
-735.274894445626 -593.79443802965 2532.16514729899 19 22 15
-727.066707903087 -593.295235184616 2534.11834483297 21 24 17
-720.721762499267 -594.042334456153 2542.76717798117 20 23 16
-706.989710705323 -589.80476954804 2524.61051608171 18 21 14
-706.901191453667 -594.820413693326 2556.26321596028 17 20 13
-707.432736546914 -600.362693924418 2590.85081066008 16 19 12
-700.909168056248 -601.101055555559 2599.56520355274 19 21 18
-965.911245406939 -607.80173137585 2424.90996579929 9 11 8
-965.253676708781 -611.358122669246 2447.28001092263 12 14 9
-958.330157770885 -611.600663443277 2452.97720829057 14 15 9
-965.3125609655 -619.375815105204 2496.78537179616 11 14 7
-923.755868654882 -604.796260463218 2431.92040636511 12 15 8
-901.942665054939 -596.783442107095 2395.65187441582 12 15 8
-886.60145127621 -592.262262618916 2377.03447012691 12 15 8
-885.427152142323 -595.624957836534 2398.54006695862 13 16 9
-887.067696547833 -600.631490179903 2428.49866433908 13 16 9
-870.872393405649 -595.564226082001 2407.03286272904 13 16 9
-860.872054857602 -593.977744511141 2403.31966157617 14 17 10
-858.186246209267 -596.597645769896 2421.16401231375 14 17 10
-851.651888265636 -597.020962924002 2427.77272924862 14 17 10
-843.540694765121 -596.529881915065 2429.69032706767 13 16 9
-853.033930460752 -606.443352723419 2485.22456330868 14 17 10
-850.911152319559 -609.594777546842 2506.02416263454 15 18 11
-836.242620986523 -605.266109956467 2488.21437845821 16 18 13
-822.289500551705 -601.305959351149 2472.25022022082 16 18 13
-814.409226215455 -600.992150225971 2475.13709722617 16 18 13
-801.867989145859 -616.489150493654 2578.78793308166 10 12 9
-791.76801398962 -614.89258157975 2575.11169475649 13 15 10
-781.704554553013 -613.297082444238 2571.42210818255 11 14 7
-763.894271098533 -606.625979365972 2541.06458703447 9 12 5
-749.844442718139 -602.31735276857 2523.02849271548 9 12 5
-731.269635486097 -594.934124169392 2488.73574921455 12 15 8
-727.76132902919 -597.51360326064 2506.88199421152 14 17 10
-727.919840897783 -602.621976603503 2538.43794184095 21 24 17
-727.395099337933 -607.362150585356 2568.13680985504 21 24 17
-716.748749923117 -605.229931217933 2561.49932817607 22 25 18
-707.194710026622 -603.821827699262 2558.67732159639 20 23 16
-710.546021331571 -611.438545155122 2603.816751263 19 22 15
-701.691815635184 -610.568101955269 2603.8995700192 18 20 17
-966.133827129287 -620.530879578652 2450.53459931964 12 14 9
-962.277575525833 -622.460352521292 2464.58983060215 12 13 7
-963.111062488507 -626.997465248319 2491.67715770229 11 14 7
-958.758731112081 -628.733423879772 2504.86042381744 11 14 7
-943.319542574924 -624.31979057495 2487.33705914381 12 15 8
-916.052574540067 -613.208009137995 2436.21798932002 12 15 8
-890.399704984431 -602.851711872447 2388.72167936473 12 15 8
-881.678464543259 -601.990216923237 2388.75551169048 12 15 8
-882.69243512614 -606.704923183354 2416.8304188352 12 15 8
-870.38961836052 -603.79728138325 2406.58707586357 12 15 8
-859.11538587625 -601.449094423079 2399.12772085111 12 15 8
-860.549519897878 -606.525215564602 2429.15606428971 12 15 8
-849.913392410297 -604.547423695258 2423.57002734205 13 16 9
-844.924651692209 -605.907604509262 2434.87976543256 13 16 9
-845.75328644987 -610.785399093595 2464.07626300571 14 17 10
-840.011960524117 -611.768731854214 2473.55451057237 15 18 11
-832.110815292656 -611.454851461153 2476.44897613502 16 18 13
-828.723593924039 -613.914883905339 2493.49368257496 17 19 14
-819.591433450048 -612.85922653293 2492.62491120796 17 19 14
-793.660243568404 -620.121859256134 2552.69696875742 15 17 14
-789.289954016513 -622.193653949076 2567.99478716511 11 13 8
-782.049777021947 -622.421020309678 2573.80818323068 12 15 8
-766.460266707812 -617.126466761986 2551.07286745051 14 17 10
-738.623284828029 -603.560324957831 2485.41303162182 15 18 11
-735.92379165705 -611.745878519028 2536.97475975691 13 16 9
-724.75812469617 -609.220393493749 2528.42252569213 12 15 8
-721.339917597364 -612.018895420298 2547.58606482343 14 17 10
-709.962054512039 -609.31127236094 2538.05811594766 15 18 11
-709.046851055656 -613.938077690014 2566.84059673553 15 18 11
-704.391768255336 -615.994126962644 2582.24307924274 15 18 11
-703.492240855909 -620.793587383734 2612.07364777071 16 18 15
-983.655305394401 -634.770661576027 2474.02639359832 0 2 0
-973.899880888338 -633.511874293928 2472.33259339388 13 15 10
-961.093952362443 -630.550089596927 2462.27613498687 10 11 5
-958.53657182017 -633.266303025011 2480.06655606349 11 14 7
-966.333478344383 -641.840606201127 2526.71840568087 11 14 7
-951.170820731806 -637.553784288911 2510.15180935799 13 16 9
-938.436645164023 -634.592868370545 2500.06921485592 13 16 9
-904.062756387775 -619.174284026896 2428.39103972517 13 16 9
-896.211284346637 -618.866364687956 2431.26700738127 12 15 8
-878.968807096368 -613.088967642714 2407.03534109808 12 15 8
-870.549512468668 -612.40613462868 2408.01279538475 12 15 8
-870.108076444999 -616.432883362576 2432.40193464559 12 15 8
-861.645466282189 -615.747331438972 2433.39507793368 13 16 9
-855.074750660193 -616.190934333752 2440.01547438696 13 16 9
-851.593874440173 -618.514105662049 2456.03797930389 13 16 9
-846.190741318905 -619.706058371709 2466.44416425317 15 18 11
-840.441035387344 -620.708060673044 2475.92404794399 16 19 12
-829.802848457268 -618.703777066715 2470.34075811299 16 18 13
-822.820130026274 -618.95305611804 2476.05895646619 16 18 13
-822.978738986499 -623.702950988366 2504.44224787949 16 18 13
-778.327306130688 -618.930041724925 2502.89293205385 13 15 10
-781.44129935906 -625.903207169525 2542.83410982454 11 13 8
-776.509586086607 -627.63609915795 2556.22837282925 11 14 7
-766.246447874431 -625.8179955888 2551.56132237061 13 16 9
-754.293947440925 -627.968414855016 2571.74147716787 15 18 11
-738.676949450723 -622.422136141348 2547.96833121576 15 18 11
-724.808792030694 -617.99928629209 2529.87510164632 19 22 15
-713.43771220309 -615.256673630322 2520.34732817965 18 21 14
-709.215753152777 -617.541786970221 2536.64171355053 16 19 12
-701.806181747505 -617.59132441906 2541.4632638997 14 17 10
-692.587093190552 -616.338713010778 2539.57438102885 13 16 9
-702.489562704295 -629.022750077765 2609.6836881518 17 19 16
-965.136851054172 -637.400923100151 2449.62396644541 14 16 11
-961.619219915434 -639.587716352736 2464.60330520552 16 18 13
-959.052012742413 -642.347197256169 2482.39403206602 13 16 9
-957.412173012865 -645.678434950747 2503.00459456216 13 16 9
-950.665780376876 -646.129702776409 2509.68824274081 13 16 9
-942.573430413487 -645.813233065857 2512.6523755313 13 16 9
-912.122516253781 -632.473816943563 2452.19165190494 14 17 10
-886.588002367884 -621.827317618487 2404.67448940412 13 16 9
-885.282331965653 -625.347901870787 2426.2159053714 13 16 9
-875.846506345569 -624.083798989877 2424.40638395973 13 16 9
-872.807377392882 -626.642386143621 2441.31717924233 13 16 9
-862.42399431477 -624.804367722423 2436.69532086661 13 16 9
-853.022187620884 -623.540327678851 2434.87368866557 13 16 9
-851.41735669097 -627.046748882867 2456.52486951198 13 15 10
-849.401931746835 -630.358008023328 2477.27340363529 13 15 10
-842.092169647962 -630.424756012044 2482.05739095245 14 16 11
-827.193825817163 -625.728293829281 2463.29230073893 15 17 12
-821.130774354458 -626.557514865886 2471.83251501363 15 17 12
-810.567044518834 -624.530682734388 2466.22387344625 15 17 12
-790.389993657474 -635.672793750727 2544.17887201185 18 20 17
-774.731636204842 -630.22887331627 2521.47984095274 12 14 9
-772.935717606935 -634.078940934241 2545.30763492929 11 14 7
-767.975140997903 -635.840034191908 2558.71025723732 10 13 6
-763.508691206313 -637.977121181352 2574.03808786331 11 14 7
-752.439121755989 -635.568791740617 2566.50865462554 13 16 9
-740.347457215674 -632.405782568235 2555.14130375935 14 17 10
-725.393539389554 -627.165887846471 2533.23748550069 15 18 11
-716.132191543711 -625.898867091477 2531.36478991949 16 19 12
-709.518593980766 -626.521024924169 2539.05410527982 17 20 13
-700.803567532446 -625.631813227929 2539.08777110142 18 21 14
-698.529983251969 -629.458730474072 2563.0911199967 18 21 14
-696.398970018697 -633.469203555363 2588.0953741329 17 19 16
-963.950323437168 -645.444304644397 2447.31482372607 14 16 13
-968.290011774182 -652.145406204632 2483.63126507045 15 17 12
-948.382681577759 -645.020326884431 2454.06993298956 13 16 9
-947.153531180699 -648.600773682635 2475.57902964061 13 16 9
-916.565820531499 -639.424637542567 2440.45301302847 13 16 9
-893.882649376698 -630.375313658197 2401.37911024799 14 17 10
-890.995006562527 -632.982059474321 2418.23097697426 13 16 9
-882.854388733435 -632.48095529065 2420.16002202143 13 16 9
-888.19872253542 -640.124414283005 2461.37337105881 13 16 9
-876.140321276631 -637.292648812104 2452.10205400189 13 16 9
-861.306551523273 -632.719567904466 2434.37100282944 13 16 9
-854.103777382257 -632.797345608578 2439.11528519399 13 16 9
-850.308594383744 -635.003008093795 2454.19404525433 13 15 10
-844.290174719685 -635.851600759805 2462.71658150009 13 15 10
-841.602358636161 -638.825025949325 2481.60154390659 14 16 11
-824.587173355474 -632.713509665203 2456.2459475077 14 16 11
-818.541576720508 -633.559640745314 2464.7785438982 15 17 12
-791.892515027869 -645.531101707863 2550.35552676622 18 20 17
-779.328111705219 -642.129218628639 2538.11115252813 12 14 9
-773.004487649234 -642.960494001762 2546.74588760866 12 15 8
-767.760090393119 -644.558908735814 2559.19709642821 10 13 6
-755.04587672104 -640.968601405176 2545.95481458933 11 14 7
-751.675060710032 -643.908604563837 2565.09045826477 14 17 10
-733.925821643121 -636.675397973128 2533.68635846314 16 19 12
-725.977347190786 -636.352968298024 2536.59866556613 16 19 12
-718.558734531326 -636.413451170119 2541.42292939808 15 18 11
-709.034843546959 -634.940588313889 2538.59460047658 16 19 12
-715.107203605881 -644.956091852134 2593.23070399299 16 19 12
-702.667357708119 -641.373886947258 2579.88812269701 16 19 12
-703.029969378786 -647.357186576359 2614.5038216356 15 20 16
-959.669661225696 -651.697556478648 2436.66544970126 13 15 12
-967.786631693676 -660.669549682178 2483.1710017204 13 15 10
-952.966503137643 -656.409556471543 2467.54448369685 13 16 9
-941.274590693403 -653.928294520937 2460.24692822011 12 15 8
-930.306293664421 -651.842982382256 2454.78969351731 12 15 8
-900.62476444985 -642.949649940104 2421.44645594833 13 16 9
-899.960226960556 -646.972906892128 2444.85036357316 13 16 9
-883.661975817488 -641.547583610218 2423.44898297522 13 16 9
-878.08323471294 -642.616206424874 2432.86172209978 13 16 9
-879.787855307874 -648.203355867278 2463.81978594441 13 16 9
-863.346360556414 -642.586976706814 2441.41831036253 13 16 9
-842.660343986433 -634.22680302949 2405.83324809072 13 16 9
-834.91648783747 -633.920171441177 2408.6700176889 12 15 8
-840.723164596523 -642.24304644893 2452.86404016119 13 15 10
-835.004784099988 -643.30332367958 2462.32814520858 13 15 10
-824.708418077347 -641.422686118396 2457.67814025615 14 16 11
-822.260365791023 -644.634769512 2477.52453656575 14 16 11
-812.277826629025 -642.949561734241 2473.81231727744 14 16 11
-815.612870296115 -650.068471124019 2512.59562627148 8 10 5
-787.125599054455 -651.131459346444 2535.66535534353 12 14 9
-773.473373955413 -646.907045305063 2519.61180962894 13 15 10
-769.715770753136 -649.511516810965 2536.78019154068 12 15 8
-765.050272640477 -651.527841605478 2551.12289935988 10 13 6
-749.88799372432 -646.138755231632 2529.3060432585 11 14 7
-728.050367584979 -641.213330871397 2514.14608670796 14 17 10
-720.954399283198 -641.476228160669 2519.90440547446 15 18 11
-717.280763926402 -644.265091672699 2538.09492228069 14 17 10
-717.191344075029 -649.770157376068 2569.71102174285 14 17 10
-712.282368846794 -651.773379913561 2584.14292822275 15 18 11
-703.975786356742 -651.250782510603 2586.13389616168 15 18 11
-968.110022323739 -665.299450481707 2460.30496153335 3 5 2
-962.84835429027 -666.590249628977 2470.65228878203 13 15 10
-957.207094735477 -667.678983199107 2480.08648012405 12 15 8
-941.113161355162 -662.566874663797 2460.72034313193 12 15 8
-935.812987940658 -663.854723633175 2471.08213773247 12 15 8
-921.868601133663 -659.946601997539 2457.24399304613 13 16 9
-896.853650686344 -649.253081247479 2411.67471395262 13 16 9
-888.393534689979 -648.547720393061 2412.66869993709 13 16 9
-911.939814383006 -667.588752827283 2506.14010583702 13 16 9
-866.256009835258 -648.423533426912 2424.9879434393 13 16 9
-862.544329602926 -650.704129992638 2440.03070991275 13 16 9
-840.303162421376 -641.237265252564 2399.76090407122 13 16 9
-829.781794674413 -639.140656236947 2394.14213554348 12 15 8
-830.387783056813 -644.204083763236 2422.33896636679 13 16 9
-833.908046463013 -651.249079205522 2459.99399876172 13 16 9
-824.526487878367 -649.942760801096 2458.16794532677 14 16 11
-817.271766845511 -650.026889069989 2462.93087709297 14 16 11
-812.387523308925 -651.697650653355 2475.24576985552 14 16 11
-785.21095418935 -658.628333485493 2530.4623311086 16 18 13
-772.703775529791 -655.1412051472 2518.20359689229 14 16 11
-765.312026416493 -655.216017952575 2523.01701897272 13 16 9
-759.29576754756 -656.2780825907 2532.58921955671 11 14 7
-751.048500399279 -655.75805761314 2534.55818760556 11 14 7
-736.824973877792 -650.894811846885 2515.56049500888 12 15 8
-728.376434268219 -650.179422287441 2516.55103153909 12 15 8
-723.140224877818 -651.830383998764 2528.99530064619 15 18 11
-719.967318544063 -655.055676423441 2549.10406701022 14 17 10
-714.086376009019 -656.306892921235 2559.6796408212 16 19 12
-706.610580020121 -656.374596037113 2564.52388242005 16 19 12
-698.355799902606 -655.851224211722 2566.49608704303 16 19 12
-990.649356543423 -691.915427474826 2547.17109514589 15 17 12
-958.397345478524 -677.197988223702 2484.26882869245 12 15 8
-947.668742411954 -675.263119167376 2479.77996354341 12 15 8
-930.315220620364 -669.277757943844 2456.67089137908 11 14 7
-916.743443418099 -665.524797520048 2443.75246701167 12 15 8
-912.11934035552 -667.23892594983 2455.96956887277 13 16 9
-896.256847228665 -666.616077679706 2461.78000322957 12 15 8
-888.325794707016 -666.303976281675 2464.68520100588 12 15 8
-868.632499725582 -658.518245841027 2432.96258229531 12 15 8
-852.597917543661 -652.960094240369 2411.4754229706 12 15 8
-839.511916605835 -649.22272423175 2398.37932152154 12 15 8
-830.856265147582 -648.311714495782 2398.39305887636 12 15 8
-828.676788724456 -651.63383517799 2418.13356899949 12 15 8
-831.896774423863 -658.578217040699 2454.83848447462 13 16 9
-829.789714897363 -662.091527543001 2475.60506778509 13 15 10
-810.788322015051 -654.329770762227 2443.62924620698 14 16 11
-814.281035694334 -661.66215825136 2482.33890619563 14 16 11
-816.989686309021 -668.584233842764 2519.23129195374 11 13 8
-790.127750403817 -670.912143083487 2548.01513568908 20 22 19
-775.600797939556 -665.975670778422 2529.1332141917 14 16 11
-766.501675708761 -664.851883203949 2528.25732501749 13 16 9
-760.74635393026 -666.132514742221 2538.78503667823 12 15 8
-751.11016000771 -664.607800083149 2536.00142393297 12 15 8
-740.418397778974 -662.28331319856 2529.3952036312 13 16 9
-735.970024422713 -664.561113070323 2544.7058493977 13 16 9
-731.722323023232 -667.035637439446 2560.99529656615 15 18 11
-722.914519719958 -666.109986807321 2561.06542107924 14 17 10
-721.445087922789 -670.776473842414 2587.91316731411 14 17 10
-717.776768780269 -673.840419942768 2607.14755335692 17 20 13
-700.177465915685 -666.127265567368 2574.65863269155 17 20 13
-1009.00339419096 -707.321581461469 2572.40549718035 0 1 0
-986.385746630431 -698.363977308812 2536.50053552945 14 16 11
-956.541740167481 -684.893346754658 2480.09593344344 12 15 8
-937.096898031202 -677.596817877951 2451.44580015682 11 14 7
