ply
format ascii 1.0
comment KinectMotionCapture
element vertex 750
property float x
property float y
property float z
property uchar red
property uchar green
property uchar blue
end_header
-945.71631850881 262.866657683819 2179.01765899662 217 220 225
-939.724765695221 263.479110003362 2184.4404943611 217 220 225
-932.600980894646 263.762341991378 2187.05020321476 217 220 225
-925.10734187351 263.935161389916 2188.7194069528 215 218 223
-919.087016990603 264.547116573906 2194.15291308617 217 220 225
-913.780257212939 265.379177962694 2201.47712836401 216 219 224
-908.809603653449 266.321912621704 2209.75387603766 214 217 222
-902.729896107763 266.934580669714 2215.20901190923 215 218 223
-895.921038792818 267.326427752932 2218.7793015055 216 219 224
-889.46117009341 267.828504194656 2223.29740934497 219 222 227
-882.991066983509 268.330311850869 2227.81946975508 221 224 229
-878.605635900705 269.496024671727 2238.03377496375 219 222 227
-873.139450080546 270.330445800404 2245.41609375614 219 222 227
-867.303551676413 271.054522047366 2251.85760677441 225 228 233
-861.447191373949 271.778742905787 2258.30656527995 225 228 233
-856.926145958865 272.947419526018 2268.5706221971 223 226 231
-853.373197090813 274.450718757425 2281.70784980506 216 219 224
-849.430227512841 275.844274432542 2293.91195001994 220 223 228
-845.436144315285 277.23929173848 2306.13473201473 221 224 229
-842.705666891051 279.081521446301 2322.19862072292 218 221 226
-838.925371243708 280.591250416163 2335.41919139296 215 219 222
-836.706633255995 282.660818910764 2353.44766580039 214 218 221
-834.727126968037 284.844713883326 2372.46440069984 213 217 220
-838.074051740255 288.932812826629 2407.82224595698 214 218 219
-840.61538532354 292.803197355188 2441.32325337147 218 220 219
-836.726928370204 294.438163304703 2455.6588743682 219 221 220
-1105.51210617527 253.966591689468 2165.08473773796 218 226 213
-1109.36963263976 256.991162616522 2191.64385882779 209 214 207
-1102.08812399937 257.291218474132 2194.31214406351 183 188 184
-1088.91595929879 256.119737468755 2184.07689151497 180 184 183
-1072.05132581644 253.997981748216 2165.51178274607 178 182 183
-1058.21294144583 252.608057766671 2153.36874417167 187 191 194
-1045.28201239923 251.425124143672 2143.04497753227 192 196 197
-1034.88496855827 250.871746129589 2138.24764794489 191 195 196
-1024.52846996294 250.316263663868 2133.43568226813 195 199 200
-1016.64445350009 250.392885411712 2134.1726559821 199 203 206
-1009.17304385846 250.574423902273 2135.83444082116 203 207 210
-1002.50673570251 250.967145241086 2139.35274861334 203 207 210
-995.437135683528 251.253470393802 2141.94300348519 202 205 210
-988.367116162332 251.539335526402 2144.53337606869 205 208 213
-980.904122233657 251.718490578925 2146.19192332898 211 214 221
-975.005818569624 252.322193205147 2151.58047190243 213 216 223
-968.704369866073 252.819613010911 2156.04092276267 214 217 224
-962.777088036962 253.423479233211 2161.43975823008 213 216 221
-956.834165648484 254.027377278269 2166.84453320641 213 216 221
-951.255393197067 254.73820493811 2173.19187738804 216 219 224
-945.655724571906 255.449237648754 2179.54657510049 217 220 225
-940.035310906711 256.160574916119 2185.90883324435 218 221 226
-932.905887600635 256.44402726546 2188.52060740542 218 221 226
-925.776240541051 256.726833288944 2191.13241409823 219 222 227
-919.380323075732 257.223746670554 2195.62715079683 220 223 228
-914.431396064735 258.149821203783 2203.89474736639 219 222 227
-909.089864254717 258.969187296737 2211.23063874909 216 219 224
-903.004028418457 259.573817138777 2216.68739476329 218 221 226
-896.902713760893 260.178575501673 2222.14978451167 221 224 229
-890.785943001018 260.783401945672 2227.6177951793 222 225 230
-884.65373098976 261.388176786651 2233.09141233991 223 226 231
-878.855100267244 262.101030050845 2239.51853781791 222 225 230
-872.689533456374 262.706036514335 2245.00429150613 222 225 230
-867.196325543962 263.527354055342 2252.39518544756 226 229 234
-860.994938616675 264.132688489654 2257.8939786752 226 229 234
-856.472083171515 265.279818522644 2268.15706751985 225 228 233
-852.580666385886 266.644858857995 2280.34028514131 226 229 234
-848.63811500387 268.01130209211 2292.54218773292 228 231 236
-844.644456990777 269.379147132063 2304.76276505138 230 233 238
-840.599720311915 270.748392884926 2317.00200685336 230 233 238
-837.481782831851 272.445583811701 2332.12917470561 227 230 237
-835.914345586795 274.689528131394 2352.06727650331 221 224 231
-837.463280899364 278.026887056698 2381.62216259059 213 216 221
-841.09679914516 282.133131358568 2417.94380300963 219 223 224
-841.394320843223 285.153206769105 2444.72951209379 218 222 223
-837.493205365844 286.756138424891 2459.06756967433 221 225 224
-1156.89466393286 258.677879040312 2275.83371303886 213 221 208
-1109.3561706094 249.38475886849 2192.14139101707 211 216 209
-1101.22546991163 249.480297808649 2192.9696760153 190 195 191
-1088.89863285311 248.551240628513 2184.57868792819 183 187 186
-1074.96055249311 247.209251519106 2172.47548941341 174 178 179
-1060.6882844229 245.760815586631 2159.41912602376 180 184 187
-1046.91531468018 244.411004011685 2147.25534640356 191 195 196
-1035.27535573802 243.571410264082 2139.68835040298 191 195 196
-1025.32221803871 243.140633484152 2135.80579404527 190 194 195
-1017.02519742181 243.119903412864 2135.6189260909 192 196 199
-1009.54832243558 243.304305555226 2137.28291276201 197 201 204
-1002.07603117093 243.487976507396 2138.94492452021 198 202 205
-995.005936511299 243.774231663623 2141.53535383223 203 206 211
-988.330454621423 244.163516291318 2145.05698978637 206 209 214
-981.649312409322 244.55244030562 2148.58040083404 210 213 220
-976.522004166272 245.355527511099 2155.8369741765 209 212 219
-969.819666765482 245.744283568442 2159.36832786482 209 212 219
-963.881253422014 246.340382754847 2164.77087609943 213 216 221
-957.544890651272 246.832600265683 2169.24336572474 214 217 222
-951.957298124119 247.532874636657 2175.59311830862 216 219 224
-945.594707340893 248.025104796243 2180.07513851022 217 220 225
-939.59612653276 248.621411551155 2185.49956350567 219 222 227
-932.838083018079 249.009172354352 2189.05082791841 219 222 227
-926.074770578141 249.396559641156 2192.60423285242 221 224 229
-919.306033774687 249.783606868876 2196.15932869814 220 223 228
-913.988888028465 250.588961975098 2203.48504825148 219 222 227
-908.646034208684 251.394682805903 2210.82039041316 218 221 226
-902.559208718732 251.991311823718 2216.27690233075 219 222 227
-896.4568921656 252.587920961166 2221.73904123335 219 222 227
-890.693067302152 253.28961767841 2228.15267865635 219 222 227
-884.557295010708 253.886432607275 2233.62698881238 221 224 229
-878.406111185254 254.483284099513 2239.10690131625 224 227 232
-872.239542481637 255.080200889307 2244.59240865093 226 229 234
-866.401308815497 255.782572420299 2251.03313250211 230 233 238
-860.883758184703 256.590816848035 2258.43188468003 228 231 236
-856.356530382354 257.71638132968 2268.69493501096 225 228 233
-852.460422878816 259.054479112181 2280.87782408776 226 229 234
-848.513182525312 260.393949949262 2293.07939524838 227 230 235
-844.183933788221 261.62896197126 2304.34532657902 229 232 237
-839.808649810688 262.865131740887 2315.62781729001 229 232 237
-836.039117980524 264.314769078631 2328.83994305144 230 233 240
-835.445640759576 266.828479394255 2351.64444588859 225 228 235
-840.1961672401 271.153447389495 2390.77691564208 216 219 224
-843.797884426379 275.165889752915 2427.10303307427 218 222 223
-839.963129121557 276.734427258385 2441.41438441843 221 225 226
-1144.45479975396 247.928936687638 2249.67694891179 212 220 207
-1114.44856426415 242.965054033756 2203.67300448661 209 214 207
-1101.20881801905 241.872559704636 2193.46826652204 194 199 195
-1089.72163719075 241.175325642844 2186.92305799825 190 194 193
-1076.19578793721 239.976619358871 2175.74770190205 185 189 190
-1063.16126945498 238.874242225915 2165.46739700543 190 194 197
-1047.30875507814 237.068505207124 2148.69175825174 195 199 202
-1035.66491036863 236.258839252256 2141.12843219612 194 198 201
-1025.70717769783 235.8471039064 2137.24872776546 191 195 198
-1018.21516314177 236.035253974748 2138.91849799785 191 195 198
-1010.72774535805 236.222688427518 2140.58654405588 194 198 201
-1003.24496979311 236.409465040459 2142.25285378642 196 200 203
-995.369390547594 236.494898259923 2142.98742678209 204 207 212
-988.293234378949 236.780794790471 2145.58003140909 207 210 215
-981.216674439991 237.066260462008 2148.17275023201 207 210 215
-976.088068659645 237.855761000779 2155.4287698828 208 211 216
-968.997915785953 238.140775299044 2158.02639347255 209 212 217
-962.67654125215 238.627420775144 2162.49327119484 214 217 222
-955.962513354133 239.012776535039 2166.02836161671 214 217 222
-950.00196153534 239.600510387921 2171.43832241303 215 218 223
-943.648891748503 240.086905765906 2175.91669734075 217 220 225
-938.408160662793 240.877721410339 2183.21355555261 219 222 227
-932.398106674585 241.465781982613 2188.6415269976 219 222 227
-926.741710130784 242.155733236771 2195.01549976898 220 223 228
-919.964618561378 242.540367595725 2198.57344916013 219 222 227
-914.638465587403 243.332348013812 2205.901432236 218 221 226
-908.925154320784 244.022945457094 2212.29613301957 218 221 226
-902.114282327912 244.407262329893 2215.86633215234 218 221 226
-895.654620813465 244.893535739777 2220.383426655 224 227 232
-889.184535259716 245.379604933606 2224.90403888893 223 226 231
-883.406685693124 246.07050512773 2231.32195739837 222 225 230
-876.910961520971 246.556490692763 2235.85213310053 224 227 232
-871.443286425549 247.350250242144 2243.23167071621 224 227 232
-866.637247528999 248.350022986564 2252.51997616337 224 227 232
-861.79528547168 249.350528507312 2261.8211348278 230 233 238
-857.594343178771 250.557820775232 2273.03810180384 225 228 233
-852.003943033342 251.354159495059 2280.46267894683 223 226 231
-847.387912988865 252.460340278884 2290.75627763103 223 226 231
-842.400357251216 253.464348486679 2300.11085453581 221 224 229
-838.033358589099 254.675807966101 2311.38847044969 219 222 227
-835.248669300344 256.405683985307 2327.46383340419 223 226 233
-835.623047896061 259.172962544577 2353.13573302231 216 219 224
-840.682266662857 263.498895033127 2393.22267228542 216 219 224
-843.634253616067 267.209518760459 2427.62897593862 220 224 225
-838.217536003723 268.226531411599 2437.14021037017 222 226 225
-1115.28306367573 235.506121146359 2206.00693413136 213 218 211
-1097.80913947376 233.48322597814 2186.60410651159 206 211 207
-1087.18152915532 233.006138763748 2181.89656095218 207 211 210
-1077.01176976103 232.623979533724 2178.09612535789 204 208 209
-1064.38655694559 231.656886812286 2168.7443766141 199 203 206
-1047.70142410532 229.713858193095 2150.12753376609 193 197 200
-1036.05359143402 228.934018612421 2142.56765282906 193 197 200
-1026.4988687773 228.638919696762 2139.61713067307 190 194 197
-1018.99884228424 228.830003165661 2141.29003327281 189 193 196
-1011.101027424 228.922677435836 2142.03323165119 196 200 203
-1004.0125403483 229.210038482612 2144.63042705989 200 204 207
-995.73202251892 229.203269748304 2144.43887073349 206 209 214
-987.860921447093 229.293351654798 2145.17216739134 208 211 216
-981.175935488996 229.676857789399 2148.69656622859 208 211 216
-975.654007247058 230.354689270087 2155.0205128545 210 213 218
-969.724264142632 230.934519487312 2160.41868334596 214 217 222
-963.010018474367 231.317636871895 2163.9539383082 214 217 222
-956.290213860944 231.700449232978 2167.49093572421 214 217 222
-950.702818733858 232.378814495266 2173.83870920274 215 218 223
-944.341238492847 232.860033927428 2178.31978576469 215 218 223
-938.343272148488 233.43999945794 2183.7427545309 217 220 225
-931.95801316288 233.921056273087 2188.23216789503 218 221 226
-926.300467773036 234.600065107322 2194.60573246226 219 222 227
-920.25560446341 235.180299009112 2200.04550660093 218 221 226
-914.559236182057 235.859753167162 2206.43321058301 219 222 227
-908.480801282285 236.440213472691 2211.88545392892 220 223 228
-901.66925974004 236.821817126834 2215.45569161744 218 221 226
-895.56496387106 237.402245960577 2220.91732885006 220 223 228
-888.737855215202 237.783415843483 2224.49318992684 221 224 229
-882.9588477371 238.463403747908 2230.91070579933 222 225 230
-876.810799953383 239.043875020529 2236.38824294773 224 227 232
-870.993304182918 239.724265396196 2242.81977342935 226 229 234
-865.498786036286 240.505035857822 2250.20833839144 229 232 237
-861.001130449159 241.586551187163 2260.45706614187 229 232 237
-856.800874710553 242.769356892823 2271.67219042197 227 230 235
-851.21172012738 243.552098885557 2279.09528911065 227 230 235
-847.59592053297 244.937857416232 2292.24648411425 227 230 235
-842.932089728301 246.023633929642 2302.55591107497 226 229 234
-839.539604606196 247.512982686597 2316.70059413501 225 228 233
-834.132995448226 248.39976065161 2325.131773133 224 227 234
-834.831047739416 251.202778322889 2351.75557705793 214 217 222
-837.002917451932 254.514693690029 2383.21532040151 218 222 225
-843.152454862472 259.145135729686 2427.19556094192 221 225 226
-839.940596230184 260.851105494375 2443.4240724907 220 224 223
-1096.52468480565 225.601186246544 2184.34271786492 209 214 210
-1085.06272425116 224.956920525392 2177.79234241442 212 216 215
-1073.23377307355 224.215827229332 2170.30144640684 212 216 217
-1062.7054685392 223.755344835238 2165.55907218691 205 209 212
-1047.68076087219 222.252446903947 2150.63862233533 194 198 201
-1036.85138084693 221.691830164855 2144.93127430905 194 198 201
-1027.69683121505 221.508029557837 2142.91056244267 193 197 200
-1020.18616147933 221.702073626175 2144.58730120887 193 197 200
-1012.27801975062 221.800527238243 2145.33494209221 203 207 210
-1004.37953919638 221.89808100151 2146.07875050776 207 211 214
-996.093791420491 221.899569854085 2145.8894631602 204 207 212
-988.217507347885 221.99520029641 2146.62531594802 208 211 216
-981.52674292514 222.376133324631 2150.1516201735 209 212 217
-974.830460573311 222.75677581104 2153.67990734801 210 213 218
-968.902295370284 223.328296428587 2159.07687755606 214 217 222
-962.574194660462 223.804247231189 2163.54539222051 215 218 223
-956.617141247721 224.37594401388 2168.95287189197 214 217 222
-951.023488363549 225.043596296149 2175.30211073721 213 216 221
-943.902818238803 225.327540283992 2177.91074163369 213 216 221
-937.529821810006 225.803234607172 2182.39529494184 215 218 223
-931.517804229384 226.37496538159 2187.82274772437 215 218 223
-925.490192470556 226.946829185187 2193.25587649475 213 216 221
-919.813277998519 227.615144950269 2199.63541746253 216 219 224
-913.024520185423 227.994296142121 2203.19744622968 219 222 227
-907.313954660509 228.662944435532 2209.58923897852 220 223 228
-900.865553934264 229.138385956834 2214.10142473064 217 220 225
-895.118858922466 229.80728498394 2220.50636359715 212 215 220
-888.291082466478 230.185771355759 2224.08226483559 215 218 223
-882.510930300488 230.854965557409 2230.49938221407 216 219 224
-876.361894825157 231.427346601331 2235.97666780726 211 214 219
-870.889117339453 232.194195771299 2243.35628318709 211 214 219
-865.047419675205 232.864127811991 2249.79581802753 216 219 224
-860.54797328133 233.924036250952 2260.04356617092 217 220 225
-856.683857754655 235.179982533888 2272.20863289925 219 222 227
-851.761969811169 236.144621294143 2281.5363797406 221 224 229
-847.47018158874 237.305440394232 2292.78284797978 223 226 231
-842.802070132898 238.369723408806 2303.09246284827 222 225 230
-838.74881637544 239.63085808104 2315.32664207109 220 223 228
-833.343279616006 240.501336476733 2323.75620159788 222 225 232
-833.71655265676 243.138448096206 2349.41868160217 212 215 220
-837.809282679732 246.958169690594 2386.61866508399 218 222 225
-844.258690167871 251.570894188871 2431.55517098439 220 224 225
-840.71619753007 253.141038282028 2446.82700978291 222 226 225
-1107.17207073773 218.434915254733 2189.53318516169 209 214 207
-1093.55074500622 217.362944707198 2178.4020816692 204 209 205
-1083.3650000068 217.019672290227 2174.61038831772 207 211 210
-1074.46665701182 216.949415651221 2173.57171026959 212 216 217
-1063.51407784101 216.419147778701 2167.91166929527 207 211 214
-1049.30868095974 215.151680725298 2154.84440917702 192 195 200
-1036.82863153487 214.248068202158 2145.44445249898 190 193 198
-1027.67180686073 214.077755676213 2143.42558493814 197 200 205
-1019.75370369894 214.182418593987 2144.17705938099 203 206 211
-1011.44333464623 214.193951342283 2143.99747569591 210 213 218
-1003.54734581939 214.296723925462 2144.74102684687 203 206 211
-996.454849186439 214.583586601318 2147.33964147542 201 205 208
-988.967497304851 214.777344667193 2149.00788641018 202 206 209
-982.660263771696 215.24851975013 2153.46845891002 210 214 217
-975.563895619282 215.534015158339 2156.06837704445 209 213 216
-969.627095737652 216.097655075213 2161.46788994406 210 214 217
-962.906354049378 216.47550170218 2165.00485316199 206 209 214
-956.943212544785 217.039128931943 2170.41393600521 206 209 214
-950.964389476038 217.603011709784 2175.8287358311 209 212 217
-944.593494518649 218.073607856591 2180.31239523547 213 216 221
-938.211991128519 218.54406654558 2184.79964440518 220 223 228
-931.820067959768 219.014501900973 2189.29093201648 221 224 229
-925.417671757268 219.48481059161 2193.78601531718 219 222 227
-918.638590765896 219.86130454321 2197.34407333331 214 217 222
-912.217769801297 220.331245283247 2201.8455689743 209 212 217
-906.869713607384 221.082828356505 2209.17871657361 213 216 221
-901.137367805462 221.740834346701 2215.57761993626 216 219 224
-894.67266477097 222.21098757659 2220.09532991917 213 216 221
-888.550933478188 222.775185084225 2225.56207741656 213 216 221
-883.115262583291 223.528062096781 2232.92690205159 213 216 221
-876.957549716716 224.092564109306 2238.40674598139 214 217 222
-870.784450445445 224.657191030906 2243.89218979444 216 219 224
-864.252922426615 225.127216496621 2248.43417016372 217 220 225
-859.754252789549 226.165387925003 2258.67999599003 214 217 222
-855.552652402641 227.299413654602 2269.89192830427 223 226 231
-851.975753244864 228.624457346402 2283.0244082868 223 226 231
-848.342656840636 229.95117742951 2296.17768763108 221 224 229
-843.332173026136 230.899104260445 2305.53610943253 222 225 230
-838.941347948744 232.038305673659 2316.81693039139 223 226 231
-834.829778215214 233.273968254706 2329.07037608839 224 227 234
-835.505934227969 235.942063420005 2355.69195563504 219 222 227
-839.89438050389 239.760517245058 2393.85095487891 213 217 220
-841.871282309278 242.91640373582 2425.36976475719 215 219 220
-838.026671806148 244.355175802655 2439.67490585544 219 223 222
-1109.28139752164 211.251289828084 2194.62461755174 208 213 206
-1094.80185283521 210.043057962016 2181.66168932132 197 202 198
-1084.18671554772 209.630200072187 2176.9542037412 199 203 202
-1074.02916126644 209.304213753429 2173.1538262121 208 212 213
-1061.83350568685 208.531133674371 2164.72719799386 203 207 210
-1049.28652823451 207.66595724487 2155.35445884629 191 194 199
-1037.214997556 206.886819054995 2146.88201999065 194 197 202
-1028.86726378033 206.908804404373 2146.71680097807 201 204 209
-1019.72556196227 206.75088316028 2144.69337365769 204 207 212
-1011.01069540733 206.680973210327 2143.58780358152 208 211 216
-1003.51383980567 206.87878122014 2145.26006145468 210 213 218
-996.418319420814 207.165702516932 2147.85977914889 207 211 214
-989.716492726343 207.541916639393 2151.38974666416 209 213 216
-982.225910021198 207.737960922435 2153.05959228244 208 212 215
-975.518095212539 208.113515791526 2156.59168576276 206 210 213
-969.191313617796 208.578904137448 2161.05892418893 206 210 213
-963.237837259307 209.134471448465 2166.46388718786 209 212 217
-956.124492341513 209.419052210001 2169.06990460716 210 213 218
-950.526040624952 210.065066280428 2175.41925441078 215 218 223
-943.778036049756 210.439631096324 2178.96587564148 218 221 226
-937.772037251513 210.995285852293 2184.38992861309 218 221 226
-931.379304575654 211.460244297202 2188.88109710707 216 219 224
-924.976088379054 211.925076487201 2193.3760651317 216 219 224
-918.19635706446 212.298856468758 2196.93415466131 219 222 227
-911.411315808538 212.672248452234 2200.49414421694 219 222 227
-906.064538384275 213.410203724673 2207.82579895188 221 224 229
-900.691902693099 214.148587749954 2215.16662701112 220 223 228
-894.937809827205 214.79603946671 2221.57263556202 219 222 227
-888.456820210723 215.260814462787 2226.09585727547 218 221 226
-882.666698037612 215.90866187772 2232.5149864828 213 216 221
-875.811952058848 216.281667639113 2236.10052754614 212 215 220
-870.33392504116 217.02152045901 2243.47975905511 212 215 220
-864.487382238265 217.670054305026 2249.91943978842 214 217 222
-860.322219515303 218.778716147016 2261.11621918513 222 225 230
-856.110985669014 219.888672327377 2272.32983561101 220 223 228
-851.853620454352 220.999849564054 2283.56005112086 219 222 227
-847.217675813525 222.020027886029 2293.85465080797 217 220 225
-842.540771638728 223.041225141208 2304.16395520686 216 219 224
-838.150636611303 224.155939855546 2315.44293218938 216 219 224
-836.639419320498 226.105243904091 2335.33863039268 216 219 224
-837.937894315648 228.891677757869 2363.87613940007 211 215 218
-842.296778246484 232.610793156739 2402.03838451122 215 219 222
-842.024202116073 235.036142330542 2426.85299172179 214 218 217
-835.654102980589 235.69885482864 2433.48396993453 224 229 225
-1072.73584518901 196.216511768667 2116.10469903041 201 206 200
-1090.56298008523 201.58207756966 2172.96366744544 195 200 196
-1083.32879741551 201.878765284256 2175.61450324695 194 198 197
-1073.59150640771 201.657737708992 2172.73590383007 202 206 207
-1060.98265740117 200.830710430712 2163.38852335607 200 204 207
-1047.61592109733 199.827696360518 2152.17012083987 197 200 205
-1036.37230168185 199.253714426872 2145.54571687789 198 201 206
-1028.02718654478 199.283756041005 2145.38015427361 195 198 203
-1018.88827233735 199.139108937192 2143.35646135942 194 197 202
-1010.57789705506 199.166720931726 2143.17809314258 205 208 213
-1003.47985281797 199.454098175655 2145.77876224904 212 215 220
-996.381305182734 199.741018678248 2148.37957979708 209 213 216
-988.888289642381 199.940254737001 2150.05055018033 209 213 216
-981.008425932003 200.051581804276 2150.78863361514 211 215 218
-974.694058948388 200.511452836064 2155.25094505671 210 214 217
-968.369058133316 200.971263039175 2159.71711557897 210 214 217
-962.417182399451 201.518549638385 2165.12087221793 209 212 217
-955.687110494248 201.890627062545 2168.6607901585 210 213 218
-949.33030606339 202.350250954384 2173.13850207126 217 220 225
-942.962844260501 202.809739301027 2177.61982167515 221 224 229
-937.705529079738 203.533032279498 2184.91786512383 224 227 232
-931.309348605412 203.992660389543 2189.40962984495 223 226 231
-924.902772819288 204.452204657929 2193.90541955249 220 223 228
-917.754018428225 204.735042802488 2196.52417107998 223 226 231
-912.05815063991 205.370839576841 2202.90814488957 222 225 230
-905.620258878849 205.83008914842 2207.41529063153 222 225 230
-899.888212672824 206.466317224344 2213.81244196133 220 223 228
-894.84675252225 207.280225581395 2222.10545048367 221 224 229
-889.774444863633 208.094833314898 2230.40971983322 219 222 227
-883.970372839 208.732357696293 2236.83313865613 212 215 220
-876.40625140612 208.92512605761 2238.52920217712 211 214 219
-869.538026543501 209.295472569551 2242.11943998054 212 215 220
-864.378470515174 210.111376010231 2250.45550770255 215 218 223
-859.528369549955 211.017244167639 2259.75248299768 215 218 223
-855.655374675114 212.192100297466 2271.91465754512 214 217 222
-850.390915453098 213.010525389311 2280.28903079958 217 220 225
-846.093282506496 214.098324119637 2291.53211314304 219 222 227
-842.07964826544 215.277038972452 2303.74567840067 218 221 226
-838.997087469125 216.72657059905 2318.84130628547 219 222 227
-837.472224286739 218.62751587087 2338.73831380673 215 218 223
-839.400126998824 221.521188238775 2369.18858618401 202 206 209
-843.417490598066 225.050502794146 2406.39404144307 199 203 204
-843.127864905648 227.414078163177 2431.21018246758 220 224 223
-835.170908540272 227.615171988222 2433.04960584178 230 235 231
-1098.2081720258 193.787607798272 2171.73114369144 205 210 204
-1092.65728690233 194.418036190057 2178.06203480112 202 207 203
-1082.8904216206 194.214809167627 2175.19552390875 195 199 198
-1071.90282730449 193.759380653174 2169.55359769551 197 201 202
-1057.64583832554 192.632791148224 2156.51596666511 199 203 206
-1044.71067466715 191.753290878179 2146.21663315024 197 200 207
-1035.12046614311 191.541015975368 2143.28525354653 195 198 205
-1027.59388548282 191.746685269931 2144.96890479629 191 194 201
-1019.66762944022 191.867596937742 2145.72456748106 191 194 199
-1010.54652357591 191.735282023473 2143.69558891568 196 199 204
-1003.04641119588 191.938441792321 2145.36917959225 198 201 206
-995.550992534869 192.140898241427 2147.04126610307 207 211 214
-988.454087833348 192.427159017064 2149.64143693414 206 210 213
-980.182785618096 192.459288491033 2149.44921285572 204 208 209
-973.481390326336 192.828905272858 2152.97852584629 204 208 209
-967.546871942249 193.367742002571 2158.37533835209 202 206 207
-962.363905481948 194.076516707452 2165.64527269157 204 207 212
-955.630636661128 194.44594991032 2169.18615268092 204 207 212
-949.270465643776 194.900167050274 2173.66467985292 209 212 217
-942.523738467041 195.269054292534 2177.2104085748 213 216 221
-936.518390832808 195.808277062011 2182.63298513444 218 221 226
-930.126618945342 196.262240415223 2187.12297494069 218 221 226
-923.724282322342 196.716094378796 2191.61654075324 221 224 229
-917.311555629629 197.169834519911 2196.11412738547 221 224 229
-910.525225963496 197.537827861021 2199.67417773273 220 223 228
-904.454741760352 198.077065312012 2205.12042196177 223 226 231
-899.084748317524 198.788146957893 2212.45848429008 223 226 231
-895.11059616042 199.843562127292 2223.58159052318 216 219 224
-890.031719378146 200.642139157793 2231.88703713991 214 217 222
-883.520846429848 201.096648082156 2236.42034199856 209 212 217
-875.608691917339 201.205961770411 2237.17000598179 209 212 217
-869.432666928313 201.746256994081 2242.6546769525 210 213 218
-864.61167784805 202.632496561791 2251.93959379811 215 218 223
-859.414822289934 203.433004547539 2260.28805222839 215 218 223
-854.524724762035 204.320873044414 2269.59820167367 217 220 225
-848.929049301917 205.036070087844 2277.01857326755 223 226 231
-844.63716906099 206.099227730254 2288.25770622756 223 226 231
-842.278095372631 207.685432723028 2305.23414307974 221 224 229
-839.8423023283 209.274100057539 2322.23864074271 222 225 230
-838.628346916339 211.213841689718 2343.09191297452 218 221 226
-839.894106855051 213.854923721546 2371.63059586869 211 215 218
-843.577860254614 217.199620756084 2407.87652401239 206 210 211
-842.961950268279 219.413652411638 2431.73337682489 222 226 225
-836.574172537487 220.05543849003 2438.36919940344 242 247 243
-1092.21817793784 186.73663025527 2177.64200523431 199 204 200
-1086.22579049783 187.275793159716 2183.05986835177 192 196 195
-1073.54904158464 186.522345780312 2173.74271018467 196 200 201
-1059.28144719654 185.442234116156 2160.71243932501 196 200 203
-1044.68858450356 184.277166493823 2146.72713005038 196 199 206
-1033.86915971552 183.837811452068 2141.02556860652 195 198 205
-1026.75387492162 184.127053520282 2143.63264255869 196 199 206
-1019.63800108442 184.415812418371 2146.23989407645 197 200 205
-1012.12015884496 184.622761793779 2147.92021260865 198 201 206
-1003.01168867344 184.502965139397 2145.88758754426 199 202 207
-995.513320728324 184.708141048264 2147.56069652309 209 213 216
-987.626009103594 184.830941250107 2148.30260603647 210 214 217
-980.530733353131 185.11654284525 2150.90213527222 202 206 207
-973.823610285256 185.483614315642 2154.43333733115 202 206 207
-967.883045762925 186.014498956541 2159.83174662823 202 206 207
-962.310147584831 186.627624333852 2166.16933036727 204 207 212
-955.95464303867 187.076597192771 2170.64576634566 206 209 214
-949.210163469288 187.443193176236 2174.19050554824 213 216 221
-942.460249866748 187.80949533911 2177.73719696991 217 220 225
-936.451392196853 188.340637129116 2183.16043913452 220 223 228
-930.056265961947 188.789282579916 2187.65124645693 220 223 228
-923.28250137283 189.154968527012 2191.20655734327 219 222 227
-917.234478216637 189.686152166921 2196.64403295753 220 223 228
-911.170885349063 190.217408327946 2202.08717110449 219 222 227
-905.45212340703 190.831886995886 2208.47785473473 221 224 229
-898.997102348065 191.280282721018 2212.99040525385 221 224 229
-894.30799776201 192.144931729224 2222.22577446767 215 218 223
-889.582915781476 193.010480597606 2231.47428351591 214 217 222
-883.071237041624 193.459542242206 2236.00747014293 210 213 218
-875.506465349962 193.657874339798 2237.70418972015 210 213 218
-868.981927219959 194.106485719025 2242.24201467329 212 215 220
-863.474493980043 194.806293974635 2249.62916344606 216 219 224
-857.941380749239 195.506464463928 2257.02541574978 218 221 226
-853.394740288168 196.459074839798 2267.28246976518 219 222 227
-848.472357634469 197.328701853383 2276.60297326007 223 226 231
-844.178548376891 198.367488845276 2287.84096829977 213 216 221
-841.816574850768 199.913014142534 2304.81538942392 212 215 220
-838.069569216687 201.123666692984 2318.00104448327 215 218 223
-836.537907580818 202.927123276958 2337.89316646081 206 209 214
-838.133469812011 205.579077817574 2367.37914207691 197 201 204
-842.460187153129 208.997806462451 2405.53066416309 196 200 201
-841.528486297425 211.067317216347 2428.42454078228 214 218 217
-835.147246693465 211.698039111875 2435.05715300355 223 228 224
-1101.58309653391 177.604489509603 2161.8174624842 201 209 194
-1111.3334734452 181.011814172086 2201.1971736296 199 205 195
-1104.00907120027 181.312206459755 2203.88106910689 198 203 197
-1089.13888417449 180.20856639878 2190.00115698473 201 206 202
-1074.77683566742 179.17877525254 2177.0090016171 194 198 199
-1061.74335485155 178.379671284522 2166.75145644715 191 195 198
-1046.72343865283 177.18569003581 2151.85257393221 196 199 204
-1035.48062009689 176.692905543312 2145.23400546448 201 204 209
-1026.72665569683 176.668548507072 2144.14633244907 200 203 208
-1020.01156950711 177.035931188312 2147.68045129058 196 199 204
-1012.08718494436 177.166998944873 2148.4364545948 200 203 208
-1002.97637424769 177.060736397939 2146.40544679586 203 206 211
-994.682976752086 177.110820773324 2146.22260548854 202 205 210
-986.797978693271 177.238844364514 2146.96381420436 208 211 216
-979.704828300677 177.524243793732 2149.56255596404 217 220 225
-973.776547173717 178.04690663888 2154.95588189466 208 212 215
-968.604239463148 178.72831756608 2162.21987886936 206 209 214
-962.639294021228 179.251430702399 2167.62656029771 215 218 223
-955.897090018865 179.615615230639 2171.17029075319 218 221 226
-948.771269040753 179.899909401279 2173.78081956999 219 222 227
-942.396405204486 180.343207249432 2178.26386131688 221 224 229
-936.010913710739 180.786398167031 2182.75050211751 220 223 228
-930.356005699071 181.389405080247 2189.1173739599 213 216 221
-923.944391065573 181.832664099874 2193.61351141665 219 222 227
-917.887727988691 182.35599701991 2199.05353388921 221 224 229
-911.815491704766 182.879402597679 2204.49922017488 220 223 228
-906.448213127263 183.563669132349 2211.83427284771 219 222 227
-900.339701478936 184.087493715854 2217.29291664496 217 220 225
-895.636268079213 184.93363242862 2226.53234972881 212 215 220
-889.486539012584 185.458055469531 2232.0060145166 211 214 219
-882.971500356899 185.901858981202 2236.54002519269 208 211 216
-875.751312123696 186.183826428858 2239.18466562221 208 211 216
-869.910499299748 186.789169670099 2245.61900563888 210 213 218
-864.391527101897 187.475791509212 2253.00935201223 213 216 221
-859.18665444233 188.244008170895 2261.35828692458 216 219 224
-853.613873503611 188.931704470692 2268.76801079876 218 221 226
-849.688549903618 190.026632548035 2280.94316763803 222 225 230
-844.715979081218 190.8786879804 2290.28058057553 213 216 221
-841.684460467812 192.220818005293 2305.34955929606 215 218 223
-837.278871726479 193.238441844318 2316.62682553161 221 224 229
-835.746322554076 194.99299517516 2336.51532585071 215 218 223
-837.983099794641 197.73271682939 2367.90856722768 210 213 218
-841.662256123044 200.887355100836 2404.1418254228 205 209 212
-838.829395410567 202.407721194565 2421.28543924358 206 210 209
-834.349495038977 203.519737477747 2433.66338398321 220 225 221
-1098.92762997942 172.722749916834 2193.34612348782 197 202 195
-1088.27820791572 172.419334642359 2188.6596067798 198 203 199
-1076.00316922301 171.812304561528 2180.27409586002 193 197 198
-1064.20285387866 171.277868580769 2172.78838800326 191 195 198
-1049.99026635114 170.28722770518 2159.74488179927 191 194 199
-1037.09040377209 169.519555905467 2149.44115971323 198 201 206
-1027.51138190215 169.354931939963 2146.50931091729 200 203 208
-1019.5770586239 169.492118786599 2147.26913271996 197 200 205
-1012.05360690704 169.704514261465 2148.95215460811 199 202 207
-1003.73765229721 169.763996119284 2148.77821820257 200 203 208
-994.248687368078 169.59385760491 2145.81323225647 202 205 210
-985.970221959555 169.650951274164 2145.62549442357 206 209 214
-978.488358060287 169.859756222751 2147.29313498484 216 219 224
-973.340758006109 170.526964939309 2154.54682885537 212 215 220
-968.167212181704 171.19472732558 2161.81024587911 209 212 217
-962.584451700984 171.786382603195 2168.14979300975 213 216 221
-955.839070007744 172.147892382882 2171.69447622562 214 217 222
-949.088302288746 172.509122550434 2175.24134959498 213 216 221
-942.707442315196 172.94718965666 2179.72592099064 214 217 222
-936.316129347166 173.38508584776 2184.21453176118 218 221 226
-929.543920094216 173.745768205409 2187.76890000667 215 218 223
-923.501908726254 174.260816548349 2193.20297387857 214 217 222
-917.809462896483 174.853334263269 2199.58243888797 215 218 223
-912.82164242835 175.601306704173 2207.85098312911 215 218 223
-907.082709471526 176.194718152483 2214.24740609118 218 221 226
-901.323207073791 176.788443379492 2220.65158068396 218 221 226
-895.897921691194 177.460311065117 2228.00651958928 220 224 227
-890.446997285679 178.132779984169 2235.37107378375 217 221 224
-882.871363752495 178.33740243738 2237.07221449328 210 214 217
-876.342679165235 178.775813842418 2241.61077640572 210 214 217
-869.114320016932 179.057683758763 2244.25837827666 213 217 220
-863.938735026379 179.808944794637 2252.59539254993 216 220 223
-858.732428375907 180.560989616422 2260.94362829389 215 219 222
-854.50634009014 181.549250273129 2272.15320546864 215 219 222
-850.568677257305 182.617475161295 2284.33083081632 215 219 222
-845.252407438571 183.372209609775 2292.71922324554 215 219 222
-840.564150267227 184.285363149084 2303.0247548488 215 219 222
-836.161688170801 185.278402670032 2314.29877582552 214 218 221
-835.92765355756 187.300105060989 2338.00236742371 208 211 216
-838.797149190961 190.116876625649 2371.30464446082 209 212 217
-842.140885896728 193.097852390747 2406.58011385048 199 203 206
-838.347970532172 194.339929096042 2420.85163118438 205 209 208
-834.179860298857 195.504330940469 2434.18679966935 231 233 232
-1098.90653859321 165.061068756926 2193.84251124486 197 202 195
-1081.55348114119 163.618471342217 2174.43929828266 195 199 198
-1071.39985261139 163.405569465001 2170.64602678232 195 199 200
-1061.28136247025 163.1908179115 2166.83984862474 194 198 201
-1048.73103394298 162.536973126137 2157.48427235856 192 195 200
-1037.06393445324 162.025945538001 2149.95192837958 194 197 202
-1027.88885208366 161.950630839447 2147.94660795768 191 194 199
-1019.54582573395 162.020192808929 2147.78326829242 190 193 198
-1012.0195024493 162.235231463149 2149.4675329611 195 198 203
-1003.70104532798 162.302910176153 2149.29512427778 196 199 204
-995.001677134145 162.296071552082 2148.18893620249 202 205 210
-986.322298866212 162.287885948775 2147.07538340469 204 207 212
-978.053639152589 162.352159483128 2146.88462452687 214 217 222
-972.516713334299 162.931899656232 2153.20661918969 215 218 223
-967.344496962437 163.585942933126 2160.46851804469 213 216 221
-961.380253367419 164.092532774395 2165.8736977567 211 214 219
-955.400185815106 164.599308092161 2171.2843865959 212 215 220
-947.893044785942 164.809398668536 2172.9613082904 211 214 219
-941.891902646748 165.316031091973 2178.37989784211 213 216 221
-935.129584262713 165.673974600947 2181.93046571296 214 217 222
-929.102245574831 166.180677995343 2187.35857880948 212 215 220
-923.426877317609 166.76213649295 2193.73100445982 214 217 222
-917.000750710635 167.194544789583 2198.23185026241 216 219 224
-911.651613355184 167.851244448027 2205.55823158314 217 220 225
-906.276589773153 168.508493055744 2212.89380545598 221 224 229
-901.947939495377 169.391394507123 2223.06639580162 221 224 229
-896.158934087878 169.97485249013 2229.48026096061 214 218 221
-891.053806144657 170.709097287022 2237.7903916402 212 216 219
-883.120541280595 170.84147862026 2238.54946629759 208 212 215
-876.585940244315 171.274702029622 2243.08978643559 209 213 216
-869.007394795871 171.481165288889 2244.79212404505 211 215 218
-863.827821358185 172.216354316878 2253.12937481229 215 219 222
-858.956897463796 173.027961717963 2262.426803735 217 221 224
-854.387032218244 173.916240688578 2272.68744227954 216 220 223
-850.444725857549 174.957491403704 2284.86471955085 216 220 223
-845.787826460445 175.848113558385 2295.15690336289 216 220 223
-840.760920712241 176.663762427049 2304.51131128609 216 220 223
-837.331236574426 177.861301832734 2318.64749266398 217 221 224
-836.108302322623 179.594914374265 2339.48872878171 209 212 217
-839.931325942655 182.554346741201 2375.6549859897 202 205 210
-842.29966952557 185.214116241945 2408.06094809337 190 194 197
-839.131817366348 186.577104221131 2424.24759191443 210 214 213
-837.46130172379 188.325886397911 2445.25259573329 231 233 232
-1082.78872642639 156.224631906579 2177.69934384931 196 200 199
-1070.96082358161 155.751226727584 2170.22801013369 196 200 201
-1059.60226400207 155.345206690994 2163.65804124317 194 198 201
-1048.29430412877 154.936673174577 2157.06949793307 193 196 201
-1037.0369002645 154.525598110152 2150.46239396242 196 199 204
-1027.85972719376 154.463839924863 2148.45911033659 196 199 204
-1018.70747212298 154.400615406883 2146.44640812319 195 198 203
-1010.78269505276 154.547628626351 2147.20375715076 196 199 204
-1003.2657411802 154.76442889215 2148.88449617131 194 197 202
-995.753500257046 154.980614414449 2150.56373072222 201 204 209
-987.85276373289 155.12530231552 2151.31191516233 205 208 213
-979.961882276581 155.26911495946 2152.0567071519 208 211 216
-972.468681351203 155.483140816423 2153.72860650113 213 216 221
-966.521835304685 155.981249441237 2159.12682510909 217 220 225
-960.559255256237 156.479556111614 2164.53077541369 208 211 216
-954.200664741601 156.906585609929 2169.00667697872 208 211 216
-946.698363584336 157.119137094653 2170.68202584546 211 214 219
-940.701324147603 157.617345160707 2176.09823479482 213 216 221
-933.943611986615 157.972385350516 2179.64716429704 213 216 221
-929.030518583196 158.686083289267 2187.88597132332 213 216 221
-922.983987475325 159.184855871873 2193.32020504911 219 222 227
-916.192220488325 159.539738179249 2196.88149603605 220 223 228
-910.119736599152 160.038647842537 2202.32542403014 218 221 226
-904.751151383527 160.682007452725 2209.65761065563 217 220 225
-900.428449688497 161.542791115157 2219.82637083527 214 217 222
-894.291439271685 162.042704000279 2225.2938194348 216 220 223
-889.547186957412 162.832805466705 2234.54360115826 214 218 221
-882.32050173095 163.115562793446 2237.19066178706 210 214 217
-876.134586144177 163.615898170043 2242.6759113491 210 214 217
-868.555741949089 163.825172042301 2244.37856956967 210 214 217
-863.032965413321 164.471209086996 2251.7672360143 210 214 217
-858.502234048666 165.336712322833 2262.01168297945 215 219 222
-853.593891643554 166.130219309214 2271.32134174714 218 222 225
-849.652083873437 167.14423533767 2283.49638296117 218 222 225
-845.327599847614 168.086482848877 2294.73849354343 214 218 221
-840.95709887984 169.029992805033 2305.99741906233 213 217 220
-836.540633402247 169.974703605148 2317.27313581941 214 218 221
-835.316654182088 171.656739212425 2338.11060574607 215 218 223
-840.742671686391 174.889646878345 2379.04861332731 217 221 224
-845.644975248189 178.05608716828 2419.10482593405 198 202 205
-842.12748082114 179.308408611057 2434.3436017173 199 203 202
-1083.18522358161 148.673625589053 2179.11865853271 194 198 197
-1070.10563168332 148.028478719648 2168.88948355963 198 202 203
-1057.92390033987 147.514692926141 2160.47710600613 196 200 203
-1047.44649413539 147.267650209586 2155.73234287601 193 196 201
-1036.60111375468 146.951077025065 2150.04922185565 197 200 205
-1026.6127339307 146.767448095711 2146.19811798532 204 207 212
-1017.46606813467 146.717539497781 2144.18464399119 205 208 213
-1009.5462158883 146.869614502822 2144.94033125986 198 201 206
-1002.4322383767 147.156780717154 2147.54677360078 192 195 200
-996.108770411604 147.579668411508 2152.00960131884 197 200 205
-989.381553642626 147.934304660743 2155.54716591669 201 204 209
-981.868087572585 148.152294843569 2157.226981774 206 209 214
-973.971444676541 148.301170045396 2157.97399478381 209 212 217
-966.855152928379 148.586163732832 2160.58111405316 218 221 226
-959.73849236654 148.870725195098 2163.1883347143 214 217 222
-952.621464740266 149.154884139763 2165.79565837314 211 214 219
-944.748959314408 149.300969905013 2166.53369086612 211 214 219
-939.511342934924 149.928358924769 2173.81734089368 214 217 222
-934.247714484966 150.556301811966 2181.11022956824 219 222 227
-930.067839442874 151.392059909739 2191.22520724227 222 225 230
-923.642856350446 151.813866751838 2195.72458336115 218 221 226
-916.478006163315 152.097065961078 2198.34921033872 219 222 227
-908.950831601327 152.310381104571 2200.03365426678 217 220 225
-903.586217630909 152.93999399665 2207.36361508317 217 220 225
-898.552737112345 153.639681476619 2215.64485185271 215 218 223
-894.197423315771 154.479467272877 2225.82387691103 211 215 218
-889.097156293241 155.180857901254 2234.12976253611 208 212 215
-882.918034495406 155.673305127948 2239.61194848599 203 207 210
-876.376662227996 156.095879091838 2244.15367104363 205 209 212
-869.480841752936 156.448261177451 2247.75232561948 209 213 216
-863.604929446093 157.010923866261 2254.19645258584 215 219 222
-858.386656569023 157.714514491542 2262.5453801628 220 224 227
-853.137600036339 158.418756137237 2270.90528741318 222 226 229
-849.527731837907 159.476197960213 2284.02980960324 221 225 228
-845.861495220043 160.535260918948 2297.17468056899 215 219 222
-842.467871033982 161.666747500818 2311.29277622117 215 219 222
-837.381556405567 162.446217879528 2320.66603989677 216 220 223
-836.467548844218 164.148002453394 2342.45918611273 215 218 223
-840.589264036951 166.988928342838 2379.57478649489 211 215 218
-845.163691482893 169.978552825385 2418.67023153526 199 203 204
-839.747677054196 170.768691260902 2428.16434675718 209 213 212
-1086.92807941197 141.62568093888 2187.89328506014 195 199 198
-1071.32964620608 140.632382280742 2172.15318508428 201 205 206
-1057.89937941122 139.957569988193 2160.98262892955 201 205 208
-1046.59880669056 139.602850637424 2154.3954619542 196 199 204
-1035.75696682181 139.310466020021 2148.7128795989 196 199 204
-1025.77183536372 139.145588079911 2144.86201026733 197 200 205
-1016.62798689287 139.108982236903 2142.84826204201 201 204 209
-1008.31015665489 139.201112265695 2142.67747047925 205 208 213
-1001.20088605019 139.488005199191 2145.28218200466 201 204 209
-994.881803131378 139.905153420193 2149.74298341829 187 190 195
-988.944690039513 140.387666165639 2155.13648894431 189 192 197
-981.430970656582 140.608256754319 2156.81659304447 205 208 213
-973.534202170562 140.762496531984 2157.56405645165 205 208 213
-966.032437912244 140.981667066513 2159.23970966072 212 215 220
-959.682877129394 141.397786904993 2163.71125292858 213 216 221
-952.562823996339 141.681855659523 2166.31966906266 212 215 220
-944.687727608546 141.833477987597 2167.05931499718 218 221 226
-939.071441569048 142.381184079546 2173.40772718612 217 220 225
-933.434352815296 142.929286310004 2179.76372767166 204 207 212
-929.255234479459 143.743113440559 2189.87652137414 202 205 210
-922.465042050544 144.092902079472 2193.43685593958 213 216 221
-916.03395699646 144.509021985181 2197.93802004185 213 216 221
-908.506490672103 144.724998589054 2199.62277078957 211 214 219
-903.500042184772 145.407775129747 2207.89316415487 213 216 221
-898.81953153423 146.158165561689 2217.11678987715 213 216 221
-894.811645906084 147.043435583811 2228.23956932931 213 217 220
-889.350474931862 147.661739363896 2235.60350533552 214 218 221
-882.816141654376 148.079081737581 2240.14252993719 218 222 225
-875.924844133179 148.429024088553 2243.73935707217 218 222 225
-869.71654316207 148.913500246576 2249.23154348164 214 218 221
-863.834326842804 149.465525006232 2255.67690397847 205 209 212
-857.93172723095 150.017945597421 2262.12995466234 220 224 227
-853.353998078978 150.84127675177 2272.38829573771 215 219 222
-850.070546973144 151.936805788265 2286.46364831813 209 213 216
-846.394393493225 152.966450605974 2299.60990280657 204 208 211
-842.00470425771 153.861788613919 2310.87216549333 214 218 221
-837.242891614496 154.690319042213 2321.19778330773 217 221 224
-837.940326785233 156.678840237149 2347.7603563959 215 218 223
-843.00328009624 159.627489962204 2387.74202057498 207 211 214
-844.045640195193 161.762937279826 2416.32346776871 199 203 204
-837.369756364551 162.260089408339 2421.98650101309 211 215 214
-1085.64879222543 133.781925841884 2185.63316181543 191 195 194
-1070.88948226776 132.96614374891 2171.73468323386 197 201 202
-1057.0479584461 132.270032327934 2159.64513460556 201 205 208
-1045.34059632526 131.88018817943 2152.13656303653 197 200 205
-1035.32085172525 131.736076880325 2148.29983683553 197 200 205
-1026.55272245578 131.776768095302 2147.22221844356 203 206 211
-1017.8043952839 131.816222690723 2146.13705759571 206 209 214
-1008.6758207972 131.79198853198 2144.11894752693 200 203 208
-999.970057598385 131.828872693736 2143.01838195113 194 197 202
-992.864974770547 132.115006443955 2145.62151461835 186 189 194
-987.329826205277 132.651621162999 2151.93960965403 186 189 194
-980.213532741728 132.937299763889 2154.54678122447 198 201 206
-973.096786568574 133.22254941839 2157.15408491661 205 208 213
-965.209765973455 133.381321262358 2157.89834850059 208 211 216
-958.862107383791 133.791814745799 2162.36903041801 214 217 222
-952.883601644677 134.265523602647 2167.77691117979 215 218 223
-945.757653050861 134.549316569874 2170.38744854758 220 223 228
-939.755402975356 135.023089889308 2175.80396138229 213 216 221
-933.365323607881 135.433468376331 2180.28979337945 203 206 211
-928.442920670968 136.098370083542 2188.52830115527 209 212 217
-921.654602717073 136.445270442958 2192.08748242299 208 211 216
-914.861028082618 136.792005238956 2195.64881545339 210 213 218
-908.062044813722 137.138369585223 2199.21183138753 214 217 222
-902.694949376371 137.740774927995 2206.54064096101 216 219 224
-898.728820992106 138.600367752825 2217.64605674751 212 215 220
-895.070612730991 139.52552555148 2229.71135111416 214 218 221
-888.899953617167 140.00171192056 2235.18923534545 213 217 220
-882.015866178296 140.349214932298 2238.78351303996 209 213 216
