ply
format ascii 1.0
comment KinectMotionCapture
element vertex 753
property float x
property float y
property float z
property uchar red
property uchar green
property uchar blue
end_header
-917.141735553741 434.780806303024 2322.00002670288 179 178 176
-910.049617290497 434.407979249954 2319.9999332428 170 169 167
-904.528379440308 434.784919023514 2322.00002670288 173 172 170
-898.224115371704 434.788227081299 2322.00002670288 209 208 206
-885.391354560852 431.609034538269 2305.0000667572 204 204 204
-869.219839572906 426.745384931564 2279.00004386902 203 203 203
-858.113765716553 424.316614866257 2266.00003242493 193 193 193
-849.335372447968 423.012107610703 2259.0000629425 186 186 186
-842.83584356308 422.831743955612 2257.99989700317 179 179 179
-835.601925849915 422.277718782425 2255.00011444092 186 186 184
-827.649652957916 421.349704265594 2250 184 184 182
-820.820748806 420.984089374542 2247.99990653992 173 173 171
-813.641488552094 420.431911945343 2244.99988555908 166 166 164
-807.198882102966 420.254945755005 2243.99995803833 172 172 170
-801.11962556839 420.265853404999 2243.99995803833 174 173 171
-795.041024684906 420.27735710144 2243.99995803833 173 172 170
-788.260221481323 419.914871454239 2242.00010299683 171 170 168
-782.188713550568 419.927567243576 2242.00010299683 165 164 162
-776.46392583847 420.128136873245 2243.00003051758 163 162 160
-771.077871322632 420.516550540924 2244.99988555908 163 162 160
-765.000104904175 420.530915260315 2244.99988555908 160 159 157
-758.92299413681 420.545846223831 2244.99988555908 152 151 149
-752.510845661163 420.373916625977 2243.99995803833 148 147 145
-746.437251567841 420.389831066132 2243.99995803833 146 145 143
-740.693986415863 420.593559741974 2244.99988555908 132 131 129
-734.618544578552 420.61048746109 2244.99988555908 123 122 120
-728.543221950531 420.627772808075 2244.99988555908 122 121 117
-722.790122032166 420.832961797714 2246.00005149841 119 118 114
-716.712653636932 420.851200819016 2246.00005149841 117 116 112
-710.635423660278 420.86985707283 2246.00005149841 117 116 112
-705.18547296524 421.263635158539 2247.99990653992 120 119 115
-699.414134025574 421.470552682877 2249.00007247925 118 119 114
-694.562137126923 422.240018844604 2253.00002098084 118 119 114
-688.466310501099 422.260314226151 2253.00002098084 124 125 120
-683.278918266296 422.843188047409 2256.00004196167 125 126 121
-676.574528217316 422.489285469055 2253.99994850159 122 123 118
-671.368181705475 423.072934150696 2256.99996948242 122 123 118
-665.261149406433 423.094570636749 2256.99996948242 117 114 109
-659.153938293457 423.116505146027 2256.99996948242 115 114 109
-652.467966079712 422.763764858246 2255.00011444092 114 113 109
-646.652400493622 422.973722219467 2256.00004196167 112 111 107
-641.115188598633 423.371434211731 2257.99989700317 111 110 106
-636.129260063171 424.144566059113 2262.00008392334 106 105 103
-630.285799503326 424.355357885361 2263.00001144409 118 117 115
-625.53995847702 425.316601991653 2267.99988746643 97 97 97
-619.674205780029 425.527989864349 2269.00005340576 115 115 115
-612.991333007813 425.1768887043 2266.99995994568 232 232 232
-1263.98944854736 506.811738014221 2744.99988555908 205 199 199
-1228.53636741638 495.522856712341 2684.00001525879 232 228 229
-1203.88686656952 488.482654094696 2645.99990844727 227 223 224
-1189.39924240112 485.505819320679 2630.00011444092 214 214 214
-1174.5537519455 482.345938682556 2612.99991607666 215 215 215
-1163.82622718811 480.849057435989 2605.00001907349 210 212 209
-1151.36992931366 478.615194559097 2592.99993515015 214 216 215
-1142.51339435577 477.859437465668 2588.99998664856 160 161 163
-1131.48939609528 476.182132959366 2579.99992370605 147 148 150
-1119.64631080627 474.1370677948 2569.00000572205 184 184 186
-1107.00047016144 471.724152565002 2555.99999427795 177 177 179
-1095.28946876526 469.681739807129 2545.00007629395 186 186 188
-1082.35847949982 467.08682179451 2530.99989891052 181 181 183
-1072.90637493134 465.969622135162 2525.00009536743 173 171 174
-1060.95659732819 463.746339082718 2513.00001144409 164 162 165
-1044.04139518738 459.309786558151 2489.00008201599 166 164 167
-1017.25792884827 450.445592403412 2440.99998474121 197 195 196
-984.942018985748 438.999176025391 2378.99994850159 214 214 212
-967.772722244263 434.197098016739 2352.9999256134 197 197 195
-958.101451396942 432.717561721802 2345.00002861023 196 196 194
-949.693500995636 431.792557239532 2339.99991416931 192 192 190
-942.524135112762 431.422054767609 2338.00005912781 193 193 191
-936.168551445007 431.421488523483 2338.00005912781 197 196 194
-927.428483963013 430.314630270004 2332.00001716614 198 197 195
-916.74816608429 428.286045789719 2321.00009918213 179 178 176
-909.659683704376 427.918970584869 2319.00000572205 174 173 171
-904.141843318939 428.290843963623 2321.00009918213 171 170 168
-897.067427635193 427.925407886505 2319.00000572205 202 201 199
-885.011792182922 425.161808729172 2303.99990081787 203 203 203
-868.843793869019 420.369118452072 2278.00011634827 203 203 203
-857.741177082062 417.97599196434 2265.00010490417 198 198 198
-849.342107772827 416.875272989273 2259.0000629425 192 192 192
-842.470049858093 416.513413190842 2256.99996948242 183 183 183
-835.980594158173 416.336804628372 2256.00004196167 185 185 183
-828.393995761871 415.607184171677 2252.00009346008 189 189 187
-821.560561656952 415.247321128845 2250 184 184 182
-814.014077186584 414.518982172012 2246.00005149841 176 176 174
-807.929039001465 414.529472589493 2246.00005149841 171 171 169
-802.201867103577 414.725124835968 2246.99997901917 164 163 161
-795.761525630951 414.552301168442 2246.00005149841 167 166 164
-788.624286651611 414.01082277298 2243.00003051758 168 167 165
-782.550573348999 414.023727178574 2243.00003051758 169 168 166
-776.823699474335 414.221704006195 2243.99995803833 166 165 163
-771.435678005219 414.604932069778 2246.00005149841 156 155 153
-765.014886856079 414.434790611267 2244.99988555908 154 153 151
-758.938193321228 414.449840784073 2244.99988555908 157 156 154
-752.86191701889 414.465367794037 2244.99988555908 155 154 152
-746.786117553711 414.481401443481 2244.99988555908 153 152 150
-740.710735321045 414.497911930084 2244.99988555908 147 146 144
-734.635591506958 414.514869451523 2244.99988555908 142 141 139
-728.560864925385 414.53230381012 2244.99988555908 132 131 127
-723.451793193817 415.104150772095 2247.99990653992 129 128 124
-717.688500881195 415.307134389877 2249.00007247925 128 127 123
-711.60352230072 415.325850248337 2249.00007247925 127 126 122
-706.145942211151 415.71432352066 2250.99992752075 124 123 119
-700.677812099457 416.10324382782 2253.00002098084 111 112 107
-695.815443992615 416.861981153488 2256.99996948242 113 114 109
-689.709067344666 416.882276535034 2256.99996948242 118 119 114
-684.511244297028 417.457073926926 2259.99999046326 118 119 114
-677.796363830566 417.108654975891 2257.99989700317 119 120 115
-671.984612941742 417.314738035202 2259.0000629425 121 122 117
-665.872514247894 417.336404323578 2259.0000629425 115 112 107
-660.344243049622 417.727828025818 2260.99991798401 113 112 107
-653.647661209106 417.380571365356 2259.0000629425 112 111 106
-648.108303546906 417.772620916367 2260.99991798401 112 111 107
-642.841756343842 418.349742889404 2263.99993896484 113 112 108
-638.121128082275 419.29680109024 2269.00005340576 107 106 104
-632.816135883331 419.874578714371 2272.0000743866 114 113 111
-627.49445438385 420.452624559402 2275.00009536743 122 122 122
-621.063649654388 420.291632413864 2273.9999294281 168 168 168
-1268.10622215271 500.973224639893 2753.99994850159 232 227 224
-1244.07339096069 494.398713111877 2717.99993515015 231 227 228
-1212.96286582947 484.916120767593 2665.99988937378 217 213 214
-1193.89975070953 480.164736509323 2640.00010490417 200 198 199
-1177.2301197052 476.324379444122 2618.99995803833 198 198 198
-1166.0407781601 474.668085575104 2609.99989509583 207 209 206
-1152.24015712738 471.922069787979 2595.00002861023 218 220 217
-1143.37956905365 471.177935600281 2591.00008010864 156 157 159
-1133.22842121124 469.889491796494 2584.00011062622 155 156 158
-1122.68304824829 468.420445919037 2575.99997520447 175 175 177
-1110.45241355896 466.225415468216 2563.99989128113 171 171 173
-1097.86009788513 463.849872350693 2551.00011825562 187 187 189
-1084.91408824921 461.293667554855 2536.99994087219 174 174 176
-1074.1720199585 459.647923707962 2528.00011634827 168 166 169
-1063.48168849945 458.003252744675 2519.00005340576 165 163 166
-1049.90696907043 455.087006092072 2503.00002098084 164 162 165
-1024.75345134735 447.081089019775 2459.00011062622 195 193 194
-985.3515625 432.712942361832 2380.00011444092 216 216 216
-967.769265174866 427.800208330154 2352.9999256134 198 198 196
-958.915948867798 426.706463098526 2346.99988365173 197 197 195
-950.909376144409 425.977319478989 2342.99993515015 193 193 191
-943.329572677612 425.430834293365 2339.99991416931 194 194 192
-935.768127441406 424.885272979736 2336.99989318848 198 197 195
-926.236391067505 423.431515693665 2328.9999961853 197 196 194
-916.354835033417 421.796709299088 2319.9999332428 179 178 176
-909.269988536835 421.435505151749 2318.00007820129 176 175 173
-904.534757137299 422.165870666504 2322.00002670288 172 171 169
-896.68482542038 421.442657709122 2318.00007820129 200 199 197
-885.401010513306 419.083803892136 2305.0000667572 207 207 207
-869.612216949463 414.543777704239 2279.99997138977 208 208 208
-858.883500099182 412.368029356003 2267.99988746643 198 198 198
-849.349200725555 410.738468170166 2259.0000629425 191 191 191
-842.850983142853 410.564094781876 2257.99989700317 183 183 183
-836.359560489655 410.390466451645 2256.99996948242 182 182 180
-829.506695270538 410.035699605942 2255.00011444092 182 182 180
-821.93523645401 409.3177318573 2250.99992752075 181 181 179
-813.661873340607 408.236771821976 2244.99988555908 179 179 177
-807.58011341095 408.247441053391 2244.99988555908 176 176 174
-801.499307155609 408.258706331253 2244.99988555908 170 169 167
-796.128034591675 408.634394407272 2246.99997901917 165 164 162
-790.043294429779 408.64685177803 2246.99997901917 162 161 159
-784.308254718781 408.841729164124 2247.99990653992 170 169 167
-778.222143650055 408.855319023132 2247.99990653992 174 173 171
-771.449983119965 408.505767583847 2246.00005149841 172 171 169
-765.029668807983 408.338457345963 2244.99988555908 173 172 170
-758.953511714935 408.353626728058 2244.99988555908 168 167 165
-753.213226795197 408.551216125488 2246.00005149841 173 172 170
-747.135162353516 408.5673391819 2246.00005149841 176 175 173
-740.39763212204 408.220082521439 2243.99995803833 167 166 164
-733.998477458954 408.055245876312 2243.00003051758 150 149 147
-728.578507900238 408.436506986618 2244.99988555908 150 149 145
-723.791778087616 409.182250499725 2249.00007247925 148 147 143
-718.664407730103 409.746497869492 2252.00009346008 148 147 143
-711.938858032227 409.40135717392 2250 148 147 143
-706.479132175446 409.784466028214 2252.00009346008 144 143 139
-700.075507164001 409.622013568878 2250.99992752075 141 142 137
-694.910705089569 410.187900066376 2253.99994850159 142 143 138
-688.812732696533 410.208195447922 2253.99994850159 136 137 132
-684.229254722595 411.138892173767 2259.0000629425 133 134 129
-678.417861461639 411.341905593872 2259.99999046326 136 137 132
-673.493385314941 412.091255187988 2263.99993896484 136 137 132
-667.073369026184 411.930978298187 2263.00001144409 134 133 128
-661.242544651031 412.134945392609 2263.99993896484 126 125 120
-655.11679649353 412.157207727432 2263.99993896484 119 118 113
-649.564266204834 412.54386305809 2266.00003242493 110 109 105
-644.568383693695 413.294941186905 2269.99998092651 110 109 105
-639.550507068634 414.046317338943 2273.9999294281 111 111 109
-634.789288043976 414.980173110962 2279.00004386902 114 114 112
-630.276501178741 416.096389293671 2285.00008583069 128 128 128
-624.365091323853 416.302353143692 2286.00001335144 212 212 212
-1302.04021930695 503.714621067047 2811.00010871887 192 187 181
-1281.89337253571 498.849332332611 2783.99991989136 210 205 202
-1255.49161434174 491.47766828537 2743.00003051758 203 199 198
-1227.49900817871 483.391344547272 2697.99995422363 190 189 187
-1201.11393928528 475.844711065292 2655.99989891052 180 178 179
-1182.15489387512 471.166521310806 2630.00011444092 166 166 164
-1169.14963722229 468.818843364716 2617.00010299683 178 180 177
-1154.88731861115 465.935170650482 2601.0000705719 192 194 191
-1146.45278453827 465.381681919098 2598.00004959106 144 144 146
-1136.28387451172 464.112967252731 2591.00008010864 158 158 160
-1126.59215927124 463.024586439133 2585.00003814697 165 165 167
-1112.60604858398 460.146397352219 2569.00000572205 159 159 161
-1100.43144226074 457.985818386078 2556.99992179871 173 173 175
-1087.89777755737 455.64740896225 2543.99991035461 158 158 160
-1076.28786563873 453.66844534874 2532.99999237061 154 152 155
-1065.58513641357 452.048778533936 2523.9999294281 165 163 166
-1054.09514904022 450.072079896927 2513.00001144409 159 157 160
-1033.08296203613 443.977266550064 2479.00009155273 186 184 185
-986.17547750473 426.600635051727 2381.99996948242 216 216 214
-967.354893684387 421.224504709244 2351.99999809265 196 196 194
-958.913803100586 420.326620340347 2346.99988365173 191 191 189
-951.313972473145 419.7878241539 2344.00010108948 185 185 183
-942.926049232483 418.891698122025 2338.99998664856 191 191 189
-934.967875480652 418.175607919693 2335.00003814697 194 193 191
-924.646854400635 416.385740041733 2325.00004768372 195 194 192
-915.567100048065 415.134012699127 2318.00007820129 179 178 176
-908.880591392517 414.957612752914 2316.99991226196 175 174 172
-903.759360313416 415.498346090317 2319.9999332428 172 171 169
-896.689295768738 415.144473314285 2318.00007820129 202 201 199
-885.022103786469 412.64209151268 2303.99990081787 211 211 211
-870.762288570404 408.886700868607 2282.99999237061 211 211 211
-858.132779598236 405.848383903503 2266.00003242493 198 198 198
-850.108325481415 404.959887266159 2260.99991798401 191 191 191
-843.605518341064 404.788553714752 2259.99999046326 185 185 185
-837.109327316284 404.617875814438 2259.0000629425 180 180 178
-830.251574516296 404.268652200699 2256.99996948242 178 178 176
-822.310388088226 403.382748365402 2252.00009346008 181 181 179
-814.397215843201 402.497410774231 2246.99997901917 173 173 171
-808.310747146606 402.508288621902 2246.99997901917 174 174 172
-801.868140697479 402.340650558472 2246.00005149841 171 170 168
-795.785903930664 402.352660894394 2246.00005149841 166 165 163
-790.056109428406 402.544409036636 2246.99997901917 160 159 157
-785.019397735596 403.095066547394 2250 157 156 154
-779.274761676788 403.287976980209 2250.99992752075 161 160 158
-772.494852542877 402.943909168243 2249.00007247925 170 169 167
-765.726208686829 402.600347995758 2246.99997901917 168 167 165
-759.307146072388 402.436435222626 2246.00005149841 163 162 160
-753.229141235352 402.452200651169 2246.00005149841 168 167 165
-746.818900108337 402.289211750031 2244.99988555908 170 169 167
-740.414440631866 402.126640081406 2243.99995803833 164 163 161
-734.015762805939 401.964575052261 2243.00003051758 147 146 144
-728.271722793579 402.161329984665 2243.99995803833 150 149 145
-723.488032817841 402.896136045456 2247.99990653992 149 148 144
-718.363881111145 403.452306985855 2250.99992752075 148 147 143
-712.274253368378 403.471082448959 2250.99992752075 148 147 143
-706.498503684998 403.669625520706 2252.00009346008 147 146 142
-700.717389583588 403.868407011032 2253.00002098084 141 142 137
-695.239067077637 404.246866703033 2255.00011444092 145 146 141
-689.750075340271 404.625743627548 2256.99996948242 145 146 141
-684.855818748474 405.3635597229 2260.99991798401 145 146 141
-679.039537906647 405.563920736313 2262.00008392334 144 145 140
-673.812508583069 406.12319111824 2265.00010490417 142 143 138
-667.68479347229 406.144857406616 2265.00010490417 129 128 123
-662.725031375885 406.884074211121 2269.00005340576 123 122 117
-657.164812088013 407.26500749588 2270.99990844727 117 116 111
-652.453541755676 408.184260129929 2276.00002288818 111 110 106
-646.579027175903 408.386468887329 2276.99995040894 110 111 106
-641.261279582977 408.947676420212 2279.99997138977 108 108 106
-636.205494403839 409.688532352448 2283.99991989136 111 111 109
-631.67941570282 410.78844666481 2289.99996185303 157 157 157
-626.027882099152 411.171138286591 2292.00005531311 211 213 212
-1315.90819358826 501.353800296783 2841.00008010864 196 189 183
-1286.93246841431 493.209958076477 2795.00007629395 215 210 207
-1264.62149620056 487.538665533066 2763.00001144409 198 194 191
-1238.85083198547 480.457842350006 2723.00004959106 173 172 170
-1211.49432659149 472.673207521439 2678.99990081787 169 169 167
-1186.63060665131 465.772867202759 2640.00010490417 161 161 159
-1173.15256595612 463.284760713577 2625.99992752075 166 166 164
-1159.75499153137 460.798114538193 2611.99998855591 187 187 185
-1149.52647686005 459.547787904739 2605.00001907349 141 139 140
-1138.46254348755 457.945883274078 2595.99995613098 157 155 156
-1128.75854969025 456.874489784241 2589.99991416931 160 158 159
-1116.05906486511 454.569548368454 2576.99990272522 162 160 161
-1104.29441928864 452.618658542633 2565.99998474121 162 160 161
-1094.30325031281 451.374530792236 2559.00001525879 155 153 154
-1082.22854137421 449.249505996704 2546.99993133545 152 150 151
-1069.80001926422 446.949332952499 2533.99991989136 153 151 152
-1057.86442756653 444.826632738113 2522.0000743866 155 153 154
-989.069879055023 421.359539031982 2388.99993896484 209 209 207
-968.997359275818 415.536314249039 2355.99994659424 205 205 203
-960.137665271759 414.475977420807 2349.99990463257 191 191 189
-952.53050327301 413.945734500885 2346.99988365173 193 193 191
-943.329155445099 412.710905075073 2339.99991416931 188 188 186
-935.769379138947 412.182360887527 2336.99989318848 195 194 192
-925.046265125275 410.24374961853 2325.99997520447 199 198 196
-916.359484195709 409.187704324722 2319.9999332428 187 186 184
-909.276127815247 408.838003873825 2318.00007820129 177 176 174
-904.153048992157 409.370929002762 2321.00009918213 171 170 168
-896.69406414032 408.846348524094 2318.00007820129 203 202 200
-885.411739349365 406.558722257614 2305.0000667572 209 209 209
-870.005786418915 402.331531047821 2280.99989891052 210 210 210
-857.760965824127 399.516016244888 2265.00010490417 196 196 196
-849.739909172058 398.641318082809 2259.99999046326 189 189 189
-843.613743782043 398.649305105209 2259.99999046326 188 188 188
-836.747407913208 398.305118083954 2257.99989700317 178 178 176
-830.26111125946 398.137956857681 2256.99996948242 182 182 180
-822.320520877838 397.26585149765 2252.00009346008 183 183 181
-814.770340919495 396.570652723312 2247.99990653992 175 175 173
-807.60246515274 396.052420139313 2244.99988555908 167 167 165
-801.879942417145 396.240502595901 2246.00005149841 170 169 167
-796.152651309967 396.429091691971 2246.99997901917 175 174 172
-790.420651435852 396.618276834488 2247.99990653992 177 176 174
-785.032987594604 396.984457969666 2250 167 166 164
-779.635071754456 397.351294755936 2252.00009346008 162 161 159
-773.196399211884 397.189170122147 2250.99992752075 158 157 155
-767.10444688797 397.20407128334 2250.99992752075 161 160 158
-759.998738765717 396.690040826797 2247.99990653992 175 174 172
-753.580451011658 396.529406309128 2246.99997901917 175 174 172
-747.168004512787 396.369218826294 2246.00005149841 163 162 160
-740.761280059814 396.209448575974 2244.99988555908 159 158 156
-734.687566757202 396.226644515991 2244.99988555908 159 158 156
-729.263126850128 396.59720659256 2246.99997901917 154 153 149
-723.828136920929 396.968275308609 2249.00007247925 151 150 146
-718.701660633087 397.516250610352 2252.00009346008 149 148 144
-712.609767913818 397.535115480423 2252.00009346008 150 149 145
-706.517934799194 397.554337978363 2252.00009346008 153 152 148
-700.737059116364 397.750437259674 2253.00002098084 153 154 149
-695.875823497772 398.47657084465 2256.99996948242 150 151 146
-690.687417984009 399.02663230896 2259.99999046326 140 141 136
-685.785472393036 399.753600358963 2263.99993896484 135 136 131
-680.261433124542 400.127738714218 2266.00003242493 128 129 124
-675.023972988129 400.678902864456 2269.00005340576 127 128 123
-669.180452823639 400.877118110657 2269.99998092651 123 122 117
-663.915514945984 401.428937911987 2273.00000190735 119 118 113
-658.344805240631 401.80441737175 2275.00009536743 118 117 112
-653.049647808075 402.356863021851 2278.00011634827 123 124 119
-646.885991096497 402.379661798477 2278.00011634827 123 124 119
-641.84707403183 403.109312057495 2282.00006484985 122 122 120
-637.064635753632 404.015868902206 2286.99994087219 138 138 136
-633.634150028229 405.806124210358 2296.99993133545 155 157 156
-628.783345222473 406.713396310806 2302.00004577637 212 214 213
-1321.43926620483 495.702832937241 2852.9999256134 208 201 195
-1300.2598285675 490.638554096222 2823.99988174438 216 211 208
-1272.83656597137 483.144015073776 2780.99989891052 190 186 183
-1252.0227432251 478.083699941635 2752.00009346008 170 169 167
-1225.94523429871 470.940589904785 2710.99996566772 160 160 158
-1196.95007801056 462.58345246315 2663.00010681152 155 155 153
-1178.94315719604 458.397001028061 2638.99993896484 160 160 158
-1164.17944431305 455.428093671799 2621.99997901917 170 170 168
-1153.04219722748 453.850030899048 2612.99991607666 132 130 131
-1142.39621162415 452.446937561035 2605.00001907349 132 130 131
-1132.66897201538 451.392441987991 2598.99997711182 162 160 161
-1120.81217765808 449.47075843811 2588.00005912781 164 162 163
-1110.30948162079 448.071300983429 2579.99992370605 139 137 138
-1100.28123855591 446.846663951874 2572.99995422363 145 143 144
-1089.01953697205 445.102214813232 2562.99996376038 144 142 143
-1074.43761825562 441.969513893127 2545.00007629395 146 144 145
-1063.31181526184 440.22724032402 2535.00008583069 147 145 146
-993.206799030304 416.601657867432 2398.9999294281 211 211 209
-971.462786197662 410.173892974854 2361.99998855591 201 201 199
-960.953533649445 408.435702323914 2351.99999809265 187 187 185
-952.935934066772 407.740354537964 2348.00004959106 192 192 190
-944.135844707489 406.698524951935 2342.00000762939 189 189 187
-936.171054840088 406.004875898361 2338.00005912781 197 196 194
-925.84365606308 404.270112514496 2328.00006866455 202 201 199
-917.152225971222 403.23069691658 2322.00002670288 187 186 184
-909.671902656555 402.713030576706 2319.00000572205 175 174 172
-903.378188610077 402.717113494873 2319.00000572205 167 166 164
-896.699130535126 402.548342943192 2318.00007820129 199 198 196
-885.801672935486 400.469958782196 2305.99999427795 206 206 206
-871.537804603577 396.829217672348 2285.00008583069 208 208 208
-858.90394449234 393.88370513916 2267.99988746643 195 195 195
-850.49968957901 392.849236726761 2262.00008392334 188 188 188
-843.622088432312 392.510026693344 2259.99999046326 187 187 187
-836.756467819214 392.17147231102 2257.99989700317 178 178 176
-830.638587474823 392.180919647217 2257.99989700317 176 176 174
-823.060989379883 391.49621129036 2253.99994850159 178 178 176
-815.143644809723 390.638411045074 2249.00007247925 175 175 173
-807.973682880402 390.128552913666 2246.00005149841 167 167 165
-802.605986595154 390.487670898438 2247.99990653992 164 163 161
-796.519458293915 390.500009059906 2247.99990653992 169 168 166
-790.433883666992 390.512943267822 2247.99990653992 174 173 171
-784.697771072388 390.700042247772 2249.00007247925 175 174 172
-779.649198055267 391.235172748566 2252.00009346008 172 171 169
-773.898005485535 391.423404216766 2253.00002098084 157 156 154
-768.141984939575 391.612142324448 2253.99994850159 156 155 153
-761.366784572601 391.280114650726 2252.00009346008 164 163 161
-754.938066005707 391.122221946716 2250.99992752075 167 166 164
-747.849822044373 390.617311000824 2247.99990653992 165 164 162
-741.768181324005 390.634119510651 2247.99990653992 161 160 158
-736.014008522034 390.825182199478 2249.00007247925 158 157 155
-729.93016242981 390.842825174332 2249.00007247925 154 153 149
-723.84637594223 390.860855579376 2249.00007247925 149 148 144
-718.082070350647 391.053140163422 2250 148 147 143
-712.312281131744 391.245752573013 2250.99992752075 151 150 146
-706.850945949554 391.612619161606 2253.00002098084 155 154 150
-701.37894153595 391.979873180389 2255.00011444092 145 146 141
-695.896029472351 392.347455024719 2256.99996948242 144 145 140
-691.01357460022 393.06315779686 2260.99991798401 139 140 135
-686.109364032745 393.779247999191 2265.00010490417 135 136 131
-680.88299036026 394.321769475937 2267.99988746643 127 128 123
-675.343036651611 394.690901041031 2269.99998092651 126 127 122
-670.086741447449 395.234167575836 2273.00000190735 126 125 120
-664.229691028595 395.429998636246 2273.9999294281 128 127 122
-658.656537532806 395.799994468689 2276.00002288818 130 129 124
-652.78559923172 395.996361970901 2276.99995040894 128 129 124
-647.47679233551 396.540880203247 2279.99997138977 127 128 123
-643.276512622833 397.781372070313 2286.99994087219 130 130 128
-638.75949382782 398.848295211792 2292.99998283386 143 143 141
-635.037183761597 400.437384843826 2302.00004577637 157 159 158
-629.353582859039 400.80913901329 2303.99990081787 212 214 213
-1330.21330833435 491.184324026108 2871.99997901917 195 186 181
-1313.58766555786 487.909853458405 2852.9999256134 188 183 179
-1290.20571708679 482.072085142136 2819.00000572205 158 154 151
-1269.28925514221 477.091163396835 2789.99996185303 157 156 154
-1246.72722816467 471.428155899048 2756.99996948242 154 154 152
-1173.04420471191 451.713740825653 2641.99995994568 143 142 138
-1158.32352638245 448.792934417725 2625 146 142 139
-1146.3303565979 446.899324655533 2614.00008201599 134 130 129
-1137.88712024689 446.374595165253 2611.00006103516 136 132 131
-1129.03034687042 445.680111646652 2607.00011253357 137 133 130
-1121.05906009674 445.328593254089 2605.00001907349 147 146 142
-1111.39142513275 444.294422864914 2598.99997711182 141 140 138
-1098.3601808548 441.893815994263 2585.00003814697 132 131 129
-1083.71937274933 438.810497522354 2566.99991226196 133 132 128
-1072.11542129517 436.924904584885 2555.99999427795 139 140 135
-974.339962005615 404.949963092804 2368.99995803833 204 204 202
-962.178349494934 402.555614709854 2355.00001907349 188 188 186
-954.965054988861 402.213335037231 2352.9999256134 193 193 191
-945.345997810364 400.84633231163 2345.00002861023 193 193 191
-938.174605369568 400.505721569061 2342.99993515015 192 191 189
-927.436709403992 398.627519607544 2332.00001716614 200 199 197
-917.945265769959 397.262841463089 2323.99988174438 187 186 184
-910.460352897644 396.753698587418 2321.00009918213 173 172 170
-904.162049293518 396.758079528809 2321.00009918213 166 165 163
-896.7045545578 396.250367164612 2318.00007820129 196 195 193
-886.960029602051 394.717633724213 2309.00001525879 207 207 207
-873.070240020752 391.305148601532 2289.00003433228 206 206 206
-860.426187515259 388.406097888947 2272.0000743866 189 189 189
-851.259469985962 387.046158313751 2263.99993896484 180 180 180
-843.630731105804 386.370718479156 2259.99999046326 176 176 176
-837.136387825012 386.208772659302 2259.0000629425 182 182 180
-830.648422241211 386.04736328125 2257.99989700317 174 174 172
-823.801755905151 385.715663433075 2256.00004196167 176 176 174
-816.241979598999 385.042548179626 2252.00009346008 181 181 179
-808.704733848572 384.369969367981 2247.99990653992 178 178 176
-802.261054515839 384.210914373398 2246.99997901917 166 165 163
-796.886503696442 384.565353393555 2249.00007247925 164 163 161
-791.150271892548 384.749352931976 2250 161 160 158
-785.409271717072 384.933829307556 2250.99992752075 170 169 167
-779.663503170013 385.118931531906 2252.00009346008 178 177 175
-773.569405078888 385.133534669876 2252.00009346008 175 174 172
-768.157243728638 385.490566492081 2253.99994850159 166 165 163
-762.058675289154 385.506123304367 2253.99994850159 153 152 150
-755.960404872894 385.522067546844 2253.99994850159 151 150 148
-748.531818389893 384.854346513748 2250 161 160 158
-742.445170879364 384.871184825897 2250 165 164 162
-736.35870218277 384.88844037056 2250 167 166 164
-730.597078800201 385.077208280563 2250.99992752075 161 160 156
-724.508345127106 385.09526848793 2250.99992752075 152 151 147
-718.738973140717 385.284841060638 2252.00009346008 148 147 143
-712.964296340942 385.474801063538 2253.00002098084 149 148 144
-707.497894763947 385.836213827133 2255.00011444092 146 145 141
-701.709687709808 386.026859283447 2256.00004196167 155 156 151
-695.916175842285 386.217951774597 2256.99996948242 152 153 148
-690.728366374969 386.751592159271 2259.99999046326 142 143 138
-685.827076435089 387.456685304642 2263.99993896484 138 139 134
-680.603981018066 387.991100549698 2266.99995994568 136 137 132
-675.066947937012 388.354659080505 2269.00005340576 137 138 133
-670.108497142792 389.060914516449 2273.00000190735 133 134 128
-664.543867111206 389.425158500671 2275.00009536743 137 138 132
-659.257769584656 389.96085524559 2278.00011634827 138 139 133
-653.381526470184 390.154421329498 2279.00004386902 133 134 129
-648.351609706879 390.86189866066 2282.99999237061 132 133 128
-644.143521785736 392.083317041397 2289.99996185303 141 143 140
-639.897167682648 393.305093050003 2296.99993133545 149 151 148
-636.164307594299 394.869685173035 2305.99999427795 159 161 160
-629.92388010025 394.893497228622 2305.99999427795 213 215 214
-1334.3563079834 484.88000035286 2881.00004196167 157 148 143
-1321.39098644257 483.00439119339 2869.99988555908 186 181 177
-1305.28688430786 479.952424764633 2851.99999809265 161 158 153
-1292.47045516968 478.080034255981 2841.00008010864 137 138 133
-1280.62307834625 476.545780897141 2832.00001716614 144 144 142
-1171.54812812805 446.699529886246 2654.99997138977 151 146 142
-1155.52723407745 443.322032690048 2634.99999046326 142 138 135
-1145.72036266327 442.30130314827 2628.99994850159 135 131 128
-1136.8156671524 441.618174314499 2625 134 131 126
-1129.65726852417 441.609114408493 2625 134 131 126
-1118.65329742432 440.087050199509 2615.9999370575 134 133 129
-1106.85157775879 438.229650259018 2605.00001907349 128 127 123
-1090.46852588654 434.522807598114 2582.99994468689 129 128 123
-1080.49988746643 433.340460062027 2575.99997520447 130 131 125
-992.373585700989 403.222531080246 2397.0000743866 167 167 165
-972.693383693695 397.837787866592 2365.00000953674 205 205 203
-961.769104003906 395.986497402191 2354.00009155273 189 189 187
-954.559445381165 395.650029182434 2351.99999809265 189 189 187
-945.34695148468 394.473314285278 2345.00002861023 190 190 188
-937.776148319244 393.970280885696 2342.00000762939 191 190 188
-926.643908023834 391.954004764557 2329.99992370605 200 199 197
-917.948603630066 390.947788953781 2323.99988174438 186 185 183
-910.072267055511 390.278846025467 2319.9999332428 173 172 170
-904.556334018707 390.619933605194 2322.00002670288 165 164 162
-897.096991539001 390.120625495911 2319.00000572205 194 193 191
-888.11868429184 388.949066400528 2312.00003623962 209 209 209
-874.984204769135 385.927587747574 2293.99991035461 208 208 208
-861.569881439209 382.738471031189 2275.00009536743 190 190 190
-852.771639823914 381.568729877472 2267.99988746643 181 181 181
-845.132648944855 380.904376506805 2263.99993896484 177 177 177
-837.886929512024 380.408823490143 2260.99991798401 178 178 176
-830.290496349335 379.745572805405 2256.99996948242 174 174 172
-823.447227478027 379.419445991516 2255.00011444092 174 174 172
-816.97803735733 379.262089729309 2253.99994850159 177 177 175
-810.515165328979 379.105299711227 2253.00002098084 177 177 175
-803.344488143921 378.612548112869 2250 175 174 172
-797.253608703613 378.625124692917 2250 171 170 168
-791.515231132507 378.806471824646 2250.99992752075 165 164 162
-785.772085189819 378.988415002823 2252.00009346008 161 160 158
-779.677867889404 379.002571105957 2252.00009346008 168 167 165
-773.584127426147 379.017144441605 2252.00009346008 175 174 172
-767.831802368164 379.200547933578 2253.00002098084 179 178 176
-761.736392974854 379.216134548187 2253.00002098084 168 167 165
-755.641281604767 379.232108592987 2253.00002098084 162 161 159
-749.213874340057 379.080265760422 2252.00009346008 159 158 156
-743.122220039368 379.097133874893 2252.00009346008 161 160 158
-736.703455448151 378.94606590271 2250.99992752075 162 161 159
-730.939567089081 379.132121801376 2252.00009346008 150 149 145
-724.848508834839 379.150211811066 2252.00009346008 145 144 140
-719.395995140076 379.505395889282 2253.99994850159 149 148 144
-713.932633399963 379.86096739769 2256.00004196167 151 150 146
-708.144783973694 380.04857301712 2256.99996948242 148 147 143
-702.35151052475 380.23653626442 2257.99989700317 145 146 141
-696.552872657776 380.424857139587 2259.0000629425 145 146 141
-691.054403781891 380.781888961792 2260.99991798401 144 145 140
-685.847878456116 381.307691335678 2263.99993896484 144 145 140
-680.324912071228 381.665468215942 2266.00003242493 145 146 141
-674.790740013123 382.023513317108 2267.99988746643 146 147 142
-670.13019323349 382.887244224548 2273.00000190735 142 143 137
-664.858043193817 383.414417505264 2276.00002288818 138 139 133
-659.858703613281 384.110361337662 2279.99997138977 135 136 130
-653.977394104004 384.301155805588 2280.99989891052 137 138 133
-649.794399738312 385.503143072128 2288.00010681152 139 141 136
-645.854353904724 386.87402009964 2296.0000038147 156 158 155
-641.870617866516 388.245224952698 2303.99990081787 155 157 154
-636.739730834961 388.942778110504 2308.00008773804 158 160 159
-629.947602748871 388.62931728363 2305.99999427795 214 216 215
-1343.13154220581 480.183035135269 2900.00009536743 91 82 77
-1321.82836532593 475.357830524445 2871.00005149841 105 100 96
-1310.29963493347 474.011242389679 2862.99991607666 134 133 128
-1301.0938167572 473.493963479996 2859.99989509583 127 128 123
-1291.90909862518 472.97814488411 2857.00011253357 116 116 114
-1275.55334568024 469.814866781235 2838.00005912781 122 123 118
-1220.96633911133 455.216139554977 2750 118 117 113
-1150.50387382507 436.971813440323 2640.00010490417 128 125 120
-1135.50710678101 433.982849121094 2621.99997901917 133 130 125
-1127.49719619751 433.643281459808 2619.99988555908 121 118 113
-1121.63937091827 434.132307767868 2622.99990653992 127 126 121
-1107.27035999298 431.312292814255 2605.99994659424 133 132 127
-1068.0685043335 424.182504415512 2562.99996376038 143 144 138
-988.231539726257 395.051866769791 2387.00008392334 146 146 144
-971.047103404999 390.747487545013 2361.00006103516 202 202 200
-961.768865585327 389.588445425034 2354.00009155273 183 183 181
-954.154193401337 389.092296361923 2351.0000705719 184 184 182
-945.34832239151 388.100355863571 2345.00002861023 191 191 189
-937.3779296875 387.440294027328 2341.00008010864 196 195 193
-926.646888256073 385.622441768646 2329.99992370605 204 203 201
-917.162418365479 384.301841259003 2322.00002670288 185 184 182
-909.292161464691 383.644014596939 2318.00007820129 174 173 171
-903.782367706299 383.979827165604 2319.9999332428 163 162 160
-896.329045295715 383.488923311234 2316.99991226196 184 183 181
-887.741148471832 382.502138614655 2311.00010871887 209 209 209
-874.609887599945 379.529774188995 2292.99998283386 209 209 209
-861.956298351288 376.723498106003 2276.00002288818 194 194 194
-853.532075881958 375.738471746445 2269.99998092651 186 186 186
-845.514893531799 374.91962313652 2265.00010490417 183 183 183
-838.63765001297 374.597877264023 2263.00001144409 181 181 179
-831.036448478699 373.945683240891 2259.0000629425 177 177 175
-823.823094367981 373.459547758102 2256.00004196167 178 178 176
-818.076610565186 373.63612651825 2256.99996948242 182 182 180
-811.606228351593 373.482197523117 2256.00004196167 180 180 178
-804.784953594208 373.163282871246 2253.99994850159 178 177 175
-797.975242137909 372.844815254211 2252.00009346008 178 177 175
-790.825426578522 372.361361980438 2249.00007247925 175 174 172
-785.088062286377 372.540563344955 2250 164 163 161
-778.999745845795 372.554749250412 2250 162 161 159
-773.942530155182 373.066157102585 2253.00002098084 156 155 153
-768.187940120697 373.246878385544 2253.99994850159 165 164 162
-762.09020614624 373.262465000153 2253.99994850159 171 170 168
-755.657494068146 373.112916946411 2253.00002098084 171 170 168
-750.228643417358 373.460620641708 2255.00011444092 159 158 156
-744.129300117493 373.477548360825 2255.00011444092 153 152 150
-738.030195236206 373.494863510132 2255.00011444092 149 148 146
-732.255816459656 373.678177595139 2256.00004196167 150 149 145
-726.798057556152 374.02755022049 2257.99989700317 148 147 143
-721.010506153107 374.211698770523 2259.0000629425 152 151 147
-714.584648609161 374.064862728119 2257.99989700317 153 152 148
-708.477854728699 374.084025621414 2257.99989700317 149 148 144
-702.682375907898 374.269247055054 2259.0000629425 145 146 141
-697.498083114624 374.786198139191 2262.00008392334 148 149 144
-692.297399044037 375.303477048874 2265.00010490417 154 155 150
-686.777412891388 375.655382871628 2266.99995994568 154 155 150
-680.946350097656 375.841915607452 2267.99988746643 149 150 145
-675.704717636108 376.360237598419 2270.99990844727 147 148 143
-670.741438865662 377.044588327408 2275.00009536743 137 138 132
-665.756225585938 377.729266881943 2279.00004386902 136 137 131
-660.749197006226 378.414243459702 2282.99999237061 136 137 131
-655.433475971222 378.933817148209 2286.00001335144 142 143 138
-650.385141372681 379.619419574738 2289.99996185303 144 146 141
-646.439969539642 380.968421697617 2298.00009727478 157 159 156
-642.729699611664 382.483571767807 2306.99992179871 156 158 155
-637.866795063019 383.335918188095 2312.00003623962 159 161 160
-630.790889263153 382.862091064453 2309.00001525879 215 217 216
-978.707790374756 384.819567203522 2364.00008201599 217 217 215
-968.167245388031 383.190780878067 2354.00009155273 203 203 201
-960.951864719391 382.86504149437 2351.99999809265 182 182 180
-953.749179840088 382.540106773376 2349.99990463257 187 187 185
-945.75309753418 381.890386343002 2345.99995613098 197 197 195
-936.579406261444 380.753099918365 2338.99998664856 196 194 195
-925.854682922363 378.96540760994 2328.00006866455 203 202 200
-915.586352348328 377.341210842133 2318.00007820129 185 184 182
-908.51217508316 377.020061016083 2315.99998474121 175 174 172
-903.008639812469 377.350717782974 2318.00007820129 164 163 161
-896.335124969482 377.193748950958 2316.99991226196 184 183 181
-887.363612651825 376.060634851456 2309.99994277954 208 208 208
-874.998688697815 373.462975025177 2293.99991035461 208 208 208
-863.100409507751 371.028661727905 2279.00004386902 192 192 192
-855.044662952423 370.222985744476 2273.9999294281 183 183 183
-846.643805503845 369.254976511002 2267.99988746643 180 180 180
-838.647305965424 368.450433015823 2263.00001144409 183 183 181
-830.678820610046 367.646366357803 2257.99989700317 176 176 174
-823.468744754791 367.168545722961 2255.00011444092 178 178 176
-817.725598812103 367.342531681061 2256.00004196167 185 185 183
-811.977922916412 367.517054080963 2256.99996948242 180 180 178
-805.51153421402 367.366492748261 2256.00004196167 175 174 172
-798.34258556366 366.890698671341 2253.00002098084 175 174 172
-791.542053222656 366.578191518784 2250.99992752075 172 171 169
-785.450994968414 366.591989994049 2250.99992752075 167 166 164
-779.360413551331 366.606205701828 2250.99992752075 165 164 162
-774.300992488861 367.109507322311 2253.99994850159 157 156 154
-768.544137477875 367.287576198578 2255.00011444092 156 155 153
-762.444198131561 367.303192615509 2255.00011444092 162 161 159
-756.344616413116 367.319285869598 2255.00011444092 165 164 162
-750.910699367523 367.661535739899 2256.99996948242 166 165 163
-745.136320590973 367.841303348541 2257.99989700317 162 161 159
-739.029467105865 367.858648300171 2257.99989700317 160 159 157
-733.572006225586 368.202179670334 2259.99999046326 150 149 145
-728.425800800323 368.709087371826 2263.00001144409 150 149 145
-721.986651420593 368.564635515213 2262.00008392334 150 149 145
-715.552985668182 368.420481681824 2260.99991798401 150 149 145
-708.811104297638 368.113785982132 2259.0000629425 150 149 145
-703.635215759277 368.622124195099 2262.00008392334 143 144 139
-698.13472032547 368.967860937119 2263.99993896484 142 143 138
-692.928969860077 369.476914405823 2266.99995994568 137 138 133
-687.403976917267 369.82336640358 2269.00005340576 136 137 132
-682.168364524841 370.333164930344 2272.0000743866 137 138 133
-676.916182041168 370.843231678009 2275.00009536743 138 139 134
-671.647548675537 371.353685855865 2278.00011634827 139 140 134
-666.362345218658 371.864348649979 2280.99989891052 141 142 137
-660.771250724792 372.212290763855 2282.99999237061 140 141 136
-655.742466449738 372.886598110199 2286.99994087219 141 142 137
-651.543796062469 374.050378799438 2293.99991035461 149 151 146
-648.150682449341 375.703692436218 2303.99990081787 159 161 158
-644.145965576172 377.031326293945 2312.00003623962 158 160 157
-638.441979885101 377.380698919296 2313.99989128113 163 165 164
-632.180392742157 377.404153347015 2313.99989128113 217 219 218
-977.050542831421 377.753734588623 2359.99989509583 192 193 188
-968.989491462708 377.112776041031 2355.99994659424 200 200 198
-962.586402893066 377.11289525032 2355.99994659424 184 184 184
-955.373823642731 376.793742179871 2354.00009155273 184 184 184
-947.367608547211 376.155167818069 2349.99990463257 191 191 193
-937.783479690552 374.87718462944 2342.00000762939 195 195 197
-926.255762577057 372.799456119537 2328.9999961853 196 196 198
-915.195524692535 370.882570743561 2316.99991226196 190 190 190
-908.517003059387 370.727092027664 2315.99998474121 172 172 170
-903.014302253723 371.052592992783 2318.00007820129 175 176 171
-896.728277206421 371.058613061905 2318.00007820129 180 181 176
-887.754797935486 369.944721460342 2311.00010871887 199 199 197
-875.769019126892 367.550760507584 2296.0000038147 210 210 208
-863.487184047699 364.997267723084 2279.99997138977 206 206 204
-855.053246021271 364.045202732086 2273.9999294281 200 200 198
-846.65310382843 363.093703985214 2267.99988746643 192 192 190
-839.398384094238 362.623065710068 2265.00010490417 191 191 189
-832.160890102386 362.152963876724 2262.00008392334 177 177 175
-824.940323829651 361.683309078217 2259.0000629425 175 175 173
-818.099558353424 361.374378204346 2256.99996948242 180 180 178
-811.270415782928 361.065924167633 2255.00011444092 177 177 175
-805.167078971863 361.078262329102 2255.00011444092 179 179 177
-798.355579376221 360.770791769028 2253.00002098084 176 176 174
-791.90731048584 360.624015331268 2252.00009346008 171 171 169
-785.464942455292 360.477596521378 2250.99992752075 164 164 162
-780.067384243011 360.812187194824 2253.00002098084 164 164 162
-775.003015995026 361.307352781296 2256.00004196167 160 160 158
-769.581973552704 361.642867326736 2257.99989700317 156 156 154
-763.474404811859 361.658543348312 2257.99989700317 156 156 154
-757.367074489594 361.674606800079 2257.99989700317 158 158 156
-751.592874526978 361.851274967194 2259.0000629425 160 160 158
-745.153367519379 361.707955598831 2257.99989700317 162 162 160
-739.374339580536 361.885488033295 2259.0000629425 162 162 160
-733.589828014374 362.063348293304 2259.99999046326 153 154 149
-728.444039821625 362.562030553818 2263.00001144409 146 147 142
-722.643554210663 362.74066567421 2263.99993896484 139 140 135
-715.888440608978 362.439006567001 2262.00008392334 140 141 136
-709.771692752838 362.458139657974 2262.00008392334 141 142 137
-703.965842723846 362.637758255005 2263.00001144409 138 139 134
-698.463141918182 362.97807097435 2265.00010490417 136 137 132
-693.560719490051 363.639146089554 2269.00005340576 134 135 130
-688.333511352539 364.140331745148 2272.0000743866 134 135 130
-683.690369129181 364.96239900589 2276.99995040894 133 134 129
-678.424954414368 365.464299917221 2279.99997138977 132 133 128
-672.553420066834 365.645855665207 2280.99989891052 146 145 141
-667.260468006134 366.148322820663 2283.99991989136 146 145 143
-661.951005458832 366.651087999344 2286.99994087219 141 140 138
-657.198429107666 367.474794387817 2292.00005531311 147 147 145
-652.418375015259 368.298798799515 2296.99993133545 157 157 155
-648.173391819 369.443774223328 2303.99990081787 163 163 163
-643.61172914505 370.428740978241 2309.99994277954 161 161 161
-638.189315795898 370.932936668396 2312.99996376038 165 165 165
-632.203757762909 371.116578578949 2313.99989128113 218 220 219
-979.947745800018 372.440606355667 2367.00010299683 187 188 183
-969.400703907013 370.866775512695 2357.00011253357 199 199 197
-962.587058544159 370.709866285324 2355.99994659424 183 183 183
-955.781102180481 370.553731918335 2355.00001907349 185 185 185
-947.773098945618 369.926363229752 2351.0000705719 192 192 194
-938.587188720703 368.827611207962 2344.00010108948 201 201 203
-927.054941654205 366.785556077957 2331.00008964539 202 202 204
-915.989875793457 364.901453256607 2319.00000572205 194 194 194
-908.91432762146 364.59156870842 2316.99991226196 175 175 173
-903.020024299622 364.754527807236 2318.00007820129 176 177 172
-897.121489048004 364.918023347855 2319.00000572205 180 181 176
-888.530015945435 363.980680704117 2312.99996376038 196 196 194
-877.302408218384 361.942440271378 2299.99995231628 204 204 202
-864.252924919128 359.117865562439 2282.00006484985 191 191 189
-855.062186717987 357.867479324341 2273.9999294281 186 186 184
-847.035884857178 357.089787721634 2269.00005340576 185 185 183
-840.149462223053 356.784701347351 2266.99995994568 192 192 190
-832.539141178131 356.16546869278 2263.00001144409 193 193 191
-826.047003269196 356.018960475922 2262.00008392334 189 189 187
-818.836092948914 355.558127164841 2259.0000629425 180 180 178
-812.361776828766 355.412542819977 2257.99989700317 179 179 177
-805.17965555191 354.952722787857 2255.00011444092 189 189 187
-798.014342784882 354.493409395218 2252.00009346008 187 187 185
-792.272508144379 354.664117097855 2253.00002098084 180 180 178
-786.874830722809 354.992777109146 2255.00011444092 161 161 159
-781.466782093048 355.321943759918 2256.99996948242 162 162 160
-775.70503950119 355.494141578674 2257.99989700317 170 170 168
-769.597411155701 355.50931096077 2257.99989700317 163 163 161
-763.490319252014 355.524986982346 2257.99989700317 157 157 155
-757.718861103058 355.698555707932 2259.0000629425 155 155 153
-751.942217350006 355.872452259064 2259.99999046326 154 154 152
-745.500564575195 355.731844902039 2259.0000629425 154 154 152
-739.391803741455 355.749130249023 2259.0000629425 154 154 152
-733.607769012451 355.924189090729 2259.99999046326 156 157 152
-728.140354156494 356.257200241089 2262.00008392334 153 154 149
-722.662270069122 356.590539216995 2263.99993896484 147 148 143
-716.540336608887 356.609225273132 2263.99993896484 144 145 140
-711.045980453491 356.943309307098 2266.00003242493 137 138 133
-705.229759216309 357.120215892792 2266.99995994568 138 139 134
-699.408054351807 357.297450304031 2267.99988746643 139 140 135
-694.192171096802 357.790023088455 2270.99990844727 139 140 135
-688.959896564484 358.283042907715 2273.9999294281 140 141 136
-683.711230754852 358.776301145554 2276.99995040894 143 144 139
-678.446114063263 359.269887208939 2279.99997138977 145 146 141
-672.869741916656 359.606295824051 2282.00006484985 149 148 146
-667.866468429565 360.258042812347 2286.00001335144 152 151 149
-663.130640983582 361.067682504654 2290.99988937378 154 153 151
-658.367574214935 361.877769231796 2296.0000038147 136 136 134
-653.860986232758 362.845659255981 2302.00004577637 143 143 141
