ply
format ascii 1.0
comment KinectMotionCapture
element vertex 753
property float x
property float y
property float z
property uchar red
property uchar green
property uchar blue
end_header
-755.708904912947 416.607453919312 2183.10241134418 254 255 255
-760.475586633162 417.076288018314 2190.16109523421 110 111 115
-759.56140677326 417.335106360273 2199.65076885102 156 157 161
-761.488036883198 417.698622225389 2207.92680102952 159 160 164
-766.26101043269 418.168083354545 2215.01284153934 146 150 153
-776.733799210556 418.850438346487 2219.74972018971 126 134 137
-782.468228984947 419.357009409941 2226.4942569621 245 253 255
-790.10899238046 419.935609990243 2232.48293228818 140 148 151
-793.001510727388 420.336540670542 2240.43681140256 245 255 255
-797.799142557744 420.80917381772 2247.62964480231 65 75 77
-805.457922004506 421.3902586911 2253.69624803182 95 103 106
-811.218230197454 421.900328822545 2260.55276196246 63 71 74
-810.308325078843 422.157226443996 2270.06240225303 143 148 152
-813.211895789665 422.558740979558 2278.06464103473 113 116 121
-821.84639658971 423.178931057286 2283.8503409236 228 229 234
-834.311440542381 423.946822937696 2288.20311972549 39 40 45
-836.27323191886 424.3131317417 2296.63244995144 77 78 82
-841.105443756262 424.78967202754 2303.97536469908 230 231 235
-848.813601123425 425.37728511995 2310.25571575966 149 150 154
-855.571281189916 425.928950787675 2316.92635267257 174 175 179
-861.376834009987 426.444196820188 2323.97919615615 218 219 223
-862.391701276173 426.77359881543 2332.81394750262 131 132 134
-873.003644435809 427.476355010607 2338.15202107028 238 239 241
-880.745602522592 428.06831877267 2344.5787586197 228 229 231
-888.494949355043 428.661170278987 2351.03861950048 239 240 242
-895.290546661659 429.217308286512 2357.87262468616 203 204 206
-905.941608379652 429.925625541585 2363.37980628661 220 221 223
-918.529662769531 430.711469352305 2368.26408108343 214 215 219
-930.16804247788 431.461260498636 2373.54115402212 201 202 206
-938.926530615371 432.098311846008 2379.86438259178 219 220 224
-948.658762083866 432.774877843902 2385.89775069413 214 215 219
-949.712337010546 433.106947857778 2394.90258742405 209 210 214
-959.459126746224 433.78516780048 2400.99913482827 193 194 196
-969.215737577056 434.464638956638 2407.13931011389 203 204 206
-986.720465113624 435.455707190167 2410.78436552128 196 197 199
-1001.34152658727 436.333150417717 2415.45946462662 191 192 194
-1017.91587651495 437.291045727478 2419.58065840699 179 180 182
-1026.75603506305 437.939003972583 2426.25735869633 198 199 201
-1031.72616262055 438.43110278062 2434.19885841236 206 206 208
-1037.67038487477 438.962616406027 2441.85319110972 211 211 213
-1047.50345846784 439.652381672052 2448.32425064297 203 203 205
-1062.20452182437 440.541079149642 2453.34526467393 196 197 199
-1071.08858836363 441.194213175951 2460.21240459991 206 207 209
-1073.17175559304 441.56986014882 2469.17109423551 210 211 213
-1080.12228614587 442.144388675663 2476.67700770885 198 199 201
-1089.02706008633 442.799489702048 2483.63423942886 178 182 183
-1098.91517029497 443.495548478177 2490.3441203068 175 179 180
-1100.03582135587 443.830951487976 2499.64148629202 208 212 213
-1102.13113290732 444.205809467869 2508.65415485508 214 218 219
-1106.17964820697 444.660989154466 2517.11262151319 216 217 219
-1116.09339600057 445.359290399498 2523.93415738854 205 206 208
-1126.99502732543 446.09943989457 2530.52677010443 169 170 172
-1133.99410132726 446.67776163593 2538.24544929882 180 181 183
-1139.0415304 447.174919642935 2546.52460829427 203 204 206
-1140.1742238226 447.508069709401 2555.87636495883 197 198 200
-1144.246455123 447.963654875815 2564.43909946615 201 202 204
-1156.16802715777 448.748904219733 2570.94322531532 189 190 192
-1167.12030981807 449.494137673159 2577.75713313888 197 198 200
-1180.04828971472 450.32369189895 2584.11251977266 203 204 206
-1181.19685311296 450.656537618441 2593.53547409486 215 216 218
-1187.26121594985 451.196641921013 2601.71307613026 228 232 233
-1187.42644403325 451.48650525096 2611.38457632255 212 218 218
-1190.54291868755 451.900773957075 2620.31749074129 201 207 207
-1193.6608321636 452.314700514258 2629.25586026647 211 217 217
-1198.75144190091 452.812395895761 2637.72498203865 194 200 200
-1202.85908720145 453.267764504815 2646.44498478101 208 212 213
-1207.95637185108 453.7652276473 2654.94365665122 203 207 208
-1212.069682275 454.220234098206 2663.68774978444 198 202 205
-1215.19692151369 454.632491342636 2672.66928222919 199 203 206
-1220.30325519584 455.12961281653 2681.20803029942 210 211 215
-1226.40266473254 455.669321236472 2689.54138750663 213 214 218
-1233.49724455759 456.252024382998 2697.67725687692 214 215 219
-1236.63460184227 456.663373058196 2706.7039096423 195 199 200
-1241.75597452037 457.160380496375 2715.30899525027 191 195 196
-1243.90486814868 457.527974176635 2724.56204988473 207 211 212
-1246.05361212797 457.894789864954 2733.81490266903 203 207 208
-1250.18859013454 458.347661477698 2742.65681768582 203 207 208
-1254.32613626108 458.80032870196 2751.50908312032 206 210 211
-1259.46041088612 459.296157715454 2760.17171523777 203 207 208
-1263.60320755556 459.748403829326 2769.0473652674 193 197 198
-1261.77362966694 459.937664845492 2779.10167243031 206 210 211
-1259.93917244396 460.125489309798 2789.13423696207 184 188 189
-1256.10554339489 460.223814798242 2799.52383937969 194 195 197
-1259.24762354256 460.628795092608 2808.57396305876 229 228 226
-1261.39238516067 460.989193668629 2817.81304160513 242 237 234
-1265.53444489563 461.437448938372 2826.68887797238 147 134 125
-1275.82584439336 462.422420294924 2844.11876642163 166 143 127
-1275.97324573468 462.691724581809 2853.72380389319 163 137 120
-1284.12849490152 463.317673268108 2861.95175081734 160 134 117
-1301.30829292983 464.347639767644 2868.6985072239 147 124 108
-623.76819381031 394.988875618325 1974.39324246012 213 217 220
-627.494962014884 395.400125422967 1981.45974449089 141 147 147
-628.438150535683 395.72533932686 1989.9821877693 114 120 118
-629.380526343183 396.050631002896 1998.49991761188 132 138 136
-634.041377541805 396.492224467485 2005.10827340835 126 130 129
-641.497648121097 397.022380324616 2010.31246088177 160 164 163
-649.892549447921 397.583494028636 2015.07818089361 141 145 144
-654.569366689743 398.028489427549 2021.75489135241 140 144 143
-658.31758697149 398.444740659757 2028.91406830729 141 145 144
-662.068713699334 398.861598177234 2036.08460972749 141 143 142
-667.689539461176 399.33859864003 2042.34593434442 138 140 139
-670.513122358837 399.726939401304 2050.0023627907 141 143 142
-670.533507754807 400.025325486452 2059.03058999166 148 150 149
-671.487207988445 400.353504354378 2067.59652361691 155 157 156
-672.439707320867 400.681545918649 2076.15833254882 176 178 177
-681.821398216673 401.282929943753 2080.69123686051 185 187 186
-690.275752008445 401.855730177248 2085.71206499119 189 190 192
-699.676768801681 402.460879568966 2090.32900206688 189 190 192
-701.579961718395 402.821782036853 2098.50329360737 182 183 185
-705.361723896929 403.244524606668 2105.80537104728 181 182 184
-708.206296381171 403.636745356689 2113.5530960118 184 185 187
-713.873431270419 404.122345796458 2120.01342705253 201 202 204
-721.427767636565 404.671339423665 2125.63866902283 208 209 213
-729.93127323932 405.253000624873 2130.87087656985 213 214 218
-733.732731247545 405.678981264081 2138.25784063648 215 216 220
-732.822739331928 405.947549867993 2147.7602339588 221 222 226
-734.739615939899 406.310301899951 2155.99373585976 222 223 227
-736.656748134682 406.67298250038 2164.22840603691 223 224 228
-745.186768421835 407.258947199555 2169.57492135598 224 225 229
-749.944596951648 407.718322123223 2176.60015657531 228 229 233
-757.544092630865 408.274675233421 2182.4200678442 238 239 243
-759.472098813209 408.638776565102 2190.70181943683 207 208 212
-759.505987950527 408.937824012806 2199.78916289681 235 236 240
-758.589979146738 409.203846257277 2209.26654003477 235 236 240
-765.257593648556 409.729832135437 2215.55431387277 233 234 238
-773.829469974508 410.322237029694 2221.08148305927 250 251 255
-782.410227126395 410.916064518019 2226.64694954916 84 85 89
-789.099578501266 411.445468451326 2233.02849816309 87 91 94
-790.090043965353 411.777193761745 2241.75544104762 223 228 231
-793.934126286571 412.20812782913 2249.32731890739 251 255 255
-799.684929735279 412.70584905064 2256.14921269391 238 243 246
-810.204489177629 413.371429274348 2261.10205616233 249 254 255
-808.342346237884 413.602706350836 2270.98706409557 195 200 203
-807.429351606884 413.866473821584 2280.47904959666 82 86 89
-813.19469239491 414.365671808164 2287.36413467618 38 39 43
-827.561730835876 415.170477767791 2290.96258507053 56 57 61
-833.342958794216 415.671906995292 2297.91636581669 64 65 70
-839.129585006916 416.174027018602 2304.89244166218 241 242 247
-846.835033419335 416.745158852685 2311.17163565861 254 255 255
-855.50590546975 417.351645213265 2317.12675468448 59 60 65
-862.269285119985 417.890458752886 2323.82898003284 242 243 247
-863.285773091976 418.222629097078 2332.66924488877 42 43 47
-872.936491774254 418.866402614916 2338.36379465052 59 60 64
-879.717171535714 419.40717147468 2345.1411041834 244 245 249
-884.582688828948 419.878951797926 2352.63358157915 227 228 230
-890.413398723388 420.386001636481 2359.80210233474 217 218 220
-898.173251032417 420.963883040048 2366.31597490235 175 176 178
-908.82826739732 421.648484798677 2371.85561804262 145 146 150
-919.494827024484 422.334726060938 2377.44407672228 186 187 191
-928.244969878416 422.951530115264 2383.74243996943 205 206 210
-943.755007630147 423.818817681043 2387.78444708583 218 219 223
-948.66694180646 424.295919106756 2395.47833426575 218 219 223
-963.239543983212 425.131414519873 2399.96456617278 216 217 219
-971.064337699002 425.717941464725 2406.75952290368 214 215 217
-991.466652402567 426.774020971665 2409.46447201404 185 186 188
-1003.18473607272 427.508403041467 2415.1018295646 187 188 190
-1017.81983881703 428.353393939081 2419.85788998477 184 185 187
-1022.78341892764 428.836722220278 2427.77569642159 196 197 199
-1028.72015698368 429.356815441455 2435.40376654611 209 209 211
-1036.60210172469 429.950464957609 2442.44637429989 210 210 212
-1046.43272922126 430.618459292498 2448.91945987585 197 197 199
-1056.27359537406 431.287693598251 2455.43584713882 194 195 197
-1066.12422823929 431.958053994386 2461.99569623496 205 206 208
-1069.17746188221 432.370277515231 2470.6511372966 209 210 212
-1080.01705371701 433.079548459292 2476.9885300934 170 171 173
-1088.92033610839 433.715762920772 2483.950297651 179 183 184
-1098.8068613041 434.390244910854 2490.66479840064 191 195 196
-1098.95344484604 434.690820944442 2500.24783915769 214 218 219
-1105.92695033721 435.2537670158 2507.86180584509 213 217 218
-1113.88260746232 435.854933030308 2515.22589820956 205 206 208
-1125.75349064374 436.608306640476 2521.52432167289 176 177 179
-1132.74920381063 437.173318887636 2529.23601930542 177 178 180
-1136.81716407211 437.624751001061 2537.78237584893 183 184 186
-1140.88739955414 438.076011561934 2546.33994563501 193 194 196
-1143.0016389498 438.450329935304 2555.43633854468 194 195 197
-1149.03557078292 438.977770973264 2563.48837860478 203 204 206
-1159.97731190763 439.69796712979 2570.26947406946 187 188 190
-1169.94910843064 440.380913619206 2577.35475078772 192 193 195
-1177.96691618254 440.987522744726 2584.98951309879 197 198 200
-1179.11554707647 441.322854913464 2594.41021598698 213 214 216
-1185.1779274523 441.852041845256 2602.58658981029 223 227 228
-1191.24546941601 442.381473617552 2610.78447814063 196 202 202
-1195.34907747205 442.832845373588 2619.4890412802 189 195 195
-1193.54599838876 443.048377874108 2629.64357898009 213 219 219
-1194.69444926016 443.380554875386 2639.06534435192 192 198 198
-1200.77208465247 443.909144525453 2647.30929185316 200 204 205
-1205.86793971817 444.398376525163 2655.80650544376 195 199 200
-1211.95474141578 444.927396890511 2664.09059162535 198 202 205
-1216.07057899424 445.376882372232 2672.8490681087 198 202 205
-1224.14293407272 445.985824200227 2680.72282529339 202 203 207
-1229.25516153567 446.475230981636 2689.2920822817 202 203 207
-1235.36102407546 447.004878949626 2697.65870595059 201 202 206
-1238.50008669314 447.413977545968 2706.69419681689 181 185 186
-1241.6402555438 447.822515688667 2715.73489202245 185 189 190
-1242.79828713369 448.1497571405 2725.20177847916 198 202 203
-1248.91641875806 448.678881992149 2733.62386088158 188 192 193
-1255.03935879878 449.208145517479 2742.06705036862 208 212 213
-1260.17362274371 449.696856937955 2750.73382175916 214 218 219
-1264.31734043049 450.144634460793 2759.61615860022 184 188 189
-1263.48927869287 450.387303508376 2769.49481668097 182 186 187
-1263.65267249826 450.669733369777 2779.16260611277 189 193 194
-1262.8174663665 450.909950014192 2789.0112243074 180 184 185
-1263.97175573855 451.231452317558 2798.46499597972 201 202 204
-1264.12718044433 451.510650556711 2808.09956971003 218 214 213
-1261.2864799035 451.664309805856 2818.27454830137 224 216 214
-1265.42892787083 452.107470674245 2827.15400539366 163 149 140
-1271.57174866979 452.633756331955 2835.68655242009 159 141 129
-1276.71962491304 453.118404090038 2844.41569753943 163 137 124
-1281.8709991781 453.60302139265 2853.16027486759 179 151 137
-1284.02289122303 453.961646787905 2862.43181710255 158 131 114
-1296.19056417179 454.740755765465 2870.02401668317 129 103 90
-1311.37703282893 455.647813609327 2877.17320667477 115 88 77
-1331.59342457668 456.768617886258 2883.57829570644 116 94 83
-1335.77669639436 457.213643439346 2892.63654941598 120 100 91
-1334.94171041945 457.44597255332 2902.4907769361 113 96 89
-1333.09812438331 457.634298421677 2912.48281975725 129 114 107
-638.622246948503 388.128923626478 1993.75981838893 103 109 107
-641.429837501736 388.510733912889 2001.34961637992 120 124 123
-647.959322342156 388.998979919293 2007.05199525711 126 130 129
-657.287801511805 389.568642585073 2011.36907556695 151 155 154
-664.763184670816 390.08667552881 2016.66570077125 127 131 130
-668.518325179774 390.498732396508 2023.85675280494 128 132 131
-671.343342807362 390.884326253255 2031.52220554655 143 145 144
-674.170040479861 391.270313963507 2039.19374346994 142 144 143
-677.931777207613 391.683757664741 2046.41413295774 140 142 141
-677.958506589324 391.988494260193 2055.46549383519 142 144 143
-679.85309376986 392.347732525989 2063.60284238193 146 148 147
-679.876391104964 392.651771793987 2072.64057624395 161 163 162
-688.324549421975 393.204754966332 2077.64575929777 169 171 170
-693.970663050088 393.675895953145 2084.02196314985 183 184 186
-701.497190409391 394.203816336705 2089.53705723573 186 187 189
-705.278660725433 394.621070303857 2096.84107677847 179 180 182
-709.062615369828 395.038651751735 2104.15693749788 181 182 184
-711.910162812465 395.428482372804 2111.91809122531 186 187 189
-715.698935699013 395.846956266748 2119.25465898316 201 202 204
-723.253172113971 396.379791992945 2124.88896406071 205 206 210
-729.873870460664 396.885444582004 2130.98195771267 209 210 214
-733.675108563183 397.305846238992 2138.37232053401 212 213 217
-730.881831201327 397.524645864933 2148.71795948444 218 219 223
-735.627457759596 397.974039403848 2155.6952965239 220 221 225
-737.545828882555 398.336703199633 2163.93543601509 220 221 225
-745.130555678069 398.87453107622 2169.70116302566 221 222 226
-745.163133872428 399.179020902028 2178.77952868792 222 223 227
-754.649276987674 399.777394713112 2183.77556647284 231 232 236
-760.361022373766 400.259254914598 2190.43359049518 234 235 239
-760.39681918099 400.563723738529 2199.52615156948 251 252 255
-758.53565165849 400.807897117763 2209.407872568 234 235 239
-761.409935264878 401.200636170778 2217.28621697575 233 234 238
-768.080546483306 401.713546008025 2223.59488697088 229 228 233
-774.757354688504 402.227368564624 2229.93141403269 66 65 70
-782.390634135151 402.772449484308 2235.90682594545 85 86 90
-789.080897398664 403.288197705334 2242.30151111976 200 204 207
-789.119883044019 403.591528330571 2251.40770708961 239 244 247
-795.818655567777 404.10840337843 2257.83922619579 249 254 255
-802.524072962485 404.626185155482 2264.29840670601 60 65 68
-805.423766233345 405.021416455874 2272.28725485091 194 199 202
-801.649705741254 405.199944841109 2282.89217786603 44 48 51
-811.227800447112 405.811803472668 2288.28438950225 195 196 200
-823.680319123289 406.518806437227 2292.61778760393 149 150 154
-836.146895222775 407.228057951932 2297.01072186329 74 75 80
-837.154030706905 407.562439362873 2305.80956021208 239 240 245
-842.943736042425 408.053940244776 2312.80653668638 246 247 252
-852.568051651979 408.672590172933 2318.39842978871 81 82 87
-858.370557701953 409.165729822018 2325.4508497037 227 228 232
-862.261253152134 409.595655312057 2333.22872503083 146 147 151
-868.072833068748 410.089672477169 2340.32061349467 169 170 174
-877.728678267716 410.712639648861 2346.04999125069 242 243 247
-884.513593911448 411.240373555772 2352.85363325064 251 252 254
-887.460614084896 411.639521595788 2361.04872724941 230 231 233
-896.17896003516 412.2332310546 2367.2205585383 102 103 105
-905.868594880661 412.860707673074 2373.09509419068 168 169 173
-919.419548617286 413.620158959581 2377.68157454711 223 224 228
-927.204707463433 414.185241932897 2384.31448989065 228 229 233
-942.710353777183 415.0145124225 2388.35950620826 118 119 123
-950.515657793 415.582390633757 2395.07954868791 111 112 114
-962.189937291051 416.28355689419 2400.54341631714 167 168 170
-970.978817814057 416.886938569215 2407.0203746188 179 180 182
-989.442694008427 417.824918535005 2410.36572304707 201 202 204
-1001.1570631167 418.531987611332 2416.00277671237 180 182 181
-1018.69078255972 419.442238824382 2419.82420747656 185 187 186
-1023.65474094369 419.917649111808 2427.74833790869 195 197 196
-1032.49902455647 420.528416244673 2434.46400379253 197 197 197
-1039.41240291923 421.07239818927 2441.82525626146 197 197 197
-1047.30255481525 421.650981615021 2448.9128908428 198 200 199
-1054.22915651605 422.196212719225 2456.3316782295 200 202 201
-1066.01993689809 422.913335580539 2462.29953060591 188 190 189
-1073.93454975951 423.494594033646 2469.49338090543 181 183 182
-1081.85670804275 424.076754510207 2476.71995013242 207 209 208
-1085.89277593617 424.52121608011 2485.1298704059 200 204 203
-1095.77540191659 425.173861850531 2491.84111873224 222 226 225
-1103.71884326507 425.757973337995 2499.16032586444 202 206 205
-1116.54602385117 426.517493337917 2505.11381101766 146 150 149
-1126.45943269644 427.173780624341 2511.95747811951 159 160 162
-1130.52347259446 427.620381216366 2520.49048744058 155 156 158
-1134.59026736746 428.066751917213 2529.03468512916 163 164 166
-1139.63726096832 428.548445976209 2537.32102057425 162 163 165
-1145.66628507293 429.065491410264 2545.35754871461 190 191 193
-1147.78439787808 429.440596421554 2554.4705474195 189 190 192
-1152.84135633713 429.922049595641 2562.80093544152 192 193 195
-1162.8030648147 430.582608527863 2569.85601247015 183 184 186
-1172.7749205042 431.244275888236 2576.95406559878 192 193 195
-1176.8676092657 431.69097937725 2585.61325776868 191 192 194
-1177.03469929342 431.992954085563 2595.28475283071 209 210 212
-1183.09532440077 432.511192288748 2603.45983161618 172 176 177
-1192.11087891312 433.138738165338 2610.92143328903 173 177 178
-1198.18322167824 433.657849017743 2619.1476335501 185 189 190
-1197.36853335321 433.921115644415 2629.07310775491 199 203 204
-1198.52054608419 434.256512935813 2638.50867465913 181 185 186
-1204.60015302892 434.774857252199 2646.76733592493 203 207 208
-1207.72560253942 435.182857721587 2655.74239908342 200 201 203
-1211.83894156649 435.627295149319 2664.49392102339 203 204 206
-1214.9673269561 436.034473572541 2673.48240485448 196 197 199
-1225.0145760434 436.701634546208 2680.9105399019 194 195 197
-1231.11608829468 437.220649217703 2689.2653342659 193 194 196
-1237.22243946909 437.739749995556 2697.64140106329 190 191 193
-1240.36342847872 438.146508241203 2706.6856708277 188 192 193
-1240.53299129358 438.439841437842 2716.37423147758 194 198 199
-1245.6569680905 438.920812252584 2725.00022454896 188 192 193
-1253.76054864037 439.515306870075 2733.01899008629 201 205 206
-1261.87142963014 440.110487521629 2741.06952205771 163 167 168
-1265.02326305773 440.515781657682 2750.16352611672 162 166 167
-1270.16400121476 440.997052480113 2758.86320292604 179 183 184
-1269.34139526999 441.248707924062 2768.76061686307 187 191 192
-1270.50518350034 441.575789484184 2778.25296443156 173 177 178
-1270.67168660474 441.86355960482 2787.93131425703 174 178 179
-1274.82103759781 442.304502942051 2796.84249433031 150 150 150
-1271.99380552062 442.474450226435 2807.06832903884 208 200 198
-1269.16042703959 442.642683631244 2817.26700079443 212 202 200
-1265.3223092398 442.770372265981 2827.61955275109 153 136 129
-1271.46461849261 443.286040330278 2836.15609053268 158 140 130
-1272.6146542289 443.606400876771 2845.59178978355 165 138 127
-1278.76336388335 444.122078410379 2854.15652584634 172 144 132
-1277.91214986807 444.362646225096 2863.93439755252 153 127 114
-1287.06982956371 444.996124337441 2872.0187953769 155 128 117
-1300.24371208996 445.788437558073 2879.47967436713 151 124 115
-1318.44320268163 446.78045678083 2886.18678244822 137 114 106
-1333.65304614458 447.656042640976 2893.45748607093 76 53 47
-1348.87867114416 448.533552186798 2900.79660077144 60 39 34
-1367.13328878591 449.532966904594 2907.74119414146 74 55 49
-1370.33261126805 449.934498749215 2917.04558873387 69 52 45
-1363.47658771265 449.934508374449 2927.84491320228 52 39 31
-678.673768270659 382.175523334792 2009.70888619351 146 150 151
-678.711292649192 382.487047175041 2018.80382399982 123 127 128
-682.475587648957 382.895438109676 2026.03845857776 117 121 122
-683.443964711997 383.231192319327 2034.66461118591 119 123 124
-685.344810741929 383.591225457357 2042.8290723049 124 125 127
-686.311800155521 383.926855007677 2051.44918345205 132 133 135
-687.277567740031 384.2621700746 2060.06518189699 135 136 138
-691.984125817096 384.696870679768 2066.87900264236 143 144 146
-698.566716225207 385.182327262188 2072.81594943121 147 148 150
-701.409014787398 385.568484679718 2080.55722044152 160 161 163
-704.252795812563 385.954898882897 2088.30487300338 165 166 168
-705.22246666147 386.290877196388 2096.93659496561 179 180 182
-709.945008859759 386.728462203149 2103.81915443131 177 178 180
-713.732487068488 387.141145228527 2111.15233668326 179 180 182
-718.462313313267 387.579934093886 2118.0662857768 190 191 193
-721.315332065687 387.967774860424 2125.85380601991 197 198 200
-725.1109633458 388.381754421461 2133.22215281357 205 206 208
-729.850584919296 388.822079294974 2140.17944873983 208 209 211
-733.652246415866 389.236929828602 2147.57385585775 216 217 219
-740.285051413017 389.730968655871 2153.72702920999 218 219 221
-743.150467046781 390.120493942554 2161.56818646246 218 219 221
-748.849459005584 390.58968677749 2168.17854849111 220 221 223
-750.775159681902 390.953157353383 2176.45051168817 218 219 221
-754.591676888198 391.369944759775 2183.9092424019 229 230 232
-758.410712352675 391.787123375636 2191.37992632345 235 236 238
-758.446760620562 392.096655983471 2200.46953071517 225 226 228
-758.480380161124 392.40549149965 2209.54992915457 106 107 109
-761.354981840615 392.795335217826 2217.43137811673 80 80 82
-765.179574907817 393.212653715415 2224.92538334782 68 63 69
-770.904679944125 393.685097007075 2231.64890280203 154 149 155
-775.685453934877 394.130628158103 2238.78339137397 82 81 86
-780.470169216987 394.576668447398 2245.9349480839 243 244 248
-786.209604125026 395.05089967693 2252.72056158791 79 83 86
-791.002841669341 395.49795334206 2259.90907625201 233 237 240
-795.800033506975 395.945402694461 2267.1147830764 56 60 63
-798.695746183286 396.337109767044 2275.08816326804 191 195 198
-798.733278279251 396.643948966937 2284.18589043426 64 68 71
-806.399711965955 397.176954433337 2290.31450138416 251 255 255
-813.119104051554 397.682591108266 2296.84349218279 219 223 226
-822.710579185021 398.274899544744 2302.30616446488 164 165 170
-826.577334045642 398.696467847207 2309.98454562069 80 81 86
-836.185336503889 399.291118409318 2315.51866923941 249 250 255
-846.760125967953 399.916178732277 2320.73980684114 59 60 65
-852.55855969536 400.397781888686 2327.7799807384 196 197 202
-857.403513943324 400.850682566213 2335.19403633176 219 220 224
-859.376055016444 401.216018657994 2343.6713080212 74 75 79
-872.862499226502 401.933795254243 2347.99694758303 42 43 47
-883.483726441654 402.565555872454 2353.41768931864 238 239 243
-894.116279121728 403.198815424818 2358.88745594226 244 245 249
-899.953401630312 403.685050283034 2366.09647705554 85 86 90
-906.757561921933 404.201667629496 2372.99254685076 169 170 174
-911.643092967525 404.65898065943 2380.58172553947 218 219 223
-923.274754738832 405.327252324425 2385.87714248043 100 101 105
-932.991513636949 405.936865138638 2391.88170921491 65 66 68
-945.611397747453 406.638899528716 2396.95553803133 215 216 218
-957.280096365458 407.312487371904 2402.41103381767 183 184 186
-971.858329932879 408.079536346007 2406.96233883087 155 156 158
-988.385453572978 408.910308501047 2410.95019611457 195 197 196
-1002.03036918638 409.651729465582 2415.96133138748 186 188 187
-1023.43054584633 410.642348291932 2418.54553003742 174 176 175
-1028.39735504646 411.110153165327 2426.48669606134 200 202 201
-1038.21191022173 411.733639682929 2432.91404937983 189 191 190
-1041.25067199471 412.139827505026 2441.50926906014 191 193 192
-1048.17071835174 412.671080073265 2448.90739155029 196 198 197
-1051.21488829372 413.077092634994 2457.52545940545 195 197 196
-1063.97251151463 413.798415307747 2463.19490122309 184 186 185
-1074.80028859696 414.458317168976 2469.50926870762 181 183 182
-1084.66666876633 415.087785159707 2476.16256106002 201 203 202
-1088.70469568308 415.527205866955 2484.58407878777 195 197 196
-1097.61371868009 416.126521912567 2491.59284519857 200 202 201
-1110.42876365237 416.855303308451 2497.51093330072 168 172 171
-1126.18259984959 417.68248491461 2502.64975919023 131 135 134
-1133.1734347926 418.221313190033 2510.3553611197 154 155 157
-1135.28967682715 418.598350365966 2519.45897969724 156 157 159
-1136.42923429359 418.942350603725 2528.83460157033 157 158 160
-1144.40955558692 419.514048511254 2536.32362421283 163 164 166
-1154.3533035064 420.152000416465 2543.3128534077 190 191 193
-1161.37120848498 420.69261220514 2551.13560606804 183 184 186
-1164.47797152205 421.10155405919 2560.02885859623 168 169 171
-1167.58599083066 421.510192854886 2568.92782522833 189 190 192
-1172.65639183464 421.984776087315 2577.32148950998 189 190 192
-1173.80596483102 422.32611445138 2586.74281119547 200 201 203
-1177.89938215517 422.766985427114 2595.40864432528 223 224 226
-1185.9249752704 423.341665586623 2603.09540658924 157 161 162
-1192.97505462633 423.883511610261 2611.05921212412 173 177 178
-1199.04749412189 424.391936677514 2619.292123665 185 189 190
-1202.17209307064 424.799050605518 2628.2650466045 193 195 194
-1205.29810930846 425.205702951655 2637.24340001159 185 187 186
-1210.39613803361 425.6800965002 2645.75891948828 200 202 201
-1210.56717340893 425.983519534045 2655.44803457374 192 194 193
-1212.70920334853 426.354494590642 2664.66885503306 194 194 194
-1213.86387769602 426.690410766994 2674.11584535921 192 192 192
-1220.94480438298 427.232406246532 2682.21658048154 199 199 199
-1230.99784789058 427.878748002659 2689.68140785058 196 196 196
-1239.08196581402 428.456694092167 2697.6252295765 188 190 189
-1248.16362225979 429.070048747077 2705.38537478814 194 196 195
-1247.34917932504 429.334862019971 2715.31102063684 195 197 196
-1251.48609109929 429.773663550538 2724.16973250908 189 191 190
-1262.56730519112 430.458142220187 2731.58643394213 191 193 192
-1271.67483845289 431.073388681101 2739.46058099983 156 158 157
-1272.84764322167 431.406660171512 2748.98901990756 169 171 170
-1272.03189222963 431.668180735346 2758.91083836746 155 157 156
-1275.18882279573 432.070539571491 2768.02902979782 143 145 144
-1278.34684285627 432.472566460897 2777.15221740754 136 138 137
-1279.51526727909 432.802533738183 2786.6632974219 156 158 157
-1282.67414247924 433.203320313402 2795.79098278086 139 139 139
-1281.84782936043 433.459816656696 2805.66812710744 152 144 142
-1277.02817964733 433.570707790232 2816.26285707292 133 123 121
-1274.1957226758 433.751828160127 2826.45800983737 131 116 109
-1279.34469955819 434.221625157945 2835.20073973798 133 116 106
-1276.50416369828 434.400259818418 2845.36284069745 132 110 97
-1281.65517734927 434.869194733281 2854.11505282097 135 111 99
-1277.8064924015 435.008705944015 2864.41408619294 130 106 94
-1285.96181446791 435.586766158049 2872.67052078991 124 102 89
-1293.12281378855 436.128676375581 2881.12306572662 127 105 94
-1307.30490965207 436.929417851056 2888.46643574593 142 122 115
-1309.46787360826 437.287647010799 2897.78700024252 132 112 105
-1341.73398490678 438.758987651603 2902.40160597588 60 39 34
-1356.96751074123 439.602994108033 2909.7963281325 59 40 34
-1371.21247330479 440.411777487488 2917.41090859321 56 39 32
-696.441398136045 375.218578127244 2028.30001436275 195 199 202
-696.484879737324 375.536584758233 2037.41847656348 132 136 139
-694.658605608619 375.8101742502 2047.43665632668 126 127 131
-696.565428422238 376.171184808572 2055.62687970532 123 124 128
-702.212774444961 376.621018481424 2062.02104646306 140 141 145
-708.80113226749 377.094168208741 2067.99064628713 147 148 152
-711.650467867905 377.478767675424 2075.76384287092 146 147 149
-710.753639923958 377.773509182248 2085.30885017676 156 157 159
-711.728536321597 378.112822407993 2093.96163742563 158 159 161
-716.455034444812 378.542993422752 2100.86598963972 174 175 177
-720.246531481735 378.950889532132 2108.2207830783 172 173 175
-724.041008375444 379.359231087946 2115.58735907207 172 173 175
-724.077985217659 379.675590329348 2124.67812650399 198 199 201
-727.875433538297 380.084388730962 2132.05752761201 206 207 209
-731.675366187289 380.493514613303 2139.44876989669 208 209 211
-735.478251264221 380.902965487836 2146.85174471655 215 216 218
-738.341243127045 381.289294064348 2154.68410164079 219 220 222
-742.148958973119 381.699408148538 2162.10797352957 222 223 225
-747.84668685915 382.157563782896 2168.71925704749 222 223 225
-750.716624420141 382.544690501395 2176.58175127152 221 222 224
-751.698307493903 382.883790847352 2185.26456972759 221 222 224
-754.569995631669 383.270873683563 2193.13480380983 234 235 237
-755.55095602694 383.609443889376 2201.81474953995 227 228 230
-760.318054459026 384.045259071563 2208.89469035066 233 234 236
-759.404625482306 384.334463849056 2218.36980048163 250 250 252
-764.175947271459 384.770605621401 2225.46815974292 245 238 245
-769.899774283086 385.231893592655 2232.19260868049 232 225 232
-771.831827998703 385.594497660421 2240.49307667434 246 244 249
-773.764109872285 385.956909842417 2248.79466292436 241 240 245
-778.548156590334 386.394272293721 2255.94837757743 250 251 255
-788.091820746544 386.958224630522 2261.21704532768 254 255 255
-791.934961580381 387.371826561032 2268.79605506001 246 250 253
-795.781040890248 387.785635363907 2276.38680532161 244 248 251
-798.676719814401 388.174039050626 2284.3619797255 245 249 252
-807.295398711566 388.716410050887 2290.12481626102 238 242 245
-814.014710437717 389.208598382622 2296.66027641539 241 245 248
-818.830690369784 389.649756616277 2303.95247462014 244 245 250
-821.739646064753 390.039303014851 2311.98548200641 247 248 253
-829.430442903047 390.559346641951 2318.2290747449 232 233 238
-840.955539509304 391.185440419049 2323.0797119354 237 238 243
-846.749425363631 391.65533472599 2330.10781846167 215 216 220
-852.548457982636 392.125773423222 2337.15828440062 238 239 243
-855.477273485727 392.517069294448 2345.2766901303 86 87 91
-866.080402716686 393.121873073139 2350.63462328196 253 254 255
-875.735384880579 393.701462771715 2356.38462481154 164 165 167
-889.241741111584 394.390246568773 2360.81614721797 57 58 60
-896.997284416039 394.919017673554 2367.33991690703 38 39 41
-904.76046819333 395.448880820811 2373.89671261 67 68 70
-904.833171738795 395.761420161465 2383.14715918502 81 82 84
-917.421012648004 396.429139080974 2388.09888405586 221 222 224
-926.168558274936 396.98897227171 2394.41931082845 141 142 144
-944.565920820637 397.826005371821 2397.5320219265 153 154 156
-955.266854758599 398.444671454536 2403.31169910313 185 187 186
-970.805667623789 399.204132756948 2407.54392580569 152 154 153
-985.396068692784 399.938289132019 2412.16819418131 193 195 194
-1002.9024680587 400.75910052531 2415.92075614342 175 177 176
-1025.26470484422 401.723933531688 2418.20310541818 185 187 186
-1033.13598469151 402.268644544712 2425.22750154576 198 200 199
-1043.92015616446 402.899414600595 2431.36685201273 185 190 186
-1048.90123360936 403.360550407957 2439.37481465611 180 185 181
-1052.91632677371 403.793292468299 2447.70028765338 182 187 183
-1057.90444838145 404.254607105994 2455.73918574738 175 177 174
-1069.69276299643 404.918079414093 2461.72772803924 186 188 185
-1084.40818427294 405.670130881969 2466.89238204363 182 184 181
-1094.27917231902 406.279152643047 2473.57691874488 174 176 173
-1098.32326005727 406.714197990874 2482.02880379208 162 164 161
-1104.31677891897 407.207795745217 2489.92266657131 147 149 146
-1119.08149075329 407.966418151131 2495.300658311 142 144 141
-1130.93847846142 408.638835277232 2501.5865526978 150 152 149
-1134.03081945457 409.046076071344 2510.41616750316 154 156 155
-1131.26897608271 409.274614429052 2520.89568109892 174 176 175
-1136.31302847373 409.740236952534 2529.17850863417 191 193 192
-1149.17784192567 410.445576394233 2535.32860666261 202 204 203
-1161.07843610073 411.122712111862 2541.80388090088 158 160 159
-1171.03464993826 411.74101326628 2548.85960003015 138 140 139
-1170.23222712703 412.027288887365 2558.82559000403 173 175 174
-1171.38536552309 412.37312088928 2568.25997988005 188 190 189
-1171.55688857449 412.687562342858 2577.94476327216 172 174 173
-1174.66844122203 413.092879261094 2586.86125364763 211 213 212
-1180.72580773487 413.589887155133 2595.03337375544 185 187 186
-1189.73411088995 414.17967264344 2602.48523120482 175 177 176
-1192.85489329783 414.584679197955 2611.44257575852 188 190 189
-1196.96034930171 415.020333302984 2620.16344021746 180 182 181
-1203.03595192022 415.518083067843 2628.41656916153 193 195 192
-1211.08564821781 416.078599325949 2636.21787465386 181 183 180
-1220.12781535448 416.671126597918 2643.81734365492 161 161 159
-1223.26383058987 417.075589878801 2652.84213234335 147 147 145
-1222.45545202892 417.353371018909 2662.78687403488 142 142 140
-1221.64326727935 417.629798649101 2672.7156395606 139 140 135
-1221.81508627992 417.936757802088 2682.40504150924 149 150 145
-1233.84334383681 418.625477817792 2689.43606052584 148 147 143
-1242.9172216916 419.219679675859 2697.17428025209 147 148 143
-1255.95761514138 419.943122779833 2704.08852316102 132 133 128
-1261.09064602172 420.410504791446 2712.76240622145 123 123 121
-1266.22727010472 420.877872834393 2721.45213121531 125 125 123
-1273.35027835758 421.410020571647 2729.74300762938 128 129 124
-1282.46317212014 422.007740903996 2737.65108443302 132 133 128
-1281.65859857059 422.279817458619 2747.61594844405 134 134 132
-1280.85013215301 422.550467637536 2757.56449718728 133 133 131
-1285.0071098737 422.984227861909 2766.51350988122 137 138 133
-1288.17177348454 423.384802196947 2775.66682713955 139 139 137
-1288.35223859232 423.68563544257 2785.39901827846 138 138 136
-1289.52590061589 424.018592610288 2794.93141961814 141 142 137
-1292.69062208973 424.417267866302 2804.08610883038 120 119 114
-1292.86580867554 424.7153805316 2813.79555351155 99 96 89
-1299.19672486863 425.509920099462 2832.11307720814 58 48 38
-1291.70052942989 426.122160170071 2862.51445853444 100 86 73
-1289.85692990677 426.345773159709 2872.48568719186 133 121 109
-1300.1804419803 427.267463546164 2890.09430191911 80 70 61
-702.109449717134 367.942595590724 2052.99979885212 236 239 244
-712.433669298873 368.479521189233 2057.16753299657 177 181 184
-719.962861701581 368.959899256575 2062.72342004477 115 119 122
-723.755996006754 369.362685910768 2070.087347033 137 138 140
-722.868725066892 369.666921727051 2079.66888375267 154 155 157
-719.166352368155 369.910541407403 2090.55141984153 152 153 155
-721.083881420094 370.273117194957 2098.78790044707 162 163 165
-722.063272123937 370.615609744589 2107.45862221943 171 172 174
-723.041708503344 370.95773450989 2116.1253550082 180 181 183
-721.200090112363 371.238327349044 2126.07179998668 180 181 183
-724.055190531132 371.620656758267 2133.87173484935 204 205 207
-729.734549574415 372.065014860289 2140.41018993945 206 207 209
-737.302256551529 372.551848911031 2146.13091074442 213 214 216
-739.224691846353 372.914609243127 2154.38890253479 217 218 220
-740.20468521253 373.256280558138 2163.0627630074 219 220 222
-744.013656639917 373.661013385844 2170.49641919948 221 222 224
-748.769527877785 374.087276361937 2177.53250483096 218 219 221
-749.750917457447 374.428697784503 2186.21266480178 215 216 218
-749.785951380134 374.748278353546 2195.2929759331 221 222 224
-749.819008185141 375.067243263438 2204.36385044684 227 228 230
-754.581839207266 375.494059348933 2211.43136598028 224 225 227
-757.454851779399 375.877743015135 2219.30834915229 225 225 227
-766.015358770759 376.393116152257 2224.83072607546 245 235 243
-772.688042003876 376.865757026607 2231.17329785843 235 228 235
-773.673711074568 377.206415582784 2239.8727644211 248 243 249
-771.809717421818 377.479806213268 2249.72484723134 251 249 254
-775.642104193595 377.886325872123 2257.2595475315 228 227 232
-783.280095916177 378.383090982505 2263.28522863392 237 238 242
-789.974635918832 378.858405749985 2269.72145480688 252 255 255
-790.963402473125 379.198241326624 2278.43505471346 246 250 253
-796.714273805153 379.651775707431 2285.28323688956 242 246 249
-804.376949915831 380.151906978958 2291.41462532616 240 244 247
-813.001069485148 380.676187221886 2297.21207698495 237 241 244
-814.952633380861 381.039451732586 2305.59812960235 237 238 243
-820.724827452062 381.495580363705 2312.5387461774 229 230 235
-829.369429114452 382.022714204949 2318.42477532491 235 236 241
-839.935707173718 382.598097003189 2323.63653906894 238 239 243
-846.685265566212 383.080611682668 2330.31205956807 220 221 225
-850.568662243931 383.492611659736 2338.06831550725 237 238 242
-857.32915432025 383.976326004509 2344.79131050172 222 223 227
-862.178527783208 384.412855234681 2352.23338243807 232 233 235
-869.910180693069 384.92209963396 2358.66336227879 231 232 234
-882.449901812125 385.553483297564 2363.42441488966 246 247 249
-890.199663182912 386.065183004694 2369.93383330273 226 227 229
-896.996025429986 386.553362214423 2376.81118040144 191 192 194
-898.027204569428 386.89496163414 2385.71063711628 136 137 139
-907.720020883903 387.457977027885 2391.63819254849 211 212 214
-917.42292326015 388.022392375017 2397.60936956285 194 195 197
-933.882547417458 388.762620880254 2401.35304012179 97 98 100
-951.32524575338 389.53080298566 2404.85585353732 181 183 182
-968.787915246236 390.302039445143 2408.44487488512 151 153 152
-991.09862574935 391.202814752038 2410.53784637181 186 188 187
-1007.63814943625 391.955610364233 2414.62620864933 180 182 181
-1027.09680451046 392.787748740728 2417.86205795106 186 188 187
-1033.03303782869 393.265233629832 2425.51296473988 197 199 196
-1043.81504179739 393.871561987318 2431.65713974528 177 182 178
-1050.73344565603 394.376252577153 2439.0625609205 181 186 182
-1060.56601393855 394.959252021246 2445.59418993452 180 185 181
-1068.46880673395 395.49148758055 2452.76478789015 173 175 172
-1078.3201814128 396.076761108366 2459.37795116083 171 173 170
-1091.09546145963 396.742120757539 2465.15702832075 166 168 165
-1101.94049431303 397.356660534147 2471.57520156435 146 148 145
-1108.90723746246 397.866658107953 2479.1905120618 137 139 136
-1113.9340245024 398.324025511207 2487.40211392236 140 142 139
-1122.85932754406 398.888384438886 2494.50318020827 150 152 149
-1131.79338171836 399.453738534748 2501.64222369223 151 153 150
-1134.88653868981 399.858414504773 2510.47802912362 164 166 163
-1137.00551943666 400.235810365141 2519.59350507619 179 181 178
-1139.12454810967 400.6125781598 2528.7095616267 185 187 184
-1151.98844288477 401.288485578176 2534.87292239152 168 170 169
-1160.95620158465 401.856900946857 2542.15868685921 145 147 146
-1171.88880017609 402.481099712858 2548.95595759408 171 173 170
-1177.93922458212 402.96876091424 2557.10407061659 174 176 175
-1181.05678490026 403.373556462105 2566.04734089698 157 159 158
-1182.21596085266 403.722459067638 2575.50652968989 180 182 179
-1185.33476111556 404.126254510262 2584.45585210922 204 206 203
-1191.39820124339 404.613798322789 2592.66138893211 163 165 164
-1195.50321562472 405.045210618914 2601.38280224158 155 157 156
-1195.68103730368 405.363577819679 2611.09303201301 183 185 182
-1196.83949541957 405.709232100003 2620.55096816419 187 189 186
-1201.93104522164 406.16780909961 2629.04724055705 164 166 163
-1211.94727684281 406.769200326988 2636.37737842626 129 131 126
-1223.94315619292 407.429055602619 2643.28269773938 104 105 100
-1234.96595618543 408.061531505173 2650.472579384 111 112 107
-1241.06931036748 408.551013817834 2658.85286032333 110 111 105
-1233.36371774764 408.634823610136 2670.41561233561 109 110 104
-1265.72436683918 410.824801564434 2702.36473566547 120 121 115
-1275.81230702149 411.432944376321 2710.0068916357 112 113 108
-1297.98923972318 414.235881469635 2774.18560112284 115 116 111
-732.109867243387 361.10207946887 2066.19060820084 219 223 226
-730.293475867561 361.398091669283 2076.23914875234 126 130 133
-725.6617090245 361.641452765605 2087.58279778498 139 143 146
-724.771594407589 361.952572087905 2097.14775497464 133 137 138
-723.878012730117 362.263061935595 2106.69780453783 165 169 170
-725.797285382876 362.625534780948 2114.94202899863 166 170 171
-723.95940543304 362.917101681435 2124.89849311443 188 192 193
-727.756553653508 363.314724533436 2132.28423131239 202 203 205
-730.616137972545 363.694809482774 2140.10415852591 204 205 207
-735.35947729142 364.111091773653 2147.09089162785 210 211 213
-735.39756124742 364.437159367579 2156.18082750396 213 214 216
-736.376024254378 364.780850737564 2164.84675620332 216 217 219
-742.068706820814 365.216409179707 2171.44909807182 222 223 225
-747.766617488521 365.652641804043 2178.07408142944 226 227 229
-749.692573439839 366.01514419507 2186.34773896969 213 214 216
-747.839181862841 366.302462248046 2196.23834896827 205 206 208
-748.817732395558 366.645329931095 2204.90514782221 223 224 226
-752.633560450795 367.044742131833 2212.37214767911 228 229 231
-757.399016698127 367.463524832684 2219.45487002858 226 226 228
-763.115754333792 367.902121881425 2226.16142515788 220 214 218
-768.837917177689 368.341414394804 2232.8903914147 232 226 230
-771.719178421557 368.72303969886 2240.80602005045 209 207 210
-772.70359594825 369.065564124651 2249.49887414688 189 189 191
-773.686814399295 369.407575527801 2258.18783258012 214 215 217
-781.322511121489 369.887789660956 2264.21204892458 232 233 235
-788.014866196299 370.349188697665 2270.64683182721 214 218 219
-792.809926181774 370.771463316309 2277.85903785168 214 218 219
-800.466138689381 371.254536883817 2283.97197672014 224 225 227
-808.130022349161 371.738794585295 2290.11802262809 178 179 181
-812.940845228501 372.162947875066 2297.39749764516 207 208 210
-813.938962787738 372.505560222622 2306.15067025165 135 136 140
-817.800238024787 372.909460265432 2313.81529692777 146 147 151
-826.441413010329 373.41708308969 2319.69770190928 219 220 224
-836.047661231743 373.946867439053 2325.26224753949 128 129 131
-845.663771929068 374.47814157594 2330.87046307704 133 134 136
-849.546586515194 374.884486975011 2338.62747982398 149 150 152
-856.305551020535 375.354486230801 2345.35181022958 136 137 139
-858.278485151019 375.71879122641 2353.83142041293 159 161 160
-866.006415826877 376.211163511591 2360.25492157633 156 158 157
-877.580911437427 376.790652493127 2365.35065060958 217 219 218
-887.24738627534 377.328786372882 2371.17567842948 177 179 178
-894.040760500455 377.803039306133 2378.04913597651 206 207 209
-896.032628865087 378.168772755422 2386.61134111546 213 214 216
-906.684724250262 378.731830211835 2392.2085147176 217 218 220
-915.422358208945 379.25234302722 2398.50839193997 197 198 200
-928.986240761876 379.885011926152 2403.22532694612 212 214 213
-944.493178733507 380.56461273424 2407.36406586989 201 203 202
-963.876569149544 381.336667915473 2410.30250836294 187 189 188
-988.108875624956 382.225049803668 2411.75652791408 194 196 195
-1003.67634819389 382.914210520605 2416.156394263 174 176 173
-1020.22778720924 383.628876071745 2420.32077559782 185 187 184
-1028.09356421728 384.140410583155 2427.34043638552 197 199 196
-1043.7091516744 384.836806367408 2431.94806917412 172 177 171
-1053.53193252152 385.39721319927 2438.44877094475 178 183 177
-1064.33371285164 385.982090955291 2444.69270851589 146 151 145
-1073.20736519209 386.521825402658 2451.58065542118 143 148 142
-1085.97084438215 387.15640158933 2457.32692345696 138 140 135
-1099.71910250799 387.816321228605 2462.84029528284 140 142 137
-1112.51066720238 388.454836636428 2468.70800728246 134 136 131
-1117.53901749169 388.905069817887 2476.93069383511 138 140 135
-1119.65288194562 389.283604261664 2486.02295478093 147 149 144
-1123.71367475954 389.709728608731 2494.55261262992 160 162 157
-1129.72485397043 390.183939001296 2502.53570007784 170 171 166
-1133.79172831163 390.609914740082 2511.09333045086 174 176 171
-1137.86138182492 391.035838351034 2519.66215170379 169 171 166
-1142.90933691478 391.485996294758 2527.97127253548 144 146 141
-1155.7727163422 392.132727966952 2534.15060901366 153 155 150
-1161.8101637042 392.608595833453 2542.24847417106 157 159 154
-1171.76361181716 393.1838263066 2549.31625228474 144 146 141
-1177.81351770109 393.660810854657 2557.46836005945 138 140 135
-1186.80523831641 394.21283949266 2564.86935264772 121 123 118
-1187.96920926805 394.565175987284 2574.34765126362 130 132 127
-1189.13193075325 394.91660183605 2583.82097962396 113 115 110
-1195.19732153255 395.393780991386 2592.04120829197 119 121 116
-1198.32335142161 395.794952662569 2601.02393181886 121 123 118
-737.712410784837 353.079687817383 2072.81294331156 145 149 152
-734.024907084152 353.35720966443 2083.74106061028 114 118 121
-731.267419769181 353.647969851624 2094.20317265001 140 144 145
-731.317689087112 353.982007214563 2103.34103027059 140 144 145
-731.365540141649 354.315436075716 2112.46967594329 160 164 165
-728.594275938956 354.603363145317 2122.8716590288 179 183 184
-727.696293285852 354.920293195975 2132.39852744514 200 201 203
-732.436557056972 355.327972460183 2139.37676793414 203 204 206
-740.003277052562 355.782280456745 2145.11335670426 206 207 209
-740.045908123872 356.114126983001 2154.21884439579 210 211 213
-740.086107454853 356.445362673056 2163.31506212533 213 214 216
-743.895249894659 356.838831207159 2170.75501077552 220 221 223
-747.706924069582 357.232693285148 2178.20697064766 224 225 227
-751.521544171463 357.626937080828 2185.67060104381 219 220 222
-747.782026012811 357.892932671312 2196.37629209304 211 212 214
-749.706678827437 358.254572971526 2204.6447143172 207 208 210
-750.685807428978 358.599652367378 2213.31275961761 218 219 221
-756.396095859439 359.026342995726 2219.99789880724 231 231 233
-760.21759491294 359.420708078802 2227.49177048328 227 222 226
