ply
format ascii 1.0
comment KinectMotionCapture
element vertex 779
property float x
property float y
property float z
property uchar red
property uchar green
property uchar blue
end_header
-710.041057297609 -300.607836839194 2754.25577170938 14 17 10
-730.435688618643 -302.582832759286 2755.21718223718 13 14 8
-749.849455470612 -304.437796629183 2756.52549977131 13 14 8
-743.657418406749 -303.304794418716 2764.51213537934 14 17 10
-754.903892355421 -304.203706686826 2768.00672526844 15 18 11
-755.886350302333 -303.907992590538 2774.13267479202 17 20 13
-765.101798034794 -304.568197750731 2778.19322029653 19 22 15
-759.898315208171 -303.556790503368 2785.84662178192 20 23 16
-805.257694912246 -308.395910351768 2781.10273756987 16 21 14
-816.613950010533 -309.294665684279 2784.79877794582 19 24 17
-774.243157505719 -331.068226173104 2484.59823828335 13 18 14
-800.903898316618 -333.961493209604 2482.00341868748 16 18 13
-790.489801815161 -332.174298210508 2492.99665234669 14 15 10
-812.332014095845 -334.450224494415 2492.29982902633 15 20 13
-838.142310097908 -337.217297522145 2490.29363498706 15 21 11
-821.822046719439 -334.691464148329 2503.33678438441 12 15 8
-798.573053461801 -331.30532593071 2518.69954834263 12 15 8
-790.010107943353 -329.765448323024 2528.79290951907 12 15 8
-792.250800739264 -329.578899990288 2535.08535442684 12 15 8
-801.392984667717 -330.252977087174 2539.00698286068 12 15 8
-801.661910299592 -329.820279878581 2545.97660947584 11 14 7
-811.811646791033 -330.616671124672 2549.59972889518 10 13 6
-797.224950292449 -328.340646591287 2561.52549374391 10 13 6
-774.659751445496 -325.082450506438 2575.99260600056 9 12 5
-785.780689949968 -326.001884208722 2579.25014210334 9 12 5
-747.220281248659 -320.780623436636 2598.72828999499 9 12 5
-734.429720507832 -318.753725534113 2609.65295950484 8 11 4
-771.428429809942 -322.86531919554 2604.55566520555 12 15 8
-740.657168932471 -318.629638931392 2621.14368731545 15 18 11
-709.797848189441 -314.395747782681 2637.5697175065 15 18 11
-682.852774162418 -310.654263014758 2652.58647787273 18 21 14
-709.925830237631 -313.537566217947 2650.75247326671 17 20 13
-729.035671218222 -315.438665437276 2651.48844611078 12 15 8
-755.217146012875 -318.197241336441 2650.16747276924 12 15 8
-734.193022595279 -315.193659442675 2663.16223279957 12 15 8
-738.279783677709 -315.25519809039 2668.54522578784 12 15 8
-736.319831226237 -314.581599972685 2675.71758210748 12 15 8
-696.995444440796 -309.376026952516 2693.78642170453 13 16 9
-702.037266840447 -309.56141880443 2698.77339764259 14 17 10
-695.951106955544 -308.399947356486 2706.96382622252 19 22 15
-680.721689221923 -306.137367060076 2717.70346664452 22 25 18
-678.635917551876 -305.46695311631 2724.64396519139 21 24 17
-680.601035197235 -305.28655025574 2730.42722486776 20 23 16
-679.511800149359 -304.739259272102 2737.04820660718 14 17 10
-716.096818244577 -308.718394451586 2733.34469117789 12 15 8
-740.52905854927 -311.228439334216 2733.11139828254 12 15 8
-726.214492600809 -309.091522440779 2743.3810288772 15 18 11
-724.124282895046 -308.422461296174 2750.31295825231 14 17 10
-728.163445294335 -308.487489753071 2755.60685488578 13 14 8
-745.529024334311 -310.14120817338 2757.43880346148 13 14 8
-746.511015293162 -309.839886213756 2763.56558051252 13 16 9
-756.735529848029 -310.638341433895 2767.32560973472 15 18 11
-756.6901082828 -310.215473616256 2773.71413867172 16 19 12
-763.847711450889 -310.647808806726 2778.28805700529 18 21 14
-757.607690945903 -309.493428428557 2786.19337543523 13 16 9
-802.977415777362 -314.442566379405 2781.43543301753 12 17 10
-809.162929741412 -314.75302379463 2786.37345696143 16 21 14
-755.594286506433 -335.24557462185 2491.34236060546 9 21 19
-770.521290146363 -336.693596685326 2492.9812847995 15 24 19
-767.881922636736 -335.876436306228 2501.06254879636 2 9 2
-800.467712186313 -339.587413875151 2496.42876196927 10 13 6
-830.18972696679 -342.919338446275 2492.98736721242 14 17 8
-826.61056074655 -341.975039072768 2501.49320283689 13 16 9
-808.271278056646 -339.145417157167 2515.14396210457 13 16 9
-796.763387085981 -337.196490668615 2526.28944807423 12 15 8
-798.02640196661 -336.881627582692 2532.93664718204 12 15 8
-783.497367316336 -334.556731481576 2544.98366363847 11 14 7
-793.620089647197 -335.372707321693 2548.55120959101 11 14 7
-804.749984741421 -336.313806658745 2551.81819893381 10 13 6
-799.061270968862 -335.120007996924 2560.74932481133 10 13 6
-798.308223706458 -334.554296040495 2567.99415672153 10 13 6
-809.461545827782 -335.494675129686 2571.30495347355 9 12 5
-774.893972998305 -330.662752006114 2589.54987051804 9 12 5
-744.345499874429 -325.896364032791 2613.0521371173 11 14 7
-743.473660437808 -325.332688975842 2620.07838027948 16 19 12
-721.601500034092 -322.136586906086 2633.68613997814 18 21 14
-707.671143401356 -319.944514927932 2644.67898781512 17 20 13
-709.730327428017 -319.758532613639 2650.6374348104 15 18 11
-717.807319509864 -320.324335972743 2654.74734086403 12 15 8
-732.929515178735 -321.766842894267 2656.74691728485 11 14 7
-752.106506514611 -323.70989125507 2657.59327262581 11 14 7
-757.222994101573 -323.899121085453 2662.71641728617 12 15 8
-720.993948225405 -318.955479319599 2680.05448237717 13 16 9
-709.910196778805 -317.14299167001 2689.82370461399 13 16 9
-712.945887148869 -317.083443448264 2695.42479974169 14 17 10
-697.757989426665 -314.772006535647 2706.25599949595 19 22 15
-685.564933055428 -312.836821013236 2716.1367050081 22 25 18
-679.422843238 -311.652970997115 2724.23099796203 21 24 17
-676.306338565524 -310.844978615758 2731.43196276733 19 22 15
-676.226966647198 -310.412529093807 2737.760932241 14 17 10
-712.818131192346 -314.480165006893 2734.04210720297 12 15 8
-730.111912338615 -316.172051011015 2735.7300243231 13 16 9
-738.248568537024 -316.73894797944 2739.94983893071 16 19 12
-730.035016837013 -315.307299999158 2748.53845275549 15 18 11
-721.792838832503 -313.876319776678 2757.07472102544 14 15 9
-739.154655614254 -315.568104674214 2758.88779848065 14 15 9
-743.206880901399 -315.636495241088 2764.20521333114 14 17 10
-757.540197301438 -316.953315891464 2766.90649286678 14 17 10
-761.610737343143 -317.02210690965 2772.25696721977 15 18 11
-745.0751026176 -314.595656653107 2782.75881931174 16 19 12
-743.966400248911 -314.041802289227 2789.34597084894 19 22 15
-750.078462524014 -314.361584050413 2794.14609972465 13 18 11
-756.198103306741 -314.681720618598 2798.96056440272 15 20 13
-791.322053211182 -318.493240485616 2796.84988243494 21 26 19
-760.340868909595 -342.400157922512 2489.46095392593 0 16 13
-747.93042581546 -340.28240500986 2501.11205107896 5 16 12
-741.346214158898 -338.936063485141 2510.55686535888 4 9 3
-778.802109351531 -343.370127241914 2504.08814206639 12 15 8
-816.347759065256 -347.802267299997 2497.78557643308 19 20 14
-829.437875007505 -349.0226244882 2500.34419171753 14 17 10
-804.211884742714 -345.235855126131 2516.42147909163 13 16 9
-799.583427075851 -344.145630451567 2525.15615869331 12 15 8
-788.034004898798 -342.157372750245 2536.23708893812 11 14 7
-792.237658965188 -342.222569627027 2541.83346507139 11 14 7
-797.431577203072 -342.415872290744 2547.09829826367 11 14 7
-807.578502790532 -343.250200507951 2550.70433522155 10 13 6
-806.843458284604 -342.673610555066 2557.98605296967 10 13 6
-796.176698927655 -340.81532707394 2568.53597141709 10 13 6
-783.486628633153 -338.701317592397 2579.67165746954 9 12 5
-778.712911493789 -337.613236293391 2588.13853387552 9 12 5
-748.021948402494 -333.194460882858 2604.92980308787 9 12 5
-722.229954929811 -329.417945395747 2619.96251963129 10 13 6
-712.340125560698 -327.691931143936 2629.78677842359 15 18 11
-721.413936292324 -328.399352634565 2633.57313296709 17 20 13
-715.485972972989 -327.186272368298 2642.06952947923 15 18 11
-715.549102942051 -326.741667233242 2648.66424133957 13 16 9
-714.600654184493 -326.169359734458 2655.55167771643 11 14 7
-701.581375476541 -324.0619885572 2666.07989323358 11 14 7
-730.785771311985 -327.327985208769 2663.82112814697 13 16 9
-727.813751161178 -326.500250254465 2671.29376332458 14 17 10
-714.737287761238 -324.394328187289 2681.71636999557 14 17 10
-696.56869997758 -321.65015608781 2693.54006818102 17 20 13
-714.758287086905 -323.50843946786 2694.71120140995 18 21 14
-702.604141797916 -321.53255120239 2704.67571167144 22 25 18
-695.481318160902 -320.196346074372 2713.126872151 23 26 19
-688.332405972746 -318.860837573177 2721.53034578503 18 21 14
-695.390597982422 -319.314033084361 2725.91515574347 15 18 11
-693.297629333641 -318.618060356962 2732.85010380414 13 16 9
-710.556272818834 -320.348212965783 2734.46239302654 12 15 8
-729.891876588197 -322.333157273364 2735.58786653194 13 16 9
-738.029383456284 -322.913839430837 2739.80459593299 15 18 11
-727.76482816104 -321.197959941239 2748.93661773144 15 18 11
-722.588279118059 -320.120852232205 2756.65981712056 13 16 9
-722.519544889187 -319.682040293875 2763.00976031312 14 17 10
-742.980989914044 -321.794271741856 2764.05278377843 14 17 10
-767.598903742421 -324.415851319578 2764.12743747257 14 17 10
-768.592862541094 -324.105109924328 2770.27905818599 14 17 10
-780.920350755969 -325.196691069334 2773.58858711327 17 20 13
-727.219388159571 -318.133052774356 2793.26945182908 17 19 14
-740.544471383163 -319.353534966462 2796.25967292115 15 17 12
-794.245481728308 -325.541787806506 2789.53245154155 12 14 9
-797.313062293639 -325.48776870284 2795.19053582572 19 21 16
-750.454555438046 -347.607779118664 2492.97648482561 0 5 4
-771.242595816915 -349.907335973107 2492.44904462864 1 11 10
-763.706373912142 -348.402861136992 2502.30529194287 16 22 20
-776.71266233857 -349.651988224004 2504.70108143226 25 27 22
-815.247331858096 -354.308914187247 2498.03460198999 5 7 2
-815.569988834106 -353.852296205496 2505.11024382171 16 19 12
-810.967240650896 -352.740524889447 2513.89919162492 15 18 11
-796.496338558743 -350.318886013469 2526.08171281079 12 15 8
-793.811032165946 -349.469832992905 2534.08807762572 11 14 7
-799.008688405138 -349.668732225899 2539.35759843228 11 14 7
-814.097073444656 -351.176698398149 2541.27530595835 12 15 8
-807.438503435632 -349.804061544175 2550.59126924347 10 13 6
-791.833089815012 -347.253792988197 2562.84120223181 10 13 6
-795.035601320024 -347.190840126374 2568.75013567014 10 13 6
-769.418770340234 -343.333532681436 2584.12930381122 9 12 5
-782.533929809973 -344.579295224628 2586.72633877604 9 12 5
-826.561254705795 -349.878978605434 2579.39406182751 9 12 5
-730.027889986836 -336.739319197496 2617.29804687408 10 13 6
-719.143602994966 -334.847908825221 2627.45835856962 15 18 11
-705.222611467974 -332.565083297653 2638.49572206209 17 20 13
-709.284764910541 -332.635628666687 2643.83024436062 13 16 9
-713.349026948656 -332.706062180536 2649.16918263178 11 14 7
-731.472603924624 -334.60543008876 2650.20655620787 12 15 8
-700.372198358269 -330.104343104477 2666.26903469981 14 17 10
-698.376845075437 -329.391813482694 2673.38798997038 16 19 12
-712.495289402063 -330.768745207849 2675.67600393517 16 19 12
-694.346906753539 -327.968198262457 2687.55381615904 13 16 9
-678.165145629649 -325.429756321293 2698.74018456041 17 20 13
-716.571441893783 -329.938626301964 2693.99743043139 19 22 15
-711.505177574525 -328.836124795983 2701.93059573206 23 26 19
-697.288807071104 -326.560302883385 2712.42259733117 23 26 19
-689.122368359045 -325.067973038958 2721.11661309432 17 20 13
-696.182040089935 -325.532200512035 2725.50082698446 13 16 9
-717.506963907196 -327.821464287287 2725.96390860181 13 16 9
-712.370771698114 -326.721390879297 2733.76773359115 13 16 9
-726.609143451808 -328.097899011998 2736.27644332911 14 17 10
-734.743362904349 -328.692387977702 2740.48297457354 15 18 11
-736.749904957573 -328.50543713159 2746.34489464606 14 17 10
-718.260578743925 -325.714031780126 2757.59290046012 12 15 8
-722.28820661917 -325.78862412146 2762.86321118305 13 16 9
-742.754297682492 -327.946593968371 2763.90102505173 15 18 11
-769.435526982004 -330.885170837851 2763.44506118866 15 18 11
-785.877735153382 -332.521577755669 2765.69876772748 16 19 12
-746.673749182236 -327.131250052026 2781.92930247466 18 21 14
-730.076839523315 -324.605433241895 2792.34834043237 15 17 12
-756.845786658088 -327.543970071855 2792.05371769183 16 18 13
-790.918861055002 -331.392317119318 2790.11451301632 15 17 12
-834.395717129201 -336.410136555383 2786.08418467625 24 26 21
-768.182038150486 -356.040922546321 2493.43532312196 0 3 2
-778.252186640519 -356.915844961039 2496.8884497151 19 25 23
-788.340115206226 -357.790319295296 2500.37441185435 13 18 12
-797.464649574026 -358.530431349135 2504.24372141635 18 23 17
-811.51677405138 -359.938760747661 2506.40031914725 16 19 12
-805.921095929866 -358.67223873844 2515.52442399372 15 18 11
-811.137996240427 -358.876522236613 2520.82771899103 12 15 8
-812.414089621949 -358.545935432309 2527.504204545 11 14 7
-821.586212025805 -359.284476298671 2531.46150966559 11 14 7
-804.071871716224 -356.415222375226 2544.52610292478 11 14 7
-809.278677870538 -356.619389720256 2549.81086785925 11 14 7
-781.769645605881 -352.415897990219 2566.04464511691 10 13 6
-762.123192533224 -349.28234587332 2579.49747744009 10 13 6
-778.205027987579 -350.955956514606 2581.07720494035 9 12 5
-793.324815003633 -352.495484293503 2583.04267093353 8 11 4
-814.455219014175 -354.835103511156 2583.13285223264 8 11 4
-769.765829715672 -348.36741822075 2604.40331866616 9 12 5
-742.938856560924 -344.303470668056 2619.73476370675 13 16 9
-715.034175396431 -340.107731518574 2635.23803493824 15 18 11
-729.126438615912 -341.514460258721 2637.46893648142 13 16 9
-740.237646086847 -342.520720583869 2640.68196058705 11 14 7
-736.3029806268 -341.527120166898 2648.54879420606 17 20 13
-728.32711309332 -340.000731286446 2657.60354736535 17 20 13
-716.295052863424 -337.942024120635 2667.81749969735 18 21 14
-707.248875640381 -336.283905152693 2677.05817165323 18 21 14
-697.162122021795 -334.493347500109 2686.53966044121 18 21 14
-701.193610583306 -334.568071134286 2691.81703218707 18 21 14
-711.300690120836 -335.441813277301 2695.3379323944 20 23 16
-694.062958460532 -332.72089059062 2706.75185370835 23 26 19
-689.964640346913 -331.731515756205 2714.31693380045 22 25 18
-672.64044455453 -329.012627194897 2725.57122011649 14 17 10
-696.973673588675 -331.750306571939 2725.08686868339 12 15 8
-694.877576844335 -331.028312987772 2732.0238886306 13 16 9
-725.404303569549 -334.563019723765 2730.00152486034 14 17 10
-728.429489829686 -334.506137398403 2735.58249932432 14 17 10
-731.454571991367 -334.44955175603 2741.16319311339 14 17 10
-731.408515510707 -333.994606347767 2747.56020073796 14 17 10
-736.479845310768 -334.204582245926 2752.59405321701 14 17 10
-729.24069684368 -332.820127829934 2760.8457807245 15 18 11
-736.361897201805 -333.296594469491 2765.33998063775 18 21 14
-760.984535297202 -336.031536617535 2765.38872834337 17 20 13
-762.997426122648 -335.843919283261 2771.26252539193 16 19 12
-761.913636943628 -335.2582739878 2777.90505703255 16 19 12
-746.361440702271 -332.814530703599 2788.10552852429 9 11 6
-767.987655787358 -335.151022953611 2789.10853707502 14 16 11
-789.66050409695 -337.48716481688 2790.19691374724 26 28 23
-804.123479221501 -338.894028934911 2793.10958131892 28 30 25
-762.185737142249 -361.743220063294 2495.49683461529 0 3 4
-789.870650100668 -365.093754314261 2492.53334494896 20 29 26
-789.192225411588 -364.485850764929 2499.92810927622 11 16 12
-793.410830783364 -364.560000688593 2505.54979545698 7 12 6
-792.717663863669 -363.952036335548 2512.91746442098 16 19 12
-807.760069971643 -365.526166114454 2514.73020726866 15 18 11
-808.051663176543 -365.054200453274 2521.75333253843 14 17 10
-819.189044906088 -366.081925158711 2525.00854532376 13 16 9
-815.526878655484 -365.064635129736 2533.38367860946 12 15 8
-801.95351356553 -362.68495992145 2545.08951521519 10 13 6
-768.524440098982 -357.580970108161 2563.39535696334 11 14 7
-756.820707230043 -355.475663527225 2574.22768081324 10 13 6
-790.763579243489 -359.636280505123 2569.83980048895 10 13 6
-776.057976404501 -357.122866914433 2581.61876708713 9 12 5
-791.178009951638 -358.69477235223 2583.57494984626 8 11 4
-799.349355528969 -359.313077007426 2587.84310515919 9 12 5
-793.557311968689 -358.025876398174 2596.61177243491 9 12 5
-767.749631104333 -354.01765609407 2611.68581980987 12 15 8
-738.864315487753 -349.602762787946 2627.56673345728 15 18 11
-744.972662012005 -349.950360474273 2632.35166355072 16 19 12
-744.064363164541 -349.345962427162 2639.32259323721 15 18 11
-731.088403120095 -347.110089336941 2649.96912292371 17 20 13
-727.125531711818 -346.098684573761 2657.78943480962 16 19 12
-724.15170194135 -345.223582050095 2665.27298620101 16 19 12
-721.162282100096 -344.34901970559 2672.72770216826 17 20 13
-716.137599893128 -343.203124659399 2680.75039390904 19 22 15
-707.047207146202 -341.51433339037 2689.91896927247 18 21 14
-685.776237993231 -338.196443841223 2702.55425400548 22 25 18
-680.663377607956 -337.052634762724 2710.41464695893 23 26 19
-657.258981867181 -333.465558305061 2723.43722453331 17 20 13
-698.833592166339 -338.568069300913 2717.99765035907 14 17 10
-679.447969054551 -335.52518849987 2729.78813041679 13 16 9
-729.292093454165 -341.711496766993 2722.31237570276 14 17 10
-731.305079395523 -341.519001597224 2728.18731031155 14 17 10
-735.35825546447 -341.598075892563 2733.50326099898 14 17 10
-737.368609169922 -341.406143865636 2739.37318509733 13 16 9
-753.71319222621 -343.113024323977 2741.4261483713 14 17 10
-750.609565213976 -342.243721815048 2748.66923479758 16 19 12
-742.35731495931 -340.697016296369 2757.22127517449 17 20 13
-734.076561730407 -339.151272510254 2765.72110841895 18 21 14
-741.206141482153 -339.639189316855 2770.22677201145 16 19 12
-746.284694774931 -339.856260358639 2775.2722803934 16 19 12
-746.209667046931 -339.396341960127 2781.61750009915 17 20 13
-765.755602316426 -341.510490292352 2783.09095716293 18 20 15
-765.68977065272 -341.051230539579 2789.45289203774 9 11 6
-764.580783950374 -340.457199261685 2796.05160268482 23 25 20
-792.495822683052 -343.654431661016 2795.67225666832 16 18 13
-757.162693759261 -367.546968191317 2497.20303656386 241 251 250
-775.055118690968 -369.573056708911 2497.77717183476 0 2 0
-783.180149735875 -370.207126326245 2501.95490118084 21 26 22
-801.136511149556 -372.231685333209 2502.64708724806 5 10 4
-788.652896395753 -369.944301488752 2514.21411576626 14 17 10
-790.894495795478 -369.743147457105 2520.51262032747 15 18 11
-799.048105766026 -370.376167691488 2524.74322709682 16 19 12
-810.175266272795 -371.425640567118 2527.97310105445 15 18 11
-818.358011533483 -372.057841148048 2532.25753941819 12 15 8
-804.781411634249 -369.632883445277 2543.97104402801 8 11 4
-777.287691480234 -365.26387926187 2560.28275615682 11 14 7
-762.612797032327 -362.702029469386 2572.13226263199 11 14 7
-791.605046441481 -366.251164491584 2569.39817589194 10 13 6
-802.757817093302 -367.29985969131 2572.67538543632 8 11 4
-802.974222523015 -366.821107840841 2579.56226743906 8 11 4
-814.153865519192 -367.869333435012 2582.8885370974 9 12 5
-811.372574202406 -366.974211553896 2590.73222203278 9 12 5
-756.57868941293 -358.864975845001 2615.06233918414 11 14 7
-765.713896579611 -359.636514159914 2618.94182742383 15 18 11
-753.811436453858 -357.495402745151 2629.41942291298 22 25 18
-748.896980222708 -356.325741427242 2637.6519873298 23 26 19
-731.900476050768 -353.492750321523 2649.54327130165 18 21 14
-733.973646815201 -353.294693197344 2655.53056936395 19 22 15
-728.990163659106 -352.126594349957 2663.63621506457 19 22 15
-712.887540105401 -349.434820339748 2675.01424208637 19 22 15
-700.776966456157 -347.298282908971 2685.10719914809 18 21 14
-712.904369856406 -348.487143084974 2688.019481774 19 22 15
-684.541849944778 -344.135929772347 2702.72796275501 22 25 18
-670.297066410297 -341.725014957076 2713.20833291776 21 24 17
-678.346895924462 -342.36089783838 2717.24771190362 15 18 11
-671.159493528082 -340.920461138715 2725.6114449252 15 18 11
-715.862849300565 -346.539059623583 2719.42610314744 15 18 11
-732.132347978241 -348.2814601536 2721.3302909284 14 17 10
-743.332448471287 -349.33165985161 2724.69409624 15 18 11
-745.356852251446 -349.136960614152 2730.59069314472 15 18 11
-742.262936258603 -348.251115814063 2737.85661452333 13 16 9
-753.495418056076 -349.30172572445 2741.27934735029 14 17 10
-746.285887851586 -347.863679715836 2749.60166436936 16 19 12
-738.023483653445 -346.288232179364 2758.14417737325 17 20 13
-723.563378476451 -343.884490338411 2768.22637473672 17 20 13
-731.709853963159 -344.521909003843 2772.44253718871 16 19 12
-729.560638121758 -343.777917000706 2779.28847682955 18 21 14
-749.073542682482 -345.935534308761 2780.68811235731 19 22 15
-762.42714855268 -347.264017827219 2783.69881774503 16 18 13
-768.563700352182 -347.625992724545 2788.53129894616 11 13 8
-778.852113233954 -348.540623531552 2792.37391236803 23 25 20
-782.934942086743 -348.627085337106 2797.74217834667 25 27 22
-757.29004649975 -373.541255937309 2504.09435326886 28 32 31
-774.220546193978 -375.465345276654 2505.04480537626 19 24 20
-780.382411899208 -375.82932319349 2509.92324111188 20 27 20
-798.353846114934 -377.893705746845 2510.63117302228 14 17 10
-789.774047947429 -376.131205422843 2520.76048648507 14 17 10
-775.246127356366 -373.519006911406 2532.89594983559 15 18 11
-793.255723661334 -375.5823717998 2533.67387057097 16 19 12
-801.416701197891 -376.228571595836 2537.91456850652 12 15 8
-797.710856048374 -375.175166717407 2546.22022884075 11 14 7
-803.899279238891 -375.537764790616 2551.14792357903 11 14 7
-808.110018008019 -375.617149104892 2556.75356755175 10 13 6
-805.366539508842 -374.705827928149 2564.67116437668 10 13 6
-806.587543366311 -374.360593164647 2571.25073521067 10 13 6
-820.756562042928 -375.85492273522 2573.59646059478 9 12 5
-819.988327986381 -375.226757626806 2580.83214221253 10 13 6
-804.224621734091 -372.47723617091 2592.85086578783 7 10 3
-794.41347003634 -370.577214289847 2602.87215494285 9 12 5
-768.543716220376 -366.415657542145 2617.87764613072 14 17 10
-736.581661213872 -361.407419443632 2634.6232089567 20 23 16
-735.657920600962 -360.782524240901 2641.57190235293 20 23 16
-721.653023300011 -358.320891024277 2652.50871910835 22 25 18
-737.805563152787 -360.09875081296 2654.18763919153 22 25 18
-728.791623053415 -358.344551965943 2663.51599010774 23 26 19
-703.59759683956 -354.331273169531 2677.60538209472 20 23 16
-684.395164960869 -351.166879452144 2689.76882147925 20 23 16
-715.729199065098 -355.06299410109 2687.00776074282 21 24 17
-696.477376807849 -351.899869932875 2699.08048468553 22 25 18
-684.270067061202 -349.725899533283 2709.00678332688 20 23 16
-705.543136024214 -352.209828010831 2709.31595460891 17 20 13
-717.709399830791 -353.423160857161 2712.29234915098 13 16 9
-734.990227204636 -355.341660354147 2713.88879867746 14 17 10
-743.130885880982 -355.990493312204 2718.09083043513 13 16 9
-744.137929657723 -355.652060777436 2724.27484412112 13 16 9
-733.896007076817 -353.763077398579 2733.50054762076 13 16 9
-739.99601543585 -354.130687259971 2738.26412422306 12 15 8
-742.004820698081 -353.934696553297 2744.13242098338 14 17 10
-738.880708425227 -353.034380073809 2751.34715784242 16 19 12
-719.304033184462 -349.88020589232 2762.81972650706 16 19 12
-720.243127002931 -349.545091889689 2768.87726564179 16 19 12
-725.296518833752 -349.77392575823 2773.87296017881 16 19 12
-740.667156247312 -351.411330772323 2776.27035199632 17 20 13
-754.003749980092 -352.767079485637 2779.24156974049 17 20 13
-774.602559213119 -355.108357388066 2780.46835188016 19 21 16
-778.684677323495 -355.197159772821 2785.83410256813 20 22 17
-779.66025676137 -354.86400627662 2791.95866008294 19 21 16
-769.217055092359 -352.98356495844 2800.81160588616 18 20 15
-747.351732683045 -378.563339367814 2507.57054544937 12 14 11
-763.291531297692 -380.380867832502 2508.8457621755 11 16 10
-797.933603163908 -384.941760469628 2503.50866708966 13 18 12
-799.206406414075 -384.591181783063 2510.18511347616 17 20 13
-799.488699178486 -384.096223199425 2517.19804800135 16 19 12
-785.952823126126 -381.580374880972 2529.01378392409 15 18 11
-775.336135614491 -379.498258123601 2539.72310503816 16 19 12
-782.48537120793 -380.014275775094 2544.25697302812 16 19 12
-787.664247554388 -380.241524849609 2549.4834287907 15 18 11
-827.553819517045 -385.517405239126 2543.00792977445 13 16 9
-832.787607271841 -385.743350451252 2548.33576972129 11 14 7
-828.084349183633 -384.527243634797 2556.9712373964 10 13 6
-824.355859470004 -383.45555456427 2565.2407486961 9 12 5
-820.609128217876 -382.384378157996 2573.47655631375 9 12 5
-820.836240086731 -381.889958493018 2580.38784105341 11 14 7
-817.058174927174 -380.819332478026 2588.56585439171 9 12 5
-797.251958243473 -377.44388295341 2601.7975960119 8 11 4
-749.332764545234 -370.036024726726 2623.75600001395 12 15 8
-702.285336255853 -362.774756227669 2645.1583532578 16 19 12
-718.391405242843 -364.588472990047 2646.74051775403 16 19 12
-736.542413592599 -366.689625174673 2647.76715756349 17 20 13
-745.668322308837 -367.494482051924 2651.61952465929 18 21 14
-729.600807524534 -364.700952885457 2663.09272304152 22 25 18
-712.47462312347 -361.764505438646 2674.7766129623 20 23 16
-689.231244490124 -357.965983137616 2688.15891659116 21 24 17
-660.859573887947 -353.449548675501 2702.90025329338 21 24 17
-675.988686640057 -355.119669555138 2704.84359889559 21 24 17
-696.222442066651 -357.508547441958 2705.3846662439 19 22 15
-693.130193454998 -356.589711305273 2712.66357543588 15 18 11
-730.717151810046 -361.422004782274 2708.43094434368 13 16 9
-744.962412823526 -362.946861632242 2710.90771307589 14 17 10
-744.956857596317 -362.459348782433 2717.38900360646 15 18 11
-726.561646904102 -359.385915133058 2728.8949169115 15 18 11
-721.404750143061 -358.181473661296 2736.69255239451 13 16 9
-721.34643588703 -357.695948107382 2743.07621183596 13 16 9
-731.531471475907 -358.647172620462 2746.71718683164 15 18 11
-731.470561021457 -358.162268868931 2753.09588440197 16 19 12
-721.125381919227 -356.242252655054 2762.14101257743 16 19 12
-712.804461666005 -354.610245002477 2770.5929127221 16 19 12
-705.485732172361 -353.122683081176 2778.72928283812 16 19 12
-725.992515022048 -355.510732383724 2779.77274653774 17 20 13
-744.477688902558 -357.611450634228 2781.41410813856 17 20 13
-760.933372770766 -359.425199466522 2783.63926845932 19 21 16
-787.776523073331 -362.673068233054 2783.38809618204 19 21 16
-798.092205790769 -363.625841038171 2787.26939369159 19 21 16
-791.818575530312 -362.284372516302 2795.1691590353 19 21 16
-757.012902194454 -386.469342100802 2503.92698717142 9 11 6
-769.042270360673 -387.733112351759 2506.6364380889 26 29 22
-784.043106279668 -389.437586403094 2508.33403273785 18 23 16
-797.106368800835 -390.847110772149 2510.78637309944 18 21 14
-800.340267310305 -390.785674990432 2516.75257673968 16 19 12
-786.798642525505 -388.224810468083 2528.57127702452 14 17 10
-787.045910506176 -387.722646521542 2535.52196139632 15 18 11
-761.562018416268 -383.399200862805 2551.28580603847 17 20 13
-817.2362016231 -391.126803952115 2539.26448808468 17 20 13
-831.385322950156 -392.681109112732 2541.55558268389 13 16 9
-852.515133676518 -395.263058056651 2541.57179913026 11 14 7
-824.959996658514 -390.647231331059 2557.84427499186 10 13 6
-816.244901772512 -388.82314867284 2567.74377649711 8 11 4
-806.501608449729 -386.85277135992 2577.91102694043 8 11 4
-814.695665745378 -387.525549334703 2582.20406771352 10 13 6
-823.901973039147 -388.344811878744 2586.19997035261 8 11 4
-791.083261745392 -383.000393493792 2603.58588202777 8 11 4
-722.090681929894 -372.375677320822 2632.16767747945 11 14 7
-714.128218523399 -370.703325627787 2641.29047314414 15 18 11
-711.161272744458 -369.765034423047 2648.80568762859 16 19 12
-741.38037296471 -373.666563390509 2646.10723142899 16 19 12
-739.432003548535 -372.874799597811 2653.33693023298 16 19 12
-737.470937894261 -372.083510093017 2660.54263146933 19 22 15
-721.357015385042 -369.240544531212 2671.94534416361 18 21 14
-706.205456438996 -366.545157954749 2682.95833512223 20 23 16
-676.831536750897 -361.799395685377 2698.04011617923 22 25 18
-663.596580519593 -359.399503954194 2708.25962857593 17 20 13
-659.456534030484 -358.318948054414 2715.7748784211 14 17 10
-703.024982698701 -363.627658265991 2716.05563135659 12 15 8
-737.618116027025 -368.111133053434 2712.7666098723 13 16 9
-730.459561782721 -366.59170580085 2721.20715403865 15 18 11
-721.231953618711 -364.780107745512 2730.16029585722 15 18 11
-715.042090587268 -363.40862918053 2738.2231490553 13 16 9
-729.312099864738 -364.964122362287 2740.73571711471 13 16 9
-732.33055942245 -364.910274572544 2746.30340739797 14 17 10
-733.295473859484 -364.564189478085 2752.41223883921 17 20 13
-726.031443196918 -363.048618144095 2760.65763309729 17 20 13
-716.682967543985 -361.24141381681 2769.38715629357 17 20 13
-716.579000060522 -360.750936656213 2775.68834018474 17 20 13
-735.041128018682 -362.892405081607 2777.27506169225 17 20 13
-728.746116920378 -361.525783032695 2785.1430679792 17 20 13
-771.04714597573 -367.028596537391 2780.91913079014 18 20 15
-781.338305629052 -368.000510651737 2784.74956971832 18 20 15
-815.499142918993 -372.332871559201 2782.82622374736 16 18 13
-741.182735803764 -390.528016868721 2509.54600641252 30 31 25
-775.77836659639 -395.261528753081 2504.07158745693 3 4 0
-783.908270563715 -395.949815179706 2508.24247909325 31 34 25
-795.989160643217 -397.236666465125 2511.03974723965 19 22 15
-800.206181723424 -397.325134714246 2516.654213795 17 20 13
-809.361320921156 -398.162142285865 2520.55067267567 14 17 10
-814.578057974379 -398.399931007562 2525.84359168073 15 18 11
-800.995168818102 -395.794504634173 2537.60030420675 16 19 12
-840.882015353593 -401.269042176421 2531.05954796465 15 18 11
-851.095483532734 -402.254053710843 2534.74315944357 15 18 11
-828.539027660147 -398.302879696314 2549.4347448033 11 14 7
-813.874111282676 -395.549377027524 2561.3607411021 9 12 5
-796.174373279337 -392.348302539229 2574.18413971253 8 11 4
-798.368942301908 -392.13804566131 2580.39838001612 8 11 4
-818.537676050083 -394.618280769261 2580.79238759391 9 12 5
-826.749813891559 -395.304406178542 2585.11517217214 8 11 4
-813.947677663935 -392.852530748773 2596.14584777634 9 12 5
-761.000517690902 -384.425895570366 2619.73777427109 11 14 7
-734.009400971228 -379.885520721772 2634.91060119351 16 19 12
-730.059882445371 -378.781719528335 2642.78325703198 17 20 13
-725.085811697217 -377.529098536547 2650.93112722563 16 19 12
-736.214649928745 -378.665648142607 2654.1379010027 16 19 12
-721.129422265738 -375.920959887706 2665.28771333855 18 21 14
-725.19354762142 -376.012962396016 2670.61991397112 16 19 12
-708.016602343329 -372.971468858299 2682.24203498049 19 22 15
-688.762136520059 -369.632646446508 2694.36273311675 22 25 18
-659.309379289461 -364.803353827522 2709.32413267446 16 19 12
-641.959581417074 -361.765632196089 2720.62721197574 13 16 9
-677.429333247326 -366.483743910808 2716.76559628086 12 15 8
-712.981712491171 -371.200662998001 2713.05580185925 12 15 8
-728.229892364009 -372.934777186886 2715.19888944416 13 16 9
-723.096320958961 -371.68733684303 2723.05235518087 16 19 12
-715.898435813981 -370.142438015285 2731.42822249813 15 18 11
-719.929941624176 -370.237606126057 2736.69947787917 13 16 9
-732.159987150291 -371.524926632956 2739.7709289641 13 16 9
-735.181265152364 -371.471517990491 2745.34367081917 15 18 11
-735.121386219872 -370.971652520462 2751.72876485283 18 21 14
-736.082326889644 -370.621151663643 2757.83111148156 18 21 14
-721.59337177852 -368.03774160348 2767.91478285265 17 20 13
-751.390601026728 -371.857193957437 2766.57991054673 17 20 13
-777.126075312196 -375.080432656682 2766.41372633076 17 20 13
-773.980328746436 -374.135998203218 2773.60194099495 16 19 12
-762.541060093718 -372.001751837791 2782.81406199123 17 19 14
-801.833573819998 -377.159289640106 2779.5056508159 18 20 15
-795.572268550713 -375.770107967411 2787.44243242181 15 17 12
-791.068973122131 -404.711695146513 2491.28302459069 32 31 27
-760.907882147102 -399.46772769323 2509.29647369879 21 22 14
-772.953124173001 -400.779615797632 2512.02115372012 11 14 5
-776.157600515051 -400.7195348836 2517.93283719608 21 24 17
-795.140584466411 -403.097186246701 2518.29168325508 19 22 15
-809.227397724473 -404.712354215014 2520.44937497967 16 19 12
-824.330824554886 -406.479126937225 2522.31691847407 16 19 12
-834.514869752247 -407.483810838674 2525.94049982989 16 19 12
-854.630317813135 -410.010974565237 2526.22188864353 15 18 11
-843.025237299528 -407.664888646333 2537.30805961033 16 19 12
-831.38131873439 -405.319560655671 2548.32257239871 13 16 9
-787.852398265864 -398.104296839069 2569.83736589642 12 15 8
-781.072039929041 -396.522163670402 2578.992338247 12 15 8
-788.234467681153 -397.070818444548 2583.54065434455 13 16 9
-804.398659127205 -398.988489128361 2585.19845548144 12 15 8
-814.593996076456 -399.992861301209 2588.84289816983 12 15 8
-815.792689206829 -399.628302431372 2595.3867424367 12 15 8
-790.909687624255 -395.310204048577 2610.13983111436 13 16 9
-749.887127710231 -388.560945820116 2629.7792384315 17 20 13
-721.822640063038 -383.790167816578 2645.16152281904 18 21 14
-714.820427137711 -382.212776035092 2653.9075425662 18 21 14
-696.703809394252 -378.964431375333 2665.97843852083 17 20 13
-702.7577080397 -379.363730045188 2670.64768146068 18 21 14
-699.723320998446 -378.395929442402 2678.04773327818 17 20 13
-698.697332317556 -377.732366956714 2684.82000192031 19 22 15
-687.528660053312 -375.550404546895 2694.54414820728 19 22 15
-684.43991796822 -374.584137535996 2701.84377001168 14 17 10
-701.651741141383 -376.654843926016 2703.26753639495 13 16 9
-723.985257303505 -379.484134978605 2703.30790189354 13 16 9
-734.147007131726 -380.491566098484 2706.88965185622 14 17 10
-732.090796897216 -379.677833196807 2713.92711407964 14 17 10
-729.000601778295 -378.712883439563 2721.22366736393 16 19 12
-732.028492018794 -378.658864260247 2726.80875393165 16 19 12
-718.679719992503 -376.178076414109 2736.84326552316 16 19 12
-735.009752879271 -378.096667597447 2738.80580247314 17 20 13
-735.981561237297 -377.74045533497 2744.93035854571 19 22 15
-740.030478643606 -377.839493226516 2750.23247329925 19 22 15
-727.623212550719 -375.513446114221 2759.83674848369 19 22 15
-734.746728092659 -376.068354946586 2764.31161720856 18 21 14
-741.880650505329 -376.62337620828 2768.80559225502 17 20 13
-763.480956231366 -379.30020088842 2769.65809934025 16 19 12
-776.856912653301 -380.764676743233 2772.66901568142 16 19 12
-772.661573106341 -379.653875897404 2780.09166681604 16 18 13
-806.795801846758 -384.148161190018 2778.07068877286 19 21 16
-788.084373439586 -380.918039658756 2789.04264370084 14 16 11
-802.03723221095 -412.430091100076 2494.32996238871 17 18 10
-744.279295162071 -402.753683723557 2522.13963060463 17 20 9
-761.238329242639 -404.865481099639 2523.08561061068 22 25 18
-790.07100332231 -408.837022802173 2519.93151334863 20 23 16
-804.153832599665 -410.481900727358 2522.07294339182 17 20 13
-810.351949821672 -410.88621814651 2527.00592132701 17 20 13
-818.538239251935 -411.600304860065 2531.27275740927 17 20 13
-800.953990420004 -408.28546846044 2544.34277227149 14 17 10
-798.209677896586 -407.295364352528 2552.28303111838 18 21 14
-805.392148235297 -407.85471186397 2556.86499365139 15 18 11
-787.696457744977 -404.541852490908 2569.72945246457 14 17 10
-783.901947896885 -403.397915986546 2577.89926704537 14 17 10
-762.123045887134 -399.467503440069 2591.89987292168 16 19 12
-772.260454591821 -400.492064687629 2595.4317037299 14 17 10
-798.426866293438 -403.992855555329 2593.85982681224 14 17 10
-780.708350921661 -400.160131119468 2613.18354311269 13 16 9
-743.674942751837 -393.912936515902 2631.54904470564 16 19 12
-729.672762621273 -391.225552199737 2642.55874698238 18 21 14
-693.469649866349 -385.136522163782 2660.28895038593 18 21 14
-688.426904657609 -383.843270130495 2668.32323859469 17 20 13
-672.256946931006 -380.849850661357 2679.66763275534 19 22 15
-688.389656683949 -382.804235766172 2681.25649251635 18 21 14
-689.371488953051 -382.439868078642 2687.40193689731 21 24 17
-698.456736588129 -383.312038442325 2691.15927826124 18 21 14
-723.794985135332 -386.656502531744 2690.22657273024 16 19 12
-744.109457123419 -389.227621796699 2690.86078444556 13 16 9
-742.083732133663 -388.399789645498 2697.95905877644 14 17 10
-725.783079101019 -385.410380567709 2709.06237868991 15 18 11
-723.713797051471 -384.584040171582 2716.07959080503 14 17 10
-728.780460382377 -384.838951374909 2721.09185204049 14 17 10
-733.852558309835 -385.094180052209 2726.11350877406 15 18 11
-725.619376121482 -383.342977916443 2734.7621152749 15 18 11
-719.408133703714 -381.901320235809 2742.80675223653 16 19 12
-731.649992956316 -383.238075463842 2745.88506484653 18 21 14
-731.582182931218 -382.723295913763 2752.26005713638 19 22 15
-731.506644343809 -382.209081105083 2758.62066536223 19 22 15
-719.059629130424 -379.844481143066 2768.16393257618 18 21 14
-715.8585758769 -378.869033753068 2775.25975441297 17 20 13
-733.300247391327 -380.978215565735 2777.09417915499 16 19 12
-799.384444326204 -390.333800710704 2766.80980156781 16 19 12
-829.384671094797 -394.291821344766 2765.80660826472 16 18 13
-827.312649204599 -393.470949732974 2772.81713673409 19 21 16
-801.352557781066 -389.1060568989 2785.60333302682 14 16 11
-705.577066657636 -403.521080967052 2528.98152865698 14 20 10
-730.349393505607 -406.93394121828 2526.98691758415 18 21 12
-756.163709678671 -410.503331508857 2524.74684353212 17 20 13
-794.866209106461 -416.121817991816 2518.09987220193 18 21 14
-791.171281407439 -414.957905460722 2526.45884371484 17 20 13
-799.331136948478 -415.686251877545 2530.67277486279 16 19 12
-795.615150270096 -414.522531028829 2538.99295743262 16 19 12
-791.880935264005 -413.359204509699 2547.2794962032 17 20 13
-783.161869505643 -411.408187571443 2557.20986638437 16 19 12
-780.379261145618 -410.403176435846 2565.0841750698 15 18 11
-814.428560220349 -415.227628216805 2560.69240427979 15 18 11
-800.693611031442 -412.48961349829 2572.20881858666 15 18 11
-809.878847999464 -413.374864987917 2576.14662902419 16 19 12
-864.068062251153 -421.346158208082 2565.55049838969 16 19 12
-819.286368499092 -413.727610680978 2586.99779307405 15 18 11
-768.367142492468 -405.167015720421 2610.12964134674 14 17 10
-740.3915645599 -400.229376151289 2625.72562571581 14 17 10
-733.438414048827 -398.598043058198 2634.57810148022 13 16 9
-729.47819460214 -397.439416822758 2642.44756342996 13 16 9
-720.462636856813 -395.494735346404 2651.83022137243 17 20 13
-686.196672728496 -389.617994992805 2668.82975544909 20 23 16
-673.046718498519 -387.046234260332 2679.25678242881 21 24 17
-659.855196350463 -384.475354483521 2689.60759775516 21 24 17
-681.051578536299 -387.251385146563 2689.68788675059 20 23 16
-703.308361291344 -390.183990619208 2689.55605669205 16 19 12
-723.583514785908 -392.801580511685 2690.1044840731 14 17 10
-746.951924702822 -395.890123128615 2689.85544600179 11 14 7
-729.660779252482 -392.69234090219 2701.31453141418 12 15 8
-720.470530367609 -390.752725519179 2710.37488128332 14 17 10
-721.453102832518 -390.384949531427 2716.52220772351 14 17 10
-724.473685337654 -390.331667348315 2722.09363240397 17 20 13
-731.585901542685 -390.906919060863 2726.54160205336 17 20 13
-713.1031945963 -387.556633275372 2737.96984912143 18 21 14
-714.050904110964 -387.190840173818 2744.05296419187 19 22 15
-723.207982787353 -388.08129990209 2747.93691592851 21 24 17
-728.268303427974 -388.34411399694 2752.93463098955 18 21 14
-710.687352708895 -385.154482218503 2763.85876493954 18 21 14
-714.699250969935 -385.261551943154 2769.08987515303 18 21 14
-755.863720085113 -391.017236654459 2764.81485694554 18 21 12
-756.827434145975 -390.653675605943 2770.92673606681 16 22 12
-792.960152498446 -395.623733259255 2768.20816686475 16 22 12
-839.533600079251 -402.161407886765 2763.07107965261 19 24 17
-846.805520579313 -402.738894042382 2767.81210265522 14 19 13
-783.477638324535 -392.654974553383 2789.72977290055 12 17 11
-727.048378100467 -413.338132639177 2521.10517596414 15 21 11
-712.470755796777 -410.392229904351 2533.24907651202 20 23 14
-799.394370161673 -423.968900890669 2509.26359739162 17 20 13
-786.830580894136 -421.342979664597 2520.7854799949 18 21 14
-784.110073848904 -420.321215993124 2528.7790421568 18 21 14
-779.394516452721 -418.979069882003 2537.42928761215 17 20 13
-795.470285412534 -421.003798589085 2538.89226906452 16 19 12
-797.686371552003 -420.783862727785 2545.14949818649 16 19 12
-795.925383888918 -419.922947773746 2552.74411715535 17 20 13
-795.146186678818 -419.222470497827 2559.98138134063 16 19 12
-813.284390943277 -421.566188335434 2560.91203170502 15 18 11
-820.488653661398 -422.147257330044 2565.52754228319 15 18 11
-829.700710065887 -423.048407407474 2569.50939326408 15 18 11
-827.927308725132 -422.187935719319 2577.08104791839 15 18 11
-822.135148216917 -420.687103280661 2585.91424797754 14 17 10
-775.21080640593 -412.623126613229 2607.78437107563 13 16 9
-740.204671888551 -406.482443345729 2625.61676948069 13 16 9
-720.179139741974 -402.744319240479 2638.55421395247 13 16 9
-724.250971821035 -402.848075369396 2643.89654984623 14 17 10
-705.145332895009 -399.271835080767 2656.36236436134 15 18 11
-728.365196556018 -402.415740021035 2655.82347403298 18 21 14
-706.168982349368 -398.361188084967 2669.09389809304 23 26 19
-676.826792693812 -393.188455387821 2684.36193129249 23 26 19
-674.751847249154 -392.334855805879 2691.37742905217 19 22 15
-699.034567492868 -395.638469440695 2690.63049854439 15 18 11
-736.573674494654 -401.019675649128 2686.14479037913 14 17 10
-713.190356809125 -396.80943536793 2699.39353293351 11 14 7
-712.138722913376 -396.116574839532 2706.12744589643 13 16 9
-718.212579798437 -396.542580282362 2710.82536438164 15 18 11
-725.314830206934 -397.128645718366 2715.25175319908 15 18 11
-717.097509209106 -395.318611082848 2723.94772774539 17 20 13
-711.921963364366 -393.98867863918 2731.74829772181 18 21 14
-708.774836429154 -392.978790369886 2738.95365698752 19 22 15
-700.483189441004 -391.171204773694 2747.51169177284 19 22 15
-712.705950927497 -392.557467374602 2750.53999219281 20 23 16
-710.553907236947 -391.708981177255 2757.41215452715 18 21 14
-707.359426718911 -390.701488545029 2764.52970150699 17 20 13
-710.335613052764 -390.652339442314 2770.01823063414 16 19 12
-765.958810248223 -398.741574369274 2762.02398833817 16 19 10
-774.168762005204 -399.490005275323 2766.32401572264 16 22 12
-780.322207825438 -399.919612798433 2771.16722953921 17 23 13
-820.676624719188 -405.613383693842 2767.53579579724 12 17 10
-823.776101081679 -405.564716375518 2773.2509328685 15 20 14
-848.689330623793 -408.865517546503 2773.66396536692 11 16 10
-767.223982419275 -426.366357141357 2506.47904167442 17 20 13
-789.134761467363 -429.406283098292 2505.67907844989 14 17 8
-779.534809528651 -427.227152149534 2516.17273646783 17 20 13
-779.776656008503 -426.678991252194 2523.12677772774 17 20 13
-766.166622799941 -423.848523899793 2534.90124199737 18 21 14
-767.364562548814 -423.463883851314 2541.44973949527 18 21 14
-784.419372794742 -425.686899726508 2542.53892779981 16 19 12
-792.576094085971 -426.442728269159 2546.73832578841 15 18 11
-795.775452697545 -426.38347645003 2552.64034749909 18 21 14
-793.003068558863 -425.347026565624 2560.54291468992 17 20 13
-795.197643618188 -425.125101489313 2566.76117921525 16 19 12
-811.359532515662 -427.183430641497 2568.37244655717 14 17 10
-815.565254473202 -427.287069622016 2573.96106556206 14 17 10
-812.770336079019 -426.251183519685 2581.82201860989 13 16 9
-795.935866938565 -422.936581021179 2594.15614530224 14 17 10
-782.058773526362 -420.11138959187 2605.43734637118 13 16 9
-763.116175499492 -416.473291888828 2618.22162464511 11 14 7
-743.111318055555 -412.673823897233 2631.21554107149 14 17 10
-723.047048873751 -408.875536092077 2644.09983357961 15 18 11
-722.078333298624 -408.169043192726 2650.99034798586 17 20 13
-716.051947192219 -406.64978708581 2659.39830488084 16 19 12
-725.163379790114 -407.570452884656 2663.18922155522 20 23 16
-703.929398429314 -403.613110281047 2676.08533493495 20 23 16
-699.859950196661 -402.420745160736 2683.7640512443 16 19 12
-693.743395766733 -400.904067655522 2692.00489247879 14 17 10
-723.159334916754 -405.076388171819 2689.86264325853 13 16 9
-721.109842409724 -404.210195050749 2696.92874075286 12 15 8
-709.881467006698 -401.882108227421 2706.5870248037 13 16 9
-716.972360624786 -402.479240305589 2710.98919843998 15 18 11
-728.157699221234 -403.726262903428 2714.26666510813 15 18 11
-724.028919772833 -402.537026937014 2721.83531949816 17 20 13
-710.669583146821 -399.886898570928 2731.90132515647 17 20 13
-706.493258305247 -398.699233284197 2739.38206256864 18 21 14
-706.40366108351 -398.161668593062 2745.72383620992 18 21 14
-705.279009601272 -397.462291476075 2752.32541620359 18 21 14
-705.17280289354 -396.925751812741 2758.63633372614 17 20 13
-705.059009766444 -396.389775198162 2764.93312912046 16 19 12
-720.407819935677 -398.288434814956 2767.2118118513 15 18 11
-751.277080844725 -402.620659624429 2765.57960023548 16 19 10
-762.571788630103 -403.870071005392 2769.05699416803 16 22 12
-776.992666755795 -405.606205810753 2771.79321900008 17 23 13
-779.004289358345 -405.396295716168 2777.67088321813 12 17 10
-832.902862846779 -413.295145261377 2770.79209945518 13 18 12
-778.890555467841 -434.799961192955 2502.13552638128 17 20 13
-826.439870640407 -442.200506809341 2492.18885171022 16 19 12
-842.534338086739 -444.295269290293 2493.66516244317 18 21 14
-778.644500342144 -432.966651139409 2523.38380715258 18 21 14
-768.982958743546 -430.754041258886 2533.77425838973 17 20 13
-761.268745659699 -428.873400242355 2543.41626865358 18 21 14
-774.352404078893 -430.471647323089 2545.84936786061 16 19 12
-770.580211923931 -429.253938745575 2554.0824135746 15 18 11
-769.77256715027 -428.533327884955 2561.27391634764 17 20 13
-771.94152693075 -428.309726478556 2567.44506957198 16 19 12
-787.067382658955 -430.238280924311 2569.30470845209 15 18 11
-798.231095900401 -431.504173970653 2572.5367274075 14 17 10
-810.414896141463 -432.935276119305 2575.47988679387 14 17 10
-814.615606005885 -433.042315181271 2581.05876941357 12 15 8
-788.757220238095 -428.185712572146 2596.29468780855 13 16 9
-784.897504484347 -426.969991647495 2604.36616394758 12 15 8
-798.098287688425 -428.566725824886 2607.01513193707 10 13 6
-792.212268214153 -427.020744628517 2615.6892854462 14 17 10
-733.928498959747 -416.876679823742 2640.55718340434 16 19 12
-702.716706941301 -411.199754624369 2656.76840143808 19 22 15
-712.818180747128 -412.302445395253 2660.21064621283 18 21 14
-703.727223862754 -410.264328589836 2669.48323363211 17 20 13
-716.877288291052 -411.863084856394 2672.03831246649 17 20 13
-709.780114243534 -410.156620089998 2680.64799215111 16 19 12
-708.746819939844 -409.442151072291 2687.42213309705 13 16 9
-714.816729200266 -409.884571086901 2692.10785497094 12 15 8
-730.051750828101 -411.813688761709 2694.16860470026 13 16 9
-720.866872462019 -409.778963403522 2703.26692927738 15 18 11
-713.691037345834 -408.075207996142 2711.73112216238 17 20 13
-719.76740232218 -408.518673820712 2716.42840277685 17 20 13
-719.715504827694 -407.971855987155 2722.84229570211 19 22 15
-710.440301340424 -405.940010315321 2731.77413418471 20 23 16
-702.159630561393 -404.074032579241 2740.36991597506 20 23 16
-704.115717269219 -403.859024549133 2746.14747686519 19 22 15
-714.292247960055 -404.964630872596 2749.72638391474 18 21 14
-704.93363783669 -402.935787424863 2758.50391956379 15 18 11
-709.969878647716 -403.217205752804 2763.45175274271 16 19 12
-724.296457755519 -404.983594191538 2766.00544658892 17 20 13
