ply
format ascii 1.0
comment KinectMotionCapture
element vertex 751
property float x
property float y
property float z
property uchar red
property uchar green
property uchar blue
end_header
-938.075704472423 364.82987098709 2465.80397830443 211 213 212
-939.11725279353 365.175407018454 2474.74681221097 200 202 201
-944.999525256334 365.609267992983 2482.18559459783 199 201 200
-948.948746701118 366.007661899423 2490.24100137584 199 201 200
-958.718622552955 366.514272277158 2496.54021462709 195 197 196
-965.587516892681 366.967647597755 2503.75873676335 195 197 196
-977.317164386297 367.512948967388 2509.5582622636 198 200 199
-985.173392208349 367.986527551328 2516.55816828272 187 189 188
-1001.78618601709 368.627113149756 2521.03539912279 185 187 186
-1014.52655960035 369.196277644788 2526.71832358693 185 187 186
-1025.33407867884 369.729851622413 2533.01772459089 198 200 199
-1037.12672471862 370.283751257498 2539.08980069931 203 205 204
-1048.93182130999 370.839286857683 2545.21577887759 187 189 188
-1063.6750023097 371.453484770905 2550.58383914673 190 192 191
-1071.60359388676 371.936155714554 2557.89727366036 188 190 189
-1081.49240170354 372.457970696582 2564.71271311008 188 190 189
-1090.41416672963 372.961724707281 2571.83383469743 191 193 192
-1103.25556137664 373.544180523754 2577.95301213748 192 194 191
-1120.02357124061 374.206863136849 2583.10230385543 184 186 183
-1132.89475093303 374.793494709859 2589.35027529242 177 179 176
-1160.47242231953 375.678734698426 2591.8785267012 176 178 175
-1200.82476317845 376.827868818164 2591.30539526191 173 175 172
-1257.89880457815 378.325065169746 2586.74864108932 169 171 168
-1296.3956715588 379.451462710452 2587.12540946785 153 155 154
-1326.0998361416 380.40324719576 2589.87117524992 143 145 144
-1339.13369646827 381.014715053884 2596.82248964365 146 148 147
-1371.84672059062 382.036829830731 2599.11426431555 167 169 168
-1406.56575287105 383.106078370153 2601.10513015763 162 164 163
-1422.61993722779 383.789296691774 2607.65322369187 133 135 134
-1427.85507235576 384.246364587798 2616.78310321715 139 141 140
-1439.99404677523 384.849551145555 2624.35231239409 158 160 159
-1449.18620619311 385.391290381175 2632.64260551639 156 158 157
-1456.41310329747 385.891623082265 2641.40998852562 136 138 137
-1471.54685531845 386.562019361539 2648.46607530232 132 136 135
-1497.56700698903 387.468785917803 2653.23114979506 133 137 136
-1541.41611379633 388.76519761317 2654.30985202645 172 178 176
-1572.45409512022 389.790346241334 2658.33253871127 168 174 172
-1591.64674428495 390.561382127766 2664.98855745632 162 167 163
-1612.84158023774 391.378832004467 2671.32725156393 173 175 170
-1648.93000244288 392.527085851417 2674.74847626631 171 174 167
-1676.13258472156 393.484362367836 2680.13790578666 184 185 177
-1691.45535313461 394.181714069707 2688.01105319771 193 194 186
-955.369894104037 350.17776629478 2290.89640390177 201 203 202
-944.023011187137 350.373331132227 2304.57451629496 154 156 155
-926.917452720613 350.4870222649 2320.26535634147 154 156 155
-915.532660933626 350.674805813355 2333.78099715036 152 153 155
-911.795963910627 350.965356321362 2344.48467734525 151 152 154
-910.928427200793 351.294502271377 2354.13852310515 153 154 156
-914.854248038954 351.690173414818 2362.09241479213 158 159 161
-914.942948740151 352.031330503755 2371.39543560034 160 162 161
-916.950508622036 352.399203452243 2380.0255282055 191 193 192
-917.997069251164 352.752723436388 2388.98575332367 175 177 176
-920.004392974854 353.119658779274 2397.615356749 182 184 183
-919.124375449239 353.443894908283 2407.21709265278 201 203 202
-919.203870676128 353.781243039984 2416.48287556162 183 185 184
-916.390065813868 354.074760157145 2426.694112151 189 191 190
-921.284719595996 354.482091572241 2434.3539748278 193 195 194
-924.253676031927 354.860613092267 2442.65677805024 199 201 200
-932.051863794257 355.312249737413 2449.41383171711 192 194 193
-933.09393992851 355.661303296376 2458.35800898766 199 201 200
-937.035663371813 356.0543359629 2466.38244215443 216 218 217
-940.012390196898 356.432393970314 2474.72084521408 185 187 186
-946.862942127427 356.870603965845 2481.86637348439 197 199 198
-951.782338182854 357.278997505923 2489.6335537297 190 192 191
-958.644043525319 357.718226680345 2496.82871731056 193 195 194
-965.512284854556 358.158083391464 2504.05122670105 189 191 190
-977.239450925949 358.676285366593 2509.85575660665 196 198 197
-987.036677534469 359.164910513577 2516.28715775818 185 187 186
-1001.7029652325 359.733623838072 2521.34313446566 185 187 186
-1009.57861425228 360.193558114131 2528.43664658807 186 188 187
-1020.38087984563 360.702213705033 2534.72755389632 197 199 198
-1031.1941426343 361.212382079802 2541.06711781254 202 204 203
-1046.89030576679 361.805051872457 2546.08973519886 184 186 185
-1063.57846298318 362.416530650819 2550.91726664882 183 185 184
-1075.40784977414 362.948707418543 2557.16402031901 186 188 187
-1086.27360679398 363.465873094728 2563.72970201431 195 197 196
-1090.31335095374 363.867987734962 2572.18072911269 197 199 198
-1097.2874828186 364.320182630456 2579.86368259806 188 190 187
-1111.11395924959 364.891022212576 2585.77412324297 184 186 183
-1131.80554975566 365.582760144254 2589.96808172772 178 180 177
-1159.37503912606 366.397681660992 2592.50163749643 170 172 169
-1203.63437300433 367.510010365292 2590.93990176138 162 164 161
-1273.43920479615 369.080933614715 2583.20134484311 154 156 153
-1318.80250207369 370.230919748779 2581.92466551238 142 144 141
-1338.69564707337 370.934218202096 2587.15090675153 147 149 148
-1348.78804677812 371.464616033192 2594.85735459051 124 126 125
-1381.4978830528 372.403984404421 2597.18483691616 135 137 134
-1418.18055586485 373.420799712977 2598.7455734422 157 159 158
-1436.20693232776 374.103396935006 2604.87074661281 127 129 128
-1442.43529576903 374.572069744013 2613.81412971595 138 140 137
-1454.58114320942 375.149950797053 2621.42850924746 149 151 148
-1470.68344112127 375.802453325441 2628.20668480378 134 136 135
-1483.84319322669 376.402045125052 2635.71864947874 126 128 125
-1499.97812405122 377.058811743904 2642.63811641799 130 135 131
-1522.05778579213 377.829564048295 2648.34583543856 126 131 127
-1552.07020184893 378.75334532585 2652.4664050738 165 171 167
-1582.11743464925 379.682508178198 2656.73614562823 168 173 169
-1609.22966431862 380.560150381166 2661.77426788938 145 147 142
-1637.36327527934 381.461434765959 2666.7417856025 135 138 131
-1668.50197336514 382.424888156922 2671.24457538978 127 128 120
-1691.74353086992 383.23986158368 2677.48877358244 156 156 146
-1704.09610827476 383.846030778526 2685.99748607391 162 162 152
-1716.46086887427 384.453500370244 2694.55911987716 105 103 91
-971.506845473511 341.43316394022 2285.12655597368 200 202 199
-956.351533844908 341.627400600905 2300.25111903411 159 161 158
-935.434742367113 341.755000575881 2317.36600406355 160 162 159
-925.017853709687 341.992060412601 2330.56139405272 155 157 156
-918.416401449816 342.268121614664 2342.3201415403 153 155 154
-916.596437547358 342.595246583797 2352.33463997031 152 154 153
-917.648994359773 342.953652329543 2361.31841407525 168 170 169
-920.619768090046 343.333224637387 2369.62969371326 174 175 177
-919.750758075884 343.668450135041 2379.27347145557 174 175 177
-916.956498884398 343.980307497177 2389.56005037868 159 160 162
-917.040685080317 344.324455815139 2398.84250474753 189 190 192
-918.084913873174 344.679133881345 2407.79177330792 191 192 194
-919.127855515325 345.0331679658 2416.73683512162 168 169 171
-920.169947664506 345.386521381184 2425.67746751746 175 176 178
-924.10308132678 345.774392589338 2433.66708496996 208 209 211
-927.074052950837 346.150499155505 2441.98127507788 193 194 196
-931.011842582729 346.538280150699 2449.99146247065 188 189 191
-931.088501850002 346.877827148062 2459.24345520939 216 217 219
-935.029057429965 347.265219474947 2467.26605956217 199 201 200
-940.906347594256 347.677072689188 2474.69583132214 196 198 197
-951.627580612848 348.151386276633 2480.64986134612 214 216 215
-956.549596922624 348.552205176905 2488.43412950543 190 192 191
-960.506758358531 348.940564794574 2496.52933988128 187 189 188
-962.527195971385 349.303407994418 2505.21913750943 203 205 204
-978.130878404914 349.845534163846 2509.86504626626 192 194 193
-994.723033625863 350.403259261709 2514.30006745886 186 188 187
-1008.41943612027 350.924580257305 2519.66645274439 183 185 184
-1015.32597516026 351.35581077289 2527.06388393194 184 186 185
-1023.21166419837 351.800996438984 2534.21031280019 198 200 199
-1035.97137492082 352.313865459119 2540.0115589809 201 203 202
-1047.7709127883 352.815214757846 2546.14491283754 192 194 193
-1061.53212972727 353.345419634962 2551.79168263393 187 188 190
-1073.3578050881 353.85022610011 2558.03817992649 189 190 192
-1083.2442093662 354.329045996646 2564.86831630756 189 190 192
-1086.30583063072 354.711498602705 2573.57714192321 191 193 192
-1092.29965424283 355.135756186862 2581.51313123156 192 194 193
-1109.0527191905 355.716072793528 2586.64501204797 183 185 182
-1135.60750454673 356.441866935269 2589.31493971908 173 175 172
-1165.13003081915 357.215580102715 2591.36395196194 173 175 170
-1211.33898596313 358.241183865918 2589.33156563696 161 163 158
-1284.06792325115 359.67014858599 2580.89149031042 137 139 134
-1335.30912186554 360.790424357431 2578.19417723072 140 145 139
-1355.20805494242 361.447042842889 2583.47229328895 133 138 134
-1357.45299397558 361.838330972893 2593.13464291482 128 133 129
-1389.17670181447 362.679852667183 2595.73063239528 136 141 135
-1418.97095779318 363.496886154465 2598.95264881878 138 143 139
-1436.99360045024 364.136373571171 2605.08672447292 130 135 131
-1473.0981828174 365.423826177968 2617.6111863513 106 111 105
-1489.20854179657 366.040526449388 2624.4459413248 108 113 109
-1508.29523864881 366.706721650535 2630.69673711112 111 116 110
-1522.46816963239 367.29684504583 2638.12251366406 114 119 113
-1547.51924149696 368.063651640355 2643.25599103842 118 123 117
-1576.55147429206 368.898657405781 2647.66593032194 134 139 133
-1609.57251992229 369.803059208333 2651.38425983893 147 150 143
-1631.74779404253 370.535240518424 2657.53598819211 143 146 139
-1656.91791205093 371.319833030101 2663.18359024827 126 128 117
-1681.12552101221 372.092195831464 2669.15450937707 132 132 120
-1700.40405268138 372.785937493829 2676.23335135845 145 143 130
-1704.82425958455 373.233140494416 2686.33548303158 126 122 110
-1718.17994346974 373.830629198468 2694.71207278775 97 91 77
-1729.56240895424 374.396119360955 2703.52733268183 138 130 117
-1742.94370679533 374.996656362964 2712.01499934988 171 164 148
-975.216317929366 332.493281515308 2283.94765562773 207 209 206
-961.981346880157 332.751560633391 2298.38277768343 165 167 164
-941.076651688426 332.944632267753 2315.51245761443 165 167 164
-927.797592356429 333.194001874865 2329.75854162279 159 161 160
-919.286671999851 333.478874918983 2342.21070359678 159 161 160
-919.385436234184 333.83277982618 2351.55165868009 162 164 163
-920.440849667576 334.194023371686 2360.54635159886 163 165 164
-923.413841956432 334.571087389911 2368.868882776 173 174 176
-920.628486182938 334.898082081399 2379.18579199669 162 163 165
-919.758225545709 335.240322397878 2388.81993288715 163 164 166
-918.88444251525 335.581576545851 2398.43913211929 194 195 197
-918.007126390144 335.921698042743 2408.04342869278 188 189 191
-918.088667752747 336.26949569587 2417.31208198515 186 187 189
-921.057446004522 336.643155745569 2425.6169593838 198 199 201
-925.954905094125 337.034646081395 2433.29741465366 191 192 194
-926.034470111364 337.380799740445 2442.55832597531 190 191 193
-929.971697867068 337.762929659264 2450.56936119701 214 215 217
-931.014589326939 338.117041828722 2459.51415595168 194 195 197
-933.022738497566 338.480012690419 2468.14972854932 196 198 197
-937.931478747164 338.871229813225 2475.8800557933 197 199 198
-947.681310646087 339.311078649391 2482.13021081842 178 180 179
-953.568808905159 339.713042973183 2489.61078163744 200 202 201
-956.555348051961 340.085684884308 2497.99560900095 209 211 210
-959.543246350675 340.458070483345 2506.38657632388 201 203 202
-974.17146737951 340.951809513318 2511.31890682485 183 185 184
-988.815899381357 341.447922649232 2516.32127582485 181 183 182
-1003.47654247496 341.94643883744 2521.39366682182 183 185 184
-1010.37933554762 342.363614995306 2528.7817710265 185 187 186
-1023.12254329776 342.844786436474 2534.52893910046 198 200 199
-1033.93358924201 343.306570082798 2540.88610623167 206 208 207
-1048.65031586294 343.812978485965 2546.20099156261 192 194 193
-1061.43462593781 344.299881051519 2552.1259092586 184 186 185
-1073.25783022161 344.777647765681 2558.37742146299 194 195 197
-1082.16699567039 345.223739678367 2565.47693702911 194 195 197
-1085.22841517381 345.603380460926 2574.1865273921 190 191 193
-1091.22107987187 346.016792614339 2582.12378878675 177 179 178
-1112.85630825757 346.613660768722 2585.97535181293 180 182 179
-1138.42818466239 347.260691260115 2588.91783593628 183 185 182
-1165.00856927902 347.923985326002 2591.7373291752 175 177 172
-1203.37030478526 348.733594617636 2591.70604147135 163 166 159
-1267.25345983658 349.859709564544 2585.47540148899 125 128 121
-970.330140939199 323.482430539249 2285.94294818962 214 216 213
-964.740754051627 323.82197091063 2297.56660901691 177 179 176
-941.934280727526 324.070265640743 2315.39737866686 169 171 168
-932.487922255824 324.38309001903 2328.26851463117 158 160 159
-925.898564157359 324.70851085033 2340.05152422779 158 160 159
-926.003209961166 325.068483689646 2349.41374151882 159 161 160
-925.146989146019 325.422238618143 2359.10297742144 167 169 168
-923.328282920478 325.7695113022 2369.11116767136 169 170 172
-924.38363694044 326.132290482517 2378.10578198072 159 160 162
-922.557278516368 326.477254210063 2388.08161029568 168 169 171
-921.686997382722 326.826809199795 2397.71135861521 193 194 196
-917.928576628126 327.157361531922 2408.29578378804 184 185 187
-918.973780094967 327.516547294542 2417.24669604276 187 188 190
-920.980610336914 327.881372353778 2425.87536610363 184 185 187
-923.950919720223 328.251984013576 2434.1898699224 186 187 189
-923.066650016357 328.596772976763 2443.76077977738 211 212 214
-927.002093220149 328.973126810106 2451.76734854184 214 215 217
-928.044376406797 329.329550523553 2460.70701690958 191 192 194
-930.051361885504 329.692001632074 2469.33776731319 203 205 204
-933.991339781928 330.067852143957 2477.36570098928 183 185 184
-943.736838219583 330.485458499123 2483.60984259264 192 194 193
-952.524492478696 330.897428328739 2490.19397946654 216 218 217
-955.510800869685 331.267166616673 2498.57949780355 203 205 204
-959.467605551141 331.644067679716 2506.67987566171 187 189 188
-973.122622266601 332.095087885941 2511.90632644172 183 185 184
-985.822711980017 332.540806518947 2517.4832574205 180 182 181
-1001.44880010646 333.011375256226 2522.26998629125 182 184 183
-1012.23521653121 333.445809910364 2528.53470737826 184 186 185
-1022.06064445087 333.873860912184 2535.12600746015 197 199 198
-1033.84152543745 334.319102214317 2541.21014926052 201 203 202
-1046.60833681938 334.774092941271 2547.07564074193 189 191 190
-1057.44067347023 335.214672228036 2553.54018509385 183 185 184
-1067.30997591075 335.648343166494 2560.32042967472 194 195 197
-1075.23881085053 336.066407135358 2567.67293629705 199 200 202
-1085.12655399997 336.502272748555 2574.53423682189 195 196 198
-1096.9771575961 336.956640661258 2580.92024856563 178 180 179
-1119.58740509882 337.508851871693 2584.53816636495 177 179 176
-1142.22394072282 338.065111995799 2588.26845689652 179 181 178
-1157.06025343959 338.553705425781 2594.12078552939 177 180 173
-960.812146497354 314.854440953328 2299.19961725656 186 188 187
-938.967794240316 315.17470064627 2316.67131225656 175 177 176
-930.48052920958 315.521927691376 2329.19103861424 168 170 169
-923.893494475751 315.871209777035 2340.97025188116 166 168 167
-924.955647535626 316.238827371955 2349.99089446271 159 161 160
-924.100445373066 316.600424079895 2359.68000685593 162 164 163
-923.241747771149 316.96103928816 2369.35429361904 162 163 165
-927.176193667196 317.335179501114 2377.35885606179 172 173 175
-926.313791287419 317.694243425343 2387.01664344692 184 185 187
-926.408167859895 318.05537183785 2396.33401533867 188 189 191
-922.655448074043 318.402560516019 2406.9337773032 181 182 184
-922.742765670665 318.761540578981 2416.22130687651 188 189 191
-920.903019128786 319.112689456977 2426.13450154092 193 194 196
-923.873945244155 319.480560357904 2434.45224865013 207 208 210
-922.99133458483 319.833359877953 2444.0257576616 203 204 206
-926.926588324766 320.204168927862 2452.03583921045 187 188 190
-928.934757710797 320.567143291182 2460.67149882925 193 194 196
-929.977591299935 320.925600370484 2469.61239662753 195 197 196
-933.917854570557 321.295904777606 2477.64376345358 219 221 220
-939.794160914051 321.67475681305 2485.08861014888 217 219 218
-946.642891492283 322.058428335105 2492.25927665297 184 186 185
-953.498171534224 322.442729728273 2499.45734698078 191 193 192
-958.422379845755 322.818547544545 2507.26489277105 208 210 209
-969.165820886492 323.222786460544 2513.35908615702 184 186 185
-980.89080681078 323.633427908105 2519.21618625954 181 183 182
-997.480461792064 324.070430446192 2523.71228143581 182 184 183
-1009.23328930068 324.485068501066 2529.69080330826 182 184 183
-1019.05524135464 324.891041637018 2536.27868579591 194 196 195
-1027.91466272976 325.293054090152 2543.18492646241 198 200 199
-1043.59371013378 325.733804240282 2548.22256268806 193 195 194
-1057.34309488865 326.166070622484 2553.87479730041 184 186 185
-1069.15887702464 326.58927040961 2560.12569773723 187 188 190
-1077.08753017269 326.991348715665 2567.48789193601 195 196 198
-1085.99951823971 327.399966060556 2574.62080048783 194 195 197
-1097.84827587047 327.827431427122 2581.01450104547 195 197 196
-1118.49964827815 328.31083450438 2585.15485762587 181 183 180
-1144.06158606284 328.828654679061 2588.12845735073 177 179 174
-1152.0501099272 329.238487344386 2595.74882908792 175 178 171
-956.885384721307 305.901867160629 2300.83196232907 182 184 183
-936.957987542669 306.288186210161 2317.59811158559 181 183 182
-928.473460590588 306.664768325848 2330.11372420937 165 167 166
-926.671636635003 307.036891026558 2340.18169148208 161 162 164
-927.736649566345 307.407318058488 2349.21328388304 161 162 164
-928.800620098193 307.777246346977 2358.2405762169 155 156 158
-926.988085051244 308.146224919267 2368.26427994497 160 161 163
-930.925275862332 308.515245058197 2376.28286311184 175 176 178
-927.187786025856 308.88173305256 2386.93838576511 186 187 189
-926.323912450153 309.247815374297 2396.58664863323 184 185 187
-924.495677840375 309.61226827987 2406.54274649688 178 179 181
-924.585563239287 309.976726212687 2415.83836937977 179 180 182
-922.74903326351 310.338845532492 2425.75928562879 186 187 189
-923.795971188817 310.702265637031 2434.71535040342 194 195 197
-922.915026312499 311.063076881148 2444.29148757843 183 184 186
-927.814480296895 311.42954485053 2451.99545084083 187 188 190
-926.930121955946 311.788839204358 2461.5574385128 191 192 194
-930.868443745578 312.153687452863 2469.58345919129 210 212 211
-934.809157944298 312.51861585397 2477.62106146763 213 215 214
-940.685510965801 312.886686657047 2485.07245502186 197 199 198
-946.567176942124 313.25517314866 2492.5459296057 191 193 192
-953.4213255288 313.625898777368 2499.74808532275 202 204 203
-960.282023579186 313.997254277187 2506.97764486354 207 209 208
-971.993638806622 314.379356884799 2512.79369800997 181 183 182
-983.717755242912 314.76313315792 2518.66385427711 180 182 181
-999.335063743884 315.157639380096 2523.45663255584 185 187 186
-1011.08664633917 315.545392223043 2529.44548162777 184 186 185
-1017.99369253735 315.922548657652 2536.87586584386 193 195 194
-1025.87876722386 316.302933787477 2544.05878749533 200 202 201
-1039.6076117286 316.700113173405 2549.64114697748 195 197 196
-1056.27128628168 317.107866102192 2554.47953221274 183 185 184
-1069.05780420212 317.506753902644 2560.46594635651 186 188 187
-1076.98549500058 317.892540993108 2567.83239543991 194 196 195
-1085.89574747977 318.282300212902 2574.96983413744 192 194 193
-1095.79040064777 318.676205477909 2581.88626388466 188 190 189
-1117.41173558939 319.111343849051 2585.77172858225 186 188 185
-1144.91996869768 319.57087553986 2588.24329630792 187 189 184
-957.732254287121 296.947723620803 2300.71747953933 196 198 197
-940.678529659006 297.386754488834 2316.44537508218 193 195 194
-931.24536425911 297.796438569095 2329.31659118471 170 171 173
-929.447122068517 298.179521051936 2339.39498199865 168 169 171
-929.558197708728 298.555706898601 2348.77599688548 171 172 174
-930.624180861658 298.928339652486 2357.81165371771 169 170 172
-926.899027662705 299.313410456379 2368.5095224789 166 167 169
-926.042578084041 299.689369687976 2378.18469047197 184 185 187
-919.426597242612 300.078530675483 2389.81289507319 193 194 196
-919.519286364522 300.44934619105 2399.11713344958 183 184 186
-922.491645977036 300.812924047773 2407.44372240006 180 181 183
-926.426335881071 301.174321329832 2415.45685505812 190 191 193
-924.593008756973 301.547350864326 2425.38546788175 199 200 202
-925.642204054573 301.91362067257 2434.34980383435 200 201 203
-923.801167573708 302.284360275644 2444.24579166102 191 192 194
-925.809960149292 302.647413659304 2452.88415093423 203 204 206
-927.818899308764 303.010087472588 2461.52337939125 213 214 216
-931.757665288026 303.36955854787 2469.55560651298 204 206 205
-936.664748582482 303.727831449246 2477.29800897476 191 193 192
-940.609607753936 304.087506252899 2485.35587996874 194 196 195
-945.523766128047 304.446107968807 2493.12926590264 209 211 210
-951.409083759488 304.804016638945 2500.62613971884 210 212 211
-961.171451320325 305.159156648822 2506.9824434558 208 210 209
-971.912634729602 305.514916994072 2513.09411552059 184 186 185
-982.665082957587 305.872165768607 2519.25455140992 183 185 184
-998.277989319158 306.228508432031 2524.05037788951 182 184 183
-1011.96751726306 306.58827409769 2529.48149152062 186 188 187
-1018.87407925515 306.952053658816 2536.91869629685 194 196 195
-1024.815256189 307.316542970138 2544.65784780791 200 202 199
-1040.48514121002 307.681064668706 2549.69885797958 197 199 196
-1059.09113906656 308.048382525989 2554.0072074164 180 182 181
-1070.90320172421 308.417627820246 2560.27345196305 185 187 186
-1074.93393011428 308.78625958206 2568.70553034105 198 200 199
-1079.94216841837 309.155198693736 2576.88740643661 192 194 193
-1093.73324359127 309.528909270299 2582.75779362094 166 168 165
-1119.25187346999 309.912082951578 2585.62083488479 162 164 159
-1147.73060706619 310.302240518018 2587.85229713261 184 186 181
-963.34814681873 287.951570906721 2298.85856047171 197 199 198
-947.260058923341 288.439327999357 2314.25545526582 191 193 192
-934.014384128057 288.905117892378 2328.5213593994 167 168 170
-934.131882182798 289.287924959806 2337.92786716317 164 165 167
-931.377737651701 289.686479193819 2348.3402220827 166 167 169
-931.488871030286 290.067316026782 2357.71984225034 166 167 169
-927.766711732505 290.468596055833 2368.42245653571 171 172 174
-924.037333635533 290.868162864009 2379.09426830061 186 187 189
-919.341786740459 291.271080541783 2390.06301977159 188 189 191
-918.476237574027 291.652203291075 2399.69505273498 176 177 179
-923.36869552754 292.003141175606 2407.37732175036 175 176 178
-926.343473952786 292.363782617286 2415.7162964843 206 207 209
-925.473532818931 292.742871874967 2425.33017194661 196 197 199
-923.637795299308 293.125418295188 2435.24365207046 184 185 187
-921.797498878789 293.506670444964 2445.136717892 202 203 205
-924.769244607265 293.865051029299 2453.46365858222 218 219 221
-928.706055984831 294.219150450608 2461.49043203615 202 203 205
-932.645724026863 294.573211166969 2469.5287299511 176 178 177
-935.622662042325 294.93134696434 2477.87978123033 185 187 186
-938.600965948166 295.289227616832 2486.23700147602 192 194 193
-943.513631839543 295.639384814419 2494.0087774625 205 207 206
-949.397360392643 295.986216054195 2501.50407785778 204 206 205
-961.092083267872 296.312284902754 2507.27865081208 199 201 200
-970.862622420504 296.646972466154 2513.68299274333 182 184 183
-981.612273334962 296.979728301099 2519.84550800758 182 184 183
-995.281606012223 297.304392809184 2525.20936144395 183 185 184
-1007.99604852782 297.634377888393 2530.91760982058 188 190 189
-1017.81161048743 297.97515748106 2537.51676500095 197 199 198
-1026.66583513054 298.3201248311 2544.43365794402 200 202 199
-1043.30515063025 298.644170336313 2549.21393715317 196 198 195
-1060.9356985857 298.968367539575 2553.80566145091 179 181 180
-1068.85351432562 299.320886085076 2561.14816281849 181 183 182
-1071.90927471696 299.686311471502 2569.8422633212 192 194 193
-1077.88985159053 300.044522084806 2577.75872655215 189 191 190
-1090.70127938547 300.387674733819 2583.88768952533 180 182 179
-1118.16267758396 300.701407154085 2586.23863007129 169 171 166
-1148.58545699576 301.014287307258 2587.96931636205 171 173 168
-991.68583109584 278.310172124046 2279.02918982883 222 224 223
-963.237244499048 278.968347758854 2299.09600715158 197 198 200
-949.064490408917 279.490135726204 2313.80013645791 183 184 186
-939.645702994421 279.965468144941 2326.69718443528 167 168 170
-936.901426566379 280.379195037389 2337.14518624077 168 169 171
-933.195266144773 280.799663306892 2347.90592846913 169 170 172
-933.308954086198 281.186033568 2357.29355092815 175 176 178
-929.590622225553 281.603567566704 2368.00347104872 172 173 175
-923.949087401193 282.035286425153 2379.3431216987 195 196 198
-916.380385227532 282.480400606499 2391.29658430553 189 190 192
-917.433095958735 282.85377157787 2400.27332101878 179 180 182
-924.244599001862 283.181113799197 2407.31198623677 184 185 187
-929.141310486005 283.524139651752 2415.01765235328 186 187 189
-930.197299555319 283.896850739775 2424.00813702099 199 200 202
-924.519536099817 284.31961699728 2435.19449552386 214 215 217
-921.719490579989 284.718782498279 2445.40422476045 201 202 204
-922.765243501193 285.088402799658 2454.35250738276 182 183 185
-929.592046606799 285.41602331547 2461.45842979192 186 187 189
-934.496584717364 285.757917243986 2469.19925028656 194 196 195
-936.510316085156 286.120061630415 2477.8599073612 208 210 209
-936.593086346127 286.494944201922 2487.11804542213 204 206 205
-940.538194869025 286.843178660564 2495.18374403929 209 211 210
-946.41925256863 287.17871295722 2502.67500602155 205 207 206
-959.0769088827 287.471105889081 2508.15621861843 194 196 195
-970.780401677477 287.771561438007 2513.9845017885 183 185 184
-981.52787846796 288.079903353702 2520.15179608208 182 184 183
-991.317224459307 288.395633551422 2526.65016186456 183 185 184
-1004.02636758136 288.695254244319 2532.35291740574 186 188 187
-1017.71940281558 288.991193638269 2537.83811311426 195 197 196
-1033.36989329836 289.278190188913 2542.83925755608 200 202 199
-1050.98108719525 289.556890099719 2547.37245676215 196 198 195
-1065.69520047938 289.854666959202 2552.79853648847 177 179 176
-1071.66892450771 290.20188471206 2560.69126778346 177 179 178
-1076.67417431394 290.554715171417 2568.86944942186 186 188 187
-1082.65729987803 290.902664717196 2576.80317887384 185 187 186
-1095.46902517087 291.216567077487 2582.95065685842 189 191 188
-1123.9012722612 291.455589460159 2585.06725201517 177 179 174
-1148.46289681024 291.71874187605 2588.34017595781 156 158 153
-967.892570682407 269.921383800041 2297.59057179303 205 206 208
-954.683012068903 270.478297830148 2311.96202835381 178 179 181
-941.453889545226 271.031302422539 2326.24957447805 169 170 172
-935.847277503257 271.491818976565 2337.72726353913 171 172 174
-931.187042649895 271.939208839922 2348.82546308795 168 169 171
-932.257470164197 272.319656458276 2357.87502147387 177 178 182
-933.326878507414 272.699522579356 2366.92043082353 183 184 186
-929.606415853215 273.13193138005 2377.61221256946 196 197 199
-923.003612659705 273.594098484973 2389.25554565236 185 186 188
-923.102966142785 273.981241549035 2398.57846129561 175 176 178
-927.03819204966 274.32638860672 2406.60351374173 184 185 187
-930.015937152133 274.681829477209 2414.95970657849 198 199 201
-929.15200072204 275.077305575166 2424.58931760423 219 220 222
-925.399893523859 275.501600802146 2435.14642742854 219 220 222
-924.52678403553 275.894604143935 2444.73815748894 177 178 180
-927.500896955064 276.247738168317 2453.07970165022 189 190 192
-932.403152356563 276.581426734219 2460.81528934217 204 205 207
-934.417427358468 276.943954544382 2469.47811646405 206 208 207
-935.467364333513 277.31538590925 2478.442684815 209 211 210
-936.515970476552 277.686194651871 2487.40284137138 203 205 204
-939.495393070505 278.038123952625 2495.76740518044 211 213 212
-942.475960744492 278.389743794477 2504.13828329491 205 207 206
-957.062483224325 278.633919762151 2509.03365084951 192 194 193
-970.697653180229 278.889364278786 2514.28659021513 186 188 187
-983.379366756269 279.155783634923 2519.88908975342 185 187 186
-989.292532735025 279.484441497565 2527.52588377416 186 188 187
-1001.99761669789 279.753999409387 2533.2284342714 189 191 190
-1016.65635254998 280.008787614279 2538.43686011589 198 200 199
-1034.24382887401 280.241147626717 2542.89280166993 199 201 198
-1051.85122930445 280.476582769132 2547.43473160482 192 194 191
-1065.59057444747 280.747237321875 2553.13778071327 178 180 177
-1069.61840098982 281.099544034244 2561.56667374217 178 180 177
-1077.54191853795 281.42047978796 2568.95287652274 184 186 183
-1084.49912681982 281.749919795483 2576.63236897361 188 190 187
-1096.33488326337 282.041929915237 2583.04844917535 178 180 177
-1120.85944788473 282.237918827082 2586.19756914179 187 189 184
-1150.29107978673 282.401475657791 2588.20600895293 168 171 164
-970.63770503553 260.868916620596 2296.78486779767 215 216 218
-957.435795761556 261.469300503738 2311.16446419993 173 174 176
-943.260068371594 262.079635940655 2325.8034107074 170 171 173
-936.703041420782 262.575620780317 2337.62856975606 169 170 172
-933.957583893481 263.014527067493 2348.05547085068 163 164 166
-936.943085848317 263.370704104 2356.44541185139 176 177 181
-935.14613826471 263.794002333721 2366.50476744878 193 194 196
-928.557204043988 264.28266693921 2378.19363023787 191 192 194
-920.041397186263 264.795409745604 2390.49023392514 180 181 183
-922.057402609357 265.161187721685 2399.15877463656 179 180 182
-925.03282596786 265.513680960938 2407.50647023451 192 193 195
-930.88942495552 265.827391751042 2414.90278893868 218 219 221
-928.106619052924 266.256444401785 2425.17090719851 206 207 209
-926.278633759129 266.671428846761 2435.09946910116 195 196 198
-924.446106529352 267.085150885664 2445.00767271709 201 202 204
-929.345442555296 267.410552734198 2452.73526993783 206 207 209
-931.35963043209 267.773181156075 2461.39765395984 197 198 200
-935.30130925152 268.111015695681 2469.45435622372 197 199 198
-936.352649728746 268.485219571783 2478.4245649225 199 201 200
-937.403120616341 268.858768223546 2487.39024068022 199 201 200
-939.417901210929 269.219792692064 2496.0561799507 211 213 212
-941.432804804768 269.580433504978 2504.72288688033 202 204 203
-955.048586194862 269.800845886057 2509.91099383197 188 190 189
-970.613908829175 270.000383477026 2514.58936666473 182 184 183
-983.292799636171 270.236925288311 2520.19700045526 182 184 183
-990.17412921895 270.543329306342 2527.55567673407 185 187 186
-1001.90764680923 270.794373735258 2533.54532842853 190 192 191
-1013.65366259535 271.047178085137 2539.58901923404 200 202 201
-1031.23486208996 271.235785320515 2544.04303542215 198 200 197
-1049.80697186922 271.416591709651 2548.31175445457 189 191 188
-1065.4851695279 271.632961987018 2553.47761912674 179 181 178
-1068.5408421474 271.99053328232 2562.17595237614 181 183 180
-1075.48968063422 272.305651536905 2569.82698628362 185 187 184
-1083.41823958576 272.610886065438 2577.24463933498 189 191 188
-1095.25089466802 272.8756894076 2583.66305529324 179 181 176
-1122.69256353892 272.978577598716 2586.05106876448 190 192 187
-1155.04341990902 273.036095102536 2587.31535504848 184 187 180
-957.183102346903 252.079579236561 2301.90337472255 194 195 197
-948.745391369916 252.637957085514 2314.51727273445 172 173 175
-943.156145775913 253.14368449849 2326.04489680263 175 176 178
-939.466579358479 253.614362551116 2336.85031641311 170 171 175
-937.680414764989 254.050549286475 2346.94960746854 163 164 168
-933.977701522035 254.518111256643 2357.69892738251 191 192 194
-928.354950319575 255.016315496152 2369.0822449439 195 196 198
-926.550890106149 255.448187548782 2379.10521536096 185 186 188
-923.784197590233 255.89482522434 2389.43508194318 185 186 188
-927.72013199889 256.229234976714 2397.46848537737 186 187 189
-927.822720735249 256.626583582853 2406.80074125131 193 194 196
-930.801796046139 256.976354006037 2415.16613092332 174 175 177
-925.140638365737 257.465302325463 2426.38565148387 189 190 192
-924.273742919672 257.875262291888 2435.99479085557 204 205 207
-925.326290814496 258.253654210255 2444.96677045046 205 206 208
-929.263750640494 258.586084836977 2453.00914621843 204 205 207
-929.353399498602 258.978633726295 2462.28611817271 208 209 211
-929.440498099472 259.370406621516 2471.55339505182 212 214 213
-931.453212596721 259.731709577099 2480.21006611214 209 211 210
-935.395232420356 260.0632105855 2488.27199621288 213 215 214
-941.27006685834 260.365588221104 2495.7553365904 211 213 212
-946.184274904497 260.682950371881 2503.55319717328 200 202 201
-958.833435720078 260.88564810765 2509.04972950277 190 192 191
-971.496589112317 261.090380680623 2514.60563793728 188 190 189
-986.108414768336 261.268836309272 2519.65224680657 187 189 188
-993.958895660137 261.547963786851 2526.74119833599 188 190 189
-1003.75477008957 261.800104971498 2533.30464674161 192 194 193
-1010.65190540099 262.09505708683 2540.74079419697 201 203 202
-1025.31643102672 262.28100846657 2546.01413427592 195 197 194
-1041.93873260014 262.442234082565 2550.81520568184 183 185 180
-1059.5510068757 262.59280635046 2555.42852615277 179 181 178
-1067.46314620516 262.880110344905 2562.78545747087 183 185 182
-1072.46518141003 263.208086326078 2570.96409231918 183 185 182
-1079.41752418037 263.509927200387 2578.63837743672 187 189 186
-1089.297426765 263.773222985647 2585.56662786054 199 201 198
-1120.6255735784 263.753313744235 2586.92621350455 182 184 179
-1152.96620259706 263.726550513929 2588.1939169607 182 185 178
-950.403932582109 243.222750531113 2304.58035989437 188 190 189
-947.684536276683 243.693303413469 2315.10348822757 186 188 187
-945.912596814076 244.143103449481 2325.25854290279 165 167 166
-943.181947667631 244.610984020097 2335.73365651304 172 173 175
-942.355057884621 245.039212497349 2345.50833890341 163 164 166
-934.835895428684 245.599238913341 2357.61251437505 201 201 203
-927.30457511395 246.156754438068 2369.66459215266 199 200 202
-924.544904796001 246.617914328555 2380.0168610853 183 185 184
-926.566374404235 246.984465231797 2388.70902552858 174 176 175
-927.630105989647 247.36919105864 2397.72656149823 196 198 197
-927.734012423725 247.771772071292 2407.06154637555 192 194 193
-926.876430758761 248.19184951022 2416.70577685656 183 185 184
-924.095712834885 248.647297037665 2426.96757134705 192 194 193
-924.190274765001 249.047044553901 2436.26304553561 200 202 201
-925.24382318908 249.428039545421 2445.23790299522 189 191 190
-929.181541197918 249.754861505847 2453.28362888903 185 187 186
-929.27229439433 250.152763332979 2462.56340518041 200 202 201
-928.397809177992 250.567425196356 2472.1363341569 196 198 197
-930.410590109974 250.92850825319 2480.79342730414 200 202 201
-933.38766238813 251.271770527785 2489.15381834237 202 204 203
-938.295888424997 251.580315465385 2496.93050474868 202 204 203
-945.138980878991 251.854728304617 2504.1395024131 188 190 189
-958.750700315448 252.0103504126 2509.34890399409 172 174 173
-974.311135649778 252.134284359752 2514.04912175587 174 176 175
-988.921577020195 252.277718555742 2519.109142719 179 181 180
-995.804594007377 252.557613515518 2526.491932845 195 197 196
-1001.72542161986 252.85476772658 2534.18101784942 189 191 190
-1008.6206502095 253.135897292781 2541.61580675338 198 200 199
-1022.31073347194 253.302737386383 2547.16283995817 194 196 193
-1039.89719618893 253.406619904554 2551.69096765339 187 189 186
-1058.47500870288 253.49737179179 2556.03669692111 178 180 177
-1067.35713833863 253.752209369214 2563.12956669966 183 185 184
-1073.33113897964 254.056057432728 2571.04902554404 184 186 185
-1077.36448600153 254.392067750755 2579.51074357721 181 183 182
-1088.21475496274 254.617739552718 2586.18070956605 188 190 187
-1117.58523102085 254.54764365387 2588.05600205029 181 183 180
-1149.91455330999 254.436554146598 2589.32456592598 182 184 179
-949.341365366904 234.263713435719 2305.16749065325 203 205 204
-947.576297361425 234.725335544254 2315.34478515305 166 168 167
-947.713114029357 235.141716341119 2324.81667486619 169 171 170
-945.939879163745 235.601142826242 2334.95927287717 156 157 159
-943.207170720067 236.081233344686 2345.41921695746 178 179 181
-932.827035087827 236.733310005008 2358.53137616125 192 192 194
-926.254130549423 237.295879705627 2370.24740638656 192 194 193
-926.365511652302 237.705916639354 2379.61094362429 179 181 180
-928.388890547541 238.072537928744 2388.31148008538 183 185 184
-926.581724259244 238.523657197679 2398.3094427661 176 178 177
-923.811331066168 238.99479036536 2408.60859458788 178 180 179
-924.870891213526 239.380355626618 2417.60725507441 198 200 199
-924.969910833299 239.786242620471 2426.91767495656 198 200 199
-927.946974473093 240.12904058621 2435.2783010205 197 199 198
-929.00399620672 240.51300912333 2444.2667149372 194 196 195
-931.982657026606 240.855302749318 2452.63467573138 197 199 198
-930.152646158645 241.299717032118 2462.53591570923 208 210 209
-929.28043318744 241.722495668239 2472.11408348399 201 203 202
-931.294523801512 242.083574176107 2480.77695051931 206 208 207
-934.272581736084 242.424172454817 2489.14325180197 212 214 213
-938.216703871138 242.744525153916 2497.22100296737 202 204 203
-946.989013173174 242.965530139304 2503.84984041968 190 192 191
-960.598808371891 243.088711318265 2509.06984339746 183 185 184
-974.223846251837 243.214172797774 2514.35458678646 189 191 190
-987.863886024749 243.34191465489 2519.70409590037 194 196 195
-996.680699984181 243.569095472685 2526.52541404645 183 185 184
-1002.60156765495 243.855496230525 2534.22100040071 187 189 188
-1008.52748727688 244.14230925234 2541.9386060771 202 204 203
-1021.24502355644 244.295746565145 2547.76432698749 192 194 191
-1038.82643584518 244.35608873802 2552.29580860033 188 190 187
-1059.34018075419 244.362748719578 2556.10901757561 181 183 180
-1069.1928987865 244.579901134118 2562.94353084018 183 185 184
-1073.22355369391 244.910511686384 2571.39764824503 188 190 189
-1076.28446093605 245.259662737511 2580.12291435445 188 190 189
-1086.1588075886 245.479301690561 2587.05235966901 181 183 182
-1121.36253057891 245.222937428818 2587.40232771783 197 199 196
-1156.60868705998 244.973418709907 2587.93416939669 201 203 198
-955.893124007302 225.103889822614 2302.97239580776 200 202 201
-954.134317643029 225.576836272629 2313.17062209219 164 166 165
-950.46463458111 226.098107460946 2324.03390197259 170 172 171
-946.788000937106 226.617785805569 2334.86640403885 162 163 165
-940.241079074012 227.209269472111 2346.67992262468 190 191 193
-935.593157877994 227.749677068272 2357.77767323718 189 189 191
-929.9811172719 228.312489436437 2369.17127386553 192 194 193
-929.140208538423 228.752347544787 2378.87734052814 177 179 178
-928.29580436559 229.191224153461 2388.56858156064 179 181 180
-925.533277370378 229.677012870437 2398.8926900483 179 181 180
-921.806610512198 230.185144965088 2409.51259453474 189 191 190
-922.865921084242 230.573067836157 2418.50876857981 203 205 204
-923.924192269797 230.960405708328 2427.50070656745 198 200 199
-926.900977509526 231.300176095013 2435.86188656372 194 196 195
-927.958386571815 231.686641489404 2444.85053870336 193 195 194
-931.897805805497 232.002634560844 2452.9112167817 197 199 198
-933.916582029743 232.365103204981 2461.59391367756 201 203 202
-934.97325486228 232.75019726418 2470.58012814005 206 208 207
-933.13996460288 233.20361794013 2480.46161996681 211 213 212
-931.301630378085 233.655714969798 2490.32275011716 216 218 217
-931.387194138247 234.061122449666 2499.57415777739 198 200 199
-941.118353692908 234.239616101459 2505.89683870908 187 189 188
-954.721496059436 234.329553351516 2511.10599206466 184 186 185
-974.135812371026 234.287395052421 2514.66069202871 191 193 192
-987.772684658841 234.382480630732 2520.01545073823 191 193 192
-996.587959424944 234.590650927757 2526.84116768072 178 180 179
-1003.47631358615 234.844035865579 2534.26198238361 189 191 190
-1009.40227314762 235.120066487819 2541.98610591188 195 197 196
-1021.14828314546 235.265584099311 2548.09287376657 188 190 187
-1040.66491093836 235.239007232319 2552.08925247077 185 187 184
-1061.17450964923 235.194386756055 2555.91435240294 180 182 179
-1071.0266074724 235.390026659984 2562.75878562554 181 183 182
-1073.11543223088 235.758178349957 2571.74681406866 186 188 187
-1077.14868923255 236.083338765334 2580.21560338992 187 189 188
-1089.94069984348 236.217857827634 2586.38062813431 172 174 171
-1126.1101424254 235.8486386429 2586.49608372287 177 179 176
-957.682376380447 216.037811441154 2302.518937692 216 218 217
-956.878772223114 216.494081752389 2312.37973665056 172 174 173
-950.355556887027 217.114014409441 2324.27990065116 165 167 166
-947.634546189989 217.622337920595 2334.77478600668 191 192 194
-938.230115437422 218.31977776084 2347.60337495135 200 201 203
-935.492881922936 218.824481305666 2358.02890238885 185 185 187
-930.839420728988 219.381747571429 2369.09232486534 176 178 177
-930.956513219236 219.802753202049 2378.47457833135 182 184 183
-928.202231810174 220.303362821174 2388.8263044433 185 187 186
-927.35595382472 220.749175228333 2398.50520896955 198 200 199
-925.548567663265 221.220562312736 2408.49028189553 197 199 198
-927.569573994119 221.584979238409 2417.18166000815 193 195 194
-926.714005649934 222.028025379518 2426.82125289796 191 193 192
-928.73353340644 222.391491974277 2435.50667451521 191 193 192
-927.872766616047 222.832885593229 2445.12433202078 203 205 204
-928.930096152807 223.221304165927 2454.11148492951 207 209 208
-930.947701946666 223.583251889681 2462.78933062428 206 208 207
-935.851298490173 223.867577900885 2470.5609480124 202 204 203
-935.945963309226 224.280491611614 2479.84804525259 209 211 210
-934.111672566772 224.743631606732 2489.71941178948 210 212 211
-932.272355180066 225.205566658998 2499.57042315941 195 197 196
-942.002481444966 225.362376611287 2505.90021805544 188 190 189
-953.67275794532 225.470189085794 2511.69543749332 186 188 187
-972.115696263196 225.404127952642 2515.54015219 187 189 188
-986.714460047257 225.441348732218 2520.6111862542 181 183 182
-995.527555346822 225.630368677408 2527.43856282516 190 192 191
-1002.41438530628 225.870039109852 2534.86072744271 200 202 201
-1009.30729024763 226.110427573794 2542.31032601229 190 192 191
-1022.01954979471 226.204157613527 2548.1489988832 185 187 184
-1040.56257085236 226.153279000223 2552.42471941954 184 186 183
-1063.00679328327 226.008401827995 2555.72103988628 181 183 182
-1072.85803684752 226.182530465581 2562.57544738764 180 182 181
-1077.86279123508 226.478609498322 2570.7848252621 180 182 181
-1081.89944894278 226.798879136015 2579.27039023515 180 182 181
-1096.63672322868 226.856302811451 2584.93989854926 191 193 190
-1127.93420826956 226.511799661593 2586.355286325 191 193 188
-958.518549504924 206.984756243788 2302.41441042588 215 217 216
-957.717172961478 207.448933116446 2312.2803751512 171 173 172
-952.150449909026 208.062999933302 2323.84243838125 162 164 163
-946.573848396572 208.674992471556 2335.36327786858 197 198 200
-934.312369704173 209.494332518762 2349.20067703225 196 197 199
-930.620720962158 210.041766022613 2359.95177567333 180 180 182
-928.831732096571 210.528141525051 2370.00910196786 184 186 185
-929.904317467032 210.924537849422 2379.05987501164 181 183 182
-929.06377323624 211.379384800256 2388.75873193509 182 184 183
-930.133308172703 211.774516737837 2397.7957202727 199 201 200
-928.329727837076 212.256889555647 2407.79110240653 201 203 202
-927.479303512854 212.708839163423 2417.44812607849 197 199 198
-926.625360520869 213.159890025355 2427.09017308953 195 197 196
-927.686426004271 213.552108632671 2436.09155367158 193 195 194
-928.746204574453 213.943741150943 2445.08869450285 192 194 193
-931.726151489971 214.277393399011 2453.46631873977 191 193 192
-932.785040983016 214.668148770672 2462.46005769483 186 188 187
-934.80472310066 215.029848704525 2471.14719860829 201 203 202
-933.937830716439 215.47624283059 2480.73383567885 208 210 209
-934.992878020927 215.865204569815 2489.71169869736 205 207 206
-932.192882756575 216.366081835147 2499.86182585047 195 197 196
-939.992691945913 216.557204461056 2506.77925029535 189 191 190
-952.62392387466 216.609593315945 2512.28518441276 184 186 185
-974.923082784173 216.385960480129 2514.98859308221 173 175 174
-988.554260375003 216.415873331895 2520.35659015089 171 173 172
-995.433636370586 216.641248878232 2527.75540251229 187 189 188
-1000.38490533221 216.922191468841 2535.73799559966 189 191 190
-1011.14742832374 217.039250085213 2542.08409869826 188 190 189
-1022.88965399659 217.130599490893 2548.20605061011 186 188 187
-1035.61343891745 217.196590197901 2554.11182627612 184 186 185
-1057.07906651335 217.021224918486 2557.66914675406 182 184 183
-1067.8950346555 217.14607871089 2564.24726146712 181 182 184
-1079.69338547392 217.245616798305 2570.61171673478 176 178 177
-1084.70289913343 217.533958178692 2578.84661773316 174 176 175
-1100.41074651075 217.52987205304 2584.27280137472 190 192 189
-1120.02762331764 217.422357198555 2588.7574535617 190 192 187
-981.05389898655 196.716162030838 2284.72612011856 221 223 222
-962.205715048624 197.820421879904 2301.26922829569 206 208 207
-963.311446705969 198.227001368115 2310.45898712811 164 166 165
-957.751642192908 198.863151000237 2322.03854903107 172 174 173
-947.418595484642 199.660997012502 2335.27355875482 201 202 204
-935.162974797906 200.520906164767 2349.1139966485 196 197 199
-928.612923044022 201.182037705658 2360.87167211972 174 174 176
-927.779114299092 201.646353047658 2370.59464046923 185 186 188
-927.896941699298 202.07743644608 2379.9742049573 181 182 184
-928.01251702625 202.507782640963 2389.3442791144 194 195 197
-929.082415350506 202.905320511531 2398.38145365641 203 204 206
-925.365988150093 203.462143897123 2409.01784133703 197 198 200
-927.388329573246 203.826184640071 2417.71532389257 196 197 199
-925.577807370043 204.316900527404 2427.67520904433 192 193 195
-929.51594284852 204.616633488153 2435.7387074144 192 193 195
-932.497070332072 204.947957619456 2444.12398964589 202 203 205
-934.519554301836 205.310634616025 2452.82290245486 201 202 204
-933.659935739481 205.766834647252 2462.43691106541 200 201 203
-933.758065350283 206.190919284807 2471.73379220703 213 215 214
-934.816049884441 206.583067036341 2480.7216380298 210 212 211
-937.798029160577 206.912745312714 2489.11164178744 216 218 217
-938.855070709853 207.304006579978 2498.09585367758 194 196 195
-945.694176489955 207.510216083585 2505.32739873853 184 186 185
-958.326288437861 207.533368774141 2510.85440648353 185 187 186
-977.727809803896 207.344885931633 2514.43878787631 179 181 180
-986.529220727702 207.494554839253 2521.23673495214 183 185 184
