ply
format ascii 1.0
comment KinectMotionCapture
element vertex 751
property float x
property float y
property float z
property uchar red
property uchar green
property uchar blue
end_header
-786.334381046162 183.096771782308 2384.39765785163 190 194 195
-780.437055184922 182.369377119021 2394.48216375254 187 191 192
-780.114135715649 182.108122425681 2402.26989685649 187 191 192
-778.845787717425 181.769169766096 2410.40974425817 187 191 192
-777.563713590445 181.43014040125 2418.52482798517 188 192 193
-771.581238187673 180.702219255857 2428.45257004006 189 193 194
-769.327031751918 180.285260681188 2436.87108965223 188 192 193
-765.176844965067 179.712590264684 2445.98532867752 184 188 189
-763.829052237421 179.373265802047 2453.97945518137 183 187 188
-764.353191616873 179.189651259254 2461.23262410368 183 187 188
-765.81257057214 179.08392356785 2468.11499618872 184 188 189
-769.15662162377 179.134040845295 2474.28038670988 180 184 185
-770.60707009273 179.028457936226 2481.14637754254 178 182 183
-771.104068644112 178.845020566203 2488.3501870604 178 182 183
-771.592683562563 178.661571996603 2495.5385741818 180 184 185
-773.023450553708 178.55614068327 2502.36790853472 180 184 185
-775.400058905534 178.528724354805 2508.84547895293 180 184 185
-778.726294323604 178.579441952368 2514.97828380686 182 186 187
-782.051965873057 178.630226696209 2521.11007179597 182 186 187
-785.377005283367 178.681166406376 2527.24074376769 181 185 186
-787.744502239484 178.654097629278 2533.7021654291 179 184 188
-792.983314107093 178.861420874596 2539.16953866129 180 185 189
-798.226492740884 179.06889763764 2544.64549358218 178 183 187
-804.43505811254 179.354712652655 2549.80522504757 170 175 179
-811.612935269626 179.718897887072 2554.6559615484 167 172 176
-820.726699879147 180.239667139974 2558.88514159283 168 173 177
-828.891069272772 180.682587786002 2563.45909517411 166 171 175
-833.204093106223 180.812945424396 2569.31593387657 165 170 174
-839.453501538906 181.099867231095 2574.55111600883 170 175 179
-843.773010790413 181.23049413627 2580.41996355101 177 182 186
-848.094736291633 181.361252724865 2586.29242253625 189 194 198
-849.505083389976 181.25720130228 2593.08512019212 190 194 197
-852.854412499035 181.309774522405 2599.26095657671 189 193 196
-856.203046006374 181.362442864463 2605.43554222818 189 193 196
-863.450674262671 181.728564723005 2610.41565033754 189 192 197
-868.755745833347 181.938168980234 2616.00557318534 187 190 195
-878.95257960366 182.539874397164 2620.13575043987 185 188 193
-896.018201642357 183.690817735138 2622.25944478936 174 177 182
-918.019666029263 185.234581066002 2623.00417689491 172 176 179
-929.274780548242 185.91614454073 2626.98943674357 192 196 197
-927.775546463921 185.577793876965 2634.70532784091 190 194 195
-842.351152487184 183.492131052488 2257.01183652805 181 185 186
-835.850874874717 182.719091362373 2268.08898140996 184 188 189
-824.736816606951 181.571944262459 2281.14254169794 183 187 188
-817.254022106272 180.723660301771 2292.50432650556 187 191 192
-812.498140529627 180.099624909148 2302.60443945391 187 191 192
-812.322920417043 179.849673733135 2310.6667135503 187 191 192
-811.214541110695 179.524884999535 2319.10553616099 188 192 193
-807.322459762451 178.975525983148 2328.70148834943 189 193 194
-801.559525092933 178.27626247047 2339.04162377326 187 191 192
-801.326597932196 178.026318408877 2346.99776623296 186 190 191
-802.937397081986 177.926293687022 2354.16034264951 186 190 191
-801.756709062581 177.6015173438 2362.46567584384 190 194 195
-794.982504137624 176.826899745046 2373.03854397613 191 195 196
-784.454476035616 175.752125833349 2385.07638112996 188 192 193
-779.482169278273 175.126990459095 2394.77811794912 187 191 192
-777.287542520473 174.72679870907 2403.31125758509 187 191 192
-777.882326359797 174.551660727299 2410.69740786689 186 190 191
-775.659403539626 174.151427470167 2419.17849340637 186 190 191
-769.669473563853 173.45073129607 2429.10071227028 188 192 193
-769.287333514942 173.20048761915 2436.78233494039 187 191 192
-766.073245086742 172.724860898624 2445.53261321254 184 188 189
-762.840447740979 172.249144341182 2454.24845536053 183 187 188
-760.531799198591 171.848436829439 2462.57173305865 182 186 187
-762.928277083113 171.82359111077 2469.0866202048 183 187 188
-768.157922043798 172.024406959977 2474.53568115667 180 184 185
-770.551931239431 171.999827287457 2481.04610793987 178 182 183
-771.04647143935 171.824854640515 2488.24794162346 179 183 184
-769.633964345491 171.499400663573 2496.1267135221 181 185 186
-770.109217544936 171.324405156729 2503.29306802314 180 184 185
-773.432080265931 171.375333718973 2509.41973331419 181 185 186
-776.754341178597 171.426402836553 2515.54533403803 183 187 188
-781.030522233149 171.552894606637 2521.3332496084 184 188 189
-785.308670462265 171.679587067933 2527.12484352334 183 187 188
-788.631692131888 171.731049321029 2533.25196164204 186 191 195
-790.995708641788 171.70722040725 2539.70745218042 184 189 193
-795.275916835353 171.834277158562 2545.50294429506 181 186 190
-801.480267029738 172.112375223353 2550.6526026306 174 179 183
-809.616459568223 172.541635841914 2555.17062598092 169 174 178
-817.764792189869 172.9711573153 2559.71155984475 176 181 185
-826.890434795555 173.476529576988 2563.95745124214 172 177 181
-832.166216230073 173.68011253334 2569.49169345964 171 176 180
-837.446293359299 173.883848161098 2575.03438639795 178 183 187
-842.73112729254 174.087775269623 2580.5853813039 185 190 194
-844.140030316158 173.989512113392 2587.37716369785 190 195 199
-847.485981920189 174.042443962634 2593.54689608268 190 194 197
-852.77670897428 174.24670714569 2599.10883057639 185 189 192
-859.045848298761 174.526788039546 2604.37824420598 186 190 193
-863.371620287079 174.655657772643 2610.25808164331 188 191 196
-867.699281773092 174.784668183296 2616.14143651591 185 188 193
-879.85159454652 175.51939672532 2619.67799599646 181 184 189
-896.92192300333 176.633185013597 2621.7991729939 178 181 186
-916.969198365134 177.974853032791 2623.11861966065 183 187 190
-924.297530485986 178.332260145003 2628.2445361724 191 195 196
-919.839806982799 177.7804179399 2636.79992687067 184 188 189
-832.327597215365 175.210605841391 2261.4658700751 184 188 189
-827.639905407178 174.611416773967 2271.6988682499 181 185 186
-818.341889133331 173.651722304375 2283.91872880581 179 183 184
-811.762965914864 172.908016161145 2294.85954706507 185 189 190
-811.594229670341 172.669012624633 2302.93754260791 187 191 192
-811.414887378203 172.430106260534 2310.99555667451 189 193 194
-809.379568710895 172.04692348572 2319.82680787593 189 193 194
-803.632980907891 171.375005878844 2330.2052316604 187 191 192
-798.785227329991 170.775123995251 2340.14313448789 186 190 191
-798.545340512439 170.536218614075 2348.09030068023 187 191 192
-800.15036105436 170.441799480339 2355.24343065942 189 193 194
-798.962367173256 170.130746229684 2363.53995811227 191 195 196
-791.249002578492 169.313825570721 2374.48711411642 191 195 196
-782.572260346027 168.424292641484 2385.75591060162 187 191 192
-777.592784558939 167.823726648352 2395.45185080351 186 190 191
-774.457944334259 167.367671323372 2404.35376649574 187 191 192
-774.110943597808 167.128541137007 2412.1033588267 188 192 193
-771.879343202848 166.744705059864 2420.57341570529 187 191 192
-770.569639401163 166.433251307269 2428.64597599843 186 190 191
-767.367842029953 165.97690090802 2437.42465656306 185 189 190
-765.087888199289 165.592902657226 2445.80573389402 184 188 189
-760.908051365599 165.063915002935 2454.87857741504 183 187 188
-760.479963365397 164.824661240265 2462.47899833132 177 181 182
-761.929937418838 164.730373391177 2469.3475132918 175 179 180
-766.211755511195 164.853667637938 2475.14483483863 175 179 180
-769.548520815916 164.904643575277 2481.29708376098 176 180 181
-770.987919047775 164.810660068902 2488.14573513692 176 180 181
-769.572032038502 164.499064567847 2496.02296253727 174 178 179
-770.04483729633 164.332563452382 2503.18736927153 173 177 178
-772.414006735952 164.311277624272 2509.65310174643 175 179 180
-776.687127163052 164.43533985691 2515.43465765174 177 181 182
-780.962472347484 164.559578190784 2521.21985400455 179 183 184
-786.195690681855 164.756640144397 2526.6743581656 182 186 187
-788.561165094014 164.735856886028 2533.13344594513 181 186 190
-790.923442188587 164.715138959074 2539.58667292159 181 186 190
-796.162609497483 164.912655829677 2545.05225513393 183 188 192
-802.367857856241 165.183127378431 2550.20127190207 186 191 195
-809.542868943948 165.526610332009 2555.04101580758 185 190 194
-814.799821753652 165.724739728594 2560.53898875212 176 181 185
-822.957070736352 166.141517478284 2565.0919848762 176 181 185
-831.126401042809 166.558570155257 2569.66778767642 183 188 192
-838.340272799182 166.903077205446 2574.57931139988 189 194 198
-844.594756254738 167.174932744566 2579.81929667727 193 198 202
-846.974739133443 167.155459710536 2586.3054621826 188 193 197
-851.294796225647 167.281838754725 2592.17403988164 188 192 195
-854.643914502111 167.335384427406 2598.3497809438 185 189 192
-859.941057309227 167.534937826692 2603.92209884431 187 191 194
-864.267023638801 167.661638365158 2609.80164138773 187 190 195
-870.548805834751 167.934424637554 2615.09211391398 183 186 191
-882.706705627642 168.645480834304 2618.63183016436 179 182 187
-895.866582444461 169.430005905661 2621.9216590811 182 185 190
-911.013011312745 170.36106946446 2624.67958782197 188 192 195
-916.369687076203 170.561966987519 2630.36180188304 190 194 195
-911.897771860064 170.031953433812 2638.89715153044 181 185 186
-822.295498468283 166.994552552795 2265.92387941198 183 187 188
-819.421772078996 166.558461625308 2275.31203474242 179 183 184
-813.776402209595 165.914147191214 2285.88491760961 176 180 181
-809.942662525823 165.408484693547 2295.60131122039 185 189 190
-809.768719834138 165.180529716681 2303.67254945078 188 192 193
-809.583735111421 164.952603857729 2311.72399237455 191 195 196
-807.542522792104 164.585853301013 2320.54884134901 191 195 196
-801.788409344623 163.941159819112 2330.92161097461 188 192 193
-796.93328321044 163.365783917306 2340.85382804092 186 190 191
-797.614925067545 163.207397831705 2348.40476369444 189 193 194
-797.360278291535 162.979604512661 2356.3276210229 190 194 195
-794.306672467184 162.543173779264 2365.38484311021 191 195 196
-784.719615559203 161.61962492985 2377.0844792745 191 195 196
-777.89183581037 160.90452351975 2387.57620708189 187 191 192
-774.767911660543 160.467698598373 2396.50398241551 186 190 191
-773.494271745335 160.170013564455 2404.64701131306 187 191 192
-775.014932007933 160.081311202522 2411.64670652228 188 192 193
-775.592547321016 159.92306017696 2419.00635902246 187 191 192
-774.284902798859 159.625442924416 2427.08686763527 184 188 189
-769.204857439389 159.048984070954 2436.60509159799 182 186 187
-765.04211954011 158.542062841588 2445.71601901752 181 185 186
-761.800336644846 158.104779873015 2454.42689289914 181 185 186
-762.314285817595 157.946435456459 2461.66942368222 175 179 180
-761.875046564324 157.718364385789 2469.25269828525 172 176 177
-765.20963507495 157.769550756494 2475.40100696841 172 176 177
-769.491117775208 157.890699044879 2481.19706633281 173 177 178
-773.774581864323 158.012048193741 2486.99683023534 172 176 177
-773.309698810337 157.784233098229 2494.53301819356 169 173 174
-773.785219719976 157.626258318056 2501.70498355641 169 173 174
-774.252347485561 157.468346085892 2508.86153120757 171 175 176
-778.527237062921 157.590156358654 2514.64515944641 173 177 178
-781.848661714025 157.642190481161 2520.76951233035 175 179 180
-786.12596208679 157.764308245911 2526.55817117457 175 179 180
-788.489664850584 157.746665134873 2533.01494487894 171 176 180
-791.809281275752 157.799032257021 2539.13607224597 172 177 181
-796.08863019962 157.921602808892 2544.92863491163 170 175 179
-802.293527767041 158.184418196832 2550.07470414043 164 169 173
-807.542362996724 158.377396960114 2555.55670271541 167 172 176
-811.831768649528 158.500458459147 2561.36740493223 175 180 184
-819.019720464033 158.834006119872 2566.22796143865 181 186 190
-828.151259760797 159.308116828965 2570.47529691259 187 192 196
-838.265830687511 159.852693642474 2574.43699802462 184 189 193
-843.550554618004 160.046766404313 2579.98482720415 181 186 190
-846.89819540176 160.10061947068 2586.15794332783 183 188 192
-850.245247692759 160.154509845761 2592.32998832562 187 191 194
-853.591629006179 160.20852518034 2598.50083685137 188 192 195
-856.937432236688 160.262607491933 2604.67064231872 189 193 196
-861.258513701133 160.387004491558 2610.54050798206 183 186 191
-868.513206812062 160.722410506122 2615.52437273976 178 181 186
-881.648710179469 161.480011116768 2618.76127768491 174 177 182
-893.829635025701 162.167735570477 2622.33632485306 185 188 193
-907.995217331532 162.99659888122 2625.37436356216 189 193 196
-914.329628003907 163.262891669843 2630.75967671733 191 195 196
-911.818195573119 162.895665771381 2638.72006652831 184 188 189
-820.493698870104 159.443937685801 2266.68431354715 188 192 193
-816.69683842011 158.96023739766 2276.4751392913 190 194 195
-812.878790058601 158.476462069164 2286.22697403937 191 195 196
-810.878014346506 158.126071227657 2295.13161726012 189 193 194
-811.623106256158 157.97585633635 2302.80170637293 187 191 192
-808.672327057109 157.558805061751 2312.05387317467 189 193 194
-803.856421853991 157.008152105761 2322.06565939436 188 192 193
-798.092229895661 156.390608032706 2332.42805720595 187 191 192
-796.930530086418 156.106930506504 2340.78117670962 188 192 193
-799.463989783068 156.090570258441 2347.55055012846 190 194 195
-796.423876625362 155.673371066455 2356.63837102111 190 194 195
-789.64634928523 154.988633984451 2367.23165336271 190 194 195
-780.046509918396 154.103045117274 2378.91919562894 188 192 193
-775.071684395342 153.551624304524 2388.63796326914 187 191 192
-774.740587765802 153.3346773775 2396.42398137171 187 191 192
-774.398855761335 153.117723868475 2404.18993285863 185 189 190
-775.918672754033 153.03478738296 2411.18981106234 185 189 190
-775.557478546363 152.817969534514 2418.92051305144 186 190 191
-774.246864067595 152.534204641608 2426.99922082763 187 191 192
-769.16229543942 151.982331902914 2436.51651924188 186 190 191
-764.05380314975 151.430292457784 2445.98976755143 184 188 189
-762.692339226082 151.146291352156 2453.97488289918 184 188 189
-762.261186471936 150.929366158261 2461.57638184936 181 187 187
-760.873765415887 150.645305194019 2469.51424354434 175 181 181
-762.312646589344 150.562616239833 2476.36534046737 174 180 180
-767.536953995497 150.74852249934 2481.80010105366 176 182 182
-772.766071258395 150.934650415707 2487.24327025584 174 180 180
-776.098783062999 150.986700768676 2493.38838715249 173 179 179
-776.575720416956 150.837281169292 2500.56553033908 174 180 180
-777.044284547827 150.687880038631 2507.72727919669 175 181 181
-777.504503884204 150.538497715221 2514.87368611249 176 182 182
-780.823235218651 150.590883842016 2520.99319135152 178 184 184
-784.141330609506 150.64345443417 2527.11158244706 178 184 184
-789.375338968106 150.830733734384 2532.56409351099 182 185 190
-791.735178856747 150.816233525555 2539.01521206555 183 186 191
-797.935110795004 151.071190077344 2544.14978527862 183 186 191
-804.142228456207 151.326394690829 2549.29764894289 181 184 189
-809.39317713881 151.514451831601 2554.78155026248 182 185 190
-812.719243528928 151.56791503982 2560.91486990664 183 186 191
-817.976501528137 151.756296551969 2566.41097699841 185 188 193
-827.107426639782 152.214638042928 2570.65244073522 184 187 192
-838.190404960438 152.808281095049 2574.2946712126 182 185 190
-843.474186624009 152.997421616983 2579.83978840628 181 184 189
-846.820419983029 153.051701088759 2586.01044424859 184 187 192
-849.193765551927 153.038545366622 2592.48630228167 190 194 197
-851.563858848284 153.025439549325 2598.9561938004 186 190 193
-853.930555104966 153.012306165073 2605.42033349823 186 190 193
-860.199358372066 153.269604372442 2610.68227781941 175 178 183
-870.385429772124 153.79757191222 2614.77048656843 173 176 181
-885.483371552859 154.664037391415 2617.41930846224 182 185 190
-891.790278431338 154.922158642133 2622.75157977408 190 193 198
-903.011370895066 155.518833059082 2626.64924316563 193 197 200
-911.304570312777 155.912796543613 2631.4454161767 196 200 201
-912.721796118557 155.833009073682 2638.25806171475 191 195 196
-816.858181806267 151.7824177859 2268.26845424546 184 188 189
-816.720132858853 151.576339422472 2276.4122863739 189 193 194
-813.816149729786 151.178369697106 2285.75625790196 191 195 196
-814.572156243128 151.036468558942 2293.44892108181 190 194 195
-813.477926010575 150.766608743744 2301.93028470955 188 192 193
-811.448091619497 150.432741687559 2310.78645277813 190 194 195
-802.937321178114 149.650392544264 2322.39273406895 188 192 193
-797.166922202017 149.060058754099 2332.75189875384 188 192 193
-797.853161632088 148.91834610676 2340.31630423873 191 195 196
-800.386087327515 148.90502256662 2347.08560873457 192 196 197
-797.343417894226 148.506981982037 2356.17448957077 191 195 196
-786.841578066377 147.595528919839 2368.31011002432 191 195 198
-778.163289162014 146.812132266771 2379.60747508636 188 192 195
-773.181087278227 146.285246934843 2389.32055883929 186 190 193
-772.844805522967 146.079348821361 2397.09985891979 186 190 193
-772.497433888867 145.873464483851 2404.85927107918 184 188 191
-772.139362413764 145.667631885351 2412.59851559641 188 192 195
-773.646123151682 145.590448793131 2419.57611113619 188 192 195
-772.329551266986 145.32043782242 2427.6485024979 186 190 193
-769.118777249136 144.921769254352 2436.42801952538 183 187 190
-765.889294313724 144.523010849369 2445.17310042872 179 183 186
-763.584065714705 144.188508607692 2453.52257735654 178 182 185
-764.0956586598 144.047109355358 2460.76587037838 176 182 182
-763.653397295469 143.841367361256 2468.35030159605 177 183 183
-765.093859414784 143.764426947568 2475.20653911877 172 178 178
-768.42504458318 143.816503437807 2481.34885611331 170 176 176
-774.604128447093 144.062126846027 2486.44227924454 171 177 177
-778.88871946332 144.179042991485 2492.2427826731 174 180 180
-778.415093441626 143.973651342243 2499.76963392717 174 180 180
-778.883784320446 143.832760490285 2506.9341751189 175 181 181
-777.434978742816 143.562801701841 2514.76287607379 175 181 181
-779.796144006672 143.551050126903 2521.21725880744 175 181 181
-781.197179674981 143.474809110088 2528.00068998251 175 181 181
-787.385077779935 143.721630619106 2533.11068440337 174 177 182
-789.740532492208 143.710224663457 2539.55466832722 174 177 182
-795.937528539717 143.95747949881 2544.68152583258 177 180 185
-801.1793275287 144.140316514216 2550.1470293959 184 187 192
-808.352984010182 144.452687921204 2554.97492603097 186 189 194
-812.641305043557 144.571258650264 2560.78278720913 187 190 195
-817.898061065461 144.75468739527 2566.27597742692 186 189 194
-826.062149448721 145.132562834603 2570.82985370392 183 186 191
-836.176130358735 145.640320376852 2574.77939733094 184 187 192
-840.48654680192 145.759656472564 2580.62812615567 184 187 192
-841.884515535099 145.684691770568 2587.40680473719 184 187 192
-845.222306292224 145.739417277804 2593.56206722865 180 184 187
-851.481656017482 145.988773662463 2598.80423648913 178 182 185
-855.797589122918 146.108590958573 2604.6627519241 176 180 183
-864.021686211621 146.48810974324 2609.32799357721 164 167 172
-873.236139532239 146.93283621579 2613.71898658452 160 163 168
-884.423707732712 147.507750868178 2617.54844912429 166 169 174
-888.768156405995 147.62833612156 2623.45964082531 175 178 183
-898.023355294581 148.07393187014 2627.92583376598 180 184 187
-910.242422573226 148.714837697171 2631.5574567058 189 193 194
-920.515491937088 149.226129380998 2635.80065577781 195 199 200
-823.296154562654 144.822518339261 2265.32626533685 177 181 182
-815.824936542926 144.137322141656 2276.75888960009 183 187 188
-811.078274254067 143.635857814218 2286.91281822083 186 190 191
-812.748055473614 143.56351132067 2294.19169259764 188 192 193
-813.490746715283 143.43003425402 2301.86239986396 187 191 192
-811.457375119178 143.112610817357 2310.71700731359 188 192 193
-802.940661053811 142.365585014273 2322.32297967551 189 193 194
-795.314860153017 141.679670723222 2333.47108190853 190 194 195
-796.922664621514 141.607708893227 2340.6360854241 191 195 196
-800.380255864376 141.658764590463 2347.01057924745 192 196 197
-799.191751708244 141.402775909727 2355.32272729713 191 195 196
-788.686085794032 140.532124220896 2367.4630764762 191 195 198
-780.004236239032 139.784077397509 2378.76502754145 187 191 194
-775.952996077894 139.343287505716 2388.10141095865 183 187 190
-773.749351433993 139.025478049535 2396.64223492029 183 187 190
-771.529398362871 138.70763499884 2405.15355885418 182 186 189
-769.293374526328 138.389777842942 2413.63532148052 188 192 195
-769.855797027714 138.256606309962 2420.9745735678 188 192 195
-768.530863442301 138.000322518079 2429.03571429253 187 191 194
-768.133385392417 137.805646361782 2436.7058379177 184 188 191
-766.782933960738 137.54940034945 2444.71955379076 180 184 187
-766.362301618718 137.35477345876 2452.34710726905 179 183 186
-764.985935697542 137.098468095606 2460.31364807007 182 188 188
-765.488033211792 136.96556794592 2467.54203312512 181 187 187
-765.981810555688 136.832716441048 2474.75513049943 176 182 182
-768.364411653625 136.823408292846 2481.24916818402 174 180 180
-771.693577179109 136.876022075532 2487.38793226251 172 178 178
-775.973207555564 136.990559918976 2493.17859696474 172 178 178
-779.302501803643 137.043500222215 2499.31769597919 172 178 178
-781.677599341859 137.034752696803 2505.79810184144 173 179 179
-780.229251708385 136.778698085609 2513.63233056445 173 179 179
-783.549024071674 136.831953394817 2519.75401182682 174 180 180
-783.995378200075 136.699674629673 2526.88006150202 174 180 180
-790.186731140225 136.938914839749 2531.9941301367 176 179 184
-790.624112139436 136.806780349146 2539.10371997878 176 179 184
-797.783656776742 137.108349637134 2543.90190969057 179 182 187
-802.064407551572 137.224245089706 2549.69504327145 183 186 191
-809.239304597863 137.526335067541 2554.52212968715 182 185 190
-812.56260639029 137.580592596303 2560.65060360149 175 178 183
-817.818617066414 137.759093333406 2566.14094103595 173 176 181
-824.047076400747 137.999824231711 2571.32370337217 175 178 183
-833.190376117408 138.427010853635 2575.57855733158 179 182 187
-838.466264051406 138.606160023487 2581.10615190653 183 186 191
-841.803270011815 138.661230717395 2587.2600748188 184 187 192
-846.112728434881 138.77850207347 2593.10642075891 177 181 184
-850.424326329513 138.895948515196 2598.95624998504 175 179 182
-856.689164432832 139.137851221594 2604.20627189345 174 178 181
-865.891771651324 139.56659897805 2608.57117686524 173 176 181
-876.087905970054 140.057920305657 2612.66636861698 172 175 180
-884.342041035001 140.425077946014 2617.38313832291 179 182 187
-888.685256191431 140.543430798216 2623.29189427522 182 185 190
-894.012731908212 140.724141583049 2628.91433354913 182 186 189
-912.1290078826 141.715158943145 2630.80697524224 175 179 180
-926.344445864627 142.457474911664 2633.91068100008 186 190 191
-951.433568431423 143.886301989434 2633.95471317898 176 180 179
-819.656878549156 137.186847402978 2266.91177021814 185 189 190
-812.175056199136 136.534188081512 2278.33417147144 186 190 191
-809.256606791024 136.174333666365 2287.66350320373 187 191 192
-811.841926580331 136.166213409319 2294.53073472249 186 190 191
-814.424243244225 136.158308517826 2301.39250771143 185 189 190
-813.31150471275 135.915999983015 2309.84811646024 188 192 193
-804.791428820113 135.204313492097 2321.45853309092 190 194 195
-795.311656327395 134.433680391769 2333.40096561201 189 193 194
-795.063530181404 134.249926695763 2341.34905921709 187 191 192
-796.660684592136 134.183730252913 2348.49671335427 190 194 195
-796.393440010204 134.000192058983 2356.4097094782 194 198 199
-785.877234336115 133.170200821128 2368.54290157956 187 191 194
-778.117530767679 132.516224836266 2379.45433693581 185 189 192
-776.859482572399 132.273707482366 2387.6426319402 185 189 192
-773.718838286284 131.913543052697 2396.56270933456 186 190 193
-770.559523921043 131.553318792939 2405.44843105942 188 192 195
-767.381527164603 131.193019784312 2414.29976998425 187 191 194
-767.000422652439 131.009366604596 2422.00332237181 187 191 194
-766.608441299097 130.825716852601 2429.6868712974 186 190 193
-767.146573086291 130.70107504989 2436.98401340639 184 188 191
-766.733781073974 130.517530128847 2444.62982350717 180 184 187
-767.254200564921 130.393004282278 2451.89392010256 180 184 187
-768.710977252992 130.327544080209 2458.78361543328 167 173 173
-770.162036888863 130.262148748805 2465.6628155713 163 169 169
-768.764752955252 130.019777462601 2473.59457036492 165 171 171
-769.251591539124 129.895470277472 2480.79747555367 166 172 172
-771.630529483998 129.889397929849 2487.28574910628 160 166 166
-776.860476470802 130.060717353961 2492.72649533777 164 170 170
-779.236959941081 130.054911221752 2499.21033472101 165 171 171
-780.656023679168 129.990124617419 2506.03087163031 166 172 172
-780.158777026378 129.807053111561 2513.5209923811 167 173 173
-784.433702306025 129.919880443614 2519.30248916591 169 175 175
-784.878920012371 129.796082143131 2526.42899900971 170 176 176
-788.193487727232 129.849954994983 2532.54129368348 181 184 189
-789.58650848409 129.785524904595 2539.31353577243 181 184 189
-796.744506962479 130.076689058955 2544.10625701558 180 183 188
-801.022860373756 130.190310593941 2549.89429759277 176 179 184
-806.267798726806 130.363376272741 2555.36263657019 171 174 179
-812.48289468953 130.596015384764 2560.51838785915 167 170 175
-817.73800294067 130.769495723385 2566.00606007319 168 171 176
-825.90273001569 131.121335434212 2570.55328152423 176 179 184
-833.109995719135 131.414075999719 2575.43708823138 181 184 189
-839.356214067531 131.64769137712 2580.65037284201 185 188 193
-843.665207372402 131.762608419669 2586.49515535294 187 190 195
-848.949743425657 131.937164908919 2592.03677003436 190 194 197
-852.289321859066 131.992930983532 2598.19563330895 179 183 186
-858.556363939647 132.227237495728 2603.4474243962 173 177 180
-864.830522573925 132.461776473781 2608.71237402981 175 178 183
-875.026143641721 132.934683679859 2612.80158854615 177 180 185
-880.339951421389 133.110105763757 2618.39729956864 184 187 192
-887.620467564731 133.404900371562 2623.41644487559 183 186 191
-894.910755533932 133.699870431284 2628.45361511291 183 187 190
-915.983393658335 134.829917041185 2629.48045237764 171 175 176
-932.176297939604 135.662499516891 2632.01862542627 171 175 176
-945.443595484838 136.316685618647 2635.46632069516 182 186 185
-819.681298028967 129.802504887576 2266.85085277356 191 195 196
-811.275611548564 129.126511070654 2278.6823859209 188 192 193
-808.35220917898 128.785729521474 2288.00783962643 186 190 191
-808.172294620402 128.612744533364 2296.08462514851 185 189 190
-809.825432234428 128.551794112846 2303.33682018737 186 190 191
-810.549714606548 128.434997194156 2310.9786862631 190 194 195
-803.869076690738 127.870536646146 2321.78633561799 189 193 194
-796.233356935572 127.249885861336 2332.93582139286 187 191 192
-793.202074547626 126.909149168382 2342.06287757741 187 191 192
-793.866084086617 126.792550393192 2349.59395051688 192 196 197
-792.662372578653 126.563947377327 2357.88586068269 195 199 200
-783.065160041548 125.83063176496 2369.62402596895 188 192 195
-776.228481380742 125.265332358025 2380.14443569948 185 189 192
-774.031086105638 124.980433964327 2388.70715468842 185 189 192
-773.687609411009 124.807805731018 2396.48322692398 186 190 193
-773.333280499342 124.635210762992 2404.23934995864 186 190 193
-771.092802386143 124.350345907623 2412.72284184404 188 192 195
-770.714074929801 124.17784447728 2420.43411963824 189 193 196
-767.503922823468 123.836720913482 2429.23208547919 184 188 191
-768.040865135878 123.720529399341 2436.52958110855 180 184 187
-767.626567774705 123.54810476803 2444.17596670579 173 177 180
-770.033780708397 123.544555400975 2450.71700182856 172 176 179
-769.601767246527 123.37227622484 2458.3303437861 170 176 176
-771.051983612499 123.312646769856 2465.20972691862 168 174 174
-769.652830106403 123.084109515305 2473.1422034149 167 173 173
-771.08766549722 123.024636663025 2479.99334522536 165 171 171
-772.516976952529 122.965262412448 2486.83385291956 159 165 165
-775.843989993717 123.018781209928 2492.9689303444 162 168 168
-779.170413538647 123.072455481526 2499.10297033257 162 168 168
-779.633083525526 122.956945379885 2506.2640705376 163 169 169
-781.042969609063 122.897973127521 2513.06947656708 164 170 170
-781.490197060436 122.782545034677 2520.20219979737 165 171 171
-782.887527835758 122.723661515031 2526.9840367672 166 172 172
-788.117080610579 122.890972987036 2532.42285269472 175 178 183
-793.35146126089 123.058476786129 2537.87010155778 176 179 184
-799.5524794376 123.282823566401 2542.99746755293 175 178 183
-802.870275280463 123.337606416888 2549.1159729982 173 176 181
-806.187471217221 123.392515073194 2555.23341293931 171 174 179
-812.402189862244 123.617482936357 2560.38616336482 170 173 178
-817.656585000643 123.786006106569 2565.87103330878 173 176 181
-822.915749255128 123.954735676329 2571.36423235092 183 186 191
-830.119162102706 124.237060299209 2576.23782065896 186 189 194
-839.274745431942 124.633135285066 2580.50591049037 187 190 195
-845.527747561442 124.859297637741 2585.72943042769 189 192 197
-849.840235724886 124.972173421349 2591.58002677041 190 194 197
-851.229490321887 124.914772465324 2598.34796025913 177 181 184
-858.471385477309 125.1982810602 2603.29217634455 167 171 174
-863.767394843537 125.368333825911 2608.85404241772 166 169 174
-872.004982442463 125.709134794107 2613.53194806354 166 169 174
-876.333811128585 125.822692642804 2619.41280271627 170 173 178
-885.572350460055 126.220848612116 2623.83408954681 190 193 198
-897.7741658201 126.790083135805 2627.41192573793 190 194 197
-920.823500882086 127.986116417527 2627.86451383507 179 183 184
-931.113897933838 128.4425290216 2632.12307837758 199 203 204
-964.115067913033 130.209953874641 2629.9012280425 168 172 171
-811.450382701718 121.945852606886 2270.49954328211 189 194 197
-808.537795109479 121.624093444689 2279.85060776944 188 193 197
-806.526257343804 121.355604303119 2288.76008719326 189 194 197
-808.182882052455 121.30001338791 2296.02030735157 186 191 194
-807.989307417793 121.138181216648 2304.07532339365 185 190 194
-805.937548088678 120.869892635086 2312.91088834632 184 189 193
-801.095103826467 120.441829984779 2322.91022566513 184 189 192
-797.154792759703 120.066930191482 2332.4704424508 187 192 195
-795.048412786611 119.798670705179 2341.20555883653 190 195 199
-792.926213924195 119.530416772251 2349.91107882852 190 195 199
-788.92738990068 119.155425863573 2359.36365222496 189 194 197
-780.250267162459 118.513455184696 2370.70619611691 189 193 194
-774.337112702361 118.03142980035 2380.83537809352 189 193 194
-772.133584211221 117.762958884954 2389.39175707226 187 191 192
-772.719961281597 117.654771670494 2396.78257929175 186 190 191
-775.171362713564 117.653654111415 2403.40561641058 185 189 190
-774.80587874438 117.492271334424 2411.14459500589 186 190 191
-773.490135529305 117.277429510845 2419.23510097619 187 191 192
-767.458493090355 116.794968130707 2429.14623085723 191 195 196
-767.051237802637 116.633604965327 2436.80839028439 190 194 195
-765.690015063576 116.418710938642 2444.81473118084 182 186 187
-768.092598553703 116.41817716812 2451.34866301129 179 183 184
-767.655188830677 116.256942404261 2458.95540155065 179 184 187
-770.99473998808 116.310270746174 2465.11348158169 183 188 191
-770.540637770336 116.149206511737 2472.68957086361 186 191 194
-772.924141558176 116.149139831407 2479.18855210905 184 189 192
-774.353917458699 116.095547029567 2486.03165260704 181 186 189
-776.729994392987 116.095763101293 2492.51655530113 175 183 185
-779.102714024755 116.096085028777 2498.99581938123 171 179 181
-778.608203053765 115.935292986131 2506.49767145704 164 172 174
-779.058733750983 115.828250503976 2513.63899168953 162 170 172
-780.458406261923 115.775052610554 2520.42684532639 161 169 171
-782.810654194025 115.775706874923 2526.8685581615 163 168 171
-788.039739126805 115.938021669762 2532.30450679133 173 177 180
-793.273142476208 116.100533723087 2537.74896133998 180 184 187
-798.511335761389 116.263311512558 2543.20180112179 186 190 193
-801.826450599665 116.318461286115 2549.31548605269 182 186 189
-807.071185156577 116.481627184826 2554.78047313777 179 183 186
-813.286852217756 116.698910041677 2559.93265682879 189 193 196
-821.444812618534 117.024417143218 2564.46001860213 182 185 190
-823.801543958205 117.026278912407 2570.909836119 187 190 195
-830.036039043636 117.244273455601 2576.09686199641 185 188 193
-837.249090198469 117.516549599457 2580.98515511661 181 184 189
-843.49916874929 117.735025154478 2586.20098647675 181 184 189
-847.80802670999 117.845582795469 2592.04420910046 174 178 181
-851.143514811853 117.902156948079 2598.19579251626 167 171 174
-858.385165816798 118.175320230195 2603.13695275321 161 165 168
-862.70278040022 118.286294247961 2608.99590137096 166 169 174
-868.001375268802 118.451532530469 2614.56107483671 167 170 175
-873.30471462933 118.616947374962 2620.13452313957 171 174 179
-883.521846901691 119.053534846592 2624.25237856512 183 186 191
-897.688982661681 119.707425541123 2627.24065637788 187 191 194
-919.759476992774 120.795861074252 2627.97542038991 182 186 187
-927.092371937269 121.071085855515 2633.0850147935 195 199 200
-812.535294413793 114.800077660826 2261.88630588109 193 197 198
-808.717347299347 114.446874740389 2271.67759273703 189 194 198
-804.878007743346 114.093651545666 2281.43003314218 189 194 198
-801.017705123809 113.74041696382 2291.14341098556 188 193 197
-802.664361988861 113.690365091938 2298.38696417124 185 190 194
-803.382761797327 113.589983864158 2306.02294768745 186 191 195
-801.321193279762 113.338021785673 2314.84487723747 186 191 195
-797.392700641705 112.984903954321 2324.43338056547 186 191 195
-794.369715593957 112.68237826258 2333.58718793002 190 195 199
-792.255918415134 112.43045710394 2342.31357600506 192 197 201
-788.267829953193 112.077296238122 2351.79195456882 191 196 200
-785.188917048106 111.774724986622 2360.84288671252 190 195 199
-778.364072604072 111.269347583117 2371.40358578695 187 191 192
-774.309662834414 110.915928758959 2380.7599098081 187 191 192
-771.168305319615 110.613175257311 2389.69594013025 188 192 193
-770.81506731755 110.46260192473 2397.46119616388 188 192 193
-773.262072264582 110.464445534646 2404.07703783225 189 193 194
-774.767786650285 110.415686407886 2411.06125662971 189 193 194
-776.267565239453 110.367046748595 2418.0350985862 188 192 193
-771.175669928423 109.962719821189 2427.58329205459 182 186 187
-767.944310780087 109.659972945318 2436.3537949663 181 185 186
-765.637633081906 109.408015100649 2444.72542958989 181 185 186
-766.149076287875 109.308729519233 2451.98111168941 182 186 187
-766.652213537783 109.209492751896 2459.22153230177 175 180 183
-769.989036344544 109.263113592234 2465.37468235935 177 182 185
-771.4281797515 109.215038952864 2472.23667083713 180 185 188
-773.811200688621 109.218053906066 2478.73569074477 181 186 189
-775.24013522147 109.170212231127 2485.5789733003 181 186 189
-775.710637933833 109.071458408563 2492.75951828363 172 180 182
-779.034251437241 109.125837826542 2498.88860214594 171 179 181
-779.491949766241 109.027241744489 2506.04564497115 170 178 180
-780.897635282041 108.979756535662 2512.84677978913 169 177 179
-780.382334762668 108.830150589214 2520.31375999416 166 174 176
-781.77414113862 108.782753121043 2527.08889068658 165 173 175
-787.961396907608 108.99117411369 2532.18615588377 167 171 174
-792.232572652079 109.097530902604 2537.95881076046 172 176 179
-797.468543485091 109.255257802495 2543.40654838203 185 189 192
-799.816854001761 109.259604425819 2549.84162571948 186 190 193
-806.989049106276 109.520167205922 2554.65125466168 185 189 192
-813.20429240242 109.729807805155 2559.80036078243 178 182 185
-820.394660774908 109.990971069557 2564.64359425409 175 179 182
-820.80986886586 109.893318571906 2571.72226930142 170 174 177
-828.01064479824 110.154915985442 2576.58477472991 172 176 179
-834.249306332325 110.365441108795 2581.77721725237 177 181 184
-841.468224303143 110.627550001733 2586.67324300787 179 183 186
-845.773452061099 110.735789500108 2592.50909191257 176 181 184
-850.080897970992 110.844145932386 2598.34855132336 174 179 182
-856.34402317219 111.055521825299 2603.58674707555 175 180 183
-861.63628540169 111.215649275927 2609.1382324845 180 185 188
-866.933115122963 111.375904977251 2614.69815691075 184 189 192
-874.196177570849 111.639352013448 2619.67577481108 186 191 194
-883.433475216508 112.006072793112 2624.08532472606 186 191 194
-901.536936555931 112.83695307801 2625.90674559522 176 181 184
-923.617704286909 113.87487195157 2626.64521282917 183 188 191
-932.927993025051 114.243008481944 2631.18943240898 187 192 195
-807.974231706545 107.206303208604 2263.90387553776 193 197 198
-806.899095680523 107.018141167355 2272.44442090205 187 192 196
-803.972216008466 106.734456960298 2281.7806495981 185 190 194
-800.10614740659 106.402985095761 2291.49047150461 181 186 190
-800.827668183825 106.310691864728 2299.13462728342 181 186 190
-801.540970589965 106.218596212429 2306.76372739647 186 191 195
-797.624497106205 105.887235075989 2316.38037459541 189 194 198
-795.537935479482 105.651636498348 2325.16176235999 190 195 199
-789.727652941946 105.224459090137 2335.49663849735 191 196 200
-789.460366793832 105.084734654696 2343.42273390115 191 196 200
-784.534494961182 104.705340691347 2353.28377266861 188 193 197
-782.377259442054 104.469786856695 2361.935191723 186 191 195
-776.475554949793 104.042259401138 2372.10182096128 190 194 197
-772.414331866397 103.710651798365 2381.45217315451 189 193 196
-771.135808917423 103.523020365357 2389.61931671825 188 192 195
-769.844000024529 103.335513281139 2397.76155816066 187 191 194
-771.350464426381 103.292212128926 2404.74930194733 187 191 194
-772.851436122264 103.249098583313 2411.72649582021 188 192 195
-774.346484333682 103.20611942395 2418.69333998265 187 191 194
-772.071038201859 102.970738555322 2427.12740019612 186 190 193
-767.894704330296 102.639001071504 2436.266003618 185 189 192
-766.52821318587 102.451725466242 2444.27146464689 183 187 190
-766.093488997639 102.312607074584 2451.88979323687 183 187 190
-766.594145174169 102.221790443246 2459.12818281693 186 190 193
-768.98192456367 102.227522937756 2465.6362673639 183 188 191
-771.366312515389 102.233405198045 2472.1386637206 178 183 186
-771.84738000399 102.142903761249 2479.34061667607 176 181 184
-773.271413764311 102.100733442281 2486.17709555914 174 179 182
-775.642619870565 102.107036734352 2492.65487046942 181 186 189
-779.918857475656 102.210130062036 2498.43585363799 176 181 184
-781.330769033978 102.168347189554 2505.25015409623 170 178 180
-782.737174675538 102.126633589005 2512.05384475788 169 177 179
-783.179599859865 102.036630302244 2519.18538152321 164 172 174
-784.572951144188 101.995040034111 2525.96560417598 161 169 171
-789.803167525811 102.147367543821 2531.40063035765 162 166 169
-792.152170379831 102.154514351476 2537.83782310454 164 168 171
-796.424304233022 102.258740585066 2543.61159941451 181 185 188
-798.769542995112 102.266152785335 2550.04194911969 186 190 193
-804.974491481838 102.467765796111 2555.1702113878 189 193 196
-810.219794517698 102.621114971858 2560.63329191218 184 188 191
-818.37475367531 102.920426710128 2565.14675210644 180 184 187
-823.632854351557 103.074236609112 2570.63401261655 173 177 180
-830.837449342763 103.325538981784 2575.50044605266 175 179 182
-834.162892431878 103.382510543952 2581.63367436925 179 183 186
-840.408366175657 103.585582981108 2586.83640460555 179 183 186
-845.686247955865 103.740206435814 2592.35978657958 174 179 182
-852.920714474808 103.992470178603 2597.2814483024 172 177 180
-857.232743315331 104.098752105173 2603.12921695372 172 177 180
-859.589519651591 104.107660734828 2609.58123636812 178 183 186
-864.883063472781 104.262928630902 2615.13361748645 183 188 191
-874.106144856789 104.613600041081 2619.51219471972 183 188 191
-886.291576727231 105.111081195576 2623.03882517033 175 180 183
-906.37036742188 105.999882921993 2624.28055200872 181 186 189
-925.507373605473 106.840587298505 2625.89050093567 181 186 189
-939.753093236525 107.437612161981 2629.00570379874 180 185 188
-944.149366876929 107.545916558208 2635.00902218657 237 242 245
-807.993328292407 99.8712363526896 2263.84798655862 193 197 198
-805.996637529562 99.6516573955027 2272.79948065701 185 190 193
-803.064567234231 99.3870265651003 2282.13189260608 181 186 189
-801.955555140683 99.2126719531119 2290.61428589696 179 184 187
-799.910891717583 98.9932898886189 2299.47760874202 181 186 189
-797.85024231308 98.7739538172112 2308.31154428564 187 192 195
-795.773560479841 98.5546927301309 2317.11601582097 194 199 202
-793.680857129462 98.3354772129753 2325.8910345709 194 199 202
-786.008643742877 97.8449501780354 2337.01202863926 194 199 202
-780.161825084089 97.4447548422217 2347.2878222747 193 198 201
-776.148201498196 97.1349545479751 2356.73278078157 190 195 198
-775.838203554811 97.0061847021964 2364.58361568925 189 194 197
-771.7872710402 96.6963537526701 2373.95994705959 190 194 197
-767.715347535216 96.3864519947917 2383.29714663636 189 193 196
-767.362363348071 96.2578497871123 2391.06897242174 187 191 194
-766.99850702292 96.1293249240046 2398.82082562351 186 190 193
-768.498921019839 96.0916537806206 2405.7991346763 186 190 193
-768.115889401567 95.9633437425312 2413.51578562261 185 189 192
-767.721946806854 95.8350810421856 2421.21238353065 186 190 193
-768.258574797256 95.7523447480303 2428.51936175971 185 189 192
-766.901148782202 95.5787822583563 2436.54561903832 183 187 190
-769.306886278732 95.587225095198 2443.0875468737 176 180 183
-768.873211510244 95.4592869598824 2450.71116767832 174 178 181
-769.375313563184 95.376907682461 2457.95475378005 174 178 181
-768.920870778606 95.2490748858904 2465.54071434059 173 177 180
-770.354456654431 95.2124120426139 2472.39591327544 171 176 179
-771.782076402908 95.1758830777948 2479.24068391912 170 175 178
-774.156014096052 95.1850699263269 2485.72434986206 168 173 176
-775.573428774871 95.1487444269048 2492.55041270958 173 178 181
-780.803222455442 95.2951875797866 2497.98289191593 170 175 178
-782.21430495816 95.2591707529883 2504.79740156225 165 170 173
-783.619851213301 95.2232376091116 2511.60124996177 163 171 173
-784.061149486695 95.1416410394252 2518.73324221092 165 173 175
-784.494095356695 95.060122275059 2525.84989626607 165 173 175
-790.68444195875 95.2531874732832 2530.94822825496 164 167 172
-792.070582763087 95.2176122483312 2537.71699837247 165 168 173
-797.305305374294 95.3653549572913 2543.15893358445 169 172 177
-799.650118142843 95.3758494681496 2549.58942672615 174 177 182
-804.889921934635 95.5239462403067 2555.04131787337 184 187 192
-809.166921719307 95.6264282129505 2560.82351898163 192 195 200
-816.352258392931 95.8667637770553 2565.65073066649 190 193 198
-824.517035472355 96.1533239811597 2570.17891739472 178 181 186
-831.722939298897 96.3942571046319 2575.04463976404 171 174 179
-835.048286482838 96.4516411454915 2581.17781573464 172 175 180
-839.347064876848 96.5551229540809 2586.99986810158 176 179 184
-844.622704283919 96.7047395984955 2592.51812453265 179 184 188
-851.856098065325 96.946651935799 2597.43419616421 175 180 184
-854.210234060558 96.9584964431064 2603.88274663512 177 182 186
-858.519541232936 97.062576338163 2609.7243432012 183 188 192
-864.791090323882 97.2589701584264 2614.9735265941 182 187 191
-874.99665825769 97.6400557188983 2619.05291824658 177 182 186
-888.168086677643 98.1599419887424 2622.28441015852 174 179 183
-912.190640626206 99.1881528424837 2622.36165804854 182 187 191
-931.339500829704 99.9863954414782 2623.98063951971 186 191 195
-943.62175507956 100.461986863528 2627.67825701631 208 213 217
-951.97425169248 100.753057352367 2632.55305050875 202 207 211
-937.584737259076 99.9805043143319 2643.9246970849 230 232 229
-811.68040495205 92.7119578624021 2262.13134312292 192 196 197
-807.848201396131 92.4240535420253 2271.91655070515 182 187 190
-803.995067009715 92.1361086740204 2281.66274623883 181 186 189
-803.805212496825 92.0178987008531 2289.73772238406 190 195 198
-799.914667454413 91.7300087121523 2299.41563365227 192 197 200
-796.003134222574 91.4421365814676 2309.05444494223 193 198 201
-794.845270872254 91.2817046299914 2317.45168295458 193 198 201
-791.821466093393 91.0363670155017 2326.62118035359 193 198 201
-783.213254088747 90.5358479775666 2338.13300115299 189 194 197
-775.499934971382 90.0776552138351 2349.18811789475 186 191 194
-772.405962914583 89.8321320204115 2358.22850907718 186 191 194
-772.087703305944 89.7143410341807 2366.06795509735 187 192 195
-769.893294827932 89.5114656327603 2374.66032916206 185 188 193
-765.814326054084 89.2233113584027 2383.99161537984 185 188 193
-766.391246210007 89.1483818606068 2391.37504591224 186 189 194
-766.023248286082 89.0308868059997 2399.1225988569 187 190 195
-768.458364888027 89.0415703278858 2405.71923404178 190 193 198
-766.19381993184 88.8388919036333 2414.18317782302 191 195 198
-764.853717656166 88.6789192908241 2422.24538337943 187 191 194
-763.500320928952 88.5190266089899 2430.28265781008 184 188 191
-764.019694385824 88.4446822496509 2437.5604254411 181 185 188
-768.308604669298 88.5415744513276 2443.36285116398 175 179 182
-767.870809121728 88.4247254611106 2450.98222784646 173 177 180
-767.422110206616 88.3078648105683 2458.58154774286 174 178 181
-766.962492706163 88.1911104958391 2466.16081834882 174 178 181
-769.340738152223 88.203005744616 2472.65372575174 171 176 179
-772.66692703436 88.2579476283812 2478.78771535018 169 174 177
-775.04035535042 88.2702010223998 2485.2713666312 167 172 175
-777.410637499397 88.2825646734426 2491.74926469434 167 172 175
-779.777540522663 88.295093009048 2498.22150169773 167 172 175
-782.141472476795 88.307794662485 2504.68782224 167 172 175
-783.544701156596 88.2775931797195 2511.48963607241 165 173 175
-785.901047275746 88.2904999441524 2517.94206656319 158 166 168
-788.254200780481 88.3035459568513 2524.38866712926 155 163 165
-792.526657262219 88.402842127844 2530.16155423739 162 165 170
-794.875998325466 88.4161972739154 2536.60123599188 164 167 172
-798.186053144867 88.4727196929918 2542.70602740975 163 166 171
-801.49550235149 88.5294121664391 2548.80975613434 166 169 174
-804.804345945334 88.5862746942573 2554.91242216564 176 179 184
-809.080277904759 88.6864394928263 2560.69196252525 192 195 200
-817.234593666661 88.9596116024339 2565.19637865611 193 196 201
-825.400988850096 89.2330733888429 2569.72360240008 185 188 193
-830.665009008738 89.3771764883626 2575.21832663215 177 180 185
-835.933343779554 89.5215063454035 2580.72155865695 174 177 182
-839.257997054441 89.5794139212566 2586.85361584045 177 180 185
-844.533150600728 89.7240632182754 2592.36898065416 174 179 183
-847.859209083786 89.7822238821011 2598.50369838046 175 180 184
-852.162675510382 89.8838097025688 2604.33430697361 178 183 187
-856.468413141644 89.9855426330315 2610.16863272109 182 187 191
-861.756457118205 90.1308162520915 2615.70839737568 180 185 189
-872.940990151714 90.5368507561999 2619.4809875993 182 187 191
-889.061642783554 91.160597375494 2621.82297107885 182 187 191
-915.060442878723 92.2197518350473 2621.31409827637 187 192 196
