ply
format ascii 1.0
comment KinectMotionCapture
element vertex 751
property float x
property float y
property float z
property uchar red
property uchar green
property uchar blue
end_header
-971.665622974706 325.6829584484 2577.60779006843 189 191 190
-980.504134853511 326.079700281761 2584.4249914748 175 177 176
-998.125052850287 326.528866512158 2588.90077793563 181 183 180
-1011.86380125287 326.957741379848 2594.5092238511 168 170 167
-1021.71339541517 327.365031464806 2601.21813877966 167 169 166
-1030.59605976988 327.767454240489 2608.22656004379 169 171 168
-1043.39668164158 328.195541415632 2614.25795018986 153 155 152
-1057.18906006343 328.63169709826 2620.09735206661 164 166 163
-1076.86753473254 329.108116014174 2624.51107549902 167 169 164
-1101.46437419245 329.620229089502 2627.79274606317 150 153 144
-921.669576275129 303.293593990983 2247.43349399055 184 188 187
-916.091326389193 303.678972805605 2259.07927017705 166 170 169
-897.18076173099 304.078237434444 2275.7621481876 149 151 150
-893.478907897624 304.455728744979 2286.5682317749 195 197 196
-891.675660923334 304.82977439057 2296.6287973954 204 206 205
-887.960697444766 305.204184984641 2307.37892432292 180 182 181
-879.468255033398 305.580337710992 2319.85882302281 199 201 200
-870.007592717317 305.954350093225 2332.63093923654 180 181 183
-867.219750603111 306.321988726217 2342.91298677105 199 200 202
-867.293545312564 306.687130595478 2352.13730255277 233 234 236
-868.32180362608 307.05127793318 2361.01062647974 219 220 222
-869.348825208656 307.414761096834 2369.87997771497 189 190 192
-866.543918131656 307.777852894635 2380.0895015087 196 197 199
-864.691366602342 308.139453243341 2389.94012282013 220 222 221
-863.793037888832 308.500059137547 2399.43977759052 206 208 207
-869.608722078466 308.861960022863 2406.62745832284 184 186 185
-874.469354783888 309.223930828229 2414.16299778757 192 194 193
-878.372831911671 309.58561995148 2422.03841735043 194 196 195
-880.356096305876 309.946015929867 2430.5658477733 204 205 207
-882.339537725819 310.306066536663 2439.09426140968 203 204 206
-887.211410284805 310.668364415573 2446.67913775969 210 211 213
-892.087169277458 311.030930524266 2454.28098220765 215 216 218
-896.966797976348 311.393790891076 2461.89970573389 217 218 220
-898.956462104152 311.753212746376 2470.45591001111 214 215 217
-904.807120708792 312.117498169785 2477.79630562356 195 197 196
-914.52645804771 312.488138889394 2483.9527900327 195 197 196
-921.356193001429 312.85541669327 2491.04939313975 202 204 203
-922.389913480553 313.213278716831 2499.95048332639 206 208 207
-920.519380229576 313.56516927268 2509.72757781328 206 208 207
-920.580518284051 313.919470002754 2518.90249749788 211 213 212
-922.577264956947 314.276936828718 2527.4910614266 210 212 211
-928.452320837857 314.642324255158 2534.93831730785 205 207 206
-934.332669814411 315.008210707571 2542.4075176914 179 181 180
-941.18856740429 315.376867376489 2549.61859741706 175 177 176
-949.993688449827 315.750990591336 2556.3019631405 201 203 202
-958.807560984227 316.126195813425 2563.02325655584 200 202 201
-966.657584251895 316.499773488061 2570.05463900884 183 185 184
-972.568447416659 316.868673195118 2577.65761656806 184 186 185
-983.353965347389 317.252332092741 2583.94824301537 189 191 188
-996.099832419525 317.643500381281 2589.75898009594 176 178 175
-1010.80930185247 318.042825139612 2595.10595559601 166 168 165
-1022.60806261363 318.434745356972 2601.29916127655 163 165 162
-1038.32452179392 318.841711116331 2606.52152618061 171 173 168
-1049.173206607 319.233981371615 2613.08652373231 155 157 152
-1059.05574085452 319.624183673359 2619.95064209742 159 161 156
-1074.81748466989 320.037460369392 2625.36884526159 165 167 162
-1101.36428299049 320.494654632472 2628.16155913662 150 153 144
-920.61462294493 294.407958794601 2248.011003306 182 186 185
-912.186957401615 294.826513878202 2260.75140646029 161 165 164
-897.08673672999 295.269277983552 2275.97255623557 148 150 149
-898.147081061381 295.644102982605 2284.98098935943 196 198 197
-898.25377197845 296.022087655619 2294.34271103395 182 184 183
-892.639583113904 296.420274446447 2305.82258617758 224 226 225
-883.200527625805 296.830021385386 2318.66889660305 200 202 201
-872.792536381768 297.239978741582 2331.80180103848 210 211 213
-870.008810998359 297.621347059543 2342.09391390426 231 232 234
-865.307821259383 298.007354918881 2353.04862687758 201 202 204
-864.423274005625 298.379691004794 2362.60211137017 187 188 190
-864.492021974129 298.748152938806 2371.80223555504 221 222 224
-862.643699206049 299.121246166683 2381.66473148439 223 224 226
-863.664933809624 299.48527606838 2390.50717397781 221 223 222
-863.726261225541 299.85126669007 2399.67605248535 195 197 196
-866.663332164284 300.209323374767 2407.85147302706 188 190 189
-871.521818280595 300.562620657273 2415.38265486848 197 199 198
-878.305443171799 300.911948151494 2422.28554189586 192 194 193
-881.250517911354 301.270205261828 2430.49611390341 196 197 199
-882.273521733536 301.632169705358 2439.34756742658 203 204 206
-885.220173200292 301.989861081613 2447.56542014732 215 216 218
-891.057400033058 302.342303329987 2454.85359341657 218 219 221
-897.863570502318 302.693569115693 2461.85468918789 220 221 223
-899.85454094298 303.052985838423 2470.41665284967 213 214 216
-904.740402619702 303.40787208332 2478.06753257914 193 195 194
-913.492185289583 303.757975185717 2484.52998658831 194 196 195
-922.252780450771 304.109257639283 2491.03057984671 201 203 202
-924.254845392961 304.468860555183 2499.64132275033 194 196 195
-924.322172181945 304.829844872597 2508.83958249074 199 201 200
-922.45126536293 305.191621190617 2518.60921633956 208 210 209
-926.38729929311 305.54782929761 2526.63023724254 207 209 208
-931.295095454769 305.903419877551 2534.37735866107 204 206 205
-938.146289948385 306.258216368095 2541.57586594394 198 200 199
-942.092533815208 306.614833483061 2549.64163713474 193 195 194
-951.867785816468 306.969862289889 2556.0547825325 166 168 167
-960.681372631343 307.326303038156 2562.78585355397 152 154 151
-970.476218108074 307.683816180867 2569.28279145776 180 182 179
-971.524054950861 308.041908952336 2578.24703715372 194 196 193
-981.333272793187 308.400899209885 2584.80643917567 196 198 195
-990.178091546428 308.760898565512 2591.67304302355 187 189 186
-1004.88063129078 309.124328118474 2597.00950830712 179 181 178
-1021.55031272232 309.491150218334 2601.89843748049 165 167 162
-1039.21438595769 309.861316370444 2606.61194241927 155 157 152
-1048.10831212045 310.227970643118 2613.69102755208 166 168 163
-1058.96563122257 310.597252418108 2620.30650740992 149 151 146
-1064.94436107424 310.963184466654 2628.21029010401 153 155 150
-919.559613970252 285.521070150984 2248.58900465659 190 194 193
-914.936832586623 285.942377104278 2259.86758684975 162 166 165
-903.648942395455 286.407711466418 2273.64698549722 156 158 157
-900.908093530821 286.811618783648 2284.11586667185 175 177 176
-901.018158594785 287.195063509475 2293.48815894286 176 178 177
-895.408818581007 287.615161027558 2304.97760014811 194 196 195
-886.929722989936 288.05139042303 2317.48097747971 186 188 187
-878.437025579028 288.4848138187 2329.92715417824 237 238 240
-872.795235595736 288.897831348466 2341.27667996199 208 209 211
-868.099003900441 289.302886619402 2352.24115654685 177 178 180
-865.306034350434 289.694815393058 2362.48740939338 192 193 195
-864.420249950544 290.074168632211 2372.03131504822 213 214 216
-862.573886668042 290.457927778641 2381.89617225303 212 213 215
-863.596114824918 290.824501693578 2390.74149660821 220 222 221
-866.533953488554 291.180116965325 2398.92173614672 192 194 193
-867.55535297702 291.545766345813 2407.76395269325 189 191 190
-871.454385712593 291.895925239254 2415.62656941251 194 196 195
-877.276902868401 292.236463654714 2422.8558384202 192 194 193
-881.182525988901 292.586983109158 2430.74728409561 196 197 199
-887.014076343053 292.928334144692 2438.01588061393 198 199 201
-889.002166994148 293.288293371322 2446.56483518353 206 207 209
-894.84127313075 293.630213975062 2453.8674782341 213 214 216
-896.832166672747 293.98976200667 2462.42902580453 218 219 221
-901.715129426805 294.336422928527 2470.07196907985 211 212 214
-904.672705404232 294.691436325982 2478.33953657735 193 195 194
-914.388074923162 295.01859245551 2484.50519911592 191 193 192
-920.2504725737 295.362480921532 2491.90823412975 199 201 200
-926.117731806897 295.706761536292 2499.33354783436 193 195 194
-924.253648653036 296.080624840132 2509.12614150606 192 194 193
-923.352344298542 296.449595522959 2518.60776399539 201 203 202
-926.320600049898 296.803826576983 2526.922852868 202 204 203
-932.196996378394 297.147983257488 2534.38850276365 200 202 201
-936.139499830742 297.498890462142 2542.44114991979 196 198 197
-940.084341665688 297.849839535384 2550.50516311939 197 199 198
-950.82744672223 298.179957385098 2556.64038514567 191 193 192
-963.524681416606 298.505862622156 2562.27520559509 178 180 177
-975.263454666445 298.836524473467 2568.24118838064 154 156 153
-979.233386207373 299.189939298084 2576.41431098036 169 171 168
-987.099102650243 299.533230954357 2583.53265983591 186 188 185
-993.998495072758 299.879788741751 2590.94731423941 179 181 178
-1009.67450774621 300.206161340424 2596.03885083714 175 177 174
-1027.31826513222 300.530679669186 2600.68859460759 164 166 161
-1043.03030796385 300.862367626648 2605.93577448407 156 158 153
-1053.87802278658 301.20652697958 2612.52370855139 162 164 159
-1062.78284358019 301.555832724917 2619.66100553079 145 147 142
-1069.74104938192 301.909727111379 2627.3315967714 152 154 149
-935.593980731766 276.462035697709 2242.55204863727 196 200 199
-925.284414382021 276.960314910459 2256.06672173309 154 158 157
-912.107094419955 277.483040222439 2270.60034902115 189 191 190
-901.764067538994 277.974540073969 2283.97156317094 181 183 182
-899.972203637383 278.381363405626 2294.06301039201 192 194 193
-889.603074632332 278.867358486521 2307.3224412971 200 202 201
-883.030563269382 279.314842742017 2319.10789357987 223 225 224
-874.539591370331 279.777404030614 2331.54453591903 178 179 181
-872.715928489274 280.17704158883 2341.50008498518 188 189 191
-869.932644760995 280.58399895051 2351.77909339767 211 212 214
-866.18766257097 280.997813396907 2362.37376455861 211 212 214
-860.522959513829 281.426428715896 2373.61423446122 213 214 216
-858.676072710166 281.820452611269 2383.47074734061 219 220 222
-861.611793000288 282.173026916021 2391.64235429395 220 222 221
-868.380983822864 282.493949561391 2398.49942972842 189 191 190
-869.404616742754 282.862357721298 2407.34986543438 197 199 198
-873.304933942388 283.207185353218 2415.22127791495 191 193 192
-878.167993991992 283.54449795695 2422.7820168031 197 199 198
-884.956159345343 283.867219211657 2429.72056063924 201 202 204
-890.78935820403 284.198021484075 2437.0037122652 200 201 203
-892.780611734676 284.558326090153 2445.56640116028 206 207 209
-892.847130502993 284.932447381034 2454.75337355816 216 217 219
-893.874515339182 285.298699630088 2463.62161040155 221 222 224
-900.682736525383 285.622956839464 2470.64762837368 206 207 209
-906.532874556697 285.954726286731 2478.0048548759 191 193 192
-918.17746413149 286.24688798342 2483.57845475438 190 192 191
-921.144991341509 286.599980440284 2491.89100294051 200 202 201
-924.114125467654 286.952875567915 2500.20966177532 202 204 203
-922.250561801281 287.33725499714 2509.99944577675 198 200 199
-922.317209282115 287.707856777741 2519.18796900642 201 203 202
-923.349167074452 288.071442899312 2528.07901146437 201 203 202
-926.317529022378 288.422410875006 2536.39540112566 198 200 199
-931.225529458277 288.761317734818 2544.15323551329 184 186 185
-937.107120105085 289.094630283438 2551.64815272708 180 182 181
-948.816579189706 289.394325887923 2557.50317377613 179 181 180
-959.567508227729 289.701327759016 2563.68646882836 176 178 175
-972.272934550781 289.998957992168 2569.37510314948 166 168 165
-978.18583185282 290.335986719194 2577.00578975702 153 155 152
-984.103740318973 290.673333867892 2584.65837115052 156 158 155
-991.973883636272 291.000904630356 2591.80547387717 178 180 175
-1008.61924006302 291.284111981739 2596.63639255355 175 177 172
-1028.20743976143 291.555372126448 2600.77298023366 164 166 161
-1044.89192952964 291.844461282026 2605.7728834344 157 159 154
-1058.6666532747 292.150385083837 2611.61217320104 157 159 154
-1072.4565097259 292.458454433662 2617.51579802248 144 146 141
-1071.60185324779 292.835707734851 2627.19810631838 152 155 148
-944.972917270674 267.389738319127 2239.09334119809 205 209 208
-931.825233156323 267.960291479305 2253.7294302975 165 169 168
-915.807035701549 268.562940856398 2269.36781309055 203 205 204
-904.520429510171 269.101622011211 2283.10972959152 184 186 185
-900.82914661989 269.542903404545 2293.92487559038 181 183 182
-890.465484372376 270.063948913151 2307.18778065642 220 222 221
-880.085995051461 270.581819039657 2320.3828101904 226 228 227
-874.457855132253 271.039374767087 2331.76629009384 198 199 201
-875.498023244829 271.415750877268 2340.6859892912 211 212 214
-873.673451087523 271.825181404658 2350.6317716586 223 224 226
-868.023123144222 272.277678938185 2361.92045343122 223 224 226
-858.539375610378 272.771813144085 2374.52019116468 234 235 237
-858.606311822848 273.154526989752 2383.7028627909 236 237 239
-862.499228387995 273.493531368438 2391.54508886692 222 224 223
-872.141586347174 273.768978091001 2397.41834785548 195 197 196
-873.168461777309 274.140332678026 2406.28242534484 204 206 205
-878.989577299175 274.459281079511 2413.51821648838 198 200 199
-878.098401414157 274.850659181151 2423.03129152751 203 205 204
-886.805941046836 275.139354593105 2429.33490326703 200 201 203
-889.757235049801 275.489577354405 2437.5776064678 204 205 207
-892.70993921816 275.839668343086 2445.82660117268 218 219 221
-888.929721223251 276.258358338599 2456.26204906258 226 227 229
-888.992775202532 276.636507599684 2465.43138448672 227 228 230
-895.796744547781 276.946532842117 2472.44812359098 211 212 214
-903.571175316447 277.247834564296 2479.18891237221 187 189 188
-914.246902098249 277.521880369007 2485.06020671396 190 192 191
-914.316754924411 277.899500674836 2494.25981288192 198 200 199
-919.213386925659 278.230537484817 2501.97218031437 201 203 202
-918.315291612902 278.616031056795 2511.45822546344 202 204 203
-920.314745962526 278.973677636642 2520.05861524774 200 202 201
-921.34672215917 279.3396838525 2528.94722897465 198 200 199
-922.377568000005 279.70508931216 2537.83121504892 195 197 196
-927.2828329433 280.035394196574 2545.58205468385 191 193 192
-935.100502264334 280.340367305075 2552.51121800534 190 192 191
-946.806229940906 280.612746998067 2558.3658626515 190 192 191
-959.49512586279 280.878559198011 2564.00036884584 191 193 190
-971.226429320574 281.154530166421 2569.96560282266 182 184 181
-977.138129934521 281.480533364945 2577.59750099 182 184 181
-986.945538519161 281.775197469189 2584.18676492459 168 170 165
-993.842929272302 282.094665044929 2591.60961880994 155 157 152
-1009.51140701477 282.345132877378 2596.71259687269 172 174 169
-1028.12099897865 282.575373694843 2601.11632184104 168 170 165
-1050.65184455086 282.778754964748 2604.58951944635 161 163 158
-1073.20876645081 282.986277025074 2608.17518887143 158 161 154
-1082.12296406256 283.299921644597 2615.37478021409 168 171 164
-943.908410147161 258.420703989318 2239.67780365204 211 215 214
-932.664731579516 259.004626877081 2253.58227424261 157 161 160
-917.603860381178 259.643844368395 2268.86127296275 196 198 197
-908.22473393622 260.191303254518 2281.89066754979 187 189 188
-902.636149168948 260.677954478105 2293.43133718162 194 196 195
-891.326765951098 261.248558270734 2307.05410915106 194 196 195
-881.905131037883 261.787294516984 2319.90131735071 181 183 182
-876.281446629246 262.266477498987 2331.29171035143 187 188 190
-876.370197179065 262.659606791502 2340.56546887911 212 213 215
-872.63943178061 263.107557541702 2351.20270954125 207 208 210
-867.946593890977 263.567610073754 2362.14979359291 205 206 208
-859.42310390339 264.080352628633 2374.4125411391 201 202 204
-857.579498929419 264.495511220945 2384.2710849091 205 206 208
-861.471823176528 264.828830324469 2392.11404478436 202 204 203
-869.196704637138 265.108908767726 2398.64897365626 182 184 183
-873.097110399492 265.442891711244 2406.52606847607 188 190 189
-878.917384205712 265.750773227384 2413.76574612748 186 188 187
-878.98705761765 266.137184820239 2422.95939094526 187 189 188
-886.733816909843 266.419751183954 2429.58926281228 188 189 191
-885.843420506212 266.81811971489 2439.1016611525 195 196 198
-887.832929886738 267.177572617123 2447.65716526341 212 213 215
-883.090309648984 267.624431798043 2458.39263955589 217 218 220
-886.038143195711 267.969889841481 2466.62289644768 217 218 220
-891.876631837058 268.278223492893 2473.94148679688 199 200 202
-900.610893900953 268.550460748534 2480.37253308741 192 194 193
-911.282328869676 268.79970975106 2486.24058631215 195 197 196
-913.281474274043 269.158373070819 2494.83901669275 199 201 200
-917.211810040013 269.492883305222 2502.84769018704 201 203 202
-917.280164166148 269.874496103255 2512.0383439672 205 207 206
-920.24657908205 270.220296216655 2520.34919345342 211 213 212
-921.279345461539 270.588939781513 2529.24082438843 204 206 205
-923.279105387186 270.945569037844 2537.8431590729 197 199 198
-926.247711581478 271.29041812865 2546.16422395242 195 197 196
-934.063539413561 271.579018452062 2553.09490255195 194 196 195
-945.766145275956 271.824129973133 2558.95182893756 193 195 194
-958.451605228202 272.059958412342 2564.58882974237 193 195 192
-969.208794073835 272.319564964195 2570.82758548608 184 186 183
-975.118691893797 272.6345244246 2578.45803507235 186 188 185
-985.895233307897 272.896586443043 2584.78062513782 178 180 175
-992.791123800162 273.202430437691 2592.20488095637 161 163 158
-1007.48173731294 273.425297524262 2597.57146665654 166 168 163
-1022.18851811742 273.650560076279 2603.00788580783 169 171 166
-1050.55838353813 273.735073684517 2604.94046846533 166 168 163
-1077.01109596829 273.845204458708 2607.52271720447 163 166 159
-1092.75841050906 274.070365018948 2612.98798045342 176 179 172
-938.101520789766 249.538558115389 2242.09770024297 220 224 223
-926.859283324199 250.159437445343 2255.98678458577 158 162 161
-917.499236544212 250.742135292655 2269.07952874395 196 198 197
-909.07505655975 251.304534615526 2281.75068679145 185 187 186
-903.490327579391 251.812709212219 2293.29568789288 200 202 201
-895.99280327628 252.352909178296 2305.50687478109 181 183 182
-888.483154569225 252.890546196439 2317.66614201462 216 218 217
-884.772432686886 253.358369715411 2328.38001742293 221 222 224
-878.194332026483 253.874712662109 2340.10033961319 221 222 224
-871.605343352283 254.388677897095 2351.77408144495 218 219 221
-866.914800714997 254.867380172759 2362.72031052841 221 222 224
-861.26064293781 255.360491414365 2373.96822819355 225 226 228
-860.376030456614 255.770275093167 2383.49939980538 222 223 225
-864.270225177019 256.098306589516 2391.35371205961 203 205 204
-868.167344421543 256.426426838404 2399.21977283719 196 198 197
-873.024804073649 256.73878989058 2406.77050766438 195 197 196
-877.886187339738 257.051456538533 2414.33835362627 201 203 202
-880.833474521252 257.395865392118 2422.5668200179 194 196 195
-885.701451897733 257.708980023738 2430.16345993332 217 218 220
-883.851934943201 258.13075097623 2439.99206294248 217 218 220
-884.880134452366 258.505185707486 2448.85907703474 218 219 221
-882.061325214027 258.939990154839 2458.96624728214 220 221 223
-885.971124370062 259.267385257393 2466.8886095499 217 218 220
-891.808785247674 259.564770143287 2474.21107841289 197 198 200
-898.614795083418 259.847756112225 2481.25271270943 195 197 196
-904.463539345055 260.1462958827 2488.62225566091 194 196 195
-910.317142057602 260.445285111014 2496.01402979554 195 197 196
-916.175857723746 260.744783947228 2503.42803480962 200 202 201
-921.073946998062 261.059267298615 2511.15656002908 203 205 204
-922.110321915997 261.431415637399 2520.06094445573 196 198 197
-926.046433632334 261.760228433736 2528.09950756688 194 196 195
-926.11485193704 262.145570915187 2537.28716406617 195 197 196
-927.148851486093 262.51607685393 2546.18313366802 195 197 196
-934.964080839094 262.78846184933 2553.12071235088 188 190 189
-948.603896366093 262.978904890763 2558.43235451943 180 182 181
-960.318344889475 263.19893535882 2564.35621833676 179 181 178
-967.191446667749 263.488712089866 2571.68950421458 172 174 171
-973.099758778603 263.792594703513 2579.31839488345 175 177 174
-984.844804829987 264.016652404882 2585.37472031978 181 183 180
-992.71171150231 264.295542883751 2592.53727909072 167 169 166
-1011.29195142919 264.430595652186 2596.86764860435 157 159 154
-1029.89308555761 264.568846594145 2601.28929533635 168 170 165
-1058.25998132272 264.581109865572 2603.25128727187 177 179 174
-1084.71035867172 264.624306862374 2605.86261456228 172 175 168
-944.623619073929 240.418071864621 2239.74768144676 226 230 229
-930.54460947788 241.138041022984 2254.74833920562 165 169 168
-921.191521209411 241.753386520802 2267.85254428583 199 203 204
-914.673828306416 242.305821276139 2279.81782977477 185 189 190
-907.194731891459 242.875853886906 2292.09267394941 207 211 212
-897.801242736134 243.482857876974 2305.02266927799 198 202 203
-887.441189961412 244.106549845354 2318.24110646176 215 219 220
-881.827439604647 244.629293104026 2329.65074028691 195 199 200
-873.345034183618 245.208276449068 2342.05556939313 192 196 197
-869.617580360537 245.687896034283 2352.68877618648 203 207 208
-867.791643919903 246.127520172171 2362.61078784127 201 205 206
-866.915851411743 246.546872975681 2372.17519708035 214 218 219
-863.169912471514 247.022104693865 2382.72952861617 205 209 210
-865.153793316803 247.382578525385 2391.25962968639 189 190 192
-865.224243331268 247.780203213451 2400.45010148517 183 184 186
-871.994444559759 248.046618284053 2407.34260251397 184 185 187
-875.896959134512 248.369396192771 2415.2355804096 180 181 183
-882.677883700417 248.637045204515 2422.17569527713 193 194 196
-885.628189655805 248.978679417231 2430.4190960758 216 217 219
-885.700493579264 249.374761121401 2439.617558386 199 200 202
-885.770270711379 249.770041970348 2448.80644364776 203 204 206
-884.876696439288 250.182467566347 2458.29657056525 214 215 217
-888.78838652151 250.504636456054 2466.23033922904 211 212 214
-894.627306763897 250.791392314224 2473.56460922451 201 202 204
-900.471343329113 251.078658363899 2480.92112460297 193 195 194
-905.356964536724 251.383953086469 2488.60011280107 202 204 203
-910.246451962595 251.6895125372 2496.29598207597 203 205 204
-916.104567413815 251.978118089128 2503.71374927195 201 203 202
-919.071607373856 252.318704125495 2512.03041981196 209 211 210
-921.073771463263 252.676212632946 2520.64283147789 207 209 208
-925.976176858735 252.982447684593 2528.39522739003 202 204 203
-927.980436418641 253.339451386589 2537.01716981424 196 198 197
-930.952666884515 253.679358440698 2545.35819847397 199 201 200
-937.800432214153 253.952481971943 2552.58963225545 201 203 202
-951.438960644874 254.110681224522 2557.91456748112 192 194 193
-960.243339491139 254.353121409709 2564.67211430515 198 200 197
-967.115777794991 254.629290941406 2572.00939343276 189 191 190
-973.994253781667 254.906114192254 2579.37397997771 191 193 192
-982.822417683463 255.151430510327 2586.23464578863 188 190 189
-993.603974091942 255.365910514298 2592.60732099058 172 174 173
-1009.26113024295 255.502561261219 2597.72735310251 171 173 170
-1032.72401974642 255.515794911917 2600.86201854903 168 170 167
-1062.05890465657 255.439489080545 2602.5852148557 169 171 166
-1094.35309547425 255.322185693205 2603.70153765353 177 179 174
-939.766851475639 231.529522332692 2241.80063498842 222 226 225
-924.742266086335 232.317629209601 2257.15195797836 177 181 180
-919.186296002896 232.873248346693 2268.79578199071 210 214 215
-915.51987245784 233.381489015189 2279.68108930328 180 184 185
-913.746945409869 233.842906846696 2289.82387249091 184 188 189
-895.803973252748 234.685189592173 2305.95354478965 211 215 216
-884.49606225668 235.365995304484 2319.51798704488 207 211 212
-880.788011795249 235.865376773759 2330.22507291441 198 202 203
-874.214538123689 236.429554512964 2341.93764941593 211 215 216
-872.397105408557 236.881267391414 2351.89002317368 212 216 217
-865.804925675324 237.441366101976 2363.52256916037 216 220 221
-864.929745477591 237.868390663244 2373.08407790341 212 216 217
-862.140309047443 238.337787238395 2383.30033567721 204 208 209
-865.080017143809 238.676370854102 2391.49883047535 200 201 203
-864.195366445297 239.100639731248 2401.02131395911 191 192 194
-870.006994777094 239.374585052433 2408.24176842887 192 193 195
-876.781197125604 239.627792736333 2415.16075525777 210 211 213
-885.47852295222 239.839627620884 2421.46456594552 208 209 211
-887.472172765142 240.199710933064 2430.03794439634 182 183 185
-886.587312550493 240.622150120099 2439.56058079547 196 197 199
-887.6193659594 241.002054087019 2448.44136056071 224 225 227
-889.611090559185 241.360646890943 2457.00713208347 223 224 226
-893.525921672162 241.677835031147 2464.95767144948 214 215 217
-896.481194382505 242.015527882813 2473.22527680688 196 197 199
-900.400688441058 242.332684869971 2481.19638211613 187 189 188
-905.28580951733 242.629748750251 2488.87909397111 187 189 188
-911.1390756591 242.90700140692 2496.28108331229 186 188 187
-916.032766314578 243.204697964325 2504.00009913133 201 203 202
-919.965012033849 243.5226303078 2512.02802596295 206 208 207
-920.037107970328 243.919717313642 2521.22498047729 207 209 208
-924.938623857215 244.217583365685 2528.97837907527 200 202 201
-925.975802583582 244.594049109151 2537.88485259833 193 195 194
-930.882503766062 244.892003413082 2545.66104868406 181 183 182
-935.793020747035 245.190242637471 2553.45389179165 179 181 180
-947.489350754508 245.354084807416 2559.3309631292 195 197 196
-958.228755185027 245.538817024071 2565.53538915012 188 190 187
-968.97940457508 245.725121007449 2571.78844246827 151 153 152
-980.711938872215 245.894048366401 2577.82205978635 151 153 152
-990.514176755149 246.102325064396 2584.44043529702 152 154 153
-1000.32639276562 246.311954094103 2591.10198477904 167 169 168
-1015.01160339324 246.429983897969 2596.50642412567 187 189 188
-1037.4987387779 246.402676445818 2599.92160666708 174 176 173
-1075.59292982328 246.085767293548 2599.37394555243 161 163 160
-1105.93760447945 245.922421634588 2601.04055783882 166 168 163
-918.805295764259 223.099207734072 2250.08253097889 221 225 224
-915.15077796644 223.625651251112 2261.00959554017 182 186 185
-915.284148249642 224.048480112467 2270.46141954852 206 210 211
-918.263126787292 224.394357717859 2278.82867241027 184 188 189
-912.694220628997 224.967868471755 2290.40496937211 187 191 192
-893.807524674993 225.89187380603 2306.8843912755 221 225 226
-878.698583230171 226.710377422957 2321.84611459887 202 206 207
-878.796808290814 227.125296260585 2331.14772096097 199 203 204
-875.082933880355 227.63879711673 2341.82083859929 215 219 220
-874.221037743026 228.076552946835 2351.43565918133 211 215 216
-863.819031586868 228.759536167689 2364.43435245925 222 226 227
-861.989781603774 229.218718694685 2374.33025913451 213 217 218
-860.155820006581 229.676737987406 2384.20608790463 205 209 210
-864.050069923723 229.98785746059 2392.07059048715 193 194 196
-864.12273900251 230.395804135536 2401.26368329342 200 201 203
-870.890205894176 230.634626049883 2408.16145106549 207 208 210
-876.706762702046 230.898185789061 2415.41081810611 207 208 210
-885.402742004372 231.090770334506 2421.71893124359 193 194 196
-886.438280345213 231.474443715939 2430.61393698732 187 188 190
-885.554435532661 231.904753045166 2440.13641887147 202 203 205
-888.506673512159 232.240085050251 2448.39095362167 213 214 216
-891.460101084196 232.5752888614 2456.65189221083 206 207 209
-894.414942072117 232.910332537181 2464.91915330969 201 202 204
-897.371420774245 233.245299921574 2473.19258958076 192 193 195
-902.253618749497 233.533989661823 2480.86734596716 191 193 192
-909.06592781475 233.777123910289 2487.95909136172 182 184 183
-912.993832786733 234.089489828984 2495.97007794296 179 181 180
-917.888483880596 234.37919567795 2503.69802587964 204 206 205
-917.962797665019 234.782233459784 2512.90233986607 210 212 211
-920.931088055987 235.117003460769 2521.22902773656 195 197 196
-921.002781955909 235.518677878975 2530.42151248046 191 193 192
-924.938544442157 235.830479673345 2538.46854199878 190 192 191
-929.844356472282 236.120151816731 2546.2456912642 187 189 188
-937.657766803401 236.343886742869 2553.20386867236 180 182 181
-946.447182030264 236.546594288729 2559.91884662404 189 191 190
-960.091284783147 236.641312452123 2565.3056830226 188 190 187
-977.629413436038 236.651276353326 2569.67497648543 169 171 170
-994.216909841428 236.68601013869 2574.39816107764 153 155 154
-1003.05502093408 236.895590573667 2581.3236786118 147 149 148
-1011.90187364538 237.106309157781 2588.2870473232 157 159 158
-1020.75769516791 237.318134533205 2595.28820038607 157 159 158
-1040.32363012729 237.298073629563 2599.49802234729 162 164 161
-1078.40852579884 236.881148854102 2598.96822639257 162 164 161
-1116.53958662532 236.47177385533 2598.63633371911 163 165 160
-911.251720098991 214.811339777356 2262.68269858693 187 191 190
-910.435567266186 215.26707237297 2272.48743072035 189 193 194
-910.564719373543 215.693724788407 2281.91950454084 197 201 202
-904.044281756566 216.315742367332 2293.83176889703 207 211 212
-890.861255197897 217.130699888367 2308.16836819693 207 211 212
-880.511336157975 217.858515529612 2321.37021830065 200 204 205
-883.466575204957 218.195784729726 2329.63683808536 215 219 220
-880.71040460648 218.698365108401 2339.98016661639 217 221 222
-876.04297955546 219.25442749985 2350.98276438705 211 215 216
-859.926940252572 220.136589515024 2366.02559951973 217 221 222
-857.14326318211 220.633148676551 2376.25017378794 201 205 206
-859.126413423005 220.992801737189 2384.77753814563 188 192 193
-864.930557318274 221.244203045267 2391.97935794631 204 205 207
-866.916639430912 221.60369865865 2400.51973442246 202 203 205
-874.64161777191 221.802338873144 2407.10298951156 203 204 206
-875.674638286056 222.188613335227 2415.98537039209 180 181 183
-881.495351791463 222.441570237684 2423.25820406442 183 184 186
-880.612944841439 222.880141069454 2432.78216285185 205 206 208
-882.603784163877 223.238783010063 2441.34400443287 213 214 216
-885.554283529817 223.570934141302 2449.59383514849 215 216 218
-887.546110319732 223.928995056236 2458.16036981946 210 211 213
-889.538121111339 224.286769659493 2466.7278837069 206 207 209
-892.491641299702 224.618287012777 2474.99139867099 192 193 195
-901.21869066676 224.795092561863 2481.4467914841 189 191 190
-910.91738613416 224.947470613538 2487.64069090857 185 187 186
-915.809747661745 225.22894098633 2495.36339353755 192 194 193
-918.778143938399 225.561617746073 2503.6917791774 204 206 205
-918.854629765627 225.9700809123 2512.90138698915 197 199 198
-921.823908944758 226.302129608298 2521.23403261169 180 182 181
-922.863226852795 226.684217524591 2530.14553941048 178 180 179
-925.833991789808 227.015684729208 2538.485074151 180 182 181
-927.839201043154 227.371927307769 2547.11164913866 198 200 199
-933.71485154199 227.628656780494 2554.62543430824 201 203 202
-943.468386280526 227.787249167122 2561.05841844308 191 193 192
-961.951772727003 227.726243391949 2565.0773110505 175 177 174
-983.364495593926 227.595239751857 2568.37649720826 155 157 156
-1000.92183761716 227.565519065721 2572.85379700933 160 162 161
-1009.7627493274 227.756898554262 2579.80236087761 160 162 161
-1016.66967689434 227.997633298597 2587.31354752967 164 166 165
-1028.44267074226 228.119014851053 2593.55341778884 180 182 181
-1046.06352327206 228.098762106068 2598.30501267526 167 169 166
-1079.27519979438 227.701041416705 2599.07283148476 178 180 177
-1112.52661332257 227.309856685513 2600.01191015916 177 179 174
-918.724084108476 205.639536995769 2259.993873835 193 197 196
-915.070012612183 206.196805928401 2270.90477455475 194 198 199
-909.511561771649 206.81412794549 2282.50137530568 187 191 192
-900.146095785496 207.55228882032 2295.47880104914 212 216 217
-891.716128990346 208.256868412241 2308.0408332897 209 213 214
-885.173780119516 208.897797362191 2319.84542100865 203 207 208
-885.278919027846 209.32380640419 2329.17097086404 201 205 206
-879.670860283412 209.930668244131 2340.55620940427 199 203 204
-871.196153874613 210.62596517238 2352.92655293535 214 218 219
-859.848992563594 211.408617367192 2366.2581329538 216 220 221
-858.020927055235 211.888584156169 2376.14812089245 209 213 214
-860.005339452715 212.248137658329 2384.68110559501 199 203 204
-865.809695978646 212.48857113958 2391.88922687564 203 204 206
-867.797060463271 212.847970696108 2400.43531071781 195 196 198
-872.65277855779 213.118681070723 2408.00395639585 187 188 190
-872.72910442932 213.53657526176 2417.20731233001 174 175 177
-875.675013562422 213.865964339897 2425.43854038916 183 184 186
-877.664471498907 214.22436700297 2433.99443552441 198 199 201
-883.488451379318 214.466390089594 2441.2891800476 201 202 204
-885.480770552375 214.824651996087 2449.85776622521 204 205 207
-885.553746781651 215.24017257832 2459.04775778828 202 203 205
-886.584571267669 215.626240208878 2467.9205833574 198 199 201
-892.42004621679 215.868824197224 2475.26456544989 188 189 191
-901.145532449651 216.026528301255 2481.72430504088 187 189 188
-908.91761327346 216.21377356801 2488.52182289569 186 188 187
-913.80845536444 216.486794753651 2496.24279954904 198 200 199
-916.77596701639 216.81639677837 2504.5690954824 204 206 205
-917.816652774519 217.201990241258 2513.48456796737 197 199 198
-922.715123227432 217.475217531798 2521.24012475715 186 188 187
-922.79072042348 217.887836715214 2530.44337231526 185 187 186
-926.72782242366 218.188849810231 2538.50265006297 182 184 183
-927.767753680942 218.572721663672 2547.41581037773 190 192 191
-936.544661103784 218.73603517828 2554.09884203383 195 197 196
-952.105840662091 218.708989736887 2558.89114042004 174 176 175
-970.589814388758 218.602800768354 2562.94028261104 156 158 155
-987.156599790036 218.554256548532 2567.6211840104 161 163 162
-997.923716798792 218.670896037194 2573.98777750833 147 149 148
-1008.70207190987 218.789077179017 2580.40298579848 147 149 148
-1018.52048830411 218.935593895212 2587.12897833909 169 171 170
-1031.26377107115 219.003342088549 2593.11963903321 164 166 165
-1047.90989253772 218.966647073873 2598.14208503917 166 168 165
-1074.30325479501 218.667755531583 2600.70337635067 181 183 180
-1098.78062312038 218.426715625533 2603.90156837058 181 183 178
-915.77225253286 196.789278836113 2261.30465098258 199 203 202
-919.700786823783 197.092973183612 2269.32459745057 191 195 196
-910.355223812119 197.866387066961 2282.36790606766 214 218 219
-900.994849781831 198.636872275822 2295.34875777961 218 222 223
-891.619915747624 199.404459430298 2308.26715428127 203 207 208
-889.832338874785 199.903459747733 2318.32327712406 202 206 207
-888.04006410227 200.401357058014 2328.35934707174 216 220 221
-880.534298050496 201.095923701859 2340.44342263676 214 218 219
-871.112141158416 201.853769130347 2353.15945783214 224 228 229
-862.628252269761 202.575880630895 2365.4735666201 225 229 230
-859.850724307901 203.099435276406 2375.71044594591 205 209 210
-861.837035528452 203.458970574845 2384.25180866184 198 202 203
-864.778292935861 203.785776569308 2392.46297141709 201 202 204
-868.675905450127 204.080267654677 2400.35207181113 182 183 185
-873.532170546174 204.3427292929 2407.92689311927 180 181 183
-873.610179789288 204.765961016183 2417.13561400523 196 197 199
-874.643118491833 205.156489463825 2426.01404591082 202 203 205
-877.590203309051 205.482755723491 2434.25229145021 209 210 212
-883.413789357998 205.713705934613 2441.55072681862 209 210 212
-886.365601967441 206.040154754175 2449.8096983539 196 197 199
-885.480831078671 206.492576526879 2459.31509359652 192 193 195
-885.552585212361 206.912642111397 2468.49811309224 194 195 197
-889.465237318375 207.206688221071 2476.45266188692 197 198 200
-898.187276896471 207.344935699199 2482.90865728664 189 191 190
-905.956252056105 207.515415651341 2489.70235060944 197 199 198
-912.770269762726 207.717915877602 2496.82552486539 202 204 203
-915.737516847778 208.044579496741 2505.15238323903 203 205 204
-917.742356747141 208.401886203053 2513.77670475542 202 204 203
-921.676150782235 208.697553552567 2521.82454989936 196 198 197
-924.647764824221 209.023832631427 2530.16979136029 188 190 189
-925.688982966672 209.410774979856 2539.08790287694 179 181 180
-929.628326322357 209.706204741301 2547.15925484998 200 202 201
-940.33892567391 209.790376677243 2553.2958953991 184 186 185
-961.704044307109 209.545172093646 2556.45247918949 149 151 150
-978.252978432442 209.453878504187 2561.07986138321 146 148 145
-987.070398739025 209.604382458374 2567.94786386001 167 169 168
-995.896360425547 209.756060588357 2574.85390036799 174 176 175
-1008.61125776304 209.79025545678 2580.73921350395 179 181 180
-1021.33986814274 209.826478528024 2586.68376126807 164 166 165
-1032.1397299544 209.923566641613 2593.2061466806 165 167 166
-1049.75420992266 209.816936856289 2597.98046454997 169 171 168
-1072.25116001212 209.567312120083 2601.570742502 193 195 192
-1090.88184956557 209.43830447236 2606.27873379865 192 194 189
-909.98099911317 188.058230625781 2263.70457779674 204 208 207
-920.538004923719 188.100958843439 2269.18877270864 202 206 207
-911.19731678304 188.906730169457 2282.23561763056 214 218 219
-903.739487395347 189.637311091075 2294.5097472856 215 219 220
-890.57380498787 190.581505013711 2308.84676226016 209 213 214
-887.83769650556 191.126944522332 2319.25220126237 208 212 213
-884.144971794913 191.70673315956 2329.97952833405 210 214 215
-879.494025778915 192.320666818893 2341.02070422093 211 215 216
-866.268765413625 193.252949994245 2355.10218996051 221 225 226
-859.690576106744 193.933171082582 2366.72573375252 220 224 225
-856.913665339192 194.46969175043 2376.95662018996 202 206 207
-862.713194210582 194.687665379341 2384.15776461035 198 202 203
-865.655175795767 195.011688167945 2392.37484191075 193 194 196
-866.689054455681 195.405648044506 2401.2553975547 191 192 194
-867.721927896419 195.799144543621 2410.1317961683 194 195 197
-870.665815918766 196.122543005901 2418.35764153566 206 207 209
-875.5246891718 196.37651834999 2425.94894724458 207 208 210
-880.387482788326 196.630825652605 2433.55733308263 213 214 216
-884.296083249501 196.920046426687 2441.49795251529 210 211 213
-885.331844093895 197.312394299301 2450.38775027464 198 199 201
-885.40720842937 197.738436497115 2459.58316314702 195 196 198
-888.359961143013 198.061361723134 2467.84726337416 195 196 198
-892.27427012542 198.350182864229 2475.81327288562 185 186 188
-898.113416216312 198.571345237198 2483.1871180453 189 191 190
-902.996099148299 198.826812541662 2490.88246537112 192 194 193
-911.731991811188 198.947863973736 2497.40853317196 194 196 195
-915.661817273839 199.238013298708 2505.44213602507 190 192 191
-919.59450348265 199.528298180452 2513.48717883043 188 190 189
-920.637096094918 199.91871829633 2522.40930154236 186 188 187
-921.678805878104 200.308538746159 2531.32680029502 199 201 200
-926.580923991418 200.565260944085 2539.1070521203 214 216 215
-934.38494393205 200.723269769425 2546.06250801318 206 208 207
-951.862851659448 200.55309489017 2550.27238519065 170 172 171
-968.393297367374 200.418854790905 2554.84355651842 172 174 173
-977.199542323573 200.549067986766 2561.67533474604 177 179 176
-981.172205978023 200.843356079744 2569.89418661124 185 187 186
-990.961937695025 200.942874998314 2576.52142053604 183 185 184
-1005.61046466533 200.881921538467 2581.86948270082 185 187 186
-1020.27518611871 200.823426105602 2587.28746134085 165 167 166
-1030.10133126214 200.928111430943 2594.07102864284 163 165 164
-1045.7668471128 200.841890746888 2599.35898409643 165 167 164
-1069.22766578085 200.502970302125 2602.69164978913 187 189 186
-1092.71558501701 200.168380921698 2606.14227519147 190 192 187
-911.764975851273 179.039804814915 2263.19984451302 213 217 216
-915.691254118677 179.331525210583 2271.2158059207 207 211 212
-903.508747706528 180.28581423463 2285.32291620059 214 218 219
-897.946586219736 180.964597169994 2296.86701640509 208 212 213
-889.527663236966 181.757561752292 2309.42681528046 198 202 203
-886.793167313364 182.316094703827 2319.83165900826 202 206 207
-883.102403484199 182.911813994231 2330.5582569616 210 214 215
-876.551995548627 183.621144907482 2342.28710000534 220 224 225
-865.233624520735 184.519627634504 2355.6774188334 232 236 237
-858.658358539635 185.223871751374 2367.29971491929 218 222 223
-858.741123435232 185.65939790466 2376.52107435244 190 194 195
-863.587794049608 185.904474862025 2384.06492836831 185 189 190
-865.576877244238 186.263448981244 2392.61883606358 187 188 190
-867.566198585793 186.622204019152 2401.17392202765 187 188 190
-869.555737621381 186.980678581421 2409.73013224344 192 193 195
-875.368772859164 187.188858959731 2416.99546714173 206 207 209
-880.230432081711 187.435015176847 2424.60364838977 211 212 214
-884.138848970857 187.718881808997 2432.54660802991 210 211 213
-884.219686441609 188.15155755904 2441.76115063476 216 217 219
-885.256210040002 188.546422326411 2450.65391558221 210 211 213
-886.29190507329 188.940783604452 2459.54223912066 199 200 202
-888.285973323875 189.297815411788 2468.11925624397 193 194 196
-890.280218600198 189.654501847535 2476.69725658078 197 198 200
-898.999724420116 189.754533364401 2483.16456416505 191 193 192
-906.766804596426 189.892317122778 2489.96913793482 186 188 187
-912.617446304473 190.103929327341 2497.39925649239 183 185 184
-914.622885333777 190.461195183355 2506.02624214669 189 191 190
-917.591609923595 190.78198246293 2514.36306752711 198 200 199
-917.670418343182 191.210835655571 2523.57091726897 209 211 210
-917.746663147338 191.638939466054 2532.76899741951 226 228 227
-923.61102026476 191.851105068445 2540.25922846849 235 237 236
-938.17176255036 191.742288724557 2545.24861220959 187 189 188
-952.748732892627 191.635907297334 2550.30807396325 159 161 160
-961.540303318185 191.745152911295 2557.08752021591 190 192 191
-968.40567895265 191.926350610296 2564.44953649055 192 194 191
-976.245458619936 192.072995625227 2571.56925412793 188 190 189
-988.936619057509 192.044648808055 2577.38675380784 176 178 177
-1003.58042137739 191.948166023513 2582.73489363397 176 178 177
-1020.18058870192 191.784221100096 2587.62968350075 166 168 167
-1030.97521771618 191.832312091222 2594.15891511622 160 162 161
-1047.60900377727 191.673496237136 2599.19883172057 167 169 166
-1068.14899000565 191.378985004044 2603.30481411392 188 190 187
-1091.62993188413 190.984583396748 2606.75987286381 191 193 188
-905.977547881773 170.339299567749 2265.59866408743 211 215 214
-907.059714672124 170.749896474148 2274.6822196487 211 215 216
-896.771985763944 171.660216797942 2288.05077194673 213 217 218
-893.104597979582 172.276472880284 2298.86829912756 209 213 214
-890.37887578067 172.849715735287 2309.30315304762 208 212 213
-888.596434708155 173.380238059321 2319.36336696561 208 212 213
-885.859273262681 173.950933802714 2329.75039752464 214 218 219
-875.512302370144 174.849170168775 2342.8650029567 222 226 227
-862.296137805318 175.867289689344 2356.93608388948 222 226 227
-857.626103242909 176.513582408126 2367.87411212041 207 211 212
-860.566391126758 176.831815922201 2376.08713106083 186 190 191
-867.32024269458 176.987361171061 2382.97279608975 185 189 190
-869.312458089425 177.346588578236 2391.5403570849 189 190 192
-868.442231756983 177.82686868183 2401.09345864739 197 198 200
-867.56852021163 178.306197982913 2410.63176158831 200 201 203
-874.33507276748 178.462872986446 2417.57272999047 200 201 203
-880.151796603212 178.660453016569 2424.86164016197 200 201 203
-884.060227398958 178.938681529526 2432.80797724017 206 207 209
-882.227658728369 179.456384586536 2442.65484000507 200 201 203
-882.306291503613 179.893306574585 2451.857169955 203 204 206
-885.258073091105 180.210551621101 2460.12141814845 211 212 214
-887.252183835554 180.567272605403 2468.69880534012 210 211 213
-892.125856379772 180.805327840474 2476.3646889258 187 188 190
-898.924115476449 180.965135855318 2483.44461825806 186 188 187
-906.689933078344 181.086502476686 2490.25328442263 199 201 200
-910.616798184403 181.36533684457 2498.27941091963 199 201 200
-913.583864650612 181.683262516495 2506.61061275795 208 210 209
-914.626685613879 182.078858116463 2515.52961125442 217 219 218
-916.631837827733 182.435148666466 2524.15590667803 228 230 229
-917.673069031927 182.829774676596 2533.06847006278 219 221 220
-930.290057648702 182.761129576442 2538.58282817534 198 200 199
-943.88633668108 182.656133083768 2543.87639139451 174 176 175
-954.599393278559 182.668371198947 2550.06725551713 191 193 192
-956.624379905765 183.026390756596 2558.77993582762 193 195 194
-967.354622045074 183.040956448155 2565.04407391657 191 193 190
-981.967486554361 182.905098030627 2570.27904341716 184 186 185
-997.564962940147 182.733764988366 2575.31723816602 198 200 199
-1009.3035709315 182.716363171809 2581.48721240982 203 205 204
-1020.0850079361 182.738408172782 2587.97254543367 180 182 181
-1030.8776731728 182.762050968812 2594.50641673508 170 172 171
-1042.65245560568 182.74984487424 2600.83274041949 165 167 164
-1063.18393705672 182.403182506466 2604.93191946672 189 191 188
-1088.59990513238 181.874072597711 2607.8791491955 197 199 194
-907.760215767206 161.307948623718 2265.09576538729 203 207 206
-903.165720814977 161.98818146895 2276.34670211227 200 204 205
-892.880328527175 162.93298110622 2289.70527129742 223 227 228
-888.265392951465 163.608979098644 2300.86862568132 216 220 221
-889.332043499059 164.018305713872 2309.88455489685 206 210 211
-893.244346627907 164.295006615519 2317.8488541929 218 222 223
-888.613541648093 164.96735908095 2328.94442303517 233 237 238
-871.622033863108 166.20767964647 2344.47518934097 233 237 238
-859.360120521859 167.22473892209 2358.1943811989 208 212 213
-856.593809741591 167.802187267427 2368.44899136408 190 194 195
-862.38991954844 167.986911450148 2375.65462565803 178 182 183
-866.286064898633 168.259007314968 2383.54934661009 179 183 184
-868.278298846474 168.617832974823 2392.11722565507 189 190 192
-868.362888280655 169.062741796761 2401.34219288589 197 198 200
-869.399900685342 169.463897417167 2410.23232531011 202 203 205
-875.211432633881 169.64993344286 2417.50514684699 208 209 211
-877.205198202702 170.007867371905 2426.08029958184 210 211 213
-880.155712838527 170.322797446631 2434.33924003779 208 209 211
-881.193362207043 170.722890301453 2443.23389078557 202 203 205
-887.018137234059 170.910063202963 2450.56440026956 208 209 211
-890.931747995522 171.182552102302 2458.53585269859 216 217 219
-891.971453738887 171.582033742793 2467.43883810238 212 213 215
-894.928907869237 171.896674564664 2475.72961450203 187 188 190
-900.768057799877 172.085122540145 2483.12271812204 172 174 173
-906.612578556031 172.274140857192 2490.53806682136 183 185 184
-909.577980160163 172.58920375426 2498.86361611052 188 190 189
-910.621018046077 172.987613803944 2507.78191512553 215 217 216
-914.55046708728 173.260689565411 2515.8239013617 228 230 229
-920.409000310141 173.450875184695 2523.30139688993 217 219 218
-927.236610746073 173.600221302127 2530.51573203976 198 200 199
-940.821532991599 173.461468199819 2535.77910525971 185 187 186
-952.49127315322 173.407348006244 2541.66720478752 168 170 169
