ply
format ascii 1.0
comment KinectMotionCapture
element vertex 777
property float x
property float y
property float z
property uchar red
property uchar green
property uchar blue
end_header
-762.513050526839 -291.12152477807 2688.64761637935 14 17 10
-751.444393795983 -289.495400331095 2698.38855717595 14 17 10
-734.259723684415 -287.199816052946 2709.77216005384 15 18 11
-732.241898244514 -286.580709215599 2716.82219496168 15 18 11
-736.30624696714 -286.632056054768 2722.16703242987 14 16 11
-767.710976164405 -313.198494131555 2444.11886452528 18 23 16
-711.970091818937 -306.103231828898 2472.74725574516 13 18 11
-732.584505052252 -308.117653843288 2471.98572544936 13 18 11
-748.39567432789 -309.554737169852 2473.13928156049 14 19 12
-795.315512262182 -314.678174043345 2462.71965851134 12 17 10
-761.642899330168 -310.237278527694 2482.49297956876 10 15 8
-750.266266942762 -308.447096586135 2493.83213613265 10 15 8
-744.700466214345 -307.348326079895 2502.96074450939 9 14 7
-682.488116421117 -299.572324016993 2532.58094456384 13 18 11
-612.282032317732 -290.878620265147 2564.69509021631 15 20 13
-639.766373804197 -293.696463533044 2561.52240031501 14 19 12
-651.632511969786 -294.671906297337 2564.01885196221 16 19 12
-636.042173860107 -292.426088005147 2576.20445265811 16 19 12
-642.021918901511 -292.711046779941 2580.77169804353 16 19 12
-655.881054149595 -293.915572998027 2582.63464136246 17 20 13
-657.944897603933 -293.739903374736 2588.59805240504 17 20 13
-647.180142727693 -292.07018845152 2598.91153691108 17 20 13
-641.318684806949 -290.975616274072 2607.49461106987 17 20 13
-637.411884702527 -290.111206413885 2615.37384381108 17 20 13
-636.457874736831 -289.591467314092 2622.2357479229 16 19 12
-636.485186318875 -289.186819030057 2628.75256736951 16 19 12
-651.39988654822 -290.504133842295 2630.40766555201 18 21 14
-660.379364237711 -291.132168445566 2634.04389352191 18 21 14
-663.400381022506 -291.071435917826 2639.61835739865 18 21 14
-662.433656590406 -290.55169861359 2646.45637250615 18 21 14
-680.421506581541 -292.2114236982 2647.31618511315 17 20 13
-671.462559290496 -290.774348895943 2656.6503118889 17 20 13
-675.481979472799 -290.828239760719 2661.91175254265 16 19 12
-653.450755440365 -287.902207670504 2675.14625371135 13 16 9
-654.431620443688 -287.612921777361 2681.26683618023 14 17 10
-661.434621656022 -288.011262578164 2685.5671404266 16 19 12
-702.648258836343 -292.303743349333 2679.70776845034 17 20 13
-732.880772105037 -295.334704960774 2677.29527513895 16 19 12
-736.961958999737 -295.387683039373 2682.67059052527 14 15 9
-758.211511674794 -297.386596251418 2683.08236545953 15 16 10
-758.275455219764 -296.981539409981 2689.66617637843 16 19 12
-745.170956133376 -295.089615846151 2699.97286641913 16 19 12
-727.970653578956 -292.741037911022 2711.34365470436 16 19 12
-731.016915370272 -292.680891095015 2716.96437261193 16 19 12
-739.143847420175 -293.192478680588 2721.18293544466 13 15 10
-770.501461434712 -320.17289361724 2442.92412674496 20 25 18
-724.418221313138 -314.094676652969 2467.85882828786 17 22 15
-719.863567575305 -313.090346726838 2476.70392063155 13 18 11
-789.989486095711 -321.166151807883 2457.31795539465 14 19 12
-785.492479234655 -320.160217659209 2466.26904902817 12 17 10
-780.001603948163 -319.036505846969 2475.5429593249 10 15 8
-768.643239610663 -317.206071903602 2486.9273145489 9 14 7
-755.294872747538 -315.140286878867 2498.95307468961 7 12 5
-699.908798167728 -308.009927327631 2526.12927666305 13 18 11
-636.544336259033 -299.940234145578 2555.83415531369 15 20 13
-663.088902452885 -302.706512557163 2553.06335336169 13 18 11
-657.339339629134 -301.586531180505 2561.86036832167 16 19 12
-652.548222204907 -300.584631108677 2570.26932590811 16 19 12
-659.532554293077 -300.995071045989 2574.5316557662 16 19 12
-669.479965557998 -301.758004761376 2577.79272361904 16 19 12
-675.502695388178 -302.050074111058 2582.43688756225 17 20 13
-668.702891971647 -300.813014009833 2591.45232606854 17 20 13
-663.853300815423 -299.811605321921 2599.75409628195 18 21 14
-651.06692628588 -297.87004070707 2610.66080346529 17 20 13
-646.16547090074 -296.869513632175 2618.86641654799 16 19 12
-638.266885494126 -295.516839169165 2628.0105617614 16 19 12
-653.186690814376 -296.866327949772 2629.66587798469 18 21 14
-666.14803958339 -297.980263490368 2632.01967022486 18 21 14
-664.195954189507 -297.332452531678 2639.19874075048 18 21 14
-658.241652678805 -296.215381899797 2647.61832863768 18 21 14
-661.2505959255 -296.154970410196 2653.17049053499 17 20 13
-676.257054899634 -297.502804997935 2654.98517182355 17 20 13
-671.272120246721 -296.503598871826 2663.037358329 16 19 12
-663.259450326406 -295.153051083943 2671.97104179841 13 16 9
-648.192608867192 -292.982308552888 2682.98207204508 13 16 9
-666.24242461861 -294.681298780921 2683.9440431133 15 18 11
-694.393261244743 -297.551594028795 2681.98138578923 17 20 13
-719.58544421971 -300.069256053328 2681.02867599648 17 20 13
-723.649303277101 -300.125540740859 2686.37062372123 13 14 8
-720.644641244874 -299.361951168912 2693.76393465263 14 15 9
-730.772426472996 -300.121259767998 2697.35783323854 16 19 12
-733.829375406927 -300.060749334423 2702.99831609617 17 20 13
-731.816243328445 -299.415114881393 2710.06496036822 16 19 12
-734.866487129284 -299.355157002184 2715.69294509955 16 19 12
-734.867185332747 -298.944294445395 2722.16218221362 22 24 19
-786.438680351137 -329.270313474569 2429.31557671467 23 25 20
-809.058215619354 -331.621838267385 2427.91085862638 21 26 19
-742.681675080178 -322.873175412448 2460.73985789191 17 22 15
-775.946388948205 -326.551254641864 2455.24983052205 13 18 11
-784.057846849766 -327.092098122859 2459.43113570743 14 19 12
-782.464346790543 -326.426781254113 2467.27497439896 14 19 12
-774.045965818879 -324.91777145883 2477.62543775478 13 18 11
-769.493831465938 -323.891044580747 2486.48139470145 9 14 7
-739.553622839713 -319.731769016405 2504.57540105259 8 13 6
-691.940519582317 -313.40548492389 2528.88630813362 11 16 9
-664.877529302555 -309.189580392918 2552.28856856045 14 19 12
-660.107104437913 -308.166102901238 2560.74207232266 17 20 13
-654.33353757193 -307.022594629005 2569.50201451243 17 20 13
-658.370304134629 -307.082719598197 2574.79348359275 16 19 12
-665.36339725779 -307.503691170531 2579.06875950421 16 19 12
-672.366745211293 -307.924272841889 2583.36250892466 16 19 12
-680.367104350683 -308.464784807852 2587.33958293712 16 19 12
-670.586336036229 -306.84064068201 2597.33379037027 18 21 14
-658.79224448875 -304.976633221694 2607.92686013238 19 22 15
-647.950088007256 -303.233624622065 2618.12002994832 17 20 13
-655.927640531 -303.774258561246 2622.05461751516 16 19 12
-666.898678654498 -304.674973511783 2625.04208863071 16 19 12
-661.970497945302 -303.653551848187 2633.2048324195 17 20 13
-657.021244323991 -302.632530730307 2641.32920307468 18 21 14
-654.046556008471 -301.85200796955 2648.782229058 18 21 14
-668.036395109058 -303.112293777628 2650.86879248388 18 21 14
-675.053388647898 -303.532035324165 2655.18839550945 17 20 13
-679.076126286101 -303.591559197484 2660.45424360376 17 20 13
-667.057982254792 -301.731933333508 2670.63392238524 15 18 11
-675.080837605191 -302.271586527049 2674.6526292798 14 17 10
-689.148348932412 -303.530561448112 2676.88193605041 16 19 12
-703.243831262648 -304.789057454871 2679.16333485575 17 20 13
-716.359612688981 -305.927271200956 2681.79385591938 17 20 13
-707.299731372723 -304.428823416384 2690.96080279109 14 15 9
-708.312939767997 -304.129138733441 2697.14450203187 14 15 9
-703.250425477697 -303.111002633108 2705.05969809392 14 17 10
-716.401845873332 -304.249056001099 2707.75530970084 15 18 11
-731.607103114833 -305.626167165399 2709.92731738108 16 19 12
-741.765285718696 -306.40437669995 2713.57143836689 16 19 12
-734.654475847619 -305.147857313243 2722.02073115629 20 22 17
-762.893950878355 -331.993788503395 2452.87214241392 16 21 14
-781.651726247548 -333.904898479757 2452.95708775878 12 17 10
-757.73418433117 -330.391582001247 2469.24331342178 13 18 11
-758.046813152115 -329.960196122531 2476.2929238199 14 19 12
-780.739784963124 -332.362549022199 2475.00798382325 13 18 11
-762.546676714997 -329.589979689186 2488.91042760006 11 16 9
-738.440713118489 -326.079261474618 2504.84933010852 10 15 8
-712.30731974295 -322.323474611389 2521.36372427403 10 15 8
-688.053661431155 -318.815224214716 2537.0302471649 12 17 10
-674.505825400523 -316.66208643374 2548.71491174692 15 20 13
-647.177632969935 -312.786865134451 2565.18256851962 17 20 13
-658.084506175443 -313.711416404079 2568.04435632837 17 20 13
-663.109058488565 -313.897222606207 2572.99994907066 17 20 13
-661.243663120374 -313.222084878748 2580.3466760887 16 19 12
-672.186860316673 -314.145466879643 2583.27612620291 16 19 12
-681.175333288289 -314.82249705677 2586.91416412606 16 19 12
-667.434656938878 -312.672246511744 2598.24329197194 18 21 14
-651.669445646625 -310.276979592204 2610.15271564214 19 22 15
-654.692834630752 -310.216868791672 2615.7313554591 17 20 13
-664.665158330684 -311.016554448947 2619.0271897297 16 19 12
-663.72090883496 -310.464996159259 2625.91610958638 16 19 12
-662.766134155757 -309.913622292496 2632.785616253 17 20 13
-649.841356861532 -307.889386241506 2643.46263659075 18 21 14
-665.81433690759 -309.425080215448 2644.8836336318 18 21 14
-690.813382094095 -312.064428914808 2643.53861024376 18 21 14
-690.856752121789 -311.63571758103 2650.09220036795 18 21 14
-661.840887245559 -307.650299053613 2665.60385795325 17 20 13
-666.846426152717 -307.835945704582 2670.52402531404 16 19 12
-682.904637701224 -309.370092940758 2672.10224375471 15 18 11
-698.996086869149 -310.903548938831 2673.74180010358 17 20 13
-711.093028223373 -311.946381549511 2676.64247531054 18 21 14
-705.06556046766 -310.783352520797 2684.94081356376 16 19 12
-708.100047221065 -310.723523188378 2690.53977955707 15 16 10
-697.994177296406 -309.071519764596 2699.944443776 15 16 10
-697.975342394694 -308.644849120148 2706.38301402225 12 15 8
-713.148907650574 -310.054836445662 2708.48684780659 13 16 9
-734.441324426418 -312.198802297465 2708.93333297906 15 18 11
-749.684090470825 -313.607788311567 2711.16474073793 16 19 12
-750.716900008362 -313.303466224102 2717.38538037281 19 21 16
-792.999345721185 -343.485635478618 2426.53198152986 20 25 18
-703.432291495609 -331.327872274744 2468.49380664663 24 27 20
-781.182712564037 -340.968424312532 2445.74023107144 23 26 19
-723.348844698556 -332.971804123099 2475.01990029792 18 21 14
-745.958814792682 -335.429861524316 2473.56555349386 17 20 13
-774.454881980894 -338.642131690475 2470.02019965812 16 19 12
-764.0676133587 -336.817777321464 2481.07445353119 17 20 13
-766.319626637934 -336.629940067774 2487.38760223236 14 17 10
-746.113215308509 -333.547900699664 2501.90987761395 14 17 10
-735.620520265974 -331.724919929466 2512.76982002031 12 15 8
-702.576723550871 -327.009518279248 2531.66739920119 13 16 9
-691.001608719726 -325.062365370852 2542.6882106456 16 19 12
-653.868575101543 -319.846832408786 2562.67554386376 14 17 10
-651.026803059804 -319.032909511326 2570.38357546717 15 18 11
-663.91436736226 -320.229975117281 2572.57666565326 16 19 12
-655.149774812768 -318.662008972457 2582.30760801785 17 20 13
-653.260208134795 -317.973954645703 2589.61426813275 17 20 13
-673.092101910711 -320.04930721585 2589.51052240475 14 17 10
-662.3017550762 -318.230843969587 2599.82116617222 15 18 11
-639.588774975848 -314.906337513943 2614.0364227139 17 20 13
-638.628255702637 -314.344750624332 2620.8984352983 17 20 13
-660.498235750364 -316.669744382077 2620.23792632957 16 19 12
-661.53478918838 -316.358673034417 2626.46798556946 15 18 11
-662.566250032463 -316.047867252849 2632.68809449585 16 19 12
-674.558478804071 -317.116704939946 2635.38836390532 17 20 13
-673.596706665922 -316.554896614789 2642.24813883319 18 21 14
-680.620601605214 -316.996359700757 2646.57390266347 18 21 14
-668.639166396214 -315.055995195794 2656.84537548174 18 21 14
-655.616638518289 -312.991206556684 2667.35480970975 17 20 13
-659.61031746306 -313.057221684262 2672.56526151415 17 20 13
-683.700282689341 -315.628686063635 2671.68348799386 16 19 12
-697.784208450501 -316.946703806077 2673.92573271301 18 21 14
-703.838357586358 -317.262507193503 2678.62054515498 18 21 14
-706.874366272799 -317.202777915205 2684.22228017205 16 19 12
-734.146134196669 -320.147030254517 2682.73591840666 16 17 11
-728.112559480802 -318.960588085934 2691.03056991981 15 16 10
-711.931889519701 -316.523675154291 2702.18790899506 11 14 7
-713.948255911433 -316.339384487401 2708.06709784376 11 14 7
-730.171897560174 -317.906365006549 2709.93969871572 14 17 10
-743.380099475493 -319.097780699754 2712.72419894285 15 18 11
-764.754530949754 -321.289104454887 2713.30728256204 17 19 14
-785.918588812721 -348.23747169105 2443.80471204402 23 26 19
-759.115339086525 -344.188628793262 2461.2895415559 18 21 14
-746.80419906222 -342.069929730924 2473.12355967531 17 20 13
-779.200155329902 -345.866041596674 2468.11553740692 16 19 12
-768.813416575181 -344.004305443178 2479.18150305529 17 20 13
-762.291476018265 -342.65719473477 2488.74158078752 15 18 11
-760.627134876968 -341.952895676269 2496.46685259374 14 17 10
-751.125776745568 -340.220778278613 2507.00741611971 12 15 8
-732.777301184096 -337.333122574587 2520.65872001421 12 15 8
-680.053087849871 -329.951707566212 2546.46116539572 15 18 11
-664.490900378279 -327.452035976736 2558.77538356585 15 18 11
-669.525016469874 -327.648982798831 2563.74471137433 16 19 12
-666.688608883853 -326.818923901299 2571.46746162714 16 19 12
-652.993877625863 -324.577425122448 2582.90853114938 17 20 13
-647.150826770639 -323.363069703637 2591.56198486406 17 20 13
-654.131900492055 -323.816683175376 2595.80533879332 17 20 13
-664.091690991965 -324.65463027463 2599.06661619729 17 20 13
-644.343764473543 -321.645604574426 2612.29537262653 19 22 15
-657.276950003834 -322.868125938784 2614.56471347593 19 22 15
-648.380381871435 -321.27041436534 2624.06187377886 18 21 14
-651.389055465652 -321.210892416914 2629.6132722322 17 20 13
-666.349442917776 -322.68882943573 2631.30459927725 16 19 12
-681.340766999039 -324.166130273994 2633.05251148914 17 20 13
-688.373971728923 -324.618295726413 2637.39217929174 18 21 14
-678.419521584685 -322.893582779113 2647.09719737436 18 21 14
-663.425684681481 -320.529459999965 2658.30064984885 18 21 14
-653.397389688355 -318.806276375119 2667.86939389962 18 21 14
-661.402520280137 -319.387207265712 2671.84308865341 17 20 13
-681.480941620764 -321.503200188787 2672.18002637461 16 19 12
-692.545893749635 -322.467262553919 2675.3211725449 15 18 11
-693.555266357063 -322.151965048456 2681.50251218022 16 19 12
-706.66630905447 -323.371450721975 2684.09937341938 18 21 14
-683.436429561739 -319.988220155624 2697.3816173833 17 19 14
-737.010491644277 -326.320360537203 2688.26234143639 15 17 12
-729.948258528086 -324.982843008404 2696.82533359051 12 14 9
-730.972383985537 -324.668019800932 2703.03366377361 13 15 10
-733.006728333287 -324.481297339501 2708.94614440741 14 16 11
-744.187692937167 -325.444273667449 2712.30098525189 14 16 11
-742.156775005137 -324.747176074514 2719.34988991367 14 16 11
-738.074420060337 -323.795160116848 2726.9325903302 12 14 9
-863.36751758722 -366.421196748981 2398.89332147707 21 26 19
-847.392941204173 -363.731498799088 2412.62102555942 23 26 19
-803.257630835991 -357.234316983815 2437.03471787609 22 25 18
-767.730611856819 -351.92092555447 2457.88992921877 18 21 14
-772.917612227232 -352.122197047617 2463.13913855206 16 19 12
-779.08234862747 -352.454441592352 2468.03290116176 16 19 12
-757.97086110893 -349.112254763277 2483.08360768526 16 19 12
-749.478669417497 -347.476551456513 2493.33641910813 15 18 11
-755.610447185161 -347.808684332979 2498.16909412428 14 17 10
-762.727900889957 -348.271664280945 2502.66045899396 13 16 9
-728.712867384812 -343.227414729184 2521.98544759824 10 13 6
-698.522754806483 -338.709255976221 2539.72775884377 12 15 8
-674.137933071978 -334.978975927086 2555.21981733319 16 19 12
-671.316500811902 -334.132902937612 2562.97492571656 17 20 13
-666.509947624382 -333.025004324115 2571.38737013437 17 20 13
-642.947571169146 -329.428432864342 2586.23755128066 17 20 13
-646.960726349974 -329.500211681811 2591.48158592391 16 19 12
-658.884984733841 -330.619343641961 2594.0412166057 18 21 14
-673.801722383606 -332.130712836821 2595.64220994559 19 22 15
-682.802199050314 -332.856111876756 2599.28777930691 19 22 15
-671.968279628448 -330.963833939613 2609.54048279218 19 22 15
-656.129105160714 -328.4180625875 2621.35913458524 18 21 14
-641.235667472491 -326.003968435817 2632.76277120641 16 19 12
-655.189937836334 -327.383650960271 2634.74750787234 16 19 12
-676.155539920317 -329.67819805865 2634.548142544 17 20 13
-682.183552917497 -330.010680239448 2639.18987019739 17 20 13
-668.214903870859 -327.72877675133 2650.13930555088 18 21 14
-655.203727009267 -325.578587984055 2660.69529799833 18 21 14
-660.201391551559 -325.781109587296 2665.59590831085 18 21 14
-671.228235014941 -326.767370384606 2668.66029016167 18 21 14
-673.227471388787 -326.577875201624 2674.50903465081 17 20 13
-681.263610647644 -327.171849969452 2678.53583742243 16 19 12
-686.288908782348 -327.374160688271 2683.48733436384 17 20 13
-690.309811035331 -327.446055950762 2688.74608651086 18 21 14
-707.470053069019 -329.214515673453 2690.1653735279 17 20 13
-726.689424123216 -331.243419362545 2691.06435861617 15 18 11
-747.976343233281 -333.532631558357 2691.45705391933 13 16 9
-744.9643701944 -332.69071837271 2698.86047215137 14 17 10
-739.905656676139 -331.588481483587 2706.80744517496 14 17 10
-732.792234342599 -330.226047209607 2715.28378402581 14 17 10
-739.908241199841 -330.689398918742 2719.77237608274 22 25 18
-719.507416943233 -327.633786365214 2731.81434426546 10 13 6
-861.357475170412 -373.012209551501 2399.55933184544 23 28 21
-835.688938819948 -368.929295147035 2417.02655273485 23 26 19
-809.942638070146 -364.847543118431 2434.3504011736 22 25 18
-790.914874547167 -361.704732787331 2448.94390044947 17 20 13
-788.354529513489 -360.839537730862 2457.18494622559 16 19 12
-781.884540605123 -359.438715317731 2466.85622051172 16 19 12
-748.09509360473 -354.28949697543 2486.62767014607 16 19 12
-740.560514617587 -352.756021466739 2496.49616444729 15 18 11
-755.476516561798 -354.301107625164 2498.08516103964 15 18 11
-759.658025381035 -354.373513014836 2503.63914451947 11 14 7
-749.143082128274 -352.438969970179 2514.49121331464 10 13 6
-723.873367840877 -348.49861800755 2530.53426979399 11 14 7
-700.493667280341 -344.826983467655 2545.74249401366 15 18 11
-671.141239295532 -340.354305932002 2562.89647914813 17 20 13
-657.464829152454 -338.022065132623 2574.39853259158 17 20 13
-649.662373588274 -336.492488571593 2583.77318056243 17 20 13
-664.547799161947 -338.036934326999 2585.30613422094 15 18 11
-670.5632849443 -338.378251717717 2589.92216510847 16 19 12
-672.625337627486 -338.185054082137 2595.88755364215 17 20 13
-674.68433911724 -337.991806034317 2601.84784987918 17 20 13
-676.740783759413 -337.798616090807 2607.80292189045 17 20 13
-661.894333706138 -335.335686960222 2619.307663049 16 19 12
-649.987703588507 -333.274186217417 2629.75314429955 14 17 10
-651.995736349912 -333.081809118963 2635.61893360136 16 19 12
-660.986555121937 -333.823485805462 2639.24234954461 16 19 12
-669.992825554271 -334.564887972983 2642.89376221625 16 19 12
-659.003408394545 -332.638417615752 2652.87075941578 17 20 13
-662.00340307571 -332.579708080238 2658.40595145685 18 21 14
-673.028084821414 -333.587621074874 2661.45984623942 19 22 15
-674.029305739099 -333.262225956298 2667.62872575473 17 20 13
-655.91657342458 -330.404619876341 2679.58976857606 17 20 13
-663.931582451604 -331.012818848582 2683.57292723694 16 19 12
-679.017226147391 -332.55352136011 2685.47524417597 17 20 13
-676.970865385492 -331.829281035207 2692.50441329976 17 20 13
-704.226206079417 -334.967598937411 2690.92947922924 18 21 12
-752.798330754216 -340.901142604215 2683.30509623616 17 20 11
-762.97585920924 -341.773722738423 2686.95641852372 15 18 9
-754.906521037472 -340.250247227133 2695.83788179228 15 18 9
-770.176833839586 -341.788396160497 2698.08060678093 14 17 8
-754.959088687979 -339.334497341537 2708.89975299482 13 16 7
-737.657872811746 -336.615630577974 2720.1962970087 12 15 6
-728.463940256087 -334.962048253429 2729.16385572092 20 23 14
-839.030841256746 -376.715989674967 2408.14149154508 28 30 25
-793.352926911483 -369.212624663351 2440.59563970959 21 24 17
-764.581630442123 -364.642798584832 2458.84764621685 17 20 13
-793.103902264848 -368.133537079978 2455.26674613827 15 18 11
-772.028495819082 -364.657616542556 2470.42402889501 15 18 11
-746.987644042098 -360.636483135872 2486.91229792701 16 19 12
-752.140086882632 -360.848743014334 2492.09464522543 15 18 11
-767.074056850956 -362.425731791522 2493.70759873702 15 18 11
-776.165046841151 -363.183142654385 2497.51001195736 14 17 10
-775.468556787002 -362.575572405398 2504.87145055614 11 14 7
-760.037997265442 -359.921589157561 2517.47416130261 11 14 7
-751.43808689709 -358.223234620795 2527.54769900698 14 17 10
-711.314780451521 -352.161341672475 2548.63429196506 16 19 12
-650.383677425316 -343.238127824884 2576.72633062615 17 20 13
-661.315002690093 -344.269929309371 2579.60083780994 16 19 12
-680.170635535812 -346.391529633947 2579.80246196651 15 18 11
-665.431213294827 -343.8789323866 2591.51898303052 17 20 13
-661.54165980303 -342.865886398342 2599.47463347508 17 20 13
-663.58510011869 -342.670546852426 2605.40643459151 18 21 14
-664.632368100527 -342.338903233615 2611.66238634857 18 21 14
-673.629993585574 -343.096834997473 2615.29292858634 17 20 13
-667.706723353715 -341.812173890182 2623.8199866645 15 18 11
-660.763070971222 -340.391820101993 2632.62598101646 17 20 13
-649.800271789687 -338.427570556196 2642.66329453216 16 19 12
-655.794356623305 -338.777356116154 2647.23741861724 15 18 11
-652.787911651882 -337.902582886754 2654.66088568559 17 20 13
-663.796232602998 -338.932435339168 2657.67809232499 18 21 14
-667.801028698375 -339.010045298515 2662.90499953883 17 20 13
-671.807955212494 -339.087602231482 2668.13634517106 17 20 13
-656.702467895386 -336.582200356186 2679.17744205949 17 20 13
-653.638740457376 -335.70890505845 2686.49460754513 17 20 13
-663.671200435885 -336.602771024942 2689.87272137016 17 20 13
-693.919642043771 -340.213884282295 2687.31556350018 17 20 13
-726.259904414471 -344.095448044558 2684.29421210557 19 22 13
-738.425229433514 -345.259334847957 2687.2837495215 18 21 12
-743.517003938774 -345.472289509775 2692.35481200507 16 19 10
-757.749368884602 -346.907307872591 2694.83487886011 16 19 10
-769.977458627178 -348.07062453752 2697.94002349151 14 17 8
-762.893628134651 -346.654835340251 2706.48683208833 13 16 7
-742.53802676126 -343.475661647054 2718.64913085195 7 10 1
-742.527245968852 -343.011432873233 2725.11380859985 22 25 16
-798.688641502844 -377.164518080113 2431.09778070298 23 26 19
-716.593540126013 -364.843911022767 2469.9309520344 19 22 15
-767.376852043455 -371.609783242868 2457.66334496443 17 20 13
-772.561732831354 -371.827624805435 2462.9036730275 15 18 11
-777.751301607539 -372.045264708642 2468.15318804246 15 18 11
-759.535294434689 -368.921299912888 2482.11868435861 15 18 11
-763.726918153204 -368.99961189897 2487.68949474223 15 18 11
-775.745231274707 -370.191130165341 2490.40034112435 16 19 12
-790.724195961736 -371.799313763024 2492.08666717697 15 18 11
-778.2770183287 -369.511527455469 2503.72133547253 12 15 8
-775.60743327759 -368.615280295585 2511.77030273532 12 15 8
-755.22443950621 -365.216000813415 2526.06371591521 11 14 7
-719.027903122643 -359.593039474163 2545.78065700708 14 17 10
-675.8276227403 -352.998902217717 2567.71309355612 16 19 12
-660.143232312177 -350.29866164108 2579.86287357695 16 19 12
-660.223156517244 -349.82289405331 2586.49784430864 15 18 11
-655.347061657001 -348.652421394812 2594.80120626359 16 19 12
-654.413506868828 -348.037955920689 2601.72921740641 16 19 12
-661.40746678935 -348.534873777467 2605.98274461155 18 21 14
-663.443635015692 -348.33711144616 2611.90240385772 18 21 14
-674.430402074722 -349.389051941893 2614.87282237461 18 21 14
-672.48835263082 -348.635915973709 2622.10252855199 16 19 12
-664.549221925319 -347.050324054222 2631.24214679876 17 20 13
-656.581549919549 -345.465190182878 2640.32913464912 15 18 11
-658.584494740769 -345.26811892041 2646.18748218068 15 18 11
-667.593444355586 -346.042106133439 2649.83402334188 16 19 12
-666.592577410658 -345.429060758849 2656.63730386564 18 21 14
-656.546928857396 -343.568229899041 2666.21552500416 18 21 14
-646.467551789799 -341.708037034253 2675.73152140061 18 21 14
-649.437563340654 -341.650748135065 2681.21114178641 19 22 15
-653.414981651942 -341.732083595956 2686.38708017346 19 22 15
-665.466639082703 -342.92208211229 2689.15970983697 18 21 14
-692.694897267305 -346.189949448971 2687.496007831 18 21 14
-726.054044784828 -350.287879761626 2684.168706554 19 22 13
-724.041841747852 -349.537202236394 2691.26814394128 18 21 12
-738.242151487933 -351.002501183906 2693.6801494174 17 20 11
-738.255197271142 -350.529184469633 2700.19138151591 17 20 11
-753.510839493477 -352.132623822027 2702.3874904197 14 17 8
-753.527641864498 -351.659735083587 2708.90550286625 13 16 7
-751.498293212339 -350.910561679812 2715.9729540219 16 19 10
-755.579087909762 -350.991847904646 2721.33903522521 15 18 9
-749.44413678936 -349.690267326204 2729.48186162403 13 16 7
-849.507020939268 -391.833455277931 2403.82824543724 23 25 20
-726.165366779191 -372.684148360732 2466.14285301226 19 22 15
-766.285633523876 -378.019151031666 2457.95906511049 16 19 12
-785.093353849749 -380.229659471221 2458.04583285478 15 18 11
-763.987869547297 -376.620970314303 2473.18772329618 16 19 12
-760.381630985312 -375.567206558652 2481.67668621583 16 19 12
-762.619287588769 -375.364622261052 2487.96836936766 15 18 11
-767.789491119851 -375.587542961032 2493.18017587667 15 18 11
-775.903316665096 -376.235604195489 2497.33359293474 14 17 10
-772.25855995584 -375.181767317182 2505.75173595285 13 16 9
-767.613345015398 -373.986446167684 2514.48720061706 12 15 8
-767.86467621263 -373.499892335433 2521.44066369159 9 12 5
-741.518132605343 -369.187397008844 2537.72994555732 12 15 8
-689.455245434919 -361.192333355227 2562.81842813346 16 19 12
-660.945059816611 -356.599784077935 2579.44269912219 17 20 13
-644.265417602708 -353.225392658604 2598.42446267952 17 20 13
-653.227850790747 -354.016655886239 2601.98025639181 17 20 13
-669.153344263864 -355.798546959223 2603.23988027669 16 19 12
-670.20450695051 -355.456811887165 2609.50602981985 15 18 11
-660.303944747666 -353.558386507576 2619.36239666294 16 19 12
-666.312326505653 -353.92442847127 2623.95792675109 17 20 13
-663.348878901655 -353.01723534254 2631.47022316476 15 18 11
-649.380968783415 -350.554511705826 2642.47539400096 16 19 12
-649.372915358566 -350.072464762858 2648.95044617661 17 20 13
-655.366366505218 -350.438861786818 2653.5184093759 17 20 13
-669.390376102327 -351.936186650007 2655.59603164912 17 20 13
-645.284770354577 -348.062162893924 2669.53055094435 17 20 13
-636.191226609956 -346.309325590602 2678.71208680755 17 20 13
-639.147154805264 -346.252558928557 2684.16564828863 17 20 13
-663.271010938666 -349.162406546335 2683.24495153964 17 20 13
-678.365334416549 -350.800324748548 2685.1339973567 18 21 14
-689.447939992548 -351.872900060173 2688.27497928533 19 22 15
-692.456135152997 -351.815629178651 2693.82482086818 20 23 14
-709.6484415013 -353.735005521043 2695.25820041355 19 22 13
-705.573356305168 -352.689897418497 2702.88226600744 17 20 11
-726.873702218184 -355.173292383755 2703.24126076505 16 19 10
-726.862650415394 -354.693053805864 2709.71025456356 15 18 9
-744.155061435923 -356.611297187033 2711.32808554637 15 18 9
-758.424696334116 -358.106142187771 2713.85870749408 13 16 7
-766.597471707601 -358.75453361041 2718.11994048873 9 12 3
-755.361807651509 -356.724045065676 2727.67532525609 20 23 14
-874.601377939284 -402.393462151232 2393.93220982259 10 12 7
-775.552711343637 -386.502217874258 2447.07226283434 21 24 17
-782.693777566369 -387.020459999246 2451.59043691664 17 20 13
-781.083131164296 -386.236874513807 2459.4383062442 16 19 12
-769.710744984605 -384.007613143511 2470.9173128667 16 19 12
-758.29960575761 -381.7788999918 2482.3243764692 16 19 12
-761.510561811042 -381.718505562435 2488.24807159575 16 19 12
-757.870406749241 -380.646591841286 2496.68011397251 16 19 12
-757.151668139964 -380.008119139185 2504.0104306925 12 15 8
-761.329096018259 -380.091945807968 2509.55296971319 11 14 7
-762.560902651105 -379.742387108627 2516.15370911876 12 15 8
-797.23882656346 -384.302439197614 2510.88280524892 17 20 13
-757.127109814479 -377.887975716183 2532.09724346157 15 18 11
-719.86124258851 -371.908735663437 2552.06943016888 14 17 10
-665.697815995458 -363.477817944757 2577.65581142888 18 21 14
-649.956466762036 -360.677568531166 2589.73090860966 18 21 14
-636.14666126922 -358.16681392293 2601.04130659286 17 20 13
-646.091072706582 -359.118867124457 2604.23998497042 17 20 13
-676.904107235647 -363.099328741686 2600.49484191717 16 19 12
-670.010310310184 -361.598729737367 2609.41666097924 16 19 12
-672.049743440159 -361.396051824622 2615.34329895382 16 19 12
-671.095906417441 -360.761087746676 2622.24017173725 17 20 13
-670.131779970822 -360.126273852826 2629.1175709878 16 19 12
-659.163877307023 -358.050702924688 2639.17897497352 16 19 12
-641.155427450164 -354.967286644364 2651.39921391421 16 19 12
-648.140248722852 -355.486384832125 2655.62976762829 17 20 13
-652.125588918023 -355.573180294519 2660.81863386481 17 20 13
-663.144704700079 -356.668079011648 2663.83613337201 16 19 12
-635.965057512935 -352.291407111255 2678.61248521623 16 19 12
-632.877575591243 -351.371241919062 2685.90005665079 16 19 12
-665.06637827209 -355.489222744773 2682.52955190183 17 20 13
-677.137268872054 -356.727681301115 2685.32298190474 17 20 13
-691.252935150182 -358.253726837617 2687.56104484236 18 21 14
-712.482499702412 -360.78635829564 2687.77505332166 19 22 13
-683.083159856727 -356.126518222311 2702.78424344806 19 22 13
-698.252101062606 -357.796164823343 2704.8009834594 18 21 12
-713.451679957012 -359.465478021117 2706.87467626775 17 20 11
-734.786538402539 -361.997032901845 2707.2826631517 15 18 9
-743.943810293036 -362.803111699592 2711.1923453821 14 17 8
-758.216050037871 -364.327647285893 2713.71882952778 13 16 7
-771.49547398982 -365.708362224886 2716.57739375403 12 15 6
-776.620619971764 -365.939560088312 2721.70384210157 16 19 10
-839.652202916211 -403.95020456971 2407.43928420016 17 19 14
-824.56736339697 -401.089548493844 2420.7399879318 22 25 18
-797.777728354158 -396.461888065142 2438.42392005098 20 23 16
-773.82536332341 -392.277297620947 2454.84847024296 17 20 13
-774.147670991965 -391.775362784056 2461.93709737535 16 19 12
-757.88404780132 -388.770323405026 2475.22802157698 15 18 11
-777.697687765518 -391.213011287911 2474.98023823364 15 18 11
-771.155551705646 -389.680512104664 2484.55841876366 15 18 11
-762.629443195133 -387.854029381398 2494.80571815451 16 19 12
-768.776996463497 -388.235077092643 2499.65269746122 12 15 8
-761.189152828692 -386.556168653459 2509.46696314099 12 15 8
-784.043106279668 -389.437586403094 2508.33403273785 14 17 10
-766.596163050602 -386.28798138541 2521.60688903613 20 23 16
-773.731998005701 -386.815444549337 2526.11266890184 16 19 12
-718.710637716439 -378.080387818192 2552.32741413166 12 15 8
-678.358123289117 -371.553064704294 2573.13241658324 17 20 13
-651.742913353381 -367.085351924537 2588.97424930275 17 20 13
-634.956612571911 -364.088604712009 2601.30138054907 17 20 13
-646.884602662813 -365.353554519314 2603.82452824066 17 20 13
-663.802049930255 -367.352515031504 2604.72795496127 17 20 13
-678.766002345871 -369.056896494786 2606.35774197029 17 20 13
-682.807184875374 -369.145536366415 2611.64825353746 17 20 13
-678.873823174228 -368.059387557186 2619.54531627363 17 20 13
-674.922040028681 -366.973666808581 2627.40887413412 17 20 13
-671.952072928824 -366.035143795733 2634.91809732452 16 19 12
-657.955550612918 -363.482682074131 2645.89813550777 16 19 12
-656.944539808519 -362.838558671896 2652.69210544861 16 19 12
-659.937163710868 -362.781532302131 2658.21323512075 17 20 13
-666.948872254807 -363.311300809123 2662.49003063409 16 19 12
-654.854770238457 -361.054558132051 2672.6494303003 16 19 12
-655.817869171178 -360.704772070074 2678.75603565785 16 19 12
-669.888929743294 -362.26115712299 2680.90243259378 16 19 12
-676.918167523115 -362.791071423294 2685.2114237227 17 20 13
-691.036389399604 -364.346867220486 2687.44524033617 18 21 14
-701.132706602256 -365.316078987991 2690.91814114911 17 20 11
-739.634598818547 -370.387485149054 2686.1815345743 18 21 12
-701.076663404364 -364.324688987621 2703.80300380073 20 23 14
-734.578870613366 -368.662616083778 2700.66613898915 19 22 13
-736.609162226379 -368.460019371254 2706.57644387375 15 18 9
-749.845836551586 -369.868010544635 2709.34818120422 14 17 8
-758.007048880039 -370.544193160913 2713.57979025007 13 16 7
-766.180803096353 -371.220139682001 2717.83504135574 17 20 11
-778.459062978513 -372.481714274585 2721.0029097696 8 11 2
-799.977879456213 -375.060063089337 2721.73515706333 15 18 9
-794.987288588032 -403.808974135772 2424.73746593538 28 28 26
-792.811610383147 -402.339114612118 2440.21272168331 19 22 15
-770.787872410962 -398.380119757497 2455.88642421921 17 20 13
-748.69675307997 -394.422104548456 2471.43590555872 16 19 12
-768.485375856585 -396.911120415697 2471.12817924035 14 17 10
-769.758544205665 -396.551465382654 2477.80752231642 14 17 10
-772.004049348726 -396.341519717191 2484.11585408228 14 17 10
-769.350141335672 -395.38215643436 2492.21263463308 14 17 10
-776.487026991757 -395.921188467054 2496.71686792482 15 18 11
-779.706162870041 -395.860637543375 2502.65565430085 18 21 14
-769.159596309018 -393.703411317217 2513.51652763195 18 21 14
-785.159020825456 -395.589513114599 2514.88129004226 16 19 12
-754.85787592776 -390.438387255769 2532.60923502872 13 16 9
-689.919511418744 -380.049884567961 2562.23153458323 9 12 5
-669.281537784491 -376.399410478072 2576.13102864549 14 17 10
-662.437252528819 -374.845042078425 2585.16007828873 16 19 12
-644.665912806189 -371.645324366688 2597.85188452356 17 20 13
-641.724772360718 -370.690563231123 2605.41900833213 17 20 13
-657.645522481416 -372.577629543211 2606.63827989965 17 20 13
-674.594394619389 -374.613709499113 2607.58884432194 17 20 13
-684.606166389766 -375.602481880901 2610.90036838809 17 20 13
-674.687123223533 -373.601048655805 2620.75372201887 17 20 13
-677.717832823296 -373.543391494209 2626.34508792052 17 20 13
-680.748365246125 -373.485795531117 2631.93610955781 16 19 12
-678.772115311213 -372.681068788439 2639.11842924219 16 19 12
-666.757212286703 -370.382848175105 2649.43596358126 16 19 12
-660.726532349218 -368.981525108453 2657.80055836877 16 19 12
-668.745023808707 -369.671697694442 2661.76547065094 17 20 13
-663.692130479551 -368.420519465482 2669.76844213072 17 20 13
-666.680573791372 -368.364192853772 2675.28167250304 17 20 13
-679.759141879391 -369.800774843372 2677.75402578973 17 20 13
-693.873864786659 -371.386302479183 2679.97196192198 18 21 14
-687.784533493444 -369.986977785782 2688.22808522638 19 22 15
-693.826717794968 -370.378675333857 2692.87806917207 17 20 13
-703.933227255188 -371.367087728749 2696.36394136735 19 22 15
-744.521669162787 -376.829993114562 2691.1175491302 20 23 16
-708.948888181197 -371.106751450173 2707.78174364172 20 23 16
-747.59509718663 -376.270244242568 2703.28337377589 16 19 12
-758.809789311389 -377.407217283008 2706.64741692604 14 17 10
-770.044807155616 -378.544038804149 2710.04939258683 14 17 10
-760.862486585946 -376.700021234661 2719.09507153549 14 17 10
-777.228850528861 -378.582285302745 2721.13585649651 9 12 5
-794.653552925132 -380.613317599513 2722.96257315744 13 16 9
-771.617205718169 -406.776081320247 2433.73736962106 17 17 15
-793.31277422215 -409.617637081043 2432.60074487995 21 23 18
-807.28112508002 -411.236847036868 2434.53985139849 20 23 16
-779.75234930401 -405.775223728031 2459.57486081854 17 20 13
-776.166049911966 -404.647334033428 2468.1232909928 15 18 11
-803.830343561473 -408.401185338013 2465.00008841316 15 18 11
-777.744906969082 -403.764729227867 2481.86701554222 15 18 11
-776.074804413032 -402.942116500627 2489.61777473374 15 18 11
-762.619524755719 -400.289877191483 2501.62275777959 20 23 16
-770.730912917936 -400.992238512485 2505.75485861298 20 23 16
-786.723616341985 -402.913664853209 2507.0961326254 18 21 14
-786.006421618378 -402.243561324655 2514.4388008937 11 14 7
-760.624700607617 -397.763909411295 2530.43753130473 10 13 6
-728.25551707201 -392.219204491207 2548.71043684857 8 11 4
-704.692164216333 -388.047148608774 2563.73137835998 12 15 8
-673.138489964762 -382.657888984916 2581.34260906829 14 17 10
-646.451182762961 -378.031731670651 2597.09948941532 17 20 13
-625.641782683572 -374.320460012638 2610.70248637386 17 20 13
-645.52092453509 -376.852033075977 2610.54793903076 18 21 14
-663.452933505856 -379.078197192753 2611.13470958028 18 21 14
-684.41315708008 -381.760339534924 2610.80838982735 18 21 14
-667.504093413495 -378.659462722569 2622.94105174183 17 20 13
-667.527352621441 -378.145903175289 2629.48317006391 18 21 14
-664.541610072443 -377.176223361328 2636.97325308472 16 19 12
-671.556652228863 -377.727755893095 2641.24963481436 15 18 11
-669.555684091617 -376.910647087504 2648.38971252612 15 18 11
-657.499293788645 -374.573421613084 2658.64317803491 16 19 12
-660.486793355121 -374.517283505555 2664.15461600038 17 20 13
-668.507987500569 -375.221223000836 2668.12086325648 16 19 12
-671.501700720837 -375.165247255608 2673.64368043764 16 19 12
-684.589199484745 -376.628813169426 2676.12383998146 17 20 13
-698.712723949184 -378.24404812023 2678.34953440453 18 21 14
-698.697332317556 -377.732366956714 2684.82000192031 19 22 15
-691.581533519927 -376.157891722588 2693.35573524051 18 20 15
-680.381878107232 -373.976770970582 2703.02264476777 19 21 16
-708.762390208472 -377.717575124391 2701.22112621978 19 21 16
-714.831345221643 -378.1179353647 2705.91774132646 19 21 16
-726.000019931162 -379.277378281011 2709.19039289645 17 19 14
-749.425183050967 -382.257585510658 2709.07831305772 17 19 14
-760.650238540229 -383.416506651443 2712.45532030757 17 19 14
-752.473415227968 -381.692995956845 2721.19925364605 8 10 5
-775.997726063863 -384.672377064117 2721.2697729551 16 18 13
-782.151658563924 -385.073084429127 2726.12257275584 12 14 9
-763.746052817187 -412.095085189565 2436.69605425368 20 23 16
-776.697045001865 -413.58979330931 2438.91629244722 23 26 19
-801.341530088082 -416.947450775432 2436.70315773076 24 27 20
-772.493716084589 -411.763127306918 2454.999226966 22 25 18
-798.155114219171 -415.274836253776 2452.49525478358 19 22 15
-807.280351263651 -416.146234978807 2456.32637600587 18 21 14
-783.489008687899 -411.214403266075 2479.61668928887 16 19 12
-742.621315292388 -404.171931060227 2501.74389931932 16 19 12
-770.331768635224 -407.991384353739 2498.68636915904 22 25 18
-800.072092762013 -412.119870264749 2495.0386014707 22 25 18
-793.476148311375 -410.508478475411 2504.54154324796 18 21 14
-773.060852768552 -406.726275400836 2518.89070084095 7 10 3
-780.205886669013 -407.28654141609 2523.40353472926 8 11 4
-752.788126166315 -402.42078818848 2540.00382924022 7 10 3
-737.159131243102 -399.416349430213 2552.34697054146 8 11 4
-694.740783166765 -392.228635624577 2573.78122485032 14 17 10
-636.336853753322 -382.563820600117 2600.3993093374 17 20 13
-624.442122879134 -380.18351292954 2610.96254747844 17 20 13
-640.347301825314 -382.14113927716 2612.13196191768 19 22 15
-670.223236372304 -386.266387283056 2608.73508445199 19 22 15
-673.254391632715 -386.20931570128 2614.32709390848 18 21 14
-664.307924289425 -384.294332682385 2623.82839497615 17 20 13
-663.325729000345 -383.618430968216 2630.6849183133 19 22 15
-660.331609698093 -382.633251494386 2638.16425603546 16 19 12
-668.34380099648 -383.350738982675 2642.10936700223 15 18 11
-660.316186715502 -381.592334185775 2651.13872057768 15 18 11
-658.287690825501 -380.762790027541 2658.23190931101 16 19 12
-653.228663362387 -379.469582275153 2666.23573392704 16 19 12
-652.177116226589 -378.795483255392 2672.96466871723 16 19 12
-658.174339061351 -379.204261035527 2677.52682394476 16 19 12
-678.314990322899 -381.777481595104 2677.8412200128 16 19 12
-692.433595392147 -383.42258347636 2680.04838090751 17 20 13
-683.29771622035 -381.512455881827 2689.19985898127 18 21 14
-675.144559253834 -379.757641812519 2697.9967326313 19 21 16
-684.215638247597 -380.63033542893 2701.72785792903 19 21 16
-730.899497648793 -387.219169571997 2694.6636541214 18 20 15
-735.979087959863 -387.472981421576 2699.70002102777 18 20 15
-778.756800018748 -393.441590675399 2694.09791676492 18 20 15
-747.174086917493 -388.135786742094 2709.51533929699 18 20 15
-753.291852408005 -388.54460631302 2714.29918186471 20 22 17
-761.462408290512 -389.262425702783 2718.53595859089 8 10 5
-785.004078523435 -392.295607143873 2718.62222609113 18 20 15
-787.068981154798 -392.08730795856 2724.59739755551 11 13 8
-786.051964946296 -391.416488898531 2731.38835041521 14 16 11
-751.018586517463 -416.575852068473 2441.54967009382 21 26 19
-750.355669693647 -415.885748768271 2448.9976754217 23 26 19
-773.025988261007 -418.986917754509 2447.46092314444 23 26 19
-782.112415033445 -419.875737083694 2451.21542645932 21 24 17
-778.535897426845 -418.711005407885 2459.79242204149 19 22 15
-774.941056590865 -417.546373748374 2468.3356877892 19 22 15
-770.349947072887 -416.224049062471 2477.20935908824 20 23 16
-726.573423853096 -408.587623062269 2500.5107219665 19 22 15
-748.360060452162 -411.528190598654 2499.51181310182 18 21 14
-776.085647553034 -415.414556983707 2496.46149024838 14 17 10
-811.739277202453 -420.561857627903 2490.69368959878 11 14 7
-783.50003023098 -415.453015027708 2507.97152649251 9 12 5
-771.932748579566 -413.027150563683 2519.15070331286 9 12 5
-779.076553876347 -413.59842170298 2523.65796810062 9 12 5
-785.24240022818 -414.011809440184 2528.52886638834 8 11 4
-759.753972940007 -409.379651795911 2544.37771046868 9 12 5
-714.376135761157 -401.595956115206 2566.89305162517 10 13 6
-647.047549680439 -390.347128713781 2596.60811894794 15 18 11
-626.220870856797 -386.508518016848 2610.21712645681 16 19 12
-645.115580462001 -388.97384455334 2610.38725412248 19 22 15
-667.039014595087 -391.91101043967 2609.64096379666 18 21 14
-674.053689045469 -392.484528337668 2613.91005778138 17 20 13
-649.12793052005 -388.017917464454 2628.62916951038 17 20 13
-660.120814338041 -389.221820285674 2631.56513956302 16 19 12
-664.126748555397 -389.323142682809 2636.78751340092 15 18 11
-666.130651119436 -389.109779198133 2642.65201756925 15 18 11
-657.091991412739 -387.165108808749 2651.99268770534 17 20 13
-656.061570020285 -386.480090829779 2658.76325590571 17 20 13
-658.039292863981 -386.267393626175 2664.57941043334 16 19 12
-663.036559086221 -386.526971976631 2669.4626342311 17 20 13
-665.012806653775 -386.314646872725 2675.27596355883 17 20 13
-675.066667772064 -387.360765867178 2678.64765226044 16 19 12
-682.10444187397 -387.935013201224 2682.9590113563 15 18 11
-674.975800649261 -386.307983795923 2691.4869292685 17 20 13
-670.863058060217 -385.153241915008 2699.07470526084 18 21 14
-668.762742509894 -384.313444316633 2706.03888798005 18 21 14
-690.028514284098 -387.088944129438 2706.24695670966 20 23 16
-745.945256235065 -395.206594959284 2696.66925214121 21 24 17
-757.156898749258 -396.408987821952 2700.008517616 21 24 17
-753.083958611521 -395.254894656919 2707.66930248592 20 23 16
-757.166269217167 -395.357994209093 2713.0311077459 14 17 10
-777.617828130061 -397.974192523862 2713.90439531043 13 16 9
-792.992037688749 -399.804747314877 2716.25077695785 15 18 11
-801.218956079278 -400.53628174356 2720.58658595843 12 15 8
-777.628032351598 -396.40142906882 2733.43083251988 12 15 8
-813.599078484833 -401.371875614929 2730.4148017006 15 21 11
-756.719750761641 -424.034692011631 2439.21711337486 13 18 11
-738.570876508133 -420.442095087377 2453.44751123908 16 19 12
-750.528231859622 -421.830218202844 2455.98712192184 16 19 12
-765.431205814972 -423.699474142441 2457.4551771753 15 18 11
-757.926734083213 -421.874360598739 2467.46624171155 15 18 11
-751.370493858139 -420.210202531603 2477.05807473432 16 19 12
-731.093942275164 -416.298743405673 2491.70077354517 18 21 14
-736.220806331864 -416.561682860763 2496.82134061852 18 21 14
-748.218028346876 -417.947972203068 2499.43482481399 15 18 11
-768.094424023852 -420.617522369778 2499.23423835432 9 12 5
-779.16470353164 -421.842130015964 2502.30632680192 8 11 4
-781.393569325552 -421.62216015145 2508.58707026243 8 11 4
-766.859618937096 -418.675560103918 2520.81150111647 10 13 6
-763.138056471159 -417.493883605608 2529.1268284422 10 13 6
-787.075524122849 -420.802258495673 2527.74348369988 8 11 4
-782.363847229121 -419.460066175394 2536.40088000236 8 11 4
-772.675933764294 -417.316726817183 2546.72199745523 9 12 5
-632.968816242514 -393.640249211578 2607.7933602367 15 18 11
-654.861535770565 -396.629128908172 2606.97502871483 20 23 16
-653.890115477373 -395.932240582254 2613.85768035253 20 23 16
-650.913133142083 -394.915244599019 2621.37810397947 17 20 13
-645.922826756283 -393.578115211379 2629.52203159058 17 20 13
-665.913935970816 -396.24511759179 2629.53319040147 16 19 12
-674.933677401048 -397.149916802141 2633.16024173192 15 18 11
-673.942218966329 -396.453739800515 2640.00582566596 15 18 11
-651.857268822014 -392.396385711237 2653.48172727665 15 18 11
-651.823277309112 -391.861259133843 2659.92453251161 16 19 12
-668.892085246536 -394.046882457987 2661.05070985549 16 19 12
-684.989094376652 -396.071830945796 2662.55268975841 17 20 13
-682.955590790842 -395.216910631297 2669.64480381981 18 21 14
-682.930025041351 -394.682306037781 2676.10345284127 16 19 12
-689.978605167263 -395.267501933062 2680.43088947534 15 18 11
-677.79076719843 -392.814550719582 2690.47739996341 17 20 13
-669.621418325456 -391.001963472627 2699.26186736863 15 18 11
-659.3925189277 -388.870443263161 2708.58445885071 19 22 15
-662.348907670933 -388.817689146882 2714.03766070561 21 24 17
-716.211149518173 -396.755796149645 2704.96545158533 21 24 17
-748.794757016955 -401.336258357861 2702.1814826151 21 24 17
-752.873508982431 -401.442327062979 2707.53635424405 21 24 17
-769.218753379544 -403.46561950752 2709.49538204041 19 22 15
-806.062927887866 -408.683062643401 2705.89611697438 16 19 12
-806.10798661724 -408.150216952903 2712.48412834122 16 19 12
-790.757832206834 -405.222790479304 2723.20164538041 13 16 9
-831.853641545728 -411.077498173575 2718.77057102016 13 16 9
-761.453496183184 -431.356649129382 2437.26176428584 12 17 10
-767.603652149805 -431.788895729939 2442.09813383555 13 16 9
-750.400899098928 -428.301263346713 2455.92225661603 13 16 9
-742.890283580266 -426.447387689414 2465.93067098711 15 18 11
-761.700967744668 -429.00187510877 2465.91944798618 17 20 13
-735.600859864904 -424.046455764243 2482.85531096295 20 23 16
-740.735044206717 -424.315157828076 2487.9876084356 20 23 16
-759.591469552365 -426.868214229719 2488.06094213874 11 14 7
-757.886293549896 -425.993989691771 2495.76221139525 10 13 6
-755.185428133282 -424.956629071273 2503.79658842482 9 12 5
-762.305551689321 -425.55069499922 2508.25344329936 9 12 5
-760.571333875759 -424.676579937458 2515.90126645186 9 12 5
-771.644970688645 -425.922569136948 2518.97360395209 8 11 4
-782.739039044918 -427.168137770884 2522.08364525636 9 12 5
-797.808952036986 -429.065273233457 2523.84984360708 10 13 6
-793.107451131764 -427.701865079724 2532.53233545823 8 11 4
-785.410702296839 -425.849882803733 2542.19835161004 9 12 5
-699.359535338978 -410.579479777425 2585.21716454464 13 16 9
