ply
format ascii 1.0
comment KinectMotionCapture
element vertex 753
property float x
property float y
property float z
property uchar red
property uchar green
property uchar blue
end_header
-811.826646327972 124.874114990234 2562.99996376038 185 185 185
-808.045625686646 125.370293855667 2572.99995422363 188 188 188
-806.701064109802 126.256465911865 2591.00008010864 195 195 195
-805.567562580109 127.191603183746 2609.99989509583 200 202 201
-1169.4427728653 113.978773355484 2482.00011253357 198 198 198
-1161.7226600647 113.883383572102 2480.00001907349 194 194 194
-1152.1543264389 113.60464990139 2473.99997711182 194 194 194
-1143.54848861694 113.418102264404 2470.00002861023 197 197 197
-1134.50765609741 113.185957074165 2464.99991416931 198 198 198
-1123.66759777069 112.770482897758 2456.00008964539 205 205 205
-1108.78658294678 111.942067742348 2437.99996376038 208 208 208
-1096.26746177673 111.343562602997 2424.99995231628 201 201 201
-1087.41688728333 111.112698912621 2420.00007629395 193 193 193
-1082.16941356659 111.249431967735 2423.00009727478 195 195 195
-1076.02083683014 111.294619739056 2424.00002479553 193 193 193
-1071.19297981262 111.477822065353 2427.99997329712 190 190 190
-1064.5923614502 111.47765815258 2427.99997329712 188 188 188
-1057.55853652954 111.43184453249 2427.00004577637 189 189 189
-1050.53269863129 111.386306583881 2426.00011825562 192 192 192
-1043.94495487213 111.386939883232 2426.00011825562 196 196 196
-1036.93187236786 111.341893672943 2424.99995231628 194 194 194
-1029.9266576767 111.297130584717 2424.00002479553 189 189 189
-1022.50671386719 111.206695437431 2421.99993133545 187 187 187
-1016.35813713074 111.254245042801 2423.00009727478 181 181 181
-1007.70556926727 111.026532948017 2417.99998283386 179 179 179
-999.496042728424 110.844969749451 2414.00003433228 190 190 188
-993.366718292236 110.893227159977 2414.99996185303 190 190 188
-988.050878047943 111.033536493778 2417.99998283386 193 193 191
-983.53236913681 111.265935003757 2423.00009727478 193 193 191
-976.568996906281 111.223019659519 2421.99993133545 191 191 189
-970.413863658905 111.272178590298 2423.00009727478 189 189 187
-963.856637477875 111.275620758533 2423.00009727478 186 186 184
-958.091020584106 111.371099948883 2424.99995231628 178 178 176
-952.315986156464 111.466810107231 2427.00004577637 175 175 173
-946.531236171722 111.562706530094 2428.99990081787 174 174 172
-940.349876880646 111.612886190414 2430.0000667572 174 174 172
-933.780074119568 111.617341637611 2430.0000667572 176 176 174
-927.974224090576 111.713819205761 2431.99992179871 179 179 177
-922.537505626678 111.856430768967 2434.99994277954 181 181 179
-918.213903903961 112.137079238892 2440.99998474121 184 184 182
-913.485288619995 112.371973693371 2446.00009918213 185 185 183
-908.35964679718 112.561106681824 2450.00004768372 175 175 173
-902.845025062561 112.70447820425 2453.00006866455 175 175 173
-897.680103778839 112.893976271153 2457.00001716614 175 175 173
-892.856955528259 113.129608333111 2461.99989318848 176 176 174
-887.287378311157 113.27350884676 2464.99991416931 176 176 174
-881.344795227051 113.371632993221 2467.00000762939 177 177 175
-875.391781330109 113.469906151295 2469.00010108948 174 174 172
-870.483875274658 113.706216216087 2473.99997711182 174 174 172
-865.898489952087 113.988667726517 2480.00001907349 172 172 170
-860.588014125824 114.179357886314 2483.99996757507 171 171 169
-855.599880218506 114.416167140007 2489.00008201599 178 178 176
-849.902808666229 114.561185240746 2492.00010299683 182 182 180
-844.866335391998 114.798299968243 2496.99997901917 184 184 182
-839.802801609039 115.035571157932 2502.00009346008 184 184 182
-837.042987346649 115.59484153986 2513.99993896484 182 182 180
-834.218442440033 116.154320538044 2526.00002288818 177 177 175
-831.328928470612 116.713985800743 2538.00010681152 178 178 176
-828.374326229095 117.273814976215 2549.99995231628 183 183 183
-822.777509689331 117.465890944004 2553.99990081787 189 189 189
-816.839516162872 117.612108588219 2556.99992179871 186 186 186
-810.885012149811 117.758445441723 2559.99994277954 180 180 180
-807.740330696106 118.318907916546 2572.00002670288 182 182 182
-804.530560970306 118.879564106464 2584.00011062622 193 193 193
-802.49011516571 119.624406099319 2599.99990463257 203 205 204
-800.362825393677 120.36944180727 2615.9999370575 202 204 203
-1170.85266113281 107.360951602459 2484.99989509583 200 200 200
-1162.65630722046 107.22804069519 2482.00011253357 197 197 197
-1153.08272838593 106.965824961662 2476.0000705719 197 197 197
-1144.93477344513 106.833547353745 2473.00004959106 198 198 198
-1134.50539112091 106.485575437546 2464.99991416931 200 200 200
-1123.20792675018 106.051497161388 2454.99992370605 209 209 209
-1110.14926433563 105.444960296154 2440.99998474121 197 197 197
-1097.1702337265 104.838728904724 2427.00004577637 190 190 190
-1086.96627616882 104.491949081421 2418.99991035461 197 197 197
-1080.8287858963 104.53424602747 2420.00007629395 194 194 194
-1075.13236999512 104.619957506657 2421.99993133545 196 196 196
-1069.86927986145 104.749158024788 2424.99995231628 199 199 199
-1063.27700614929 104.749023914337 2424.99995231628 200 200 200
-1056.6873550415 104.749150574207 2424.99995231628 198 198 198
-1050.96626281738 104.835920035839 2427.00004577637 195 195 195
-1044.37601566315 104.836530983448 2427.00004577637 195 195 195
-1036.93282604218 104.750990867615 2424.99995231628 194 194 194
-1029.07800674438 104.622505605221 2421.99993133545 194 194 194
-1022.08602428436 104.580648243427 2421.0000038147 196 196 196
-1015.52093029022 104.582212865353 2421.0000038147 199 199 199
-1008.12411308289 104.497589170933 2418.99991035461 200 200 200
-1000.3262758255 104.370012879372 2415.99988937378 187 187 185
-994.191825389862 104.41543161869 2417.00005531311 186 186 184
-988.053441047668 104.461058974266 2417.99998283386 191 191 189
-983.129262924194 104.636527597904 2421.99993133545 192 192 190
-976.975440979004 104.682594537735 2423.00009727478 190 190 188
-970.817506313324 104.728847742081 2424.00002479553 177 177 175
-964.655578136444 104.775309562683 2424.99995231628 178 178 176
-958.884835243225 104.865185916424 2427.00004577637 181 181 179
-953.496992588043 104.998454451561 2430.0000667572 181 181 179
-946.535348892212 104.959085583687 2428.99990081787 178 178 176
-940.741062164307 105.049520730972 2430.99999427795 177 177 175
-934.168756008148 105.05373030901 2430.99999427795 177 177 175
-928.360462188721 105.144545435905 2433.00008773804 179 179 177
-922.542273998261 105.235524475574 2434.99994277954 181 181 179
-917.842745780945 105.456352233887 2440.00005722046 186 186 184
-912.743449211121 105.63413053751 2444.00000572205 188 188 186
-907.62335062027 105.812095105648 2447.99995422363 190 190 188
-902.482390403748 105.990223586559 2451.99990272522 187 187 185
-897.685766220093 106.211759150028 2457.00001716614 182 182 180
-893.225491046906 106.476709246635 2463.00005912781 175 175 173
-887.653291225433 106.612108647823 2466.00008010864 174 174 172
-882.780015468597 106.834165751934 2470.99995613098 176 176 174
-876.461684703827 106.883406639099 2471.99988365173 177 177 175
-870.842218399048 107.019290328026 2474.99990463257 184 184 182
-865.555942058563 107.198558747768 2479.00009155273 179 179 177
-860.248267650604 107.377961277962 2483.00004005432 172 172 170
-855.262935161591 107.600785791874 2487.99991607666 174 174 172
-849.568724632263 107.737243175507 2490.9999370575 178 178 176
-844.873487949371 108.003601431847 2496.99997901917 186 186 184
-840.481400489807 108.313359320164 2503.99994850159 183 183 181
-838.382244110107 108.926080167294 2517.99988746643 176 176 174
-834.886491298676 109.365947544575 2528.00011634827 165 165 163
-830.681443214417 109.719455242157 2536.00001335144 168 168 166
-826.757907867432 110.116377472878 2545.00007629395 187 187 187
-821.174800395966 110.297091305256 2549.00002479553 194 194 194
-816.20866060257 110.564485192299 2555.0000667572 191 191 191
-809.942901134491 110.658884048462 2556.99992179871 188 188 188
-806.178331375122 111.099638044834 2566.99991226196 190 190 190
-802.359402179718 111.540526151657 2576.99990272522 195 195 195
-800.646781921387 112.28459328413 2594.00010108948 194 196 195
-798.229694366455 112.942241132259 2608.99996757507 195 197 196
-1170.37808895111 100.564949214458 2483.99996757507 195 195 195
-1162.184715271 100.440412759781 2480.99994659424 198 198 198
-1152.14860439301 100.154250860214 2473.99997711182 195 195 195
-1144.46926116943 100.070796906948 2471.99988365173 197 197 197
-1132.66217708588 99.6233150362968 2460.99996566772 205 205 205
-1120.00358104706 99.0951508283615 2447.99995422363 206 206 206
-1108.78348350525 98.6887216567993 2437.99996376038 203 203 203
-1098.07300567627 98.3230248093605 2428.99990081787 196 196 196
-1088.76276016235 98.079077899456 2423.00009727478 191 191 191
-1080.82807064056 97.9567989706993 2420.00007629395 195 195 195
-1073.80020618439 97.9157239198685 2418.99991035461 196 196 196
-1068.10426712036 97.9963317513466 2421.0000038147 194 194 194
-1061.9615316391 98.0366989970207 2421.99993133545 195 195 195
-1057.12330341339 98.198764026165 2426.00011825562 196 196 196
-1050.96673965454 98.2396081089973 2427.00004577637 197 197 197
-1043.9465045929 98.1997400522232 2426.00011825562 197 197 197
-1036.93389892578 98.1600731611252 2424.99995231628 198 198 198
-1028.65433692932 97.9992151260376 2421.0000038147 200 200 200
-1021.66533470154 97.9600176215172 2420.00007629395 200 200 200
-1014.26410675049 97.8805273771286 2417.99998283386 194 194 194
-1008.12613964081 97.9227125644684 2418.99991035461 191 191 191
-1001.57046318054 97.9246124625206 2418.99991035461 182 182 182
-994.605362415314 97.8862270712852 2417.99998283386 182 182 182
-987.647354602814 97.8480651974678 2417.00005531311 184 184 184
-981.102406978607 97.8505685925484 2417.00005531311 185 185 185
-975.768625736237 97.9747176170349 2420.00007629395 184 184 184
-970.019578933716 98.0585664510727 2421.99993133545 183 183 183
-965.056777000427 98.2235968112946 2426.00011825562 182 182 182
-958.888411521912 98.2673466205597 2427.00004577637 179 179 179
-953.893005847931 98.4327495098114 2430.99999427795 179 179 179
-946.928918361664 98.3958765864372 2430.0000667572 185 185 185
-941.51908159256 98.5211431980133 2433.00008773804 187 187 187
-934.557020664215 98.4845981001854 2431.99992179871 178 178 178
-929.127991199493 98.6102223396301 2434.99994277954 182 182 182
-922.546803951263 98.6145064234734 2434.99994277954 182 182 182
-917.471170425415 98.7809598445892 2438.99989128113 183 183 183
-912.748336791992 98.9880710840225 2444.00000572205 188 188 188
-908.370018005371 99.2358848452568 2450.00004768372 193 193 193
-903.223693370819 99.4028151035309 2453.9999961853 190 190 190
-897.691071033478 99.5294228196144 2457.00001716614 185 185 185
-892.142832279205 99.6561869978905 2460.00003814697 176 176 176
-887.298941612244 99.8641103506088 2464.99991416931 173 173 173
-882.428526878357 100.072212517262 2470.00002861023 172 172 172
-876.822233200073 100.199423730373 2473.00004959106 178 178 178
-871.200084686279 100.326769053936 2476.0000705719 178 178 178
-865.562081336975 100.45425593853 2479.00009155273 177 177 177
-859.908163547516 100.581891834736 2482.00011253357 176 176 176
-854.925751686096 100.790694355965 2486.99998855591 175 175 175
-849.575281143188 100.959114730358 2490.9999370575 175 175 175
-845.556914806366 101.289801299572 2499.00007247925 173 173 173
-841.830849647522 101.661160588264 2507.99989700317 175 175 175
-838.722229003906 102.113753557205 2519.00005340576 183 183 183
-834.233045578003 102.404348552227 2526.00002288818 193 193 193
-829.050779342651 102.613992989063 2530.99989891052 190 190 190
-823.516607284546 102.783225476742 2535.00008583069 199 200 202
-818.282783031464 102.993123233318 2539.99996185303 198 199 201
-813.660502433777 103.28421741724 2546.99993133545 196 197 199
-808.683574199677 103.534907102585 2552.99997329712 197 198 200
-804.615795612335 103.907383978367 2562.00003623962 196 197 199
-800.499260425568 104.2799949646 2571.00009918213 191 192 194
-798.494040966034 104.93665933609 2586.99989318848 189 191 190
-797.014057636261 105.674646794796 2605.00001907349 190 192 191
-801.804542541504 107.264764606953 2644.00005340576 188 190 187
-1169.90399360657 93.7744453549385 2483.00004005432 194 194 194
-1162.18185424805 93.6960503458977 2480.99994659424 192 192 192
-1152.14610099792 93.4291332960129 2473.99997711182 188 188 188
-1141.68930053711 93.1247174739838 2466.00008010864 197 197 197
-1127.59757041931 92.5184935331345 2450.00004768372 211 211 211
-1116.34182929993 92.1391099691391 2440.00005722046 206 206 206
-1106.96280002594 91.9110402464867 2434.00001525879 199 199 199
-1097.6197719574 91.6832163929939 2427.99997329712 197 197 197
-1088.76180648804 91.4934128522873 2423.00009727478 192 192 192
-1080.82735538483 91.3793593645096 2420.00007629395 193 193 193
-1074.6876001358 91.4165899157524 2421.0000038147 196 196 196
-1068.98641586304 91.491810977459 2423.00009727478 198 198 198
-1062.83855438232 91.5294960141182 2424.00002479553 199 199 199
-1057.12366104126 91.6051715612412 2426.00011825562 199 199 199
-1050.53424835205 91.6055291891098 2426.00011825562 201 201 201
-1043.08640956879 91.5305837988853 2424.00002479553 198 198 198
-1036.07964515686 91.493621468544 2423.00009727478 197 197 197
-1028.65552902222 91.4191007614136 2421.0000038147 195 195 195
-1021.66664600372 91.3825482130051 2420.00007629395 195 195 195
-1013.84627819061 91.2706702947617 2417.00005531311 193 193 193
-1008.54456424713 91.3855507969856 2420.00007629395 192 192 192
-1002.40063667297 91.4251133799553 2421.0000038147 183 183 183
-995.430111885071 91.3893282413483 2420.00007629395 180 180 180
-987.241089344025 91.2404432892799 2415.99988937378 186 186 186
-980.293095111847 91.2050306797028 2414.99996185303 187 187 187
-974.96485710144 91.3208574056625 2417.99998283386 184 184 184
-969.621956348419 91.4368778467178 2421.0000038147 182 182 182
-964.264273643494 91.5530622005463 2424.00002479553 182 182 182
-958.101332187653 91.5938839316368 2424.99995231628 181 181 181
-953.111588954926 91.7482003569603 2428.99990081787 173 173 173
-946.93249464035 91.7893722653389 2430.0000667572 172 172 172
-941.135823726654 91.8684676289558 2431.99992179871 172 172 172
-934.561014175415 91.8721854686737 2431.99992179871 174 174 174
-929.513692855835 92.0271575450897 2436.00010871887 171 171 171
-923.308789730072 92.0689553022385 2437.00003623962 171 171 171
-917.851746082306 92.1864733099937 2440.00005722046 176 176 176
-912.005841732025 92.2663509845734 2441.99991226196 182 182 182
-908.745348453522 92.6108732819557 2450.99997520447 174 174 174
-903.964757919312 92.8044393658638 2456.00008964539 174 174 174
-898.061335086823 92.8847640752792 2457.99994468689 175 175 175
-892.148077487946 92.9652452468872 2460.00003814697 175 175 175
-886.94429397583 93.1214392185211 2463.99998664856 174 174 174
-883.148372173309 93.4289619326591 2471.99988365173 172 172 172
-877.891361713409 93.5854464769363 2476.0000705719 164 164 164
-872.26128578186 93.7042683362961 2479.00009155273 176 176 176
-865.917086601257 93.7476232647896 2480.00001907349 181 181 181
-859.914064407349 93.8289016485214 2482.00011253357 182 182 182
-854.587912559509 93.9858928322792 2486.00006103516 174 174 174
-849.5814204216 94.1808298230171 2490.9999370575 171 171 171
-845.901489257813 94.5271477103233 2500 173 173 173
-841.837227344513 94.8357731103897 2507.99989700317 179 179 179
-838.062822818756 95.1823741197586 2516.99995994568 190 190 190
-832.918703556061 95.3778401017189 2522.0000743866 201 201 201
-827.419817447662 95.5355986952782 2526.00002288818 201 201 201
-821.249544620514 95.6178233027458 2528.00011634827 200 201 203
-816.356837749481 95.851443707943 2533.99991989136 198 199 203
-812.070369720459 96.160851418972 2542.00005531311 195 196 198
-808.373987674713 96.5460315346718 2552.00004577637 193 194 196
-803.680896759033 96.8178361654282 2559.00001525879 191 192 194
-800.195157527924 97.2411036491394 2569.9999332428 188 189 191
-798.810422420502 97.9293957352638 2588.00005912781 183 185 184
-798.551440238953 98.7692177295685 2609.99989509583 184 186 185
-1169.42989826202 86.9894251227379 2482.00011253357 193 193 193
-1160.77387332916 86.8465974926949 2477.9999256134 189 189 189
-1152.60946750641 86.7390930652618 2474.99990463257 187 187 187
-1139.83523845673 86.2813889980316 2461.99989318848 198 198 198
-1124.37403202057 85.6136828660965 2443.00007820129 207 207 207
-1112.2225522995 85.191547870636 2430.99999427795 202 202 202
-1104.68757152557 85.1200893521309 2428.99990081787 194 194 194
-1097.16665744781 85.0488618016243 2427.00004577637 192 192 192
-1089.65969085693 84.9778577685356 2424.99995231628 188 188 188
-1080.38008213043 84.7669094800949 2418.99991035461 189 189 189
-1073.79937171936 84.7664326429367 2418.99991035461 194 194 194
-1068.10390949249 84.8362594842911 2421.0000038147 199 199 199
-1061.9615316391 84.871232509613 2421.99993133545 200 200 200
-1055.38082122803 84.8713964223862 2421.99993133545 199 199 199
-1047.93643951416 84.8016664385796 2420.00007629395 202 202 202
-1041.79620742798 84.8372653126717 2421.0000038147 200 200 200
-1035.22527217865 84.8380252718925 2421.0000038147 199 199 199
-1028.23173999786 84.8039239645004 2420.00007629395 200 200 200
-1021.24559879303 84.7700089216232 2418.99991035461 201 201 201
-1014.26708698273 84.736280143261 2417.99998283386 201 201 201
-1008.54623317719 84.8078802227974 2420.00007629395 200 200 200
-1001.98829174042 84.8095640540123 2420.00007629395 191 191 191
-995.432317256927 84.8114341497421 2420.00007629395 188 188 188
-987.243175506592 84.6732556819916 2415.99988937378 190 190 190
-980.295419692993 84.6404135227203 2414.99996185303 189 189 189
-974.16090965271 84.6778228878975 2415.99988937378 186 186 186
-969.224214553833 84.8205611109734 2420.00007629395 184 184 184
-963.869273662567 84.9284008145332 2423.00009727478 185 185 185
-957.709312438965 84.9663019180298 2424.00002479553 186 186 186
-952.722430229187 85.1095169782639 2427.99997329712 184 184 184
-946.935832500458 85.1828008890152 2430.0000667572 178 178 178
-941.139400005341 85.2562189102173 2431.99992179871 175 175 175
-934.949040412903 85.2947384119034 2433.00008773804 175 175 175
-929.517388343811 85.4035168886185 2436.00010871887 175 175 175
-924.070537090302 85.5124443769455 2438.99989128113 176 176 176
-918.608129024506 85.6215208768845 2441.99991226196 178 178 178
-912.757158279419 85.695669054985 2444.00000572205 179 179 179
-908.379018306732 85.9102234244347 2450.00004768372 185 185 185
-902.864992618561 86.0197246074677 2453.00006866455 184 184 184
-897.335350513458 86.1293599009514 2456.00008964539 183 183 183
-890.339493751526 86.0988348722458 2454.99992370605 177 177 177
-885.149419307709 86.2438082695007 2459.00011062622 175 175 175
-881.367087364197 86.5291953086853 2467.00000762939 171 171 171
-876.832902431488 86.7445766925812 2473.00004959106 182 182 182
-871.562957763672 86.8899449706078 2476.99999809265 179 179 179
-865.224182605743 86.9301781058311 2477.9999256134 177 177 177
-859.573066234589 87.0406925678253 2480.99994659424 177 177 177
-854.249835014343 87.1864035725594 2484.99989509583 176 176 176
-849.246203899384 87.3673334717751 2490.00000953674 175 175 175
-845.569133758545 87.6887366175652 2499.00007247925 178 178 178
-842.17894077301 88.0453512072563 2509.0000629425 182 182 182
-837.736010551453 88.2968306541443 2516.00003242493 188 188 188
-831.934154033661 88.4080454707146 2519.00005340576 193 193 193
-826.115965843201 88.5193571448326 2522.0000743866 195 195 195
-820.606112480164 88.6658579111099 2526.00002288818 196 197 199
-816.041111946106 88.9177843928337 2532.99999237061 197 198 200
-811.438024044037 89.1698151826859 2539.99996185303 195 196 198
-806.796789169312 89.4219651818275 2546.99993133545 192 193 195
-801.489293575287 89.603990316391 2552.00004577637 190 191 193
-798.333942890167 90.0319144129753 2563.99989128113 192 194 193
-797.273993492126 90.7057747244835 2582.99994468689 184 186 185
-799.782514572144 91.8012335896492 2614.00008201599 176 178 177
-1170.84074020386 80.3392007946968 2484.99989509583 191 191 191
-1163.11383247375 80.2721455693245 2483.00004005432 187 187 187
-1152.6073217392 80.0113379955292 2474.99990463257 196 196 196
-1137.98153400421 79.4598460197449 2457.99994468689 205 205 205
-1122.53141403198 78.8439437747002 2438.99989128113 200 200 200
-1111.76359653473 78.5515457391739 2430.0000667572 198 198 198
-1104.23147678375 78.4856379032135 2427.99997329712 193 193 193
-1096.71366214752 78.419953584671 2426.00011825562 189 189 189
-1088.76025676727 78.3221498131752 2423.00009727478 187 187 187
-1079.93292808533 78.1599059700966 2417.99998283386 190 190 190
-1074.24294948578 78.2241299748421 2420.00007629395 197 197 199
-1067.66259670258 78.2239064574242 2420.00007629395 202 202 204
-1060.6461763382 78.1915411353111 2418.99991035461 200 200 202
-1052.76656150818 78.0947208404541 2415.99988937378 199 199 201
-1045.77171802521 78.0627429485321 2414.99996185303 202 202 204
-1039.64519500732 78.0955925583839 2415.99988937378 205 205 207
-1033.51581096649 78.1286358833313 2417.00005531311 205 205 207
-1026.9581079483 78.1295150518417 2417.00005531311 206 206 208
-1019.98031139374 78.0982375144959 2415.99988937378 206 206 208
-1013.84913921356 78.131802380085 2417.00005531311 203 203 205
-1008.13090801239 78.1978443264961 2418.99991035461 200 200 202
-1001.57594680786 78.1994163990021 2418.99991035461 199 199 199
-995.434165000916 78.2334804534912 2420.00007629395 198 198 198
-987.245261669159 78.1060457229614 2415.99988937378 193 193 193
-980.703473091125 78.108087182045 2415.99988937378 190 190 190
-974.566638469696 78.1426206231117 2417.00005531311 188 188 188
-969.226777553558 78.2419592142105 2420.00007629395 183 183 183
-963.474035263062 78.3091112971306 2421.99993133545 184 184 184
-956.921935081482 78.3117562532425 2421.99993133545 187 187 187
-952.333092689514 78.476220369339 2427.00004577637 187 187 187
-946.938991546631 78.5761550068855 2430.0000667572 185 185 185
-941.142559051514 78.6438956856728 2431.99992179871 184 184 184
-934.952437877655 78.6794498562813 2433.00008773804 178 178 176
-929.521024227142 78.7798017263412 2436.00010871887 178 178 176
-924.074113368988 78.880287706852 2438.99989128113 176 176 174
-918.611943721771 78.980915248394 2441.99991226196 174 174 172
-912.387549877167 79.0169909596443 2443.00007820129 176 176 174
-908.012270927429 79.214908182621 2448.99988174438 183 183 181
-901.765108108521 79.2512372136116 2450.00004768372 184 184 182
-896.974265575409 79.4170722365379 2454.99992370605 186 186 184
-890.343904495239 79.4212892651558 2454.99992370605 190 190 188
-885.51390171051 79.5873776078224 2460.00003814697 190 190 188
-880.657255649567 79.7535702586174 2464.99991416931 189 189 187
-876.483023166656 79.9846202135086 2471.99988365173 182 182 180
-871.215999126434 80.118715763092 2476.0000705719 185 185 183
-865.578413009644 80.2205801010132 2479.00009155273 187 187 185
-860.271096229553 80.3548917174339 2483.00004005432 188 188 186
-855.973958969116 80.5864259600639 2490.00000953674 181 181 179
-850.615799427032 80.7209685444832 2493.99995803833 178 178 176
-846.589624881744 80.9850916266441 2502.00009346008 172 172 170
-841.513156890869 81.1522156000137 2506.99996948242 176 176 174
-837.408721446991 81.4165771007538 2515.00010490417 185 185 183
-831.609547138214 81.5191715955734 2517.99988746643 193 193 191
-827.104389667511 81.7513763904572 2525.00009536743 192 192 190
-822.561264038086 81.9836780428886 2532.00006484985 192 193 195
-818.302273750305 82.2484716773033 2539.99996185303 188 189 191
-813.041508197784 82.4162214994431 2545.00007629395 174 175 177
-807.119846343994 82.5193002820015 2548.00009727478 168 170 169
-801.181495189667 82.6224386692047 2551.00011825562 168 170 169
-797.71763086319 82.9847902059555 2562.00003623962 176 178 177
-796.663165092468 83.6064070463181 2581.00008964539 163 165 164
-798.259258270264 84.5197141170502 2608.99996757507 165 167 166
-1167.54007339478 73.3766034245491 2477.9999256134 189 189 189
-1159.36410427094 73.2855796813965 2474.99990463257 189 189 189
-1148.87988567352 73.0467438697815 2467.00000762939 204 204 204
-1134.27603244781 72.5416392087936 2450.00004768372 209 209 209
-1122.06959724426 72.1847862005234 2437.99996376038 206 206 206
-1111.76228523254 71.9465985894203 2430.0000667572 202 202 202
-1104.23040390015 71.8862563371658 2427.99997329712 199 199 199
-1095.35658359528 71.7372894287109 2423.00009727478 198 198 198
-1087.41140365601 71.6477185487747 2420.00007629395 195 195 195
-1078.59253883362 71.4991241693497 2414.99996185303 196 196 196
-1072.02315330505 71.4987516403198 2414.99996185303 201 201 203
-1065.01543521881 71.4689493179321 2414.00003433228 205 205 207
-1058.01546573639 71.4393183588982 2413.00010681152 210 210 212
-1051.45967006683 71.4394822716713 2413.00010681152 210 210 212
-1044.0399646759 71.3805854320526 2411.00001335144 209 209 211
-1038.35487365723 71.440301835537 2413.00010681152 207 207 209
-1030.95090389252 71.3817477226257 2411.00001335144 207 207 209
-1024.83451366425 71.412168443203 2411.99994087219 208 208 210
-1018.71490478516 71.4427605271339 2413.00010681152 209 209 211
-1013.43071460724 71.5327113866806 2415.99988937378 208 208 210
-1006.46531581879 71.5044066309929 2414.99996185303 207 207 209
-999.921321868896 71.5058445930481 2414.99996185303 205 205 203
-994.201838970184 71.5666562318802 2417.00005531311 204 204 202
-988.064408302307 71.598008275032 2417.99998283386 199 199 197
-981.111466884613 71.5702772140503 2417.00005531311 196 196 194
-974.971950054169 71.6019198298454 2417.99998283386 195 195 193
-968.428015708923 71.6040730476379 2417.99998283386 199 199 197
-962.680995464325 71.6655999422073 2420.00007629395 199 199 197
-956.924498081207 71.7272534966469 2421.99993133545 199 199 197
-952.728152275085 71.9075128436089 2427.99997329712 197 197 195
-946.941733360291 71.9694420695305 2430.0000667572 192 192 190
-940.758645534515 72.0018893480301 2430.99999427795 190 190 188
-934.571266174316 72.0344483852386 2431.99992179871 195 195 193
-929.524183273315 72.1560046076775 2436.00010871887 192 192 190
-924.07751083374 72.2480565309525 2438.99989128113 193 193 191
-918.615579605103 72.3402425646782 2441.99991226196 196 196 194
-913.511693477631 72.4621638655663 2446.00009918213 191 191 189
-908.757627010345 72.6138278841972 2450.99997520447 194 194 192
-902.504980564117 72.6471170783043 2451.99990272522 193 193 191
-897.343814373016 72.7694034576416 2456.00008964539 192 192 190
-891.435980796814 72.8325173258781 2457.99994468689 191 191 189
-886.238038539886 72.955034673214 2461.99989318848 191 191 189
-881.018817424774 73.0776488780975 2466.00008010864 193 193 191
-877.196669578552 73.3189135789871 2473.99997711182 189 190 185
-872.276067733765 73.4713822603226 2479.00009155273 180 181 176
-866.979658603668 73.594331741333 2483.00004005432 178 179 174
-862.354755401611 73.7766623497009 2489.00008201599 177 178 173
-858.041405677795 73.9887431263924 2496.00005149841 173 174 169
-852.667093276978 74.1119980812073 2500 171 172 167
-847.94807434082 74.2946416139603 2506.00004196167 167 168 163
-842.525243759155 74.4180902838707 2509.99999046326 163 164 159
-837.413847446442 74.5712891221046 2515.00010490417 161 162 157
-831.614851951599 74.6652632951736 2517.99988746643 153 154 149
-826.7822265625 74.8482942581177 2523.9999294281 152 153 148
-822.891592979431 75.1203969120979 2532.99999237061 154 156 155
-817.985653877258 75.3036215901375 2539.00003433228 152 154 153
-812.408089637756 75.4276067018509 2542.99998283386 153 155 154
-805.858373641968 75.4626914858818 2543.99991035461 158 160 159
-800.873219966888 75.6461694836617 2549.99995231628 166 168 167
-797.723412513733 76.0077312588692 2562.00003623962 177 179 178
-796.977758407593 76.6067579388618 2582.00001716614 191 193 192
-795.817732810974 77.1762654185295 2601.0000705719 193 195 194
-793.341159820557 77.6271969079971 2615.9999370575 191 193 190
-1157.48846530914 66.4501413702965 2470.99995613098 190 190 190
-1145.15244960785 66.1256685853004 2459.00011062622 209 209 209
-1132.42256641388 65.7745078206062 2446.00009918213 211 211 211
-1122.06828594208 65.5580013990402 2437.99996376038 209 209 209
-1111.30356788635 65.3147920966148 2428.99990081787 203 203 203
-1102.41031646729 65.1793330907822 2424.00002479553 200 200 200
-1093.54746341705 65.0440454483032 2418.99991035461 203 203 203
-1086.51220798492 65.0165006518364 2417.99998283386 198 198 198
-1078.59206199646 64.9353340268135 2414.99996185303 196 196 196
-1071.57909870148 64.9081170558929 2414.00003433228 200 200 202
-1064.57412242889 64.8810639977455 2413.00010681152 203 203 205
-1057.57713317871 64.8541674017906 2411.99994087219 209 209 211
-1050.1526594162 64.8005455732346 2410.00008583069 210 210 212
-1043.17438602448 64.7739544510841 2408.99991989136 207 207 209
-1036.63408756256 64.7744089365005 2408.99991989136 210 210 212
-1029.24120426178 64.7212490439415 2407.00006484985 204 204 206
-1023.56064319611 64.7757723927498 2408.99991989136 202 202 204
-1017.02725887299 64.776673913002 2408.99991989136 201 201 203
-1011.33465766907 64.8315027356148 2411.00001335144 199 199 201
-1005.21636009216 64.8595616221428 2411.99994087219 198 198 198
-1000.33676624298 64.9684444069862 2415.99988937378 197 197 195
-993.791997432709 64.9699047207832 2415.99988937378 195 195 193
-987.65754699707 64.9983882904053 2417.00005531311 194 194 192
-981.113433837891 65.0001093745232 2417.00005531311 193 193 191
-975.780427455902 65.0826394557953 2420.00007629395 191 191 189
-968.830525875092 65.057709813118 2418.99991035461 182 182 180
-963.081061840057 65.1136040687561 2421.0000038147 182 182 180
-957.322061061859 65.1696100831032 2423.00009727478 180 180 178
-953.515589237213 65.3602331876755 2430.0000667572 176 176 174
-947.334110736847 65.3895884752274 2430.99999427795 165 165 163
-941.535413265228 65.4459670186043 2433.00008773804 162 162 160
-935.342669487 65.4755458235741 2434.00001525879 153 153 151
-930.671870708466 65.6128525733948 2438.99989128113 153 153 151
-924.838483333588 65.6695663928986 2440.99998474121 160 160 158
-918.994963169098 65.7263919711113 2443.00007820129 164 164 162
-913.515031337738 65.8102333545685 2446.00009918213 151 151 149
-908.761084079742 65.947987139225 2450.99997520447 129 129 127
-903.612792491913 66.0589411854744 2454.99992370605 125 125 123
-898.808836936951 66.1969259381294 2460.00003814697 121 121 119
-894.341170787811 66.3619190454483 2466.00008010864 124 124 122
-889.481604099274 66.50011241436 2470.99995613098 133 133 131
-883.880913257599 66.5845721960068 2473.99997711182 150 150 148
-880.037307739258 66.8037161231041 2482.00011253357 179 180 175
-875.095188617706 66.9422224164009 2486.99998855591 183 184 179
-869.777202606201 67.0538917183876 2490.9999370575 188 189 184
-864.784240722656 67.1925917267799 2496.00005149841 189 190 185
-860.452115535736 67.3852190375328 2503.00002098084 177 178 173
-854.717969894409 67.4702599644661 2506.00004196167 170 171 166
-848.967790603638 67.555382847786 2509.0000629425 163 164 159
-842.865526676178 67.6136538386345 2510.99991798401 158 159 154
-837.418615818024 67.7258744835854 2515.00010490417 154 155 150
-831.289410591125 67.784309387207 2516.99995994568 159 160 155
-826.787173748016 67.9774805903435 2523.9999294281 171 172 167
-821.597099304199 68.1168660521507 2529.00004386902 193 195 192
-816.379845142365 68.2563334703445 2533.99991989136 193 195 194
-810.49644947052 68.3420076966286 2536.99994087219 198 200 199
-805.546820163727 68.5085728764534 2542.99998283386 199 201 200
-801.192581653595 68.7290951609612 2551.00011825562 195 197 196
-798.351526260376 69.084420800209 2563.99989128113 184 186 185
-797.291874885559 69.6015208959579 2582.99994468689 183 185 184
-793.987333774567 69.9301213026047 2595.00002861023 188 190 189
-790.314078330994 70.2318623661995 2605.99994659424 195 197 194
-1151.86560153961 59.4430863857269 2459.00011062622 185 185 183
-1142.82238483429 59.3206398189068 2453.9999961853 201 201 199
-1131.03234767914 59.0533353388309 2443.00007820129 204 204 202
-1122.52724170685 58.9554123580456 2438.99989128113 193 193 191
-1110.38744449615 58.6642809212208 2427.00004577637 197 197 195
-1100.59034824371 58.494184166193 2420.00007629395 188 188 186
-1093.09470653534 58.4450922906399 2417.99998283386 192 192 190
-1085.61289310455 58.3961568772793 2415.99988937378 174 174 172
-1078.59170436859 58.3715513348579 2414.99996185303 187 187 185
-1069.80311870575 58.2504123449326 2410.00008583069 182 182 182
-1063.25042247772 58.2502670586109 2410.00008583069 179 179 179
-1055.38499355316 58.1777654588223 2407.00006484985 179 179 179
-1048.84552955627 58.177899569273 2407.00006484985 181 181 181
-1042.30868816376 58.1781901419163 2407.00006484985 183 183 183
-1035.77411174774 58.1786073744297 2407.00006484985 194 194 194
-1028.81419658661 58.1549853086472 2405.99989891052 190 190 190
-1022.71175384521 58.1798441708088 2407.00006484985 189 189 189
-1016.18385314941 58.1806674599648 2407.00006484985 188 188 188
-1010.07735729218 58.2057796418667 2407.99999237061 186 186 186
-1003.96728515625 58.2310147583485 2408.99991989136 185 185 183
-999.510049819946 58.3530701696873 2414.00003433228 176 177 172
-994.204819202423 58.4269091486931 2417.00005531311 171 172 167
-988.067626953125 58.4525167942047 2417.99998283386 161 162 157
-982.332825660706 58.5024245083332 2420.00007629395 155 156 151
-976.588606834412 58.5524439811707 2421.99993133545 149 150 145
-970.034003257751 58.5542246699333 2421.99993133545 148 149 144
-963.878750801086 58.5803017020226 2423.00009727478 146 147 142
-958.509504795074 58.6548335850239 2426.00011825562 148 149 144
-953.125357627869 58.7294772267342 2428.99990081787 149 150 145
-947.336494922638 58.7800554931164 2430.99999427795 153 154 149
-942.311823368073 58.879092335701 2434.99994277954 157 158 153
-936.882436275482 58.9540712535381 2437.99996376038 154 154 152
-931.437790393829 59.0291433036327 2440.99998474121 153 153 151
-925.220012664795 59.0559467673302 2441.99991226196 154 154 152
-919.373989105225 59.1070428490639 2444.00000572205 158 158 156
-915.011882781982 59.2549704015255 2450.00004768372 158 158 156
-909.876465797424 59.3546256422997 2453.9999961853 151 151 149
-905.824363231659 59.5269501209259 2460.99996566772 142 142 140
-901.004374027252 59.6509911119938 2466.00008010864 133 133 131
-896.883249282837 59.8235167562962 2473.00004959106 131 131 129
-891.644954681396 59.9235668778419 2476.99999809265 129 129 127
-886.385440826416 60.0237064063549 2480.99994659424 116 117 112
-881.813764572144 60.1723156869411 2486.99998855591 113 114 109
-876.858353614807 60.2968409657478 2492.00010299683 102 103 98
-871.526896953583 60.397244989872 2496.00005149841 96 97 92
-865.827679634094 60.4735389351845 2499.00007247925 87 88 83
-860.112428665161 60.5499111115932 2502.00009346008 87 88 83
-854.381024837494 60.626357793808 2505.00011444092 74 75 70
-848.633468151093 60.7028752565384 2507.99989700317 70 71 66
-842.869818210602 60.7794746756554 2510.99991798401 108 109 104
-837.090015411377 60.8561486005783 2513.99993896484 178 179 174
-830.963492393494 60.9086789190769 2516.00003242493 214 215 210
-825.153768062592 60.9854906797409 2519.00005340576 212 213 208
-819.652318954468 61.0865764319897 2523.00000190735 196 198 195
-814.451515674591 61.2119473516941 2528.00011634827 198 200 197
-808.903753757477 61.3131746649742 2532.00006484985 191 193 190
-803.650856018066 61.4386759698391 2536.99994087219 186 188 185
-799.941003322601 61.6853423416615 2546.99993133545 182 184 181
-797.422289848328 62.0289817452431 2561.00010871887 163 165 162
-796.679556369781 62.5180527567863 2581.00008964539 167 169 166
-793.68644952774 62.8376603126526 2594.00010108948 178 180 177
-789.409339427948 63.0604401230812 2602.9999256134 201 203 200
-1153.26917171478 52.8231225907803 2461.99989318848 200 200 198
-1142.82095432281 52.650086581707 2453.9999961853 189 189 187
-1132.88295269012 52.4986758828163 2447.00002670288 190 190 188
-1121.60575389862 52.2830411791801 2437.00003623962 190 190 188
-1109.47144031525 52.0246550440788 2424.99995231628 183 183 181
-1099.67994689941 51.8736876547337 2417.99998283386 180 180 178
-1093.99819374084 51.9159436225891 2420.00007629395 177 177 175
-1087.40997314453 51.9154258072376 2420.00007629395 179 179 177
-1080.82449436188 51.9150421023369 2420.00007629395 187 187 185
-1072.46625423431 51.8289767205715 2415.99988937378 186 186 184
-1065.01507759094 51.7859570682049 2414.00003433228 185 185 183
-1056.70034885406 51.7001524567604 2410.00008583069 182 182 180
-1049.71718788147 51.6788326203823 2408.99991989136 184 184 182
-1044.47412490845 51.7434440553188 2411.99994087219 192 192 190
-1037.92607784271 51.7438277602196 2411.99994087219 192 192 190
-1032.23562240601 51.7872348427773 2414.00003433228 198 198 196
-1025.68674087524 51.7878532409668 2414.00003433228 202 202 200
-1019.1398859024 51.7885871231556 2414.00003433228 206 206 204
-1013.01455497742 51.8108867108822 2414.99996185303 205 205 203
-1008.13603401184 51.8976524472237 2418.99991035461 204 204 202
-1004.48000431061 52.0489141345024 2426.00011825562 200 201 196
-998.319506645203 52.0715415477753 2427.00004577637 197 198 193
-991.746783256531 52.0728304982185 2427.00004577637 195 196 191
-986.393570899963 52.1385930478573 2430.0000667572 193 194 189
-981.025755405426 52.2044599056244 2433.00008773804 192 193 188
-974.842011928558 52.2275120019913 2434.00001525879 188 189 184
-968.25635433197 52.2292032837868 2434.00001525879 184 185 180
-962.067306041718 52.2524528205395 2434.99994277954 177 178 173
-956.658959388733 52.3187220096588 2437.99996376038 174 175 170
-951.235473155975 52.3850843310356 2440.99998474121 171 172 167
-946.571052074432 52.4944700300694 2446.00009918213 173 174 169
-940.343379974365 52.5180995464325 2447.00002670288 166 167 162
-934.11123752594 52.5418147444725 2447.99995422363 161 162 157
-927.495956420898 52.5441616773605 2447.99995422363 162 163 158
-921.633720397949 52.5895208120346 2450.00004768372 167 168 163
-916.508495807648 52.6778921484947 2453.9999961853 168 169 164
-911.362409591675 52.766352891922 2457.99994468689 148 149 144
-906.931519508362 52.8978407382965 2463.99998664856 131 132 127
-902.468800544739 53.0294179916382 2470.00002861023 113 114 109
-898.337006568909 53.1825497746468 2476.99999809265 103 104 99
-892.368018627167 53.2284192740917 2479.00009155273 102 103 98
-886.745870113373 53.2958321273327 2482.00011253357 106 107 102
-881.817042827606 53.4062683582306 2486.99998855591 98 99 94
-876.509845256805 53.4953139722347 2490.9999370575 100 101 95
-871.53035402298 53.6059103906155 2496.00005149841 100 101 95
-865.138173103333 53.630668669939 2496.99997901917 98 99 93
-859.772145748138 53.7199415266514 2500.99992752075 98 99 93
-854.04360294342 53.7877939641476 2503.99994850159 97 98 92
-847.960591316223 53.8342446088791 2506.00004196167 93 94 88
-841.866612434387 53.8807399570942 2507.99989700317 79 80 74
-836.094856262207 53.9487935602665 2510.99991798401 80 81 75
-830.306828022003 54.0169067680836 2513.99993896484 97 98 92
-824.830114841461 54.1065707802773 2517.99988746643 145 146 140
-819.006681442261 54.1748031973839 2520.99990844727 223 225 220
-813.811242580414 54.2860850691795 2526.00002288818 218 220 215
-808.907985687256 54.4189177453518 2532.00006484985 205 207 202
-804.288744926453 54.5733012259007 2539.00003433228 193 195 190
-799.945294857025 54.749246686697 2546.99993133545 183 185 180
-797.115206718445 55.0327487289906 2559.99994277954 168 170 167
-795.757949352264 55.4238297045231 2578.00006866455 167 169 166
-793.078899383545 55.7290017604828 2592.00000762939 123 125 122
-1155.6099653244 46.2243631482124 2467.00000762939 176 176 174
-1143.75114440918 46.0170432925224 2456.00008964539 189 189 187
-1132.41899013519 45.8286069333553 2446.00009918213 195 195 193
-1121.60491943359 45.6590317189693 2437.00003623962 181 181 179
-1112.21587657928 45.5458015203476 2430.99999427795 213 213 211
-1102.40805149078 45.4139672219753 2424.00002479553 207 207 205
-1098.06621074677 45.5070696771145 2428.99990081787 214 214 212
-1092.35215187073 45.5440878868103 2430.99999427795 207 207 205
-1087.97013759613 45.6374324858189 2436.00010871887 218 218 216
-1080.01255989075 45.581016689539 2433.00008773804 219 220 214
-1072.0739364624 45.5247089266777 2430.0000667572 212 213 208
-1062.40057945251 45.3935861587524 2423.00009727478 189 190 185
-1055.81796169281 45.3937090933323 2423.00009727478 174 175 169
-1051.4030456543 45.4876087605953 2427.99997329712 150 151 145
-1045.67229747772 45.5254204571247 2430.0000667572 112 113 108
-1039.9329662323 45.5633290112019 2431.99992179871 104 105 99
-1032.91046619415 45.5451458692551 2430.99999427795 85 86 80
-1027.16207504272 45.5832704901695 2433.00008773804 82 83 78
-1020.98524570465 45.6027500331402 2434.00001525879 88 89 84
-1015.63858985901 45.6598028540611 2437.00003623962 91 92 86
-1010.27750968933 45.7169599831104 2440.00005722046 93 94 88
-1004.07946109772 45.736737549305 2440.99998474121 90 91 85
-997.468888759613 45.737873762846 2440.99998474121 94 95 89
-991.671979427338 45.7765758037567 2443.00007820129 99 100 94
-985.865652561188 45.8153635263443 2444.9999332428 104 105 99
-979.249060153961 45.8167754113674 2444.9999332428 111 112 106
-972.633957862854 45.8182692527771 2444.9999332428 106 107 101
-966.415286064148 45.8385907113552 2446.00009918213 100 101 95
-960.584759712219 45.8777248859406 2447.99995422363 99 100 94
-953.965187072754 45.8794683218002 2447.99995422363 94 95 89
-948.120892047882 45.9187738597393 2450.00004768372 95 96 90
-941.882610321045 45.9394231438637 2450.99997520447 96 97 92
-936.021387577057 45.9788888692856 2453.00006866455 102 103 98
-930.150270462036 46.0184328258038 2454.99992370605 101 102 97
-924.645364284515 46.0767969489098 2457.99994468689 98 99 94
-919.872224330902 46.1727380752563 2463.00005912781 101 102 97
-914.331078529358 46.2312549352646 2466.00008010864 105 106 101
-909.510612487793 46.3273487985134 2470.99995613098 111 112 107
-903.567612171173 46.3672690093517 2473.00004959106 123 124 119
-898.339748382568 46.44475877285 2476.99999809265 134 135 130
-892.010807991028 46.4660637080669 2477.9999256134 127 128 123
-886.034250259399 46.506192535162 2480.00001907349 113 114 109
-881.110846996307 46.6026365756989 2484.99989509583 118 119 113
-875.457108020782 46.6616451740265 2487.99991607666 112 113 107
-870.136797428131 46.7394813895226 2492.00010299683 110 111 105
-863.409042358398 46.7423535883427 2492.00010299683 112 113 107
-858.743965625763 46.8578189611435 2497.99990653992 108 109 103
-853.023648262024 46.9170808792114 2500.99992752075 111 112 106
-847.287058830261 46.9763986766338 2503.99994850159 93 94 88
-841.198682785034 47.0170229673386 2506.00004196167 101 102 96
-835.432350635529 47.0764487981796 2509.0000629425 84 85 79
-830.3102850914 47.1734590828419 2513.99993896484 82 83 77
-824.506103992462 47.2330078482628 2516.99995994568 71 72 66
-819.010198116302 47.3113693296909 2520.99990844727 7 9 4
-814.136981964111 47.42731153965 2526.99995040894 18 20 15
-809.870064258575 47.5808642804623 2535.00008583069 201 203 198
-804.925978183746 47.6969294250011 2540.99988937378 202 204 199
-799.634993076324 47.7942749857903 2546.0000038147 203 205 200
-796.496331691742 48.023097217083 2558.00008773804 110 112 109
-794.218420982361 48.3083017170429 2572.99995422363 6 8 5
-794.000804424286 48.7250201404095 2595.00002861023 87 89 86
-1157.48238563538 39.5824089646339 2470.99995613098 179 179 177
-1144.21570301056 39.3571145832539 2457.00001716614 179 179 177
-1135.1957321167 39.2761044204235 2451.99990272522 196 196 194
-1124.82559680939 39.1471534967422 2444.00000572205 208 208 206
-1117.70534515381 39.1304455697536 2443.00007820129 197 197 195
-1108.77442359924 39.0497669577599 2437.99996376038 196 196 194
-1104.39467430115 39.1293652355671 2443.00007820129 102 102 100
-1102.23746299744 39.2891578376293 2453.00006866455 123 123 121
-1100.02875328064 39.4490398466587 2463.00005912781 99 100 95
-1092.44155883789 39.4168198108673 2460.99996566772 100 101 95
-1085.30938625336 39.4007228314877 2460.00003814697 98 99 93
-1077.30841636658 39.3526889383793 2457.00001716614 96 97 91
-1069.32628154755 39.3047481775284 2453.9999961853 93 94 88
-1063.09509277344 39.3209680914879 2454.99992370605 89 90 84
-1056.43045902252 39.3212661147118 2454.99992370605 91 92 86
-1050.1960515976 39.3376685678959 2456.00008964539 89 90 84
-1043.10846328735 39.322130382061 2454.99992370605 90 91 85
-1036.87286376953 39.3387116491795 2456.00008964539 93 94 88
-1030.63380718231 39.3553785979748 2457.00001716614 101 102 96
-1023.55790138245 39.3400974571705 2456.00008964539 102 103 97
-1016.90328121185 39.3409170210361 2456.00008964539 99 100 94
-1009.83917713165 39.3257960677147 2454.99992370605 100 101 95
-1004.00805473328 39.3588095903397 2457.00001716614 102 103 97
-996.950149536133 39.3438525497913 2456.00008964539 107 108 102
-990.705549716949 39.3610075116158 2457.00001716614 107 108 102
-983.255624771118 39.3301770091057 2454.99992370605 106 107 101
-977.011263370514 39.3474847078323 2456.00008964539 103 104 98
-969.972610473633 39.3328219652176 2454.99992370605 107 108 102
-963.333129882813 39.3342487514019 2454.99992370605 111 112 106
-956.305146217346 39.3197275698185 2453.9999961853 112 113 107
-949.670612812042 39.3212884664536 2453.9999961853 113 114 108
-944.574356079102 39.3870174884796 2457.99994468689 113 114 109
-939.075887203217 39.4367910921574 2460.99996566772 115 116 111
-932.80440568924 39.4545830786228 2461.99989318848 113 114 109
-926.904559135437 39.4884683191776 2463.99998664856 114 115 110
-920.994699001312 39.5224131643772 2466.00008010864 120 121 116
-915.816366672516 39.5884737372398 2470.00002861023 133 134 129
-909.880816936493 39.6225452423096 2471.99988365173 130 131 126
-903.935194015503 39.6566763520241 2473.99997711182 127 128 123
-897.979438304901 39.6908782422543 2476.0000705719 132 133 128
-891.653299331665 39.7090949118137 2476.99999809265 133 134 129
-886.393964290619 39.7754572331905 2480.99994659424 127 128 123
-880.758762359619 39.8258529603481 2483.99996757507 125 126 120
-875.107884407043 39.8763082921505 2486.99998855591 127 128 122
-869.091928005219 39.9107858538628 2489.00008201599 123 124 118
-863.065123558044 39.9453043937683 2490.9999370575 122 123 117
-858.402967453003 40.0440283119679 2496.99997901917 132 133 127
-853.026390075684 40.1107296347618 2500.99992752075 131 132 126
-847.28991985321 40.1614531874657 2503.99994850159 114 115 109
-840.865910053253 40.1801392436028 2505.00011444092 122 123 117
-835.102319717407 40.2309447526932 2507.99989700317 60 61 55
-829.983115196228 40.3138920664787 2513.00001144409 21 22 16
-825.819373130798 40.4450111091137 2520.99990844727 20 21 15
-820.63764333725 40.5280590057373 2526.00002288818 26 29 22
-815.751016139984 40.6272001564503 2532.00006484985 12 15 8
-811.151087284088 40.7424308359623 2539.00003433228 42 44 39
-806.829750537872 40.873758494854 2546.99993133545 27 29 24
-800.580441951752 40.9088470041752 2549.00002479553 31 33 28
-796.499669551849 41.0563312470913 2558.00008773804 14 16 11
-792.061030864716 41.1878041923046 2565.99998474121 9 11 8
-1133.50391387939 32.3725752532482 2434.00001525879 135 135 133
-1132.88021087646 32.5447209179401 2447.00002670288 125 125 123
-1126.66594982147 32.5573496520519 2447.99995422363 191 191 189
-1125.48232078552 32.7163673937321 2460.00003814697 181 182 177
-1119.68886852264 32.7424705028534 2461.99989318848 187 189 184
-1117.50411987305 32.875057309866 2471.99988365173 59 59 57
-1114.81857299805 32.9944305121899 2480.99994659424 26 26 24
