ply
format ascii 1.0
comment KinectMotionCapture
element vertex 785
property float x
property float y
property float z
property uchar red
property uchar green
property uchar blue
end_header
-917.192459106445 -626.098930835724 2421.99993133545 16 19 12
-912.101209163666 -627.124726772308 2426.00011825562 16 17 11
-907.36323595047 -628.410041332245 2430.99999427795 13 14 8
-894.818782806396 -624.268114566803 2414.99996185303 14 15 9
-888.248145580292 -624.263286590576 2414.99996185303 14 15 9
-886.059999465942 -627.361476421356 2427.00004577637 14 15 9
-878.735184669495 -626.84178352356 2424.99995231628 12 13 7
-875.738501548767 -629.42510843277 2434.99994277954 11 14 7
-867.335021495819 -628.132104873657 2430.0000667572 14 17 10
-862.856388092041 -629.683494567871 2436.00010871887 13 16 9
-852.371037006378 -626.841425895691 2424.99995231628 12 15 8
-850.317418575287 -630.204200744629 2437.99996376038 11 14 7
-848.194360733032 -633.567929267883 2450.99997520447 11 14 7
-849.092185497284 -639.259278774261 2473.00004959106 11 14 7
-845.783829689026 -641.849398612976 2483.00004005432 9 12 5
-835.664212703705 -639.270603656769 2473.00004959106 10 12 7
-832.303643226624 -641.862690448761 2483.00004005432 10 13 6
-820.245265960693 -637.734532356262 2467.00000762939 9 12 5
-827.401459217072 -648.600697517395 2509.0000629425 9 11 6
-811.109364032745 -641.113519668579 2480.00001907349 8 11 4
-808.922171592712 -644.743144512177 2493.99995803833 9 12 5
-803.121984004974 -645.530045032501 2496.99997901917 11 14 7
-788.376450538635 -639.078915119171 2471.99988365173 9 12 5
-740.564942359924 -605.482339859009 2342.00000762939 15 18 11
-724.181950092316 -597.221732139587 2309.99994277954 19 22 15
-715.431988239288 -595.166563987732 2302.00004577637 17 20 13
-710.422873497009 -596.214532852173 2305.99999427795 15 18 11
-708.140671253204 -599.590063095093 2319.00000572205 13 16 9
-699.432730674744 -597.536683082581 2311.00010871887 12 15 8
-693.467855453491 -597.810804843903 2312.00003623962 11 14 7
-688.686907291412 -599.11984205246 2316.99991226196 13 16 7
-688.591599464417 -604.566812515259 2338.00005912781 13 16 7
-681.962668895721 -604.325592517853 2336.99989318848 13 16 7
-674.761295318604 -603.567838668823 2334.00011062622 13 16 7
-664.712369441986 -600.224256515503 2321.00009918213 13 16 7
-656.719863414764 -598.691344261169 2315.00005722046 14 17 8
-648.478925228119 -596.900224685669 2308.00008773804 14 17 8
-645.841240882874 -600.281953811646 2321.00009918213 15 18 9
-642.582058906555 -603.147089481354 2332.00001716614 14 17 8
-640.081822872162 -606.788694858551 2345.99995613098 14 17 8
-635.344505310059 -608.361780643463 2351.99999809265 15 18 9
-631.644427776337 -610.970020294189 2361.99998855591 15 21 9
-622.595846652985 -608.405232429504 2351.99999809265 15 21 9
-620.151340961456 -612.307846546173 2367.00010299683 15 21 9
-610.624551773071 -609.226226806641 2355.00001907349 17 20 9
-605.781018733978 -610.80139875412 2361.00006103516 16 19 8
-605.728328227997 -617.292582988739 2385.99991798401 15 18 9
-600.516736507416 -618.609964847565 2391.00003242493 16 17 11
-596.023142337799 -620.703935623169 2398.9999294281 17 17 15
-944.229602813721 -642.114877700806 2457.99994468689 15 17 12
-936.005592346191 -641.058266162872 2453.9999961853 16 18 13
-919.852614402771 -634.517073631287 2428.99990081787 13 15 10
-910.605490207672 -632.679343223572 2421.99993133545 13 15 10
-898.785412311554 -629.014253616333 2407.99999237061 13 15 10
-898.529887199402 -633.44818353653 2424.99995231628 14 16 11
-886.413812637329 -629.524290561676 2410.00008583069 14 16 11
-885.33341884613 -633.437931537628 2424.99995231628 13 15 10
-879.462420940399 -633.956968784332 2427.00004577637 12 14 9
-875.739932060242 -636.044144630432 2434.99994277954 11 13 8
-865.193843841553 -633.169591426849 2424.00002479553 9 11 6
-857.542514801025 -632.385671138763 2421.0000038147 13 15 10
-851.314961910248 -632.647514343262 2421.99993133545 13 15 10
-850.314974784851 -636.828601360321 2437.99996376038 11 13 8
-853.035688400269 -643.883883953094 2464.99991416931 11 13 8
-853.551149368286 -649.373054504395 2486.00006103516 11 13 8
-846.119105815887 -648.855149745941 2483.99996757507 10 12 7
-844.443559646606 -652.778923511505 2499.00007247925 9 11 8
-825.257241725922 -643.120229244232 2461.99989318848 8 10 5
-811.925172805786 -637.903153896332 2441.99991226196 8 10 5
-804.968118667603 -637.649953365326 2440.99998474121 9 11 8
-811.42669916153 -648.107945919037 2480.99994659424 9 11 6
-809.2360496521 -651.775062084198 2494.99988555908 11 14 7
-804.397106170654 -653.353035449982 2500.99992752075 11 14 7
-739.288091659546 -610.793709754944 2338.00005912781 17 20 13
-725.423336029053 -604.535758495331 2313.99989128113 17 20 13
-715.418934822083 -601.413428783417 2302.00004577637 14 17 10
-710.100948810577 -602.210462093353 2305.0000667572 13 16 9
-706.294000148773 -604.31444644928 2312.99996376038 14 17 10
-700.325548648834 -604.590237140656 2313.99989128113 14 17 10
-692.552506923676 -603.299021720886 2309.00001525879 13 16 9
-691.048562526703 -607.495248317719 2325.00004768372 11 14 7
-685.629487037659 -608.295500278473 2328.00006866455 11 14 7
-681.945204734802 -610.664129257202 2336.99989318848 12 15 8
-674.16512966156 -609.37511920929 2332.00001716614 13 16 9
-667.271494865417 -608.870446681976 2329.99992370605 14 17 10
-659.537792205811 -607.582211494446 2325.00004768372 15 18 11
-652.112305164337 -606.555819511414 2321.00009918213 16 17 11
-646.099865436554 -606.836378574371 2322.00002670288 15 16 10
-643.388569355011 -610.253751277924 2335.00003814697 14 15 9
-637.878477573395 -611.058056354523 2338.00005912781 15 16 10
-635.323345661163 -614.737927913666 2351.99999809265 17 18 12
-630.018293857574 -615.804553031921 2355.99994659424 16 18 7
-625.48565864563 -617.655873298645 2362.99991607666 17 19 8
-614.627063274384 -613.234221935272 2345.99995613098 18 20 9
-612.416863441467 -617.438912391663 2361.99998855591 18 20 9
-604.731798171997 -616.154551506042 2357.00011253357 17 17 7
-600.373804569244 -618.268847465515 2365.00000953674 16 16 6
-595.972180366516 -620.383620262146 2372.99990653992 18 18 10
-592.272400856018 -623.28314781189 2384.0000629425 22 21 17
-597.604513168335 -635.857105255127 2431.99992179871 21 20 18
-957.687795162201 -658.043503761292 2493.00003051758 11 13 8
-940.59419631958 -650.903940200806 2466.00008010864 14 16 11
-923.649907112122 -643.765866756439 2438.99989128113 12 14 9
-912.870228290558 -640.852391719818 2427.99997329712 14 16 11
-904.765248298645 -639.787793159485 2424.00002479553 13 15 10
-894.831299781799 -637.40473985672 2414.99996185303 12 14 9
-889.729559421539 -638.453960418701 2418.99991035461 11 13 8
-884.242653846741 -639.240384101868 2421.99993133545 11 13 8
-878.378629684448 -639.764010906219 2424.00002479553 9 11 6
-874.663233757019 -641.872227191925 2431.99992179871 9 11 6
-863.053441047668 -638.175070285797 2417.99998283386 11 14 7
-855.771660804749 -637.646198272705 2415.99988937378 14 17 10
-849.908173084259 -638.173997402191 2417.99998283386 13 15 10
-848.220467567444 -641.869902610779 2431.99992179871 10 12 7
-849.226295948029 -647.678256034851 2453.9999961853 11 13 8
-853.203892707825 -655.862867832184 2484.99989509583 11 13 8
-856.333136558533 -663.520872592926 2513.99993896484 10 12 9
-831.59726858139 -649.537324905396 2460.99996566772 9 11 8
-827.932417392731 -651.918470859528 2470.00002861023 8 10 7
-816.572725772858 -648.230016231537 2456.00008964539 9 11 8
-813.533961772919 -651.140809059143 2467.00000762939 9 11 8
-806.511878967285 -650.885164737701 2466.00008010864 7 9 4
-806.63138628006 -656.437158584595 2486.99998855591 10 13 6
-802.135050296783 -658.294856548309 2493.99995803833 10 13 6
-792.817771434784 -656.194090843201 2486.00006103516 8 11 4
-738.011837005615 -616.083741188049 2334.00011062622 16 19 12
-727.29218006134 -612.399637699127 2319.9999332428 17 20 13
-719.135463237762 -610.828042030334 2313.99989128113 14 17 10
-711.936056613922 -610.048949718475 2311.00010871887 13 16 9
-705.058574676514 -609.534382820129 2309.00001525879 13 16 9
-701.218843460083 -611.660301685333 2316.99991226196 13 16 9
-696.43634557724 -612.994968891144 2322.00002670288 12 15 8
-691.329896450043 -614.066302776337 2325.99997520447 12 15 8
-687.969148159027 -616.722285747528 2335.99996566772 12 15 8
-678.718388080597 -614.09866809845 2325.99997520447 12 15 8
-669.522225856781 -611.47540807724 2315.99998474121 13 16 9
-661.812424659729 -610.172688961029 2311.00010871887 13 16 9
-657.817423343658 -612.302899360657 2319.00000572205 13 16 9
-651.250600814819 -612.057209014893 2318.00007820129 16 17 11
-646.915197372437 -613.924443721771 2325.00004768372 15 16 10
-643.644154071808 -616.848528385162 2335.99996566772 14 15 9
-638.676643371582 -618.188798427582 2341.00008010864 15 16 10
-632.871508598328 -618.73722076416 2342.99993515015 16 17 11
-628.125250339508 -620.342552661896 2348.99997711182 18 18 10
-622.022986412048 -620.627880096436 2349.99990463257 18 18 8
-621.154725551605 -626.19560956955 2371.00005149841 20 20 10
-609.023988246918 -620.407164096832 2348.99997711182 19 19 9
-605.991959571838 -623.862981796265 2361.99998855591 17 17 7
-599.84302520752 -624.149799346924 2362.99991607666 16 16 6
-591.428339481354 -622.059643268585 2355.00001907349 17 17 9
-587.280094623566 -624.460160732269 2364.00008201599 24 23 19
-593.648552894592 -638.220250606537 2415.99988937378 23 22 18
-950.018763542175 -659.496128559113 2473.00004959106 12 14 9
-938.318192958832 -656.015574932098 2460.00003814697 14 16 11
-923.282384872437 -650.136530399323 2437.99996376038 12 14 9
-921.151697635651 -653.325498104095 2450.00004768372 13 15 10
-907.760083675385 -648.51576089859 2431.99992179871 13 15 10
-904.472708702087 -650.907099246979 2440.99998474121 11 13 8
-893.781840801239 -647.96644449234 2430.0000667572 10 12 7
-890.819489955902 -650.6267786026 2440.00005722046 10 12 7
-879.83226776123 -647.421836853027 2427.99997329712 9 11 6
-874.306738376617 -648.217797279358 2430.99999427795 9 11 6
-863.412320613861 -645.015060901642 2418.99991035461 12 15 8
-856.48101568222 -644.746541976929 2417.99998283386 15 18 11
-849.556565284729 -644.479155540466 2417.00005531311 13 15 10
-847.173035144806 -647.679030895233 2428.99990081787 10 12 7
-849.916398525238 -654.879748821259 2456.00008964539 10 12 7
-855.947613716125 -664.747714996338 2493.00003051758 10 12 7
-850.197911262512 -665.550947189331 2496.00005149841 9 11 6
-845.446646213531 -667.154967784882 2502.00009346008 8 10 7
-829.267263412476 -659.693837165833 2473.99997711182 8 10 7
-824.212908744812 -661.033034324646 2479.00009155273 9 11 8
-818.143010139465 -661.573171615601 2480.99994659424 9 11 8
-808.79282951355 -659.44766998291 2473.00004959106 10 12 7
-805.649042129517 -662.3894572258 2483.99996757507 9 12 5
-802.44654417038 -665.332138538361 2494.99988555908 9 12 5
-725.086331367493 -616.829514503479 2312.99996376038 17 20 13
-719.123303890228 -617.107748985291 2313.99989128113 15 18 11
-710.074782371521 -614.719867706299 2305.0000667572 13 16 9
-700.770378112793 -612.065851688385 2295.00007629395 13 16 9
-700.599551200867 -617.413341999054 2315.00005722046 13 16 9
-693.722307682037 -616.894066333771 2312.99996376038 12 15 8
-692.503333091736 -621.442914009094 2329.99992370605 12 15 8
-686.480700969696 -621.725142002106 2331.00008964539 12 15 8
-676.07581615448 -618.006944656372 2316.99991226196 13 16 9
-665.169179439545 -613.755643367767 2301.00011825562 13 16 9
-660.07673740387 -614.839494228363 2305.0000667572 13 16 9
-658.366799354553 -619.124948978424 2321.00009918213 13 16 9
-654.60342168808 -621.543705463409 2329.99992370605 14 15 9
-646.618008613586 -619.961619377136 2323.99988174438 14 15 9
-640.042841434479 -619.713842868805 2322.99995422363 13 14 8
-633.47315788269 -619.466364383698 2322.00002670288 13 14 8
-629.609942436218 -621.887385845184 2331.00008964539 14 15 9
-622.221708297729 -620.84037065506 2326.99990272522 17 17 9
-628.089368343353 -633.134186267853 2372.99990653992 17 17 7
-620.609045028687 -632.088243961334 2368.99995803833 17 17 7
-615.483582019806 -633.44419002533 2374.00007247925 17 17 7
-604.686856269836 -628.930151462555 2357.00011253357 16 16 6
-599.312782287598 -630.019783973694 2361.00006103516 16 16 6
-594.921231269836 -632.177174091339 2368.99995803833 16 16 8
-588.995814323425 -632.733941078186 2371.00005149841 21 20 16
-583.796322345734 -634.091556072235 2375.99992752075 16 15 11
-940.813660621643 -659.763097763062 2448.99988174438 14 16 11
-922.311425209045 -651.397228240967 2417.99998283386 15 17 12
-925.566792488098 -658.388316631317 2444.00000572205 12 14 9
-918.154835700989 -657.837510108948 2441.99991226196 12 14 9
-914.115071296692 -659.712374210358 2448.99988174438 12 14 9
-904.481112957001 -657.547831535339 2440.99998474121 12 14 9
-898.570716381073 -658.07831287384 2443.00007820129 11 13 8
-893.381237983704 -659.148693084717 2447.00002670288 10 12 7
-884.910464286804 -657.795786857605 2441.99991226196 10 12 7
-870.714068412781 -652.134239673615 2421.0000038147 10 12 7
-863.058269023895 -651.322424411774 2417.99998283386 13 16 9
-858.608067035675 -652.935981750488 2424.00002479553 16 19 12
-850.963234901428 -652.12619304657 2421.0000038147 13 16 9
-847.172677516937 -654.280543327332 2428.99990081787 9 11 6
-850.261032581329 -661.823093891144 2457.00001716614 9 11 6
-852.511942386627 -668.828010559082 2483.00004005432 10 12 7
-851.557016372681 -673.409700393677 2500 9 11 6
-839.360058307648 -669.103264808655 2483.99996757507 8 10 5
-835.965991020203 -671.801209449768 2493.99995803833 8 10 5
-829.194009304047 -671.806514263153 2493.99995803833 9 11 8
-819.455087184906 -669.388294219971 2484.99989509583 10 12 9
-811.40124797821 -668.317854404449 2480.99994659424 10 12 7
-804.991781711578 -668.595194816589 2482.00011253357 10 13 6
-802.437007427216 -672.10590839386 2494.99988555908 10 13 6
-795.347809791565 -671.846032142639 2493.99995803833 10 13 6
-728.523552417755 -626.0706782341 2323.99988174438 18 21 14
-718.800902366638 -623.11840057373 2312.99996376038 16 19 12
-713.759183883667 -624.207735061646 2316.99991226196 14 17 10
-702.284097671509 -619.640231132507 2299.99995231628 14 17 10
-693.322718143463 -617.228388786316 2290.99988937378 14 17 10
-692.208468914032 -621.822118759155 2308.00008773804 12 15 8
-689.219236373901 -624.800026416779 2319.00000572205 11 14 7
-682.931244373322 -624.814987182617 2319.00000572205 12 15 8
-675.476372241974 -623.752653598785 2315.00005722046 12 15 8
-665.152788162231 -619.996428489685 2301.00011825562 14 17 10
-660.059869289398 -621.090590953827 2305.0000667572 14 17 10
-659.200072288513 -626.227200031281 2323.99988174438 14 17 10
-658.518493175507 -631.634294986725 2344.00010108948 14 15 9
-648.825347423553 -628.418743610382 2332.00001716614 13 14 8
-638.921797275543 -624.934077262878 2319.00000572205 13 14 8
-633.72665643692 -626.030921936035 2322.99995422363 13 14 8
-627.429246902466 -626.050412654877 2322.99995422363 14 15 7
-625.677466392517 -630.651772022247 2339.99991416931 18 18 10
-623.30424785614 -634.714961051941 2355.00001907349 18 18 8
-620.063781738281 -637.970149517059 2367.00010299683 18 18 8
-612.091600894928 -636.374294757843 2361.00006103516 18 18 8
-606.973767280579 -637.743592262268 2365.9999370575 17 17 7
-600.559592247009 -637.76558637619 2365.9999370575 17 17 7
-596.656441688538 -640.483558177948 2375.99992752075 16 16 8
-591.456890106201 -641.854166984558 2381.00004196167 20 19 15
-587.212800979614 -644.303441047668 2390.00010490417 18 17 13
-930.841028690338 -659.35617685318 2423.00009727478 13 15 10
-926.52153968811 -660.973370075226 2428.99990081787 14 16 11
-913.839817047119 -656.605541706085 2413.00010681152 12 14 9
-917.038679122925 -663.667440414429 2438.99989128113 12 14 9
-916.365325450897 -668.009340763092 2454.99992370605 12 14 9
-908.195912837982 -666.910469532013 2450.99997520447 12 14 9
-894.900739192963 -662.003517150879 2433.00008773804 10 12 7
-892.292976379395 -664.988458156586 2444.00000572205 9 11 6
-880.205392837524 -660.900235176086 2428.99990081787 10 12 7
-874.67497587204 -661.710798740387 2431.99992179871 11 13 8
-865.560352802277 -659.801661968231 2424.99995231628 15 18 11
-860.381603240967 -660.886406898499 2428.99990081787 17 20 13
-852.370738983154 -659.795761108398 2424.99995231628 12 15 8
-848.219513893127 -661.698937416077 2431.99992179871 9 12 5
-847.145974636078 -666.051864624023 2447.99995422363 8 11 4
-850.106954574585 -673.670768737793 2476.0000705719 9 11 6
-845.42328119278 -675.304889678955 2482.00011253357 8 10 5
-842.735528945923 -678.572475910187 2493.99995803833 8 10 5
-837.637424468994 -679.936528205872 2499.00007247925 8 10 5
-829.853534698486 -679.124891757965 2496.00005149841 9 11 6
-820.108354091644 -676.681518554688 2486.99998855591 10 12 9
-812.37530708313 -675.871670246124 2483.99996757507 11 13 8
-806.605398654938 -676.695108413696 2486.99998855591 9 12 5
-801.784873008728 -678.335785865784 2493.00003051758 9 12 5
-788.641333580017 -672.902703285217 2473.00004959106 11 14 7
-756.951868534088 -651.416182518005 2394.00005340576 13 16 9
-732.588231563568 -635.91605424881 2336.99989318848 18 21 14
-725.315749645233 -635.110378265381 2334.00011062622 17 20 13
-717.751979827881 -634.033143520355 2329.99992370605 15 18 11
-707.767844200134 -630.779623985291 2318.00007820129 14 17 10
-699.362277984619 -628.887236118317 2311.00010871887 14 17 10
-688.895761966705 -625.090420246124 2296.99993133545 12 15 8
-685.93567609787 -628.097712993622 2308.00008773804 11 14 7
-681.443870067596 -629.744827747345 2313.99989128113 12 15 8
-677.794992923737 -632.209122180939 2322.99995422363 12 15 8
-667.449295520782 -628.414452075958 2309.00001525879 13 16 9
-663.765907287598 -630.879938602448 2318.00007820129 14 17 10
-660.033941268921 -633.346021175385 2326.99990272522 14 17 10
-661.590933799744 -640.984296798706 2355.00001907349 12 13 7
-656.040847301483 -641.818642616272 2358.00004005432 13 14 8
-645.791053771973 -638.026297092438 2344.00010108948 15 16 10
-633.4348320961 -632.056474685669 2322.00002670288 15 16 10
-627.409875392914 -632.347702980042 2322.99995422363 15 16 10
-624.588131904602 -635.905921459198 2335.99996566772 18 19 11
-624.342441558838 -642.187058925629 2358.99996757507 18 19 11
-621.614515781403 -646.018862724304 2372.99990653992 17 18 10
-612.329542636871 -643.04518699646 2361.99998855591 17 19 8
-608.747839927673 -646.061301231384 2372.99990653992 17 19 8
-603.075861930847 -646.89975976944 2375.99992752075 17 19 8
-596.885204315186 -647.194087505341 2377.00009346008 17 18 10
-591.185748577118 -648.033320903778 2380.00011444092 15 16 11
-589.400827884674 -653.229534626007 2398.9999294281 16 17 12
-592.372119426727 -663.872420787811 2437.99996376038 19 19 17
-953.908145427704 -682.445406913757 2483.00004005432 11 13 8
-927.681148052216 -668.411672115326 2431.99992179871 13 15 10
-918.398320674896 -666.472673416138 2424.99995231628 11 13 8
-914.043486118317 -668.107748031616 2430.99999427795 13 15 10
-910.404562950134 -670.293748378754 2438.99989128113 12 14 9
-900.424838066101 -667.809009552002 2430.0000667572 11 13 8
-890.128195285797 -665.050745010376 2420.00007629395 10 12 7
-884.633958339691 -665.866255760193 2423.00009727478 9 11 6
-883.835852146149 -670.255362987518 2438.99989128113 10 12 7
-875.759541988373 -669.149577617645 2434.99994277954 11 13 8
-868.063390254974 -668.319761753082 2431.99992179871 15 18 11
-860.739231109619 -667.765736579895 2430.0000667572 17 20 13
-853.076040744781 -666.938126087189 2427.00004577637 12 15 8
-849.964678287506 -669.683814048767 2437.00003623962 8 11 4
-844.72382068634 -670.781850814819 2440.99998474121 9 11 6
-839.119434356689 -671.606183052063 2444.00000572205 9 11 6
-845.421493053436 -682.049334049225 2482.00011253357 8 10 5
-839.353859424591 -682.600855827332 2483.99996757507 8 10 5
-831.600368022919 -681.779205799103 2480.99994659424 8 10 5
-824.196934700012 -681.233465671539 2479.00009155273 10 12 7
-814.826726913452 -679.039716720581 2470.99995613098 10 12 9
-813.67701292038 -683.717012405396 2487.99991607666 11 13 8
-802.057564258575 -679.601430892944 2473.00004959106 9 12 5
-797.917366027832 -681.807160377502 2480.99994659424 8 11 4
-793.734729290009 -684.014022350311 2489.00008201599 10 13 6
-767.060458660126 -666.709542274475 2426.00011825562 9 12 5
-739.474654197693 -648.306012153625 2358.99996757507 17 20 13
-727.169632911682 -643.09424161911 2339.99991416931 16 19 12
-722.669363021851 -644.753992557526 2345.99995613098 14 17 10
-715.38919210434 -643.9408659935 2342.99993515015 13 16 9
-704.796850681305 -640.105187892914 2328.9999961853 13 16 9
-694.580972194672 -636.54488325119 2315.99998474121 11 14 7
-690.379858016968 -638.482093811035 2322.99995422363 13 16 9
-682.901859283447 -637.396454811096 2319.00000572205 13 16 9
-677.488327026367 -638.235509395599 2322.00002670288 13 16 9
-668.012022972107 -635.226964950562 2311.00010871887 13 16 9
-661.172807216644 -634.69272851944 2309.00001525879 13 16 9
-658.599138259888 -638.282239437103 2322.00002670288 13 16 9
-660.730838775635 -646.545648574829 2351.99999809265 12 13 7
-657.135844230652 -649.312019348145 2361.99998855591 13 14 8
-652.384757995605 -650.979340076447 2368.00003051758 14 15 9
-638.599336147308 -643.575072288513 2341.00008010864 16 17 11
-626.040458679199 -637.270569801331 2318.00007820129 16 17 11
-622.697055339813 -640.313684940338 2328.9999961853 16 17 9
-627.233564853668 -651.605606079102 2369.99988555908 16 17 9
-623.951435089111 -654.925107955933 2381.99996948242 15 16 8
-614.123284816742 -651.371419429779 2368.99995803833 15 17 6
-607.956886291504 -651.667177677155 2369.99988555908 15 17 6
-603.561699390411 -653.888285160065 2378.00002098084 15 17 6
-596.360921859741 -653.085112571716 2375 17 18 10
-589.921414852142 -653.107047080994 2375 16 17 11
-587.166965007782 -657.254338264465 2390.00010490417 20 21 16
-593.077540397644 -671.302556991577 2440.99998474121 22 22 20
-952.005326747894 -687.820374965668 2477.9999256134 11 13 8
-936.852514743805 -681.695997714996 2456.00008964539 13 15 10
-924.851655960083 -677.793860435486 2441.99991226196 13 15 10
-915.937304496765 -676.113605499268 2436.00010871887 13 15 10
-906.684339046478 -674.157083034515 2428.99990081787 11 13 8
-893.395662307739 -669.149100780487 2411.00001335144 10 12 7
-888.666689395905 -670.525670051575 2415.99988937378 9 11 6
-890.849411487579 -677.176713943481 2440.00005722046 9 11 6
-887.467324733734 -679.665744304657 2448.99988174438 13 15 10
-879.72229719162 -678.825676441193 2446.00009918213 15 17 12
-869.496524333954 -676.044046878815 2436.00010871887 15 18 11
-862.514495849609 -675.761163234711 2434.99994277954 14 17 8
-857.29706287384 -676.867127418518 2438.99989128113 11 14 7
-851.710617542267 -677.696585655212 2441.99991226196 9 12 5
-846.455216407776 -678.804695606232 2446.00009918213 9 12 5
-844.269514083862 -682.411432266235 2459.00011062622 9 12 5
-840.311288833618 -684.631645679474 2467.00000762939 9 12 5
-836.986541748047 -687.407910823822 2476.99999809265 9 11 6
-828.580737113953 -686.022281646729 2471.99988365173 9 11 6
-817.543625831604 -682.417631149292 2459.00011062622 9 11 6
-811.194777488709 -682.699084281921 2460.00003814697 9 11 6
-804.841339588165 -682.981431484222 2460.99996566772 8 10 5
-801.402270793915 -685.762286186218 2470.99995613098 19 21 16
-803.377270698547 -693.262159824371 2497.99990653992 9 11 6
-795.320808887482 -692.159533500671 2493.99995803833 9 11 6
-777.169227600098 -682.176828384399 2457.99994468689 0 1 0
-746.988415718079 -661.370515823364 2382.99989700317 40 42 37
-727.470338344574 -649.723410606384 2341.00008010864 17 19 14
-721.734464168549 -650.288581848145 2342.99993515015 16 18 13
-714.767038822174 -649.744272232056 2341.00008010864 13 15 10
-703.876972198486 -645.592510700226 2325.99997520447 15 17 12
-694.868206977844 -643.106400966644 2316.99991226196 12 14 9
-692.446887493134 -646.727502346039 2329.99992370605 12 15 8
-683.771431446075 -644.520282745361 2322.00002670288 13 16 9
-676.30672454834 -643.423855304718 2318.00007820129 13 16 9
-665.106534957886 -638.719439506531 2301.00011825562 13 16 9
-662.588953971863 -642.342984676361 2313.99989128113 12 15 8
-660.00109910965 -645.967304706573 2326.99990272522 11 14 7
-659.028470516205 -651.258051395416 2345.99995613098 13 14 8
-653.22357416153 -651.830077171326 2348.00004959106 12 13 7
-646.856963634491 -651.847362518311 2348.00004959106 13 14 8
-638.308227062225 -649.644136428833 2339.99991416931 14 15 9
-625.481963157654 -642.999231815338 2315.99998474121 15 16 10
-623.747408390045 -647.737503051758 2332.99994468689 15 16 10
-630.654215812683 -661.639094352722 2382.99989700317 15 16 10
-624.716937541962 -662.214159965515 2384.99999046326 15 16 8
-613.325119018555 -656.958818435669 2365.9999370575 15 16 8
-607.936084270477 -658.089935779572 2369.99988555908 16 18 7
-604.048073291779 -660.887718200684 2380.00011444092 16 18 7
-597.343623638153 -660.631239414215 2378.99994850159 18 19 11
-591.638207435608 -661.485970020294 2381.99996948242 15 16 10
-584.933578968048 -661.230206489563 2381.00004196167 22 23 18
-584.55103635788 -668.195426464081 2405.99989891052 15 15 13
-945.109069347382 -689.525306224823 2460.00003814697 12 14 9
-939.540266990662 -690.347254276276 2463.00005912781 14 16 11
-929.412603378296 -687.807261943817 2453.9999961853 13 15 10
-919.71218585968 -685.549020767212 2446.00009918213 14 16 11
-905.951321125031 -680.209159851074 2427.00004577637 12 14 9
-895.631074905396 -677.393198013306 2417.00005531311 10 12 7
-891.988098621368 -679.623186588287 2424.99995231628 8 10 5
-891.589343547821 -684.376776218414 2441.99991226196 10 12 7
-888.563096523285 -687.16949224472 2451.99990272522 16 18 13
-878.291010856628 -684.358477592468 2441.99991226196 16 18 13
-871.287405490875 -684.071004390717 2440.99998474121 12 15 8
-869.603931903839 -687.98816204071 2454.99992370605 12 15 6
-864.682614803314 -689.384341239929 2460.00003814697 11 14 5
-851.713597774506 -684.336185455322 2441.99991226196 10 13 6
-849.571585655212 -687.9763007164 2454.99992370605 9 12 5
-844.270408153534 -689.095437526703 2459.00011062622 9 12 5
-837.245404720306 -688.814401626587 2457.99994468689 9 12 5
-828.875720500946 -687.413454055786 2453.00006866455 9 12 5
-823.886036872864 -688.815832138062 2457.99994468689 9 12 5
-815.213203430176 -687.136590480804 2451.99990272522 10 12 7
-805.584967136383 -684.617698192596 2443.00007820129 10 12 7
-800.911962985992 -686.30313873291 2448.99988174438 9 11 6
-799.774885177612 -691.072225570679 2466.00008010864 8 10 5
-804.013729095459 -700.606346130371 2500 12 14 9
-794.675469398499 -698.371171951294 2492.00010299683 2 4 0
-777.793288230896 -689.410865306854 2460.00003814697 62 64 59
-748.546957969666 -669.241189956665 2388.00001144409 58 60 55
-729.325413703918 -657.759547233582 2346.99988365173 14 16 11
-713.715434074402 -649.361312389374 2316.99991226196 15 17 12
-706.817865371704 -648.810803890228 2315.00005722046 13 15 10
-697.510719299316 -646.018862724304 2305.0000667572 15 17 12
-693.956434726715 -648.552715778351 2313.99989128113 11 13 8
-691.839754581451 -652.488708496094 2328.00006866455 11 14 7
-687.880635261536 -654.743731021881 2335.99996566772 13 16 9
-676.292836666107 -649.711966514587 2318.00007820129 14 17 10
-665.09211063385 -644.960820674896 2301.00011825562 14 17 10
-659.996867179871 -646.096467971802 2305.0000667572 13 16 9
-659.134566783905 -651.437222957611 2323.99988174438 12 15 8
-655.922114849091 -654.536426067352 2335.00003814697 12 13 7
-646.80814743042 -651.7493724823 2325.00004768372 12 13 7
-641.880929470062 -653.16778421402 2329.99992370605 12 13 7
-635.835528373718 -653.465330600739 2331.00008964539 13 14 8
-632.755517959595 -656.847059726715 2342.99993515015 14 15 9
-630.145311355591 -660.790205001831 2357.00011253357 15 16 10
-623.754322528839 -660.808980464935 2357.00011253357 15 16 10
-621.030211448669 -664.753317832947 2371.00005149841 16 17 11
-614.341855049133 -664.492547512054 2369.99988555908 16 17 9
-608.172118663788 -664.793074131012 2371.00005149841 16 17 9
-604.280948638916 -667.617440223694 2381.00004196167 16 17 9
-597.824573516846 -667.638301849365 2381.00004196167 12 13 5
-591.119885444641 -667.379140853882 2380.00011444092 21 22 16
-587.122619152069 -670.204937458038 2390.00010490417 16 17 11
-583.070933818817 -673.031091690063 2400.00009536743 22 23 18
-944.360792636871 -695.66148519516 2457.99994468689 11 13 8
-937.651693820953 -695.64151763916 2457.99994468689 14 16 11
-929.808616638184 -694.77391242981 2454.99992370605 12 14 9
-921.984076499939 -693.907797336578 2451.99990272522 12 14 9
-914.17795419693 -693.042933940887 2448.99988174438 12 14 9
-903.796434402466 -690.198659896851 2438.99989128113 12 14 9
-895.678341388702 -689.053595066071 2434.99994277954 14 16 11
-890.504777431488 -690.173625946045 2438.99989128113 16 18 13
-883.499264717102 -689.880013465881 2437.99996376038 16 18 13
-872.544825077057 -686.475098133087 2426.00011825562 12 14 9
-871.294677257538 -690.711319446564 2440.99998474121 9 12 5
-869.25595998764 -694.382667541504 2453.9999961853 10 13 4
-865.742087364197 -696.923315525055 2463.00005912781 10 13 4
-853.810131549835 -692.674100399017 2447.99995422363 10 13 4
-848.190248012543 -693.519234657288 2450.99997520447 9 12 3
-841.86863899231 -693.799376487732 2451.99990272522 8 11 4
-833.158791065216 -692.10010766983 2446.00009918213 10 13 6
-825.834274291992 -691.533625125885 2444.00000572205 11 14 7
-822.544038295746 -694.363594055176 2453.9999961853 11 14 7
-817.538321018219 -695.779740810394 2459.00011062622 11 14 7
-810.527920722961 -695.499002933502 2457.99994468689 10 12 7
-804.832279682159 -696.351170539856 2460.99996566772 8 10 5
-801.715731620789 -699.468016624451 2471.99988365173 13 15 10
-811.404645442963 -713.904023170471 2523.00000190735 8 10 5
-807.105243206024 -716.173768043518 2530.99989891052 5 7 2
-775.256216526031 -693.826675415039 2451.99990272522 125 127 122
-751.046419143677 -677.988171577454 2395.99990844727 57 59 54
-721.237301826477 -656.773746013641 2321.00009918213 13 15 10
-713.706016540527 -655.650556087494 2316.99991226196 15 17 12
-705.586552619934 -653.962194919586 2311.00010871887 13 15 10
-698.710441589355 -653.406322002411 2309.00001525879 13 15 10
-690.646290779114 -651.719212532043 2302.99997329712 10 12 7
-690.638840198517 -657.673358917236 2323.99988174438 11 14 7
-688.751220703125 -661.930501461029 2338.99998664856 13 16 9
-682.698011398315 -662.226378917694 2339.99991416931 15 18 11
-668.257653713226 -654.315650463104 2312.00003623962 14 17 10
-661.986708641052 -654.329538345337 2312.00003623962 12 15 8
-659.119486808777 -657.740294933319 2323.99988174438 11 14 7
-654.221057891846 -659.170567989349 2328.9999961853 12 13 7
-646.235644817352 -657.48804807663 2322.99995422363 12 13 7
-640.211343765259 -657.787203788757 2323.99988174438 12 13 7
-635.000169277191 -658.936023712158 2328.00006866455 13 14 8
-633.817970752716 -664.331197738647 2346.99988365173 13 14 8
-630.66166639328 -667.74570941925 2358.99996757507 15 16 10
-625.587999820709 -669.179499149323 2364.00008201599 15 16 10
-619.177579879761 -669.198215007782 2364.00008201599 16 17 11
-615.099847316742 -671.765029430389 2372.99990653992 16 17 9
-608.664989471436 -671.784698963165 2372.99990653992 17 18 10
-602.483928203583 -672.087848186493 2374.00007247925 17 18 10
-591.778039932251 -667.295336723328 2357.00011253357 13 14 6
-586.876451969147 -669.014513492584 2362.99991607666 20 21 15
-586.364090442657 -675.830662250519 2387.00008392334 14 15 9
-584.992468357086 -681.798040866852 2407.99999237061 25 26 21
-582.786202430725 -686.916708946228 2426.00011825562 22 22 20
-941.692531108856 -700.359284877777 2450.99997520447 10 12 7
-937.671542167664 -702.338397502899 2457.99994468689 13 15 10
-939.295887947083 -708.60481262207 2480.00001907349 11 13 8
-921.625018119812 -700.300335884094 2450.99997520447 13 15 10
-912.327229976654 -698.283493518829 2444.00000572205 13 15 10
-905.293107032776 -697.982311248779 2443.00007820129 14 16 11
-894.95575428009 -695.111095905304 2433.00008773804 17 19 14
-890.881776809692 -697.098135948181 2440.00005722046 17 19 14
-882.422626018524 -695.657908916473 2434.99994277954 12 14 9
-875.791013240814 -695.647597312927 2434.99994277954 8 10 5
-873.087525367737 -698.780953884125 2446.00009918213 10 13 6
-872.450947761536 -703.629434108734 2463.00005912781 10 13 4
-859.069526195526 -698.194622993469 2444.00000572205 10 13 4
-847.188055515289 -693.903744220734 2428.99990081787 9 12 3
-842.310786247253 -695.327401161194 2434.00001525879 9 12 5
-836.377799510956 -695.895254611969 2436.00010871887 9 12 5
-831.457138061523 -697.321057319641 2440.99998474121 11 14 7
-824.483156204224 -697.034001350403 2440.00005722046 12 15 8
-817.515730857849 -696.747839450836 2438.99989128113 12 15 8
-816.539466381073 -701.604843139648 2456.00008964539 11 14 7
-811.844527721405 -703.320324420929 2461.99989318848 10 12 7
-805.15593290329 -703.32282781601 2461.99989318848 5 7 2
-809.495031833649 -713.03915977478 2496.00005149841 10 12 7
-812.364041805267 -721.613764762878 2526.00002288818 6 8 3
-814.114451408386 -729.332327842712 2552.99997329712 0 2 0
-721.229195594788 -663.074970245361 2321.00009918213 16 18 13
-712.465107440948 -660.797536373138 2312.99996376038 19 21 16
-707.103669643402 -661.663413047791 2315.99998474121 14 16 11
-698.700308799744 -659.673035144806 2309.00001525879 13 15 10
-693.034529685974 -660.254657268524 2311.00010871887 11 13 8
-687.952756881714 -661.408245563507 2315.00005722046 13 16 9
-686.088860034943 -665.705502033234 2329.99992370605 13 16 9
-680.059432983398 -666.003406047821 2331.00008964539 13 16 9
-672.86890745163 -665.159046649933 2328.00006866455 12 15 8
-663.118064403534 -661.743760108948 2315.99998474121 10 13 6
-659.955739974976 -664.900839328766 2326.99990272522 10 13 6
-653.925001621246 -665.201127529144 2328.00006866455 12 13 7
-649.2800116539 -666.930735111237 2334.00011062622 12 13 7
-641.572535037994 -665.517568588257 2328.9999961853 12 13 7
-634.165227413177 -664.390802383423 2325.00004768372 13 14 8
-630.020081996918 -666.693449020386 2332.99994468689 14 15 9
-624.495148658752 -667.56796836853 2335.99996566772 14 17 10
-621.600270271301 -671.300768852234 2348.99997711182 14 17 10
-617.063522338867 -673.319399356842 2355.99994659424 15 18 11
-614.821493625641 -677.910804748535 2371.99997901917 16 19 10
-610.184371471405 -679.930627346039 2378.99994850159 17 20 11
-601.195156574249 -677.0920753479 2368.99995803833 17 20 11
-591.757833957672 -673.682153224945 2357.00011253357 16 19 10
-587.601006031036 -676.274657249451 2365.9999370575 18 21 14
-585.851728916168 -681.726217269897 2384.99999046326 19 22 15
-584.242105484009 -687.46417760849 2404.99997138977 14 16 11
-930.825769901276 -703.844130039215 2440.00005722046 15 17 12
-932.876765727997 -710.457861423492 2463.00005912781 13 15 10
-916.002869606018 -702.650368213654 2436.00010871887 15 17 12
-909.730911254883 -702.920854091644 2437.00003623962 16 18 13
-901.232063770294 -701.462209224701 2431.99992179871 20 22 17
-890.555620193481 -698.274314403534 2421.0000038147 18 20 15
-889.799118041992 -702.875196933746 2437.00003623962 13 15 10
-883.521437644959 -703.150928020477 2437.99996376038 5 7 2
-878.678739070892 -704.581618309021 2443.00007820129 7 9 4
-875.595271587372 -707.455396652222 2453.00006866455 13 16 9
-867.499768733978 -706.292629241943 2448.99988174438 12 15 6
-851.694643497467 -698.786497116089 2423.00009727478 9 12 3
-839.869201183319 -694.453895092011 2407.99999237061 8 11 2
-839.546918869019 -699.639558792114 2426.00011825562 9 12 3
-838.784694671631 -704.537689685822 2443.00007820129 10 13 4
-833.503305912018 -705.687820911407 2447.00002670288 12 15 8
-824.146628379822 -703.378319740295 2438.99989128113 13 16 9
-819.862425327301 -705.395877361298 2446.00009918213 13 16 9
-819.863498210907 -711.163222789764 2466.00008010864 11 14 7
-812.172651290894 -710.298717021942 2463.00005912781 9 12 5
-806.788563728333 -711.453974246979 2467.00000762939 12 14 9
-804.626762866974 -715.4940366745 2480.99994659424 6 8 3
-807.857155799866 -724.437773227692 2512.00008392334 6 8 3
-818.892240524292 -740.592241287231 2568.00007820129 0 2 0
-749.464809894562 -689.557909965515 2391.00003242493 112 114 109
-725.261449813843 -673.125982284546 2334.00011062622 15 17 12
-713.689148426056 -668.230414390564 2316.99991226196 17 19 14
-707.094728946686 -667.950212955475 2315.99998474121 13 15 10
-699.295997619629 -666.517019271851 2311.00010871887 13 15 10
-694.223880767822 -667.680203914642 2315.00005722046 13 15 10
-685.861825942993 -665.671527385712 2308.00008773804 13 16 9
-682.249367237091 -668.278157711029 2316.99991226196 11 14 7
-678.296744823456 -670.59713602066 2325.00004768372 11 14 7
-673.145055770874 -671.763062477112 2328.9999961853 10 13 6
-666.540563106537 -671.48756980896 2328.00006866455 11 14 7
-658.807337284088 -670.05866765976 2322.99995422363 11 14 7
-654.472172260284 -672.091901302338 2329.99992370605 13 14 8
-648.430407047272 -672.394931316376 2331.00008964539 12 13 7
-640.730500221252 -670.967638492584 2325.99997520447 13 14 8
-633.058071136475 -669.541001319885 2321.00009918213 14 15 9
-628.653287887573 -671.576380729675 2328.00006866455 15 16 10
-623.408734798431 -672.74683713913 2332.00001716614 14 16 11
-618.407189846039 -674.2063164711 2336.99989318848 14 16 11
-613.116800785065 -675.37796497345 2341.00008010864 15 18 11
-611.951649188995 -681.166052818298 2361.00006103516 16 19 10
-605.292081832886 -680.896162986755 2359.99989509583 17 20 11
-600.66819190979 -682.934880256653 2367.00010299683 18 21 12
-593.997597694397 -682.665586471558 2365.9999370575 13 16 7
-591.306030750275 -687.013566493988 2381.00004196167 17 20 13
-585.585415363312 -687.89941072464 2384.0000629425 17 20 13
-585.678517818451 -695.711076259613 2411.00001335144 17 19 14
-972.476541996002 -737.016320228577 2530.99989891052 8 13 9
-946.870565414429 -722.724080085754 2482.00011253357 28 33 29
-921.913266181946 -708.725333213806 2434.00001525879 11 16 10
-916.022062301636 -709.287345409393 2436.00010871887 17 20 13
-909.748733043671 -709.559440612793 2437.00003623962 22 25 18
-902.360260486603 -708.959400653839 2434.99994277954 13 16 9
-895.720481872559 -708.943068981171 2434.99994277954 10 13 6
-890.178024768829 -709.801435470581 2437.99996376038 7 10 3
-891.144394874573 -715.901672840118 2459.00011062622 7 10 3
-884.444892406464 -715.889096260071 2459.00011062622 11 12 7
-876.319289207459 -714.713156223297 2454.99992370605 10 13 6
-868.217170238495 -713.538646697998 2450.99997520447 13 16 9
-853.81144285202 -707.125246524811 2428.99990081787 9 12 5
-843.712449073792 -704.206466674805 2418.99991035461 7 10 3
-841.974854469299 -708.275616168976 2433.00008773804 11 14 7
-840.162515640259 -712.345778942108 2447.00002670288 12 15 8
-832.484781742096 -711.468040943146 2444.00000572205 11 14 7
-825.162649154663 -710.882604122162 2441.99991226196 16 19 12
-819.52840089798 -711.753666400909 2444.9999332428 15 18 11
-816.206574440002 -714.663624763489 2454.99992370605 8 11 4
-810.852944850922 -715.827822685242 2459.00011062622 6 9 2
-799.110770225525 -717.285931110382 2463.99998664856 17 18 13
-804.637610912323 -728.350758552551 2502.00009346008 5 6 1
-806.451261043549 -736.214458942413 2529.00004386902 97 98 93
-721.836686134338 -676.261186599731 2322.99995422363 9 11 6
-714.913964271545 -675.685703754425 2321.00009918213 17 19 14
-708.613216876984 -675.693213939667 2321.00009918213 10 12 7
-699.287116527557 -672.790050506592 2311.00010871887 19 21 16
-694.514214992523 -674.254596233368 2315.99998474121 13 15 10
-684.068560600281 -670.188307762146 2302.00004577637 12 15 8
-678.705036640167 -671.071887016296 2305.0000667572 9 12 5
-673.033833503723 -671.664953231812 2306.99992179871 10 13 6
-672.265768051147 -677.208244800568 2325.99997520447 13 16 9
-664.523601531982 -675.764799118042 2321.00009918213 14 17 10
-659.644722938538 -677.233338356018 2325.99997520447 12 15 8
-651.087582111359 -674.917459487915 2318.00007820129 13 16 9
-645.077705383301 -675.222516059875 2319.00000572205 14 17 10
-637.134492397308 -673.489928245544 2312.99996376038 13 16 9
-634.406208992004 -677.290260791779 2325.99997520447 13 16 9
-635.117948055267 -684.876680374146 2351.99999809265 13 16 9
-628.471255302429 -684.601783752441 2351.0000705719 12 13 7
-621.300876140594 -683.744847774506 2348.00004959106 13 14 6
-615.194439888 -684.053182601929 2348.99997711182 15 18 9
-610.89688539505 -686.400532722473 2357.00011253357 15 21 11
-603.991210460663 -685.836017131805 2355.00001907349 15 20 13
-597.604036331177 -685.854494571686 2355.00001907349 15 20 13
-595.233559608459 -690.53316116333 2371.00005149841 9 14 7
-592.279493808746 -694.629967212677 2384.99999046326 18 21 14
-587.775766849518 -696.979820728302 2392.99988746643 12 15 8
-584.443151950836 -700.786471366882 2405.99989891052 11 12 7
-598.227322101593 -733.743131160736 2519.00005340576 4 4 2
-593.038082122803 -735.804378986359 2526.00002288818 211 209 212
-587.578535079956 -737.574696540833 2532.00006484985 192 191 196
-582.315623760223 -739.636719226837 2539.00003433228 203 202 207
-579.960763454437 -745.486259460449 2559.00001525879 218 219 224
-580.856084823608 -755.706429481506 2594.00010108948 215 218 225
-590.378880500793 -787.220418453217 2701.99990272522 109 112 119
-586.06892824173 -791.32491350174 2716.00008010864 116 116 124
-931.025505065918 -722.412765026093 2457.99994468689 20 25 19
-917.92243719101 -717.394769191742 2440.99998474121 22 25 18
-916.487276554108 -721.488952636719 2454.99992370605 8 11 4
-911.271929740906 -722.645580768585 2459.00011062622 7 10 1
-903.829574584961 -722.040116786957 2457.00001716614 9 12 5
-900.051474571228 -724.374830722809 2464.99991416931 8 11 4
-890.795648097992 -722.302854061127 2457.99994468689 9 12 5
-884.817063808441 -722.877025604248 2460.00003814697 11 12 7
-873.831868171692 -719.338476657867 2447.99995422363 10 13 6
-865.393280982971 -717.858135700226 2443.00007820129 13 16 9
-854.874610900879 -714.616000652313 2431.99992179871 10 13 6
-848.602950572968 -714.901268482208 2433.00008773804 8 11 4
-845.78800201416 -718.125998973846 2444.00000572205 12 15 8
-840.854406356812 -719.58863735199 2448.99988174438 12 15 8
-832.829594612122 -718.408107757568 2444.9999332428 13 16 9
-826.855361461639 -718.991577625275 2447.00002670288 15 18 11
-819.865822792053 -718.694686889648 2446.00009918213 14 17 10
-812.218070030212 -717.811167240143 2443.00007820129 8 11 4
-805.24730682373 -717.516243457794 2441.99991226196 7 10 3
-799.918353557587 -718.691527843475 2446.00009918213 14 15 10
-807.865381240845 -731.914401054382 2490.9999370575 4 5 0
-803.670048713684 -734.266996383667 2499.00007247925 13 14 9
-804.853022098541 -741.615355014801 2523.9999294281 9 10 5
-797.680974006653 -741.325438022614 2523.00000190735 115 116 111
-720.587849617004 -681.394219398499 2319.00000572205 12 14 9
-717.063307762146 -684.044599533081 2328.00006866455 18 20 15
-708.605766296387 -681.994557380676 2321.00009918213 13 15 10
-701.094388961792 -680.826544761658 2316.99991226196 17 19 14
-695.404946804047 -681.422472000122 2319.00000572205 9 11 6
-686.733484268188 -679.080665111542 2311.00010871887 12 15 8
-681.344747543335 -679.971694946289 2313.99989128113 11 14 7
-673.606514930725 -678.512752056122 2309.00001525879 12 15 8
-671.098113059998 -682.343780994415 2322.00002670288 13 16 9
-665.656626224518 -683.236956596375 2325.00004768372 13 16 9
-660.48276424408 -684.424638748169 2328.9999961853 13 16 9
-652.759492397308 -682.967960834503 2323.99988174438 13 16 9
-643.673062324524 -680.042624473572 2313.99989128113 14 17 10
-637.670993804932 -680.350303649902 2315.00005722046 13 16 9
-643.937110900879 -693.883895874023 2361.00006103516 12 15 8
-639.962732791901 -696.544110774994 2369.99988555908 13 16 9
-631.395518779755 -694.20862197876 2361.99998855591 12 13 5
-624.988615512848 -694.224834442139 2361.99998855591 13 14 6
-617.534279823303 -693.065941333771 2358.00004005432 15 18 9
-611.915946006775 -693.964719772339 2361.00006103516 14 20 10
-601.40860080719 -689.279317855835 2345.00002861023 14 19 12
-595.048069953918 -689.297139644623 2345.00002861023 14 19 12
-589.440703392029 -690.197229385376 2348.00004959106 13 18 11
-590.52187204361 -699.034690856934 2378.00002098084 19 22 15
-585.054337978363 -700.229823589325 2381.99996948242 18 21 14
-586.366236209869 -709.656715393066 2414.00003433228 18 17 13
-593.749284744263 -726.727843284607 2471.99988365173 17 16 12
-593.218326568604 -734.392702579498 2497.99990653992 1 0 0
-586.911916732788 -735.002219676971 2500 192 190 193
-580.8265209198 -735.906183719635 2503.00002098084 188 187 192
-574.953973293304 -737.104475498199 2506.99996948242 195 194 199
-571.552395820618 -741.53733253479 2522.0000743866 213 214 219
-571.651756763458 -750.675201416016 2552.99997329712 204 207 214
-578.661143779755 -769.223392009735 2615.9999370575 145 148 155
-585.546910762787 -788.067042827606 2680.0000667572 113 116 123
-582.375109195709 -793.679118156433 2698.99988174438 120 120 128
-931.048631668091 -729.113280773163 2457.99994468689 10 15 9
-913.807451725006 -720.784962177277 2430.0000667572 15 18 11
-913.147568702698 -725.509464740753 2446.00009918213 8 11 4
-910.549581050873 -728.752076625824 2457.00001716614 6 9 0
-907.525718212128 -731.699228286743 2467.00000762939 9 12 5
-900.432825088501 -731.385231018066 2466.00008010864 10 13 6
-895.159482955933 -732.555449008942 2470.00002861023 11 14 7
-883.751451969147 -728.685140609741 2457.00001716614 11 12 7
-877.05671787262 -728.671669960022 2457.00001716614 8 11 4
-867.1755194664 -725.990414619446 2447.99995422363 12 15 8
-860.508561134338 -725.979506969452 2447.99995422363 13 16 9
-852.796971797943 -725.080132484436 2444.9999332428 11 14 7
-849.256038665771 -727.74064540863 2453.9999961853 13 16 9
-844.63769197464 -729.512512683868 2460.00003814697 15 18 11
-836.241066455841 -728.023529052734 2454.99992370605 16 19 12
-828.548908233643 -727.128684520721 2451.99990272522 12 15 8
-820.874333381653 -726.235032081604 2448.99988174438 10 13 6
-815.212249755859 -727.121651172638 2451.99990272522 9 12 5
-804.918587207794 -723.857760429382 2440.99998474121 10 13 6
-807.112991809845 -731.863379478455 2467.99993515015 4 5 0
-812.080442905426 -742.538869380951 2503.99994850159 13 14 9
-803.98964881897 -741.353750228882 2500 9 10 5
-798.791527748108 -742.838561534882 2505.00011444092 21 22 17
-799.890279769897 -750.254988670349 2529.99997138977 3 4 0
-730.215311050415 -696.885228157043 2349.99990463257 11 13 8
-716.44127368927 -689.773321151733 2325.99997520447 8 10 5
-710.430681705475 -690.075814723969 2326.99990272522 9 11 6
-702.297329902649 -688.303291797638 2321.00009918213 12 14 9
-698.095560073853 -690.386652946472 2328.00006866455 17 19 14
-688.804626464844 -687.429308891296 2318.00007820129 12 15 8
-685.457468032837 -690.403878688812 2328.00006866455 15 18 11
-677.388727664948 -688.634097576141 2322.00002670288 15 18 11
-670.509099960327 -688.051164150238 2319.9999332428 12 15 8
-664.499819278717 -688.358783721924 2321.00009918213 12 15 8
-661.321222782135 -691.632568836212 2332.00001716614 14 17 10
-652.746737003326 -689.272165298462 2323.99988174438 13 16 9
-646.997690200806 -689.878046512604 2325.99997520447 13 16 9
-645.094156265259 -694.636940956116 2342.00000762939 12 15 8
-645.013332366943 -701.472878456116 2365.00000953674 12 15 8
-636.707246303558 -699.41121339798 2358.00004005432 13 16 9
-631.379842758179 -700.612902641296 2361.99998855591 15 16 8
-625.237047672272 -700.92511177063 2362.99991607666 15 16 8
-618.565201759338 -700.644552707672 2361.99998855591 15 18 9
-610.084652900696 -698.288023471832 2354.00009155273 13 19 9
-602.160632610321 -696.525156497955 2348.00004959106 13 18 11
-594.269156455994 -694.762587547302 2342.00000762939 13 18 11
