ply
format ascii 1.0
comment KinectMotionCapture
element vertex 752
property float x
property float y
property float z
property uchar red
property uchar green
property uchar blue
end_header
-910.821539137418 487.666357445251 2897.73128995381 239 239 237
-909.737267078021 487.812869724585 2906.5374942718 250 246 243
-917.669627101692 488.481260592863 2913.75830033426 248 243 237
-925.60919443635 489.15020566069 2921.01053999204 255 253 246
-930.545424873513 489.64482143775 2928.80118910144 154 138 125
-929.46035538885 489.788997230979 2937.6052537499 175 156 142
-855.950113324983 434.775639680308 1452.16862925311 181 177 178
-826.34924734907 433.825058850368 1481.77544969086 161 153 151
-814.818721049276 433.624145641705 1499.43501154887 192 182 180
-825.927153503237 434.36903473691 1502.37971531944 204 189 182
-828.885554949208 434.774653753259 1510.6200693232 200 183 175
-825.492064091148 434.914333526975 1522.92485050966 173 155 145
-811.193170950725 434.59448579539 1542.12565363622 163 141 128
-807.777383866907 434.731852648782 1554.33245880224 165 143 130
-807.991250742404 435.022678121697 1564.21772358533 169 146 130
-818.212552303232 435.738414202899 1567.8267712516 184 163 144
-828.444522492434 436.456821038024 1571.48234659074 195 176 161
-834.13170753467 436.984005801001 1578.00548518569 192 174 160
-834.352453970904 437.279204757185 1587.91849293004 198 185 176
-834.570595707326 437.574704609246 1597.81984589184 196 186 177
-840.264832185653 438.105482705002 1604.37194368875 180 173 165
-846.877328045408 438.677008730678 1610.39113427221 219 215 212
-852.581636040807 439.210990518656 1616.98681506928 212 212 210
-853.716459287473 439.54913762935 1626.34501786542 186 187 189
-858.51203621496 440.046117455589 1633.51447625979 195 199 202
-861.478933743364 440.464849150617 1641.78564285037 213 214 216
-870.864436933156 441.163332090818 1646.27823591121 233 235 234
-876.590167528297 441.704553552078 1652.96405886426 225 227 226
-885.992662404377 442.407381013893 1657.53005817226 212 214 213
-885.300869024448 442.6706905713 1667.99596652543 219 221 220
-886.443417198711 443.014527486892 1677.38594964861 195 197 196
-886.665290918787 443.318181621075 1687.29786538376 205 207 206
-890.566245973889 443.784029519883 1695.10090845376 211 213 212
-893.548932445392 444.210169223065 1703.43620664938 214 216 215
-897.454311735336 444.677709093288 1711.25775028028 216 218 217
-901.36246460191 445.146295046278 1719.08981420271 223 225 224
-904.350080901865 445.574689969656 1727.44659602153 231 233 232
-904.568554902572 445.880602806013 1737.34328855357 228 229 231
-902.936583806354 446.103963830019 1748.24722197302 227 228 230
-902.224463348956 446.368162000223 1758.62412128959 231 232 234
-903.359564328536 446.714919250874 1767.97848373355 233 234 236
-907.271486759767 447.186472213887 1775.82541342747 235 236 238
-911.185781102777 447.658853849454 1783.68339414131 234 235 237
-915.102921958133 448.13200494354 1791.55237924472 236 237 239
-918.094701503736 448.564129287448 1799.92531319493 237 238 240
-920.159536941028 448.954708450019 1808.79443978489 237 238 240
-923.153495149197 449.387730836302 1817.1764459762 240 241 243
-924.289743241922 449.73671158973 1826.53455546871 242 243 245
-926.355100628586 450.128133232455 1835.40548654847 244 245 249
-923.766391391748 450.307275902726 1846.67589523838 241 242 246
-919.308418922428 450.400401479639 1858.87483227372 237 238 242
-918.57088684081 450.662846273863 1869.13969822674 238 239 243
-921.560503249328 451.096215772725 1877.50236779139 241 242 246
-928.284837139008 451.70180818367 1883.99434432151 239 240 244
-930.345899182838 452.093411431309 1892.84624083626 231 232 236
-932.407177332619 452.485167815 1901.6989995685 232 233 237
-934.46869156627 452.877022943659 1910.55274054348 230 231 235
-936.530408428936 453.269028873955 1919.40728572184 210 211 215
-935.783106489592 453.530430603649 1929.63079996981 209 210 214
-939.717584058174 454.009535116214 1937.57267899634 250 251 253
-940.841830375467 454.357941116239 1946.87823981482 243 244 246
-944.779669223198 454.83775641733 1954.83559891846 241 242 244
-942.148294381447 455.010087256796 1965.92200491102 232 233 235
-943.268948857776 455.35781324252 1975.21213797462 232 233 235
-945.328644180023 455.749469010567 1984.05798103724 240 241 243
-949.269919646467 456.229879587481 1992.03013373765 218 219 221
-950.390101480083 456.577292297856 2001.31836832396 244 245 247
-950.567156552284 456.87990678662 2011.03448521583 254 255 255
-949.799509040472 457.137263682529 2021.17072420917 239 240 242
-949.971766827366 457.438745089454 2030.86528153403 242 243 245
-949.197837638396 457.69466679174 2040.97468397901 241 241 243
-950.309405334957 458.040008883875 2050.22617759318 249 249 251
-951.419771180353 458.384982101531 2059.4736785304 249 249 251
-950.638003015643 458.639025307145 2069.54964281018 247 247 249
-945.121502115068 458.665197070808 2081.67879439639 249 249 251
-941.489060639964 458.780437390284 2092.94499622391 252 252 252
-946.377082463955 459.304884721498 2100.50566451128 248 248 248
-955.061495078676 460.012931960272 2106.46071625943 251 251 251
-957.113648719072 460.401314438334 2115.27525157659 247 247 247
-954.419384170032 460.559569965823 2126.09280798753 252 252 252
-953.619010708857 460.808654897568 2136.08970292527 249 249 249
-953.765696870597 461.103058588557 2145.6768262545 249 251 250
-950.10537654205 461.211387200413 2156.82424306032 254 255 255
-941.678872434827 461.085760193167 2169.88983430361 253 254 255
-933.239023785967 460.957243188019 2182.89832162392 234 238 241
-926.691806368931 460.919395212031 2195.08069014811 236 240 243
-928.716894373138 461.300486180227 2203.78024733377 238 241 246
-931.696461053599 461.728181003119 2212.10196967572 243 246 251
-929.903010911279 461.920678765803 2222.31248630801 247 248 252
-932.882413493637 462.347766648655 2230.63384252164 246 246 248
-934.907199305564 462.727416834777 2239.33291549528 244 244 244
-939.802515030861 463.248904418587 2246.92746573355 242 242 242
-933.213028093787 463.200668570973 2258.92968024858 240 240 242
-933.31888252187 463.483474288516 2268.34261061415 242 243 245
-931.505132402785 463.669910310365 2278.46723919155 240 241 243
-934.482732815675 464.094314115078 2286.78223269712 230 231 235
-937.461766859855 464.518561286045 2295.10363573354 226 227 231
-942.36329990514 465.038927446753 2302.72624264393 218 222 225
-950.152027095319 465.704017509287 2309.31606125978 226 230 233
-955.063213040525 466.225245780453 2316.98069733372 219 220 224
-959.015804590265 466.698302376332 2325.0070405769 221 222 226
-961.045282067389 467.074252809426 2333.72896379964 212 213 215
-963.074953297679 467.449831842596 2342.45195925557 234 235 237
-963.176550705372 467.727387755556 2351.84921850454 237 238 240
-966.170058444161 468.150728752987 2360.23493394543 245 246 248
-968.19961592179 468.524841793187 2368.9582903909 246 247 249
-965.39921224673 468.652852801127 2379.32592560683 238 239 243
-965.492565243018 468.92696870839 2388.68996494708 235 236 240
-963.649171770821 469.101501406692 2398.69096900789 238 239 243
-966.640351027173 469.52189360568 2407.0681582029 240 241 245
-967.696009741255 469.842799242058 2416.08765741023 232 233 237
-968.750330647378 470.163023196277 2425.10274882002 237 238 242
-972.713061037195 470.63186442577 2433.17516255405 236 237 241
-976.678390338304 471.100635163003 2441.25907004719 216 217 221
-983.559094028771 471.719428879324 2448.43233727677 220 221 223
-986.55991790198 472.138239128546 2456.85187024123 220 221 223
-986.645120275187 472.405910134544 2466.18378392891 220 221 223
-983.80935297111 472.521618353405 2476.40390916583 224 225 227
-982.914530986979 472.736582899822 2486.00467808702 228 229 231
-982.990327764018 473.00087630361 2495.29604549322 225 226 228
-986.962293461841 473.46687552081 2503.41191329527 232 233 235
-988.011029942761 473.780392000775 2512.40525522253 234 235 237
-989.058587948647 474.093067983265 2521.39389846418 228 229 233
-986.198499553613 474.200803058798 2531.51154052893 228 229 233
-983.332503970353 474.306865690622 2541.6030493911 228 229 233
-981.438102772231 474.462496884183 2551.3904013229 230 234 235
-981.49549774297 474.719334652251 2560.60615135902 226 230 231
-977.634304494555 474.769265509109 2570.90275420298 212 216 217
-976.704730166668 474.971962439446 2580.3575997214 223 227 228
-978.712337602184 475.328446865758 2588.99460023203 226 230 231
-984.643542164843 475.891606644242 2596.5729562597 217 221 222
-986.653651323254 476.247309524916 2605.22144047985 247 251 252
-988.663749208738 476.602316234109 2613.87028449033 228 232 233
-985.760144861515 476.696194989134 2623.80323366676 233 237 238
-984.816960237659 476.892774052459 2633.20170272295 229 233 234
-986.822065741811 477.245064753314 2641.83014489739 232 236 237
-987.842597795651 477.544323833474 2650.70758763451 228 232 233
-991.817363299559 478.000336886552 2658.84166652804 225 229 230
-986.921988591768 477.982221719592 2669.17749949695 232 236 237
-986.950399648896 478.225695537366 2678.27230356855 227 231 232
-984.014737698536 478.309579705512 2688.07095340826 237 241 242
-984.035990456664 478.550611571128 2697.13673658456 235 239 240
-983.066674587801 478.737560498635 2706.42463406703 232 236 237
-976.159527955146 478.603871124459 2717.07731823938 234 238 239
-974.189166279033 478.734253803508 2726.5447949692 234 238 239
-965.282170409022 478.489138073574 2737.56442893255 237 241 242
-963.297383502404 478.615749343762 2746.97055801983 238 242 243
-957.3418610569 478.52642097573 2757.23306158744 239 243 244
-953.360275464212 478.542076441529 2767.01930618621 235 236 238
-951.356595558956 478.663563900216 2776.34519551404 232 236 235
-949.347611782308 478.783566989721 2785.64967240213 238 242 241
-951.309386597762 479.118343819682 2794.09747572801 241 242 244
-949.292952438272 479.235770792897 2803.3695507212 239 243 242
-944.28595949185 479.18894965634 2813.23041344888 224 228 227
-944.248890043411 479.411895691884 2822.04983293445 226 227 229
-943.213114056976 479.579349176536 2831.05633549809 232 233 235
-944.167095392471 479.854597557499 2839.65572621417 230 234 233
-938.136586397834 479.746321640958 2849.59894024807 224 228 227
-926.106485087284 479.306870056271 2860.63989537617 228 232 231
-926.045101479426 479.522711922681 2869.35635113166 231 235 234
-922.982603274413 479.572477248775 2878.61615507391 232 236 235
-920.914002343473 479.675719335948 2887.66669635582 233 235 234
-908.833095016865 479.225500405547 2898.49010395791 234 234 232
-908.750577287123 479.435483153629 2907.11687675944 251 246 243
-913.675271109838 479.921447679096 2914.86177729411 255 252 246
-923.616465700723 480.685060870187 2921.7647587797 131 121 112
-925.541680474128 481.004769345112 2930.06032024765 137 118 104
-923.451248762174 481.101003173053 2939.01987099253 152 129 113
-911.311623552471 480.637605110234 2949.59228536622 157 131 114
-894.912968183502 480.349303945588 2977.74848413898 167 148 133
-899.832856750626 480.830155109885 2985.47521746589 168 149 134
-846.170559672796 478.236758054641 3010.26723477148 127 111 96
-837.693181824842 425.001419605142 1464.04519798347 68 64 65
-835.23415562239 425.193897705947 1475.8803076541 51 41 39
-821.904454979292 424.964727059168 1494.74110464987 83 72 68
-821.237242907273 425.22600151997 1505.31761577123 128 111 103
-825.099219008349 425.664084678261 1512.96413905462 125 105 94
-838.03528678145 426.458012425413 1514.8208002846 111 89 76
-825.567178386136 426.259748360366 1532.90259762323 101 78 62
-818.529637148053 426.272703732712 1547.45084249964 101 75 60
-811.47966002274 426.284314937904 1561.94507829982 131 106 86
-822.610588300357 427.012447649387 1564.99876716524 144 119 99
-831.022779713056 427.635449163076 1569.80427685113 165 142 124
-838.532643651051 428.224698425062 1575.20987067562 163 144 127
-841.492105442215 428.63479498539 1583.45335003559 161 147 136
-839.892191375962 428.864229449809 1594.4949729669 161 148 139
-843.763511834168 429.312101126979 1602.17800198554 147 138 131
-848.550733119288 429.797798859148 1609.31727637329 208 204 201
-856.083536999774 430.394839879632 1614.8193739201 193 193 191
-858.136066627494 430.773105608304 1623.64151639524 189 190 192
-862.934239734279 431.262783022863 1630.82671008882 179 183 186
-864.988620926961 431.642642205921 1639.65607440626 206 207 209
-873.457944991335 432.283060687712 1644.70309932264 211 213 212
-878.267722838727 432.77665732567 1651.93712501843 205 207 206
-885.834222206681 433.383584538639 1657.58188952696 198 200 199
-886.980047324971 433.730129579988 1666.98471991908 196 198 197
-891.800391713913 434.227349905978 1674.26317653918 148 150 149
-895.705037607617 434.688039098945 1682.0844313385 194 196 195
-897.771854658512 435.074159827544 1690.96491236294 193 195 194
-896.155936286432 435.308921316962 1701.932877936 199 201 200
-899.141766357559 435.733593595115 1710.28397814162 212 214 213
-904.894769075729 436.2733488944 1717.0908401025 215 217 216
-908.807801097173 436.737978312642 1724.94673149198 218 220 219
-909.030487798837 437.049827495601 1734.85849604212 215 216 218
-906.479645043349 437.246116066745 1746.2856815683 214 215 217
-906.695832210661 437.557591499648 1756.16902525954 219 220 222
-905.05974281364 437.791462374385 1767.0486295261 227 228 230
-907.121412447212 438.180162584402 1775.90491090262 221 222 224
-906.404449436946 438.45231538769 1786.25579249073 226 227 229
-912.172020070427 438.99771806129 1793.12352746387 229 230 232
-917.944626001962 439.544397887832 1800.01269967656 230 231 233
-921.866309563758 440.013649872208 1807.90399588621 230 231 233
-923.004447426036 440.365329877473 1817.26884517846 233 234 236
-921.353527046945 440.598367342483 1828.08358579258 235 236 238
-922.487500506978 440.94974382903 1837.43134926383 237 238 242
-921.759479581784 441.221601073378 1847.73367715708 236 237 241
-920.096835693183 441.452954953581 1858.49774747528 232 233 237
-920.292953625034 441.763730958033 1868.29306595352 231 232 236
-924.216583565318 442.234708523112 1876.19192409601 228 229 233
-930.008773533595 442.786921117552 1883.16414064468 227 228 232
-931.138075750485 443.138343386114 1892.49020659397 223 224 228
-932.266367197165 443.489590573551 1901.81192148539 224 225 229
-932.458626124197 443.800218802462 1911.59032188569 230 231 235
-935.455107220612 444.232694715554 1919.98376679131 211 212 216
-934.708740059235 444.502010473656 1930.20674543557 192 193 197
-938.642561888049 444.975563354353 1938.1490001841 224 225 227
-940.704359612332 445.367583291139 1947.0038934471 239 240 242
-942.766399446492 445.759529461983 1955.85989697217 245 246 248
-942.012977346538 446.027681046542 1966.05247222837 241 242 244
-941.256138605788 446.295182964194 1976.23037391306 235 236 238
-943.315206538044 446.686556503826 1985.07361833207 241 242 244
-946.315085276265 447.119550230218 1993.48064423014 237 238 240
-948.375278770175 447.511176586208 2002.32869982283 201 202 204
-949.493945755584 447.860711675208 2011.61009721348 212 213 215
-948.727246498674 448.125984933939 2021.74585861722 251 252 254
-948.900151624459 448.432611556582 2031.4402422417 242 243 245
-948.127204620218 448.696513350435 2041.54927912824 239 239 241
-946.40677575561 448.917221606593 2052.06497701633 240 240 242
-948.460490019407 449.306857885589 2060.885651893 241 241 243
-948.623720902288 449.611127419576 2070.5398780124 245 245 247
-946.892959353781 449.829409526876 2081.01147113406 248 248 250
-941.371083385511 449.87531611508 2093.10641611191 249 249 249
-940.575637675187 450.133932345367 2103.11941955551 246 246 246
-941.672405469662 450.477810044047 2112.30655759754 251 251 251
-939.922940160025 450.691753189131 2122.69828322633 248 248 248
-940.066717649413 450.991148951928 2132.26965309869 252 252 252
-942.10766863107 451.376781033248 2141.03644075193 249 249 249
-943.198677499053 451.718619868019 2150.19940084484 251 253 252
-937.632515249046 451.754528460953 2162.10398907845 247 248 250
-931.10504742436 451.744514783955 2174.3570144396 252 253 255
-930.279490765255 451.995427711998 2184.24186255579 252 255 255
-925.639558048637 452.069402319743 2195.6491556537 245 249 252
-927.664692509659 452.450327780273 2204.34901490102 241 245 248
-927.782024064433 452.742481523587 2213.80810829481 245 249 252
-926.942600439348 452.989546188161 2223.63411400639 247 248 252
-926.099698102332 453.235603324725 2233.44538310754 247 247 249
-926.209304314355 453.525249027556 2242.87082293497 246 244 245
-930.142170794497 453.992864129592 2250.81344668587 243 241 242
-927.378525584147 454.146969660678 2261.32771289212 243 243 243
-930.354844352018 454.56918451117 2269.638346204 242 243 245
-929.49944708415 454.810994674828 2279.3970533843 239 240 242
-932.476397397104 455.232438285662 2287.70983685444 233 234 236
-933.535414482459 455.563194754868 2296.73942744953 235 236 238
-938.434184725038 456.074867432289 2304.35497308516 241 242 244
-945.258518100814 456.677809658825 2311.28807720564 228 229 231
-949.204795022534 457.144681524776 2319.29023222215 236 237 239
-952.192019925712 457.565880049539 2327.64843559772 235 235 237
-952.292535706866 457.849393733879 2337.03851082211 239 239 239
-953.35415808482 458.177927448545 2346.07980277584 232 232 232
-954.414489824091 458.505787651504 2355.11688998142 247 248 250
-960.296526248952 459.06388897826 2362.4804717211 244 245 247
-963.288119965507 459.483543046229 2370.8599214107 246 247 249
-963.383908369592 459.763692406258 2380.23114387852 233 234 236
-961.544838947129 459.949965895459 2390.2442966396 238 239 241
-961.634753870766 460.228056549051 2399.59084803841 236 237 241
-961.722565708885 460.505191540271 2408.92760771168 233 234 238
-966.648919231458 461.015741210792 2416.66536165908 222 223 227
-967.703661158583 461.33846785832 2425.68083632708 238 239 243
-972.635239695096 461.848939105855 2433.44166081684 225 226 230
-975.630672645202 462.265137867813 2441.83897426511 215 216 220
-983.480718763582 462.917592991656 2448.70643080362 214 215 217
-986.481731700073 463.333671973787 2457.12948974232 215 216 218
-988.512238425185 463.701990726752 2465.86043712867 221 222 224
-986.65274141022 463.878998533761 2475.78902394021 230 231 233
-982.841989472059 463.959129542559 2486.29013746467 230 231 233
-981.945232672863 464.180932543534 2495.87835832227 221 222 224
-983.968047807419 464.545547079008 2504.57759083667 219 220 222
-985.015978908153 464.861353820517 2513.56603673859 222 223 225
-987.038310861737 465.224727630139 2522.26386983417 226 227 231
-987.108103264011 465.490770717697 2531.52883581555 229 230 234
-984.244848785136 465.610511168852 2541.6254651241 229 230 234
-981.375670034378 465.728518365573 2551.69592171654 224 227 232
-980.456419500923 465.942144085701 2561.18983185358 213 218 222
-975.61861746995 465.959456092609 2571.758526042 219 224 228
-975.668794844332 466.218977567438 2580.94089272881 223 228 232
-976.696642207504 466.526445961323 2589.84574247591 229 234 238
-983.60660267573 467.127745294556 2597.15822151971 232 237 241
-982.67343762765 467.335766108415 2606.59302651481 229 234 238
-986.645336391774 467.789142089491 2614.71602394372 218 223 227
-984.725221623267 467.945757340186 2624.38948830533 217 222 226
-986.732345988855 468.298976254945 2633.02628079928 221 226 230
-985.788375696228 468.502650674412 2642.41711449023 226 231 234
-982.872207458279 468.605634224178 2652.28934479526 233 239 239
-981.919507309413 468.806523762207 2661.64334769509 204 209 212
-981.948524672434 469.056132024377 2670.73830182989 228 233 236
-982.961336211919 469.354690158612 2679.58213581392 233 238 241
-978.052131420432 469.351361322169 2689.84832864318 221 226 229
-977.083742512728 469.546987854043 2699.13629337674 233 238 241
-978.087469887311 469.84213407892 2707.94319048982 229 234 237
-977.112758863414 470.035508490528 2717.20462096694 227 232 235
-974.155866299231 470.126289163767 2726.90457380201 225 230 234
-963.273542188444 469.809676055021 2738.37463983938 228 233 237
-959.30847151837 469.845374078494 2748.22187030765 225 230 233
-954.344817622293 469.828159239239 2758.25629635982 229 234 237
-952.347624922657 469.961993587355 2767.60351000951 229 234 237
-951.337655063317 470.145500268135 2776.71537365605 226 231 234
-949.330946028783 470.276471356045 2786.02233693714 232 237 240
-950.299733627285 470.560069569052 2794.68206146512 234 239 242
-949.278862592429 470.739836746422 2803.74808771647 233 238 241
-945.269857231795 470.763630722322 2813.40763183115 215 220 223
-944.239429668719 470.940585528946 2822.43320066748 217 222 225
-941.212903649635 471.012722385157 2831.83836054643 217 222 225
-942.166980622124 471.290751347726 2840.43545083624 217 222 225
-938.133006707019 471.307977029901 2849.98991880605 219 225 225
-929.10193743982 471.06287778175 2860.46171791769 220 226 226
-926.048155163129 471.128037218916 2869.75087493958 214 220 220
-919.990731898514 471.034595311066 2879.56676434116 221 227 227
-915.922664340307 471.043774935802 2888.9757285392 209 213 212
-904.844195538918 470.683467451618 2899.60716786457 221 221 221
-903.75964583901 470.846014375636 2908.40271768444 255 249 246
-908.681059659385 471.32360079178 2916.13809237265 108 97 91
-912.603810342087 471.74849190953 2924.06018254373 164 150 141
-909.508493557769 471.802696571818 2933.17275787785 186 160 145
-905.403351125942 471.802214563789 2942.42403151649 187 158 140
-891.249496733933 471.268808656346 2953.27566835772 198 163 143
-889.132466315163 471.370199230192 2962.11389046239 173 136 118
-890.026341026286 471.630221668939 2970.45628581338 183 146 130
-893.936422112795 472.049749238754 2978.32678753121 189 152 136
-889.796430623754 472.040903909553 2987.42832880261 185 152 137
-885.648551535793 472.030242372507 2996.49726742146 176 144 129
-892.578919450985 472.608811980439 3003.91304229574 180 152 138
-895.481778193854 472.972586812308 3011.93325458777 190 164 149
-896.367202539741 473.228207945837 3020.24208788399 182 159 145
-887.154666341187 472.942650957321 3029.93803524954 179 160 146
-853.420512903554 417.132113902071 1474.18330330725 61 57 58
-856.398856415242 417.535762006442 1482.51377915859 86 80 80
-861.190808043342 418.005849261845 1489.68307973072 63 53 51
-877.775848777035 418.903159262272 1489.33061167049 59 48 44
-867.155156942356 418.819030041087 1506.37324654132 90 77 71
-852.884483302221 418.600624635562 1525.63873595298 76 63 57
-834.956789777765 418.246756073423 1547.09459139929 86 68 58
-828.823295514745 418.320315412116 1561.03453594302 83 65 55
-837.23802640719 418.925475707219 1565.86172965931 81 62 55
-852.945957033206 419.800459387694 1566.21374760032 78 61 54
-857.73782744435 420.27701195085 1573.37888760096 70 57 51
-854.32703514433 420.45216613943 1585.58656379118 71 60 56
-850.908752517666 420.626717105746 1597.76158808989 68 58 56
-848.396000126766 420.834418060414 1609.35099568888 137 131 133
-855.01376421769 421.381504778665 1615.40668912071 139 134 138
-858.894797627383 421.828037748967 1623.13221996294 122 120 125
-871.012003082161 422.583579689974 1625.95948611975 138 136 141
-874.903500293975 423.033313591254 1633.72924380917 115 116 118
-879.713208084549 423.518464624672 1640.96901463368 122 126 127
-882.693542324923 423.935866258811 1649.29908699294 139 143 144
-887.509617907964 424.423322316359 1656.5644758229 194 198 199
-892.32944292909 424.912122053746 1663.84559652492 146 150 151
-896.234292728116 425.367132120447 1671.67217653554 139 143 144
-901.060974808542 425.858103083859 1678.98223634032 144 148 149
-897.61323219411 426.034261904068 1691.02649730228 171 175 176
-894.158186030243 426.209387042175 1703.03918260295 162 166 167
-898.064143965506 426.666543149129 1710.86829705779 202 206 207
-908.424019861492 427.372902105279 1715.09349826254 195 199 200
-914.183746678876 427.903755950047 1721.93522601667 181 185 186
-914.411273471488 428.221823708023 1731.8646612285 183 187 188
-910.942854238502 428.396528664767 1743.81757782167 182 186 187
-911.163274559663 428.714001838601 1753.71604754807 202 206 207
-907.682571782877 428.887170469713 1765.6168258097 197 201 202
-908.821388241699 429.240125049848 1774.98391572531 195 199 200
-906.25519134014 429.447998389696 1786.33771468114 202 206 207
-912.94868005092 430.01913573677 1792.71294854559 202 206 207
-918.721181401163 430.555094907835 1799.60796545239 208 212 213
-921.715439307108 430.982384049478 1807.99466439173 199 203 204
-920.997562983316 431.263345645939 1818.33634035071 200 204 205
-919.34725835914 431.506960903371 1829.14757282308 226 227 229
-921.410653664163 431.897753425185 1838.01022787104 226 227 231
-922.544107401006 432.251688200244 1847.35311003067 227 228 232
-922.745481783905 432.568407790342 1857.16809563243 224 225 229
-924.807652587635 432.95945102204 1866.02520736407 220 221 225
-926.870026495355 433.350760840787 1874.88305729091 213 214 218
-928.932616509027 433.742223795585 1883.74176943524 220 221 225
-928.195471966361 434.020773461903 1893.99995715856 231 232 236
-930.256661328623 434.412225208366 1902.85250381959 215 216 220
-933.252801582172 434.841620941006 1911.24517202647 212 213 217
-936.250167257982 435.271415350102 1919.64409207073 231 232 236
-937.377573650294 435.625228256124 1928.9603978317 225 226 228
-940.376651371965 436.055434921336 1937.3666196591 192 193 195
-942.440247554761 436.447592824405 1946.22935681739 222 223 225
-942.628801245289 436.762728038404 1955.98877895321 231 232 234
-940.938763437242 437.000328663822 1966.62846177558 244 245 247
-940.182852498504 437.275685549969 1976.8058318536 242 243 245
-939.423490989143 437.550329040466 1986.96841632893 236 237 239
-942.421202018212 437.980170410571 1995.36774416676 242 243 245
-947.301648941203 438.488322094573 2002.90461765122 212 213 215
-948.420649347528 438.840344703185 2012.1860212084 203 204 206
-945.771178160289 439.034937813135 2023.17959035443 238 239 241
-941.230638978803 439.149385258354 2035.00106373172 248 249 251
-944.226965030635 439.578536775847 2043.39578072265 246 246 248
-943.449682372388 439.849208271022 2053.48173050682 242 242 244
-945.50217578603 440.238343821931 2062.29732012746 242 242 244
-943.774914531744 440.467819071874 2072.77775411766 245 245 247
-940.151652249616 440.616178475785 2084.06492518487 246 246 248
-933.682486129164 440.642643876657 2096.55340558403 248 248 250
-929.096279488494 440.74732975729 2108.17938330464 245 245 245
-928.291571591546 441.011688782101 2118.14819450277 250 252 251
-930.327725258914 441.396605597096 2126.89426312645 248 248 250
-935.210306940194 441.903160101078 2134.44148299283 252 252 254
-940.096856866703 442.410228412158 2142.00588702543 247 249 248
-937.387850779324 442.591095908641 2152.74518411837 249 251 250
-929.919754328365 442.565816065394 2165.4197302148 254 255 255
-924.34223422995 442.620236757923 2177.26338102362 251 252 254
-924.465709249852 442.919529059773 2186.74534739109 248 252 255
-925.539539299036 443.259433584136 2195.83374542643 249 253 255
-923.753245917359 443.474633941408 2206.06244593751 243 247 250
-923.869411925628 443.771561028918 2215.51359573789 245 249 252
-921.12073926678 443.942954337517 2226.08367151117 247 248 252
-922.185410847771 444.279839043023 2235.1345746377 247 248 250
-922.293865465198 444.574376209877 2244.55206287762 246 246 246
-925.268241268232 444.99405614899 2252.85562532105 242 242 242
-923.460469152853 445.203106289527 2262.99329553488 239 239 239
-924.520075661056 445.537596645275 2272.02220090535 242 243 245
-926.536578559645 445.913845148588 2280.68677535775 241 242 244
-931.429112274813 446.417032561537 2288.2798300222 236 237 239
-930.570219286576 446.665179400394 2298.01940602263 237 238 240
-931.627350699474 446.997518343592 2307.03975650084 225 226 228
-936.525445877011 447.500569908518 2314.65739806846 254 255 255
-941.427440965148 448.003892037644 2322.29206574813 234 235 237
-943.448253009829 448.378399334604 2330.97665289727 205 206 208
-944.507016437247 448.70927256147 2340.00397064599 100 102 101
-945.564720500257 449.039615180523 2349.02693231203 225 226 228
-947.584832308067 449.412497044755 2357.70938984123 129 130 132
-952.497409789598 449.915524560516 2365.39194932506 175 176 180
-956.449389115888 450.375156389221 2373.42240435863 218 219 221
-958.473100541914 450.747331177225 2382.12113975511 232 233 235
-954.700794209 450.85610515937 2392.77481986626 237 238 240
-956.721111910825 451.226650773296 2401.45955878904 234 235 239
-956.807192646096 451.508576848695 2410.7858722683 230 231 235
-964.633649108262 452.143016508389 2417.56106173251 219 220 224
-966.656851200741 452.512499751268 2426.25913579138 237 238 242
-973.525901166659 453.103518053201 2433.39630018917 220 221 225
-975.552468218405 453.472542831121 2442.109471848 215 216 218
-981.460523440289 454.019543954049 2449.59532255967 214 216 215
-983.489805426622 454.388055524192 2458.3207596338 218 219 221
-986.490934311154 454.800786339745 2466.74521237791 224 225 227
-983.659846639229 454.943511904709 2476.97006804488 229 230 232
-978.877139409916 454.994433441292 2487.76177358871 228 229 231
-977.979599316818 455.223910725469 2497.34202904013 219 220 222
-980.974669235398 455.633290830627 2505.74283968453 219 220 222
-982.996433450839 455.996971260158 2514.4379906555 220 221 223
-982.092316226771 456.223573735847 2523.99095435359 227 228 232
-982.160632385111 456.494554896704 2533.24542433113 230 231 235
-980.273341253329 456.672996299813 2543.05069108417 222 223 227
-977.403800542411 456.804143816813 2553.11291037531 203 207 210
-976.483776822756 457.025445570955 2562.59889861674 215 218 223
-973.603404097822 457.153489072109 2572.61412509442 224 229 232
-976.590839836076 457.556745138199 2580.98489710939 216 221 224
-978.599956213465 457.913375233578 2589.62846120797 224 227 232
-983.54990194126 458.408515462112 2597.47923931082 222 227 230
-982.618225168704 458.624790444592 2606.91683408201 215 220 223
-984.627372930189 458.979632577528 2615.56158809809 214 217 222
-984.67217023924 459.240420500989 2624.71950223905 221 224 229
-984.714703711696 459.500051362783 2633.86703474927 221 226 229
-986.721337163481 459.852606727938 2642.50205427286 224 229 232
-982.823986163517 459.922134151335 2652.62779920743 214 219 222
-983.842309072819 460.22558084729 2661.49304416431 219 224 227
-981.903425212273 460.386362859714 2671.08243676904 220 225 228
-981.931554835909 460.64043261763 2680.16976849686 224 229 232
-978.011116897814 460.703473406698 2690.19759433037 222 227 230
-975.070191727788 460.812132000209 2699.95847988926 225 230 233
-974.09850765222 461.014534907083 2709.22793857557 222 227 230
-973.123270640706 461.215673163367 2718.48139839828 221 226 229
-970.166032068756 461.319712623227 2728.17311454943 219 224 227
-966.213021028681 461.37398725955 2738.06256052641 222 227 230
-960.27226881934 461.330085339246 2748.36343189646 224 229 232
-956.30296507242 461.380322942323 2758.18345728767 215 220 223
-952.326129554877 461.428677409865 2767.97140096456 222 227 230
-948.341745183055 461.475087931145 2777.72722341357 221 226 229
-946.335223038559 461.616736080117 2787.02873034102 224 229 232
-947.303467091745 461.902830603703 2795.68350503679 223 228 231
-948.270113668464 462.188140614934 2804.33278816761 219 225 225
-947.246734320859 462.374865454873 2813.38258266989 210 215 218
-943.23384675192 462.413388348954 2823.01744288392 213 218 221
-940.209052995887 462.499073269504 2832.42226758117 215 220 223
-939.170757656312 462.681491740052 2841.40995292053 218 223 226
-937.131675218729 462.813392478296 2850.5737135787 227 232 235
-931.097096298966 462.746296123778 2860.47477270824 210 215 218
-927.048754435768 462.775843055636 2869.95868027856 199 204 207
-922.992809443211 462.803552343085 2879.41016493052 205 210 213
-918.929261321295 462.829423986124 2888.82922666412 193 194 196
-912.858094078117 462.753907308297 2898.5740091566 206 206 206
-907.777444574243 462.725914667131 2908.09922442355 172 164 161
-908.69568790276 462.996071849146 2916.54412740362 136 123 117
-903.601041932673 462.964671325612 2926.00967059567 188 171 161
-895.489845303525 462.780545380478 2935.94268911588 196 170 155
-888.369180840565 462.644177377244 2945.65606640828 194 165 147
-880.233459601314 462.454993466148 2955.48399032179 193 158 138
-874.094071572662 462.364246644391 2964.93711067052 198 159 142
-881.009708349168 462.929388494858 2972.29586944376 145 106 91
-887.931557547236 463.49507290971 2979.68059819015 118 79 64
-892.846718972994 463.959485335801 2987.3961697424 96 59 43
-889.71015307336 464.016495479588 2996.32532765799 100 64 50
-902.687453083991 464.88855158771 3002.87304886062 112 80 67
-906.604724278194 465.301977446695 3010.77882315528 118 88 77
-903.463342866577 465.356694320108 3019.68702357166 106 80 67
-897.28722677336 465.255895985301 3028.98529732658 115 93 82
-899.180858182895 465.564348573318 3037.14830467367 125 105 94
-894.000155829985 465.511620221315 3046.24717828106 163 144 137
-882.743291596777 465.14719714983 3056.09492538627 162 149 141
-884.219091999055 410.310172162908 1495.43675271701 34 26 24
-864.119783574646 410.560875757857 1538.86573544018 67 52 47
-870.737530327242 411.090604001969 1544.93156215695 67 53 50
-879.181671483856 411.683676696186 1549.89546394415 67 56 52
-883.079892290931 412.124811173052 1557.70099397245 74 64 62
-868.750936489188 411.948132537252 1576.68402992611 84 76 74
-867.169159710358 412.203039367861 1587.79059416331 79 73 73
-861.018745543736 412.301668075706 1601.64123489632 114 109 113
-862.163937423659 412.649363305302 1611.03951196225 136 131 135
-868.791379586368 413.185816891373 1617.14519301624 107 105 110
-881.827003883365 413.944620847214 1619.46012980541 109 108 113
-888.471001423326 414.485330519839 1625.63626008205 108 109 113
-893.289668435928 414.964326311587 1632.91804429313 87 91 92
-895.362802221424 415.348937876255 1641.82724812414 105 109 110
-898.353175680613 415.766169357474 1650.2016591338 187 191 192
-902.262105695486 416.216158875646 1658.0491718448 157 161 162
-901.582480389895 416.506233761005 1668.5540436506 130 134 135
-900.899204259535 416.796023376137 1679.04299560938 135 139 140
-897.454115742154 416.988422546189 1691.08831359544 198 202 203
-898.601797146126 417.342636274431 1700.49481337871 193 197 198
-902.510684681606 417.794977489317 1708.33966929929 201 205 206
-909.185863221665 418.346526243768 1714.64682580174 182 186 187
-913.101702154996 418.801055025584 1722.52102692382 163 167 168
-912.407290572908 419.09134557317 1732.96061504578 179 183 184
-911.709336456513 419.38148531126 1743.38468142537 184 188 189
-911.931760715008 419.704441528359 1753.28767029464 201 205 206
-907.529620023039 419.860635036372 1765.69553975448 206 210 211
-906.81937924464 420.149270041183 1776.06526265916 179 183 184
-909.807813866925 420.571963702192 1784.42900377315 183 187 188
-917.428881494349 421.163756069529 1790.32312923898 184 188 189
-924.130468625544 421.723292445397 1796.74195912444 194 198 199
-924.346471510112 422.046871927724 1806.61628514278 178 182 183
-924.559966705634 422.370203453553 1816.48079309141 201 205 206
-923.842574394907 422.659174553638 1826.81989096188 193 197 198
-925.909574542858 423.050533638756 1835.69809778702 215 216 220
-926.116892700546 423.373315869666 1845.53570923166 205 206 210
-925.391700597598 423.661328025839 1855.83991434056 212 213 217
-928.387340453305 424.08735240187 1864.23344683919 183 184 188
-932.31614731736 424.548594861428 1872.16192976696 177 178 180
-933.45067855645 424.905840261395 1881.50761281975 180 181 183
-929.919180467701 425.088086489271 1893.17921857671 190 191 193
-926.38048569506 425.269086139542 1904.8198448016 218 219 221
-929.374397355757 425.695261118322 1913.20458688887 224 225 227
-935.174095369795 426.227774103333 1920.22147487221 219 221 220
-939.108169043664 426.690494512433 1928.17121070092 217 219 218
-942.108737806856 427.118124722322 1936.58551830169 222 226 229
-943.237549273994 427.474668626654 1945.90640934643 199 203 206
-944.365166815871 427.831134287244 1955.2231717008 184 188 191
-943.616100529078 428.115486735479 1965.42541235606 208 212 215
-943.802277677725 428.435230522458 1975.17056505882 226 230 233
-942.107861232324 428.682254576014 1985.78541053402 235 239 242
-942.288173509906 429.000821780927 1995.50649767949 233 237 240
-944.347124750823 429.391654443677 2004.34954601547 238 242 245
-945.465402329968 429.745968753751 2013.62533006583 233 237 240
-941.8745545157 429.916951209207 2025.04203178108 216 220 223
-938.276562975335 430.086464853892 2036.42811803705 217 221 224
-940.32855124136 430.475570756946 2045.24149912466 239 240 244
-939.550396976664 430.753727683508 2055.31920542325 240 241 245
-940.657034134132 431.105273621057 2064.54532334719 241 242 246
-938.9286157052 431.344846009733 2075.01471935312 244 245 249
-934.359344678458 431.471395724954 2086.70355194609 246 247 251
-927.890222523848 431.521285767523 2099.17736206423 249 250 254
-922.356495169179 431.606561235047 2111.19692752837 226 227 231
-923.443484705015 431.95348901592 2120.33918298028 241 245 248
-928.320555001079 432.451047494074 2127.8674076822 248 252 255
-934.149915602882 432.987020805217 2135.01297083643 252 255 255
-936.188465790013 433.371774219021 2143.76969601175 238 242 245
-932.529470838444 433.527423584417 2154.895120669 243 247 248
-926.96294097654 433.605037334482 2166.77355938177 247 251 252
-922.337588499104 433.718851728843 2178.22166893777 247 251 252
-921.509730046713 433.984812319556 2188.08752348514 248 252 253
-917.822076954276 434.133993508323 2199.09046826166 244 248 249
-916.032793059666 434.358857738477 2209.30030687839 237 241 242
-914.238791287464 434.582673352559 2219.48997257476 252 255 255
-917.20973634914 434.999907783672 2227.77985556656 237 241 242
-918.273152526488 435.338934088543 2236.82288063321 234 238 239
-917.425116339704 435.59908551898 2246.60323723627 241 245 246
-917.529322814411 435.897527826542 2256.00079525047 242 246 247
-917.631270239907 436.19517387065 2265.38886693075 234 238 237
-919.645145848412 436.571140841157 2274.04202962039 243 247 248
-923.57466229834 437.026013976688 2281.97629920942 225 229 230
-927.506858996149 437.48094641186 2289.92234463401 232 236 237
-929.523849528142 437.856238052612 2298.58963067496 232 236 237
-926.743359962296 438.031273585497 2309.01844703018 245 249 250
-927.797610575824 438.365125474815 2318.02412677343 233 237 238
-928.850807850952 438.698274245411 2327.02557845336 219 223 226
-935.671023604054 439.272920896507 2333.95826690411 221 225 228
-939.611842067516 439.726859138124 2341.94288953903 240 244 247
-942.592542322584 440.14034527295 2350.27796414894 211 215 218
-942.684969034184 440.431598352597 2359.62784222099 219 224 228
-944.702874988069 440.803519612918 2368.30114448498 235 240 244
-945.756553246967 441.134090525185 2377.30623186811 218 223 227
-948.739193082238 441.546003523679 2385.65077865133 245 249 252
-947.860458541534 441.793143262904 2395.30351370312 240 244 247
-949.877163712016 442.162889575495 2403.97280385805 224 228 231
-952.861113065288 442.573512402522 2412.32279355687 208 212 215
-963.586583652442 443.315500004304 2418.13914604233 220 221 223
-964.641792671208 443.643327786376 2427.15259225342 219 220 222
-967.633341888876 444.053775746884 2435.53726058709 208 209 211
-969.656916585828 444.422166499263 2444.2376191228 211 212 214
-978.471086051785 445.083544158059 2450.79081729751 209 211 210
-983.41121331222 445.577677894139 2458.59892157221 218 220 219
-987.383731844545 446.029888494179 2466.72533549533 226 228 227
-983.583778469077 446.143939751565 2477.25408291523 227 229 228
-976.859153981358 446.129093359673 2488.64007866168 221 223 222
-974.015726320712 446.281541018384 2498.80483902316 217 219 218
-977.982653986671 446.730398419495 2506.90750220507 224 226 225
-980.977605922242 447.136460548695 2515.30974447358 229 230 232
-980.073948651629 447.370952657369 2524.86009456667 223 224 226
-980.142169700958 447.647078993106 2534.11220562596 202 203 205
-979.232053444616 447.879166710894 2543.63442148674 194 195 197
-977.341027927077 448.066924589809 2553.41883915214 213 214 216
-976.422714384189 448.296390386633 2562.90756159271 221 222 224
-975.500719262869 448.524639961104 2572.38077622358 226 227 229
-978.490062862277 448.925552466678 2580.76024736725 218 219 221
-982.459675852215 449.369565522823 2588.87867932712 190 191 193
-982.512293495138 449.638753081708 2598.06502755507 175 176 178
-981.581706960287 449.863084723781 2607.50268787657 200 201 203
-981.628520919959 450.130007119458 2616.6658804438 204 205 209
-985.600267250035 450.572062780972 2624.7937779923 213 214 218
-985.644582751811 450.837279670345 2633.94696404019 218 222 223
-988.635797232863 451.234235225576 2642.33700671337 212 216 219
-983.758544441052 451.276024305673 2652.71854795551 212 216 219
-981.825689339583 451.449003086335 2662.32624658876 214 218 221
-980.872665634991 451.664993690707 2671.66994176193 217 221 224
-979.91589194131 451.879814074505 2680.99780061194 221 225 228
-978.955340592207 452.093285890781 2690.30980612288 223 227 228
-976.017634155943 452.215737168936 2700.07567645669 223 227 228
-976.035601329007 452.471472734473 2709.11833321944 217 221 222
-975.063092049986 452.681079852607 2718.37991830296 208 212 213
-972.109676935486 452.798901041522 2728.07929043312 212 216 217
-968.160585818621 452.869763851156 2737.97625322446 223 227 228
-963.214192419009 452.893373724901 2748.06272718827 221 225 226
-959.249418820903 452.960247350288 2757.8929302556 214 218 221
-956.268379516736 453.070911685463 2767.47478374606 216 220 223
-953.280800674596 453.179877614781 2777.02990562853 215 219 222
-953.264176062929 453.424691102112 2785.92546869191 216 220 221
-954.237610021423 453.714474332921 2794.60202992883 208 212 213
-954.216390445983 453.957219166513 2803.47856165366 199 203 202
-949.221253656816 453.968233473446 2813.35873892065 209 213 214
-941.233074623852 453.838275781218 2823.80198372419 211 215 216
-938.209644444 453.937489895829 2833.20377328166 216 220 223
-938.167818262517 454.174537696161 2841.99393766816 219 223 226
-938.123581920248 454.410460940768 2850.77305651644 213 218 221
-936.081798242113 454.551972814778 2859.92034740957 198 203 209
-932.039453231099 454.59845481681 2869.41963349384 207 212 216
-930.984895000391 454.783899310146 2878.33387537371 195 200 204
-924.93058043196 454.733008975891 2888.13952244326 209 211 210
-922.865423782698 454.868261068508 2897.18641397138 211 210 208
-917.793957789198 454.860487359603 2906.74020495116 161 152 147
-912.71363531128 454.850658905695 2916.25617770082 154 139 132
-906.622678986662 454.791454695883 2925.90525006871 198 179 172
-894.508383767901 454.444907632785 2936.52055500884 191 165 152
-888.393735775427 454.38054546974 2946.06717559128 193 164 150
-881.265354478432 454.266328528048 2955.73351954371 187 154 137
-873.121593537887 454.101843073494 2965.51148908389 193 158 139
-874.007721831562 454.36613531448 2973.81723790613 188 151 133
-879.918912364657 454.869828032351 2981.34237719168 129 92 76
-885.834796997637 455.373697474081 2988.88809743787 81 43 30
-888.735680137549 455.733151202031 2996.90323202982 74 38 26
-907.752758450708 456.865649158405 3002.57189803048 80 48 37
-922.758958402695 457.807271752322 3008.90747698163 78 48 38
-923.663415507175 458.071499140576 3017.29403123009 68 41 32
-921.53927023326 458.189128484838 3026.09135007656 62 42 35
-922.438899032303 458.451651761935 3034.45763033686 65 48 40
-914.244523542831 458.273828806122 3044.02040774687 69 52 45
-907.048361493932 458.142490987796 3053.39814066377 94 75 71
-901.863924815046 458.106876224298 3062.47049302932 155 137 133
-890.597805612225 457.77457751316 3072.25856291592 165 150 145
-882.09036672436 404.26862853755 1598.97115191761 221 225 228
-933.672771742762 407.497153426251 1619.32158994138 187 191 194
-908.271494259111 407.00911790291 1644.37795584111 128 132 135
-905.7661156557 407.249323100301 1655.97965224409 161 165 168
-900.500693055419 407.400569104131 1669.1427210528 127 131 134
-897.062640332614 407.609588360309 1681.21035381501 128 132 135
-894.53660681083 407.847488539049 1692.72238850495 186 190 193
-901.201868787818 408.383145955965 1698.99519369289 149 153 156
-905.112493452154 408.830523575761 1706.85062382682 118 122 125
-909.94655082851 409.308829826897 1714.20063239742 135 139 142
-912.94114538957 409.727904507995 1722.59364631024 152 156 159
-913.17058967785 410.056646977455 1732.52416618354 169 173 176
-915.243265693475 410.446212335813 1741.42843915756 177 181 184
-913.622080783435 410.714033309812 1752.35483923682 146 150 153
-913.844574772463 411.042497504432 1762.25489576643 137 141 144
-912.215314030498 411.309369571718 1773.14518079089 191 195 198
-917.058297087014 411.791825210141 1780.53208050766 171 175 178
-921.904911911349 412.275269896213 1787.93548856726 147 151 154
-926.755646581008 412.759646750317 1795.35541635346 188 192 195
-926.047361622576 413.057658237972 1805.72932919537 147 151 154
-927.191164192428 413.417955865896 1815.11407184297 178 182 185
-928.33392301219 413.778246254775 1824.49421938514 182 186 189
-931.333491809934 414.201769348362 1832.90653623471 211 212 216
-929.686649840981 414.467100214439 1843.72025474568 197 198 202
-928.965221693659 414.763702870859 1854.03707976675 210 211 213
-931.032789297848 415.155507357644 1862.91752515973 195 196 198
-934.03198311625 415.579544014671 1871.32788757341 202 203 205
-933.304457367791 415.875264026425 1881.61836219969 171 172 174
-927.910224111851 416.009160396279 1894.22293525344 157 158 160
-923.439569914333 416.173547934389 1906.32298893178 197 199 198
-928.29956528766 416.661669394507 1913.78152224954 223 225 224
-936.901517566549 417.281151804988 1919.42529727171 215 217 216
-942.706892604895 417.803945598554 1926.47291800021 215 217 216
-941.967245539823 418.097855267553 1936.71104391857 229 233 236
-940.287859144989 418.358127448483 1947.38432832504 220 224 227
-940.477627126656 418.683654872842 1957.14298896726 199 203 206
-939.727662754516 418.975603869046 1967.33680410053 187 191 194
-942.727257733817 419.400159966391 1975.74754233144 206 210 213
-941.972865475699 419.691168429152 1985.92239884351 232 236 239
-939.336074635022 419.914293296092 1996.95614985235 235 239 242
-939.513807741707 420.237318272348 2006.66216336137 233 237 240
-939.689113071013 420.559877727772 2016.3588389017 233 237 240
-937.979750170438 420.814031886463 2026.90362800418 225 229 232
-936.265737251925 421.067264886571 2037.42846824863 216 220 223
-937.374432374181 421.421899178954 2046.66292469016 237 238 242
-941.311816178644 421.879002836222 2054.63055044803 238 239 243
-938.645451715389 422.095732357137 2065.53774460061 239 240 244
-934.084546929052 422.242288729631 2077.25058998754 243 244 248
-928.57038354612 422.352403054171 2089.34066974802 244 245 249
-924.937706411222 422.53002439727 2100.56914264213 248 249 253
-923.190405311819 422.77581367108 2110.95167417306 249 250 254
-924.278961170741 423.12538467783 2120.09927708619 245 246 250
-930.103702892625 423.649971089886 2127.23118420118 240 244 247
-929.297175997223 423.928882889246 2137.18342037924 243 247 250
-927.538576950579 424.171673854585 2147.51793016389 252 255 255
-922.92735231225 424.306968576848 2159.01566107707 248 252 255
-923.057246095506 424.618133100305 2168.51892935452 252 255 255
-921.283972891635 424.85728309351 2178.7909178637 241 245 248
-918.55469684328 425.059528551884 2189.42940644218 244 248 251
-917.723135202932 425.3321369906 2199.27503256649 248 252 255
-915.935787328005 425.567692000434 2209.48711443196 229 233 236
-915.096689230519 425.838300788697 2219.30070672073 225 229 232
-914.254125660551 426.107846490659 2229.09965341727 243 247 250
-916.270856865759 426.485580829469 2237.76436000003 245 249 252
-917.333034976043 426.826475338369 2246.80083061455 233 237 240
-919.349621586091 427.203432560643 2255.46535710244 234 238 239
