ply
format ascii 1.0
comment KinectMotionCapture
element vertex 752
property float x
property float y
property float z
property uchar red
property uchar green
property uchar blue
end_header
-850.215176625079 493.215212288689 2722.04281997224 153 157 156
-849.622765945587 492.444419504725 2729.18117646868 155 159 158
-847.059652672795 491.274065332137 2736.8049980666 157 161 160
-842.518383531569 489.704195853644 2744.90008644905 164 168 167
-836.973359924237 487.934355136069 2753.20425542158 162 166 165
-834.355919512295 486.763575616564 2760.72803160099 140 145 141
-830.737598545966 485.392934828521 2768.46570284427 153 158 154
-828.087072857839 484.221938594431 2775.92856400176 165 170 166
-829.371303870835 483.84995642286 2782.40823448726 165 169 168
-824.716222741312 482.279172945287 2790.29423127102 166 170 169
-820.04038185458 480.708291868557 2798.14151348458 144 148 147
-816.334927052136 479.337056652851 2805.71875096988 144 148 147
-815.589386360144 478.565208544193 2812.57515611351 149 153 152
-806.880626545707 476.194572878658 2821.22486808659 157 161 160
-799.136167917161 474.023615907208 2829.59284972416 149 153 152
-796.345987367919 472.851724810993 2836.79859104199 135 139 138
-798.529393616865 472.679085202398 2842.8776601099 115 117 114
-801.709295530492 472.706404255672 2848.73429454707 104 106 103
-801.887404112231 472.134088629553 2855.23466335676 100 104 103
-804.061094107454 471.961601105574 2861.29540395478 99 103 102
-799.210668924778 470.389778530027 2868.82131070904 99 103 102
-801.369398948553 470.21728824116 2874.85504060629 93 97 96
-802.519997947379 469.844955637143 2881.08883208665 94 98 97
-803.664946439066 469.472627720479 2887.31273690841 103 107 106
-795.731177400479 467.300775473672 2895.33227298002 95 99 98
-782.721496627755 464.128879756213 2904.29055317798 96 100 99
-1024.68927130391 554.094211475687 2316.77677127947 133 134 128
-1003.6324984181 548.825441853912 2333.56871334674 197 196 191
-983.427070956709 543.752330195448 2349.87047397675 172 172 164
-968.6940204528 539.85753778483 2363.90147427876 169 166 157
-961.305875855056 537.53435867014 2374.99430945258 155 152 143
-955.738081255594 535.603824597507 2385.32307381517 176 172 161
-947.361921793318 533.083241877733 2396.65420547229 172 168 159
-939.88018069612 530.758787605889 2407.5740119189 168 167 162
-935.156153504559 529.023614446916 2417.39856816195 176 173 168
-930.40821316613 527.288082668518 2427.1790359263 173 172 168
-929.366338658948 526.338663669359 2435.55182915016 172 173 168
-930.17827578005 525.782182882261 2443.22268600374 181 181 179
-933.787033959218 525.815406467911 2449.86984087188 178 180 179
-936.458900385242 525.651879540762 2456.84951333886 178 182 181
-937.252155324707 525.094880842218 2464.48585450942 178 182 181
-938.975905689479 524.734334906242 2471.77782452899 173 179 179
-935.052587035504 523.193583408568 2481.01819284726 173 179 179
-932.99087604871 522.045922047133 2489.57100881808 174 180 180
-925.255996872622 519.717771991453 2500.02464105753 171 175 174
-921.266113680037 518.176109663598 2509.14231115482 172 176 175
-916.309296497452 516.437411052736 2518.53766401029 169 173 172
-909.435293755383 514.304960482172 2528.51815231824 172 176 175
-905.37600143978 512.762381108006 2537.5083948602 175 179 178
-901.295613031848 511.219552407901 2546.45925862293 173 177 176
-900.045438142736 510.26670565471 2554.44842293632 171 175 174
-894.974471489273 508.526590546383 2563.63290390122 171 175 174
-891.78556615111 507.17971861697 2572.16800077153 171 175 174
-892.396190263085 506.619911828003 2579.46710187741 170 174 173
-895.865480208713 506.650351936254 2585.85691220131 169 174 170
-897.419948148987 506.287051570858 2592.83671268247 170 175 169
-895.135387561559 505.136278571428 2600.97873189747 171 176 172
-886.117351605309 502.607402388721 2611.12684170772 169 174 170
-882.83064323518 501.259308615803 2619.48118930363 168 173 169
-886.260610839755 501.289103206226 2625.79848455662 167 172 168
-888.726614061661 501.122002168073 2632.39846227054 168 173 169
-884.435706523981 499.57650221797 2640.96184393812 170 174 173
-875.293304895387 497.046292806225 2650.88082168643 167 171 170
-870.953667672965 495.500332645762 2659.35393794588 154 158 157
-869.498568202788 494.544912694049 2666.96543480068 159 163 162
-867.060399157594 493.392474900708 2674.82393519053 171 175 174
-864.605873440402 492.239825672324 2682.65279334126 172 176 175
-856.300161294888 489.905217877786 2692.0546177613 161 165 164
-851.858436903099 488.358263642315 2700.33967817588 151 155 154
-851.295565071149 487.598973708559 2707.53632539046 145 149 148
-854.627596185192 487.627602067866 2713.67314688224 146 150 149
-854.048460117611 486.868238523441 2720.83935482376 154 158 157
-852.479538899276 485.911730964515 2728.24068143405 152 156 155
-845.99591649789 483.969966195015 2736.88169429016 155 159 158
-840.467498669184 482.225022286311 2745.22389131442 164 168 167
-835.898364738979 480.676934930044 2753.27428161954 163 167 166
-836.22856080933 480.113978945396 2760.05718167506 139 144 140
-834.579648217758 479.156812402753 2767.31169564863 154 159 155
-831.930791957887 478.002454738476 2774.78263076015 166 171 167
-831.242067273003 477.242199829739 2781.74701721452 169 173 172
-827.57485692746 475.890564761463 2789.40048740502 166 170 169
-822.898476110888 474.341656355746 2797.25388848202 141 145 144
-820.185049630517 473.186915750505 2804.60544779047 132 136 135
-819.441665347789 472.426288737539 2811.46969762942 153 157 156
-813.715902260885 470.679927368384 2819.44801026183 157 161 160
-806.970842418446 468.736216394149 2827.60760676316 132 136 135
-806.181280490606 467.975334939569 2834.38685098289 126 130 129
-807.377908567641 467.608824115766 2840.70704905782 112 114 111
-812.566855418546 468.031048082067 2846.1478408932 102 104 101
-809.754438373269 466.875808213531 2853.31718837699 104 109 105
-809.93237610149 466.312102727451 2859.81983220789 100 105 101
-799.064927216666 463.578872460528 2868.62038459674 91 96 92
-797.203482583913 462.620595094276 2875.48317512963 110 115 111
-794.322851105535 461.464998976094 2882.527460954 96 100 99
-794.448305643688 460.901141227781 2888.9335328471 161 165 164
-1037.01428016421 551.65351692905 2277.37702174451 186 188 185
-1037.19502068928 550.916600378722 2285.94753148214 196 197 192
-1026.35772502594 547.854243063905 2298.93416424269 181 182 177
-1018.23402379057 545.372666401453 2310.7413425284 225 226 221
-1010.07603487542 542.89059280711 2322.4853100856 193 194 189
-1002.80502299896 540.601855742185 2333.80342688801 182 181 177
-980.742981166903 535.211640469789 2350.82527845252 182 181 176
-967.845316044825 531.758819149588 2364.13469414348 168 169 163
-957.675282645253 528.886899434777 2376.29101311908 181 180 176
-955.802811497046 527.759114745586 2385.19785297124 171 170 166
-945.565681746526 524.886309299151 2397.22999892975 172 173 168
-939.004501322295 522.788441001696 2407.79672834637 171 173 168
-934.274989715123 521.078006893039 2417.61813306364 176 177 172
-933.247305059507 520.142758996343 2426.02178980546 178 178 176
-933.139054384069 519.401189810939 2434.05939292313 183 183 181
-932.085496012418 518.465441770939 2442.41531278309 173 175 172
-931.018663214973 517.529508001339 2450.74625845852 186 188 187
-932.748125795873 517.175116220287 2458.05058496943 179 181 180
-929.781910010353 515.850796084566 2467.00152606182 177 179 178
-929.614851202823 515.108112989157 2474.93063533295 174 178 179
-923.793267613922 513.201323958812 2484.79977614048 170 174 175
-919.828760850416 511.682134953067 2493.97138056381 171 175 174
-914.900028608367 509.968722859266 2503.42548669088 173 177 176
-911.835987527265 508.642940486102 2512.19657375844 172 176 175
-908.753378596067 507.316953665564 2520.93294544083 171 175 174
-901.863885037892 505.214542487742 2530.89397679877 173 177 176
-899.686901578076 504.082023742729 2539.23933939466 173 177 176
-897.493774483921 502.949283214423 2547.55494421059 171 175 174
-899.08840891043 502.592652578833 2554.61011966393 170 174 173
-896.868142024508 501.459515008103 2562.87569005866 170 174 173
-896.53884056803 500.714353351362 2570.50566018069 171 175 174
-895.243631996578 499.774900490956 2578.41602717484 169 173 172
-894.891111991448 499.029403258258 2586.00319324051 171 176 172
-895.484941412033 498.477859043344 2593.27439482431 172 177 173
-893.194357413697 497.343765956653 2601.41035189314 173 178 174
-886.087892157942 495.238697211505 2610.97153357867 168 173 169
-884.719804096581 494.298287866597 2618.74757427655 167 172 168
-886.226079771024 493.940294836381 2625.63983218432 170 175 171
-884.834824311514 492.999594841126 2633.37317641103 170 174 173
-876.674371381621 490.699350406886 2643.05198854397 163 167 166
-872.347745155386 489.175598143178 2651.55621702628 155 159 158
-872.838585405423 488.622768440981 2658.63761618683 169 173 172
-869.445118461381 487.292902646444 2666.80109685342 174 178 177
-866.032998558234 485.962844276162 2674.9302134179 164 168 167
-858.716009981962 483.855564055413 2684.10353932062 155 159 158
-854.28849629379 482.330787686347 2692.42190940785 152 156 155
-852.762503253212 481.388691928741 2699.90652269356 147 151 150
-853.17381352086 480.835033358115 2706.84140246728 144 148 147
-857.483685119231 481.058491985569 2712.72044107966 144 148 147
-856.905656227293 480.310412790429 2719.89207876239 148 152 151
-856.316735381161 479.562233437861 2727.04365403731 151 155 154
-851.794467197466 478.03656508369 2735.18748510354 158 162 161
-846.269261477322 476.316388035908 2743.54303770176 162 166 165
-841.703710484705 474.790412965976 2751.60666731603 155 159 158
-840.070471384504 473.847365106302 2758.89374923986 145 149 148
-837.437870321482 472.709804927505 2766.3996319808 156 160 159
-835.776406511923 471.766507712971 2773.63523277909 161 165 164
-833.113369738207 470.628718054201 2781.08506969298 167 171 170
-826.476062390928 468.713160775943 2789.45130908039 163 167 166
-821.794488408676 467.186291581817 2797.30128239446 147 151 150
-820.068195897124 466.242532600407 2804.41751253447 153 157 156
-824.289683523409 466.465472433609 2810.13333666162 149 153 152
-824.534110047956 465.910550441882 2816.76090688693 143 147 146
-822.778335082177 464.966676737093 2823.82287892196 108 112 111
-822.006815084891 464.217224089829 2830.63823818042 97 101 100
-823.221649125918 463.856704094322 2836.99422615366 108 110 107
-824.431306081185 463.49624251431 2843.34020584568 99 101 96
-819.628155196498 461.968617983111 2850.96685418217 102 104 99
-808.789629420235 459.273713267302 2859.83162250078 103 105 102
-787.877462695094 454.633144521594 2870.73353285185 117 122 118
-1034.91978276927 544.541524817605 2260.81112736067 195 199 200
-1042.42662155217 545.344444247946 2266.39932516437 207 211 210
-1037.13334785291 543.472811168405 2277.2506962614 199 200 195
-1031.81356359529 541.600758995033 2288.05318358082 194 195 190
-1021.87915808519 538.77294813 2300.65612964593 206 206 204
-1003.63534582733 534.224941717315 2316.4934655129 190 190 188
-994.530642614509 531.587067272988 2328.56419965306 173 173 171
-987.231865299612 529.330836221044 2339.84153024757 165 165 163
-978.978680702262 526.883082238991 2351.42073623619 174 174 172
-966.070856628117 523.479227863457 2364.72619316345 164 166 161
-957.742538174672 521.030446235325 2376.16690526584 167 167 165
-951.233176322946 518.963492713986 2386.83823520869 168 168 166
-940.054898135865 515.940313106347 2399.20952054744 173 175 172
-931.622613353226 513.490191925446 2410.45811255115 180 185 181
-928.73906346021 512.186663769696 2419.56784811604 182 184 181
-929.564401191531 511.647699856186 2427.26861882938 173 175 172
-928.515150477377 510.726112420441 2435.63621540681 174 176 173
-927.452098863325 509.80425535086 2443.97885277408 188 190 189
-925.440035515375 508.690971032946 2452.63281346191 182 184 183
-926.222747587377 508.151144999552 2460.25492856334 179 181 180
-920.428683091068 506.272278079335 2470.18307876779 177 179 178
-919.306182698159 505.349417648258 2478.41607726669 174 175 177
-912.524674996273 503.278649177186 2488.58522992398 172 173 175
-909.482929547091 501.972707312254 2497.40278493923 172 176 175
-905.478719389341 500.475144682045 2506.50787109673 173 177 176
-903.342949420876 499.359956981453 2514.9342446257 172 176 175
-898.352878370674 497.670572618363 2524.28276315715 171 175 174
-898.075528693985 496.93753523786 2532.0124323395 174 178 177
-896.838822077799 496.013036050971 2540.03438773202 173 177 176
-896.538450773599 495.279667326514 2547.72111206053 171 175 174
-896.226890195277 494.546089611889 2555.38769867139 170 174 173
-896.857304744694 494.003816698116 2562.72847080631 170 174 173
-895.571260593119 493.078521300724 2570.65995028822 171 175 174
-896.182078614847 492.535880194241 2577.96507435873 170 174 173
-895.828128032002 491.801696179851 2585.55301145633 171 176 172
-898.336469693486 491.641658152367 2592.23298127227 172 177 173
-892.210222042603 489.758466279428 2601.54888552443 172 177 173
-886.05756232993 487.874974662912 2610.81612304325 166 171 167
-883.72482979244 486.757072221008 2618.87943013957 166 171 167
-885.227574868541 486.404944128874 2625.76746258911 172 176 175
-879.975207719648 484.712227637341 2634.63307300525 171 175 174
-872.768185699361 482.636244405356 2644.01805911021 161 165 164
-870.365909223265 481.517572920501 2651.95323096453 161 165 164
-872.787985333674 481.356389462498 2658.47419825863 172 176 177
-869.3907376777 480.045904049439 2666.6365535994 171 175 176
-862.092093291437 477.968931293274 2675.8532361522 157 161 160
-856.708710804464 476.274878136159 2684.47697928205 146 150 149
-855.194127320363 475.346876056658 2691.98731933332 136 140 139
-857.564285217603 475.185133443453 2698.41263142372 139 143 142
-857.979607438827 474.640105277539 2705.35748525705 140 144 143
-861.317956784716 474.669857698573 2711.50626515766 144 148 147
-861.720620674753 474.12473788549 2718.42781045326 143 147 146
-862.115013747493 473.579504811059 2725.33411014876 161 165 164
-855.634556971516 471.692671118198 2733.9974641081 166 170 169
-848.145669928408 469.613959244956 2742.86322851811 142 146 145
-844.561990226831 468.301674799467 2750.68216035064 130 134 133
-842.929243153659 467.372597997664 2757.97485283962 151 152 154
-842.269357197551 466.635110654154 2764.99912566118 154 155 157
-840.611211029572 465.705827418151 2772.24504250778 162 163 165
-835.973960160543 464.201319291075 2780.18325855077 171 172 174
-829.335678955145 462.313182334043 2788.55595270857 151 152 154
-825.644966355976 461.000059116094 2796.17777930366 139 141 140
-826.898316613928 460.645552108601 2802.60641385092 144 146 145
-832.121436366715 461.058110274753 2808.10664492402 117 119 118
-838.344363012916 461.662517794701 2813.38859692219 119 121 120
-840.588923316933 461.499846402461 2819.58313709438 108 110 109
-838.840142562742 460.570054502238 2826.66170321261 89 91 90
-841.073917739986 460.407433833423 2832.83591858117 108 109 104
-836.30289315255 458.902032515253 2840.52833602403 132 133 127
-822.49753078837 455.670026357106 2850.11993560906 145 146 140
-1043.72225878756 539.658943765324 2239.57807952412 211 215 216
-1034.83713858029 537.062534927676 2252.06513640946 194 198 199
-1036.86805623492 536.725323279615 2259.92906015885 170 174 175
-1043.46362417821 537.329537150016 2265.89630916548 176 180 179
-1033.59000703302 534.543561101455 2278.62363672745 177 178 173
-1027.3436716703 532.510482479538 2289.78840296637 175 175 173
-1007.29891701368 527.651486327075 2306.45005923978 177 177 175
-992.701623783108 523.921927063379 2320.78043101963 176 176 174
-980.813487359669 520.756890539237 2333.91829763172 175 177 174
-980.864663621585 520.040515525941 2342.25669235838 170 172 171
-973.519629796302 517.816542637374 2353.45864951685 175 177 176
-959.671853761017 514.273126803897 2367.10869797014 175 179 178
-948.55140610818 511.294405781213 2379.59971383913 174 178 179
-942.951107081348 509.445913348142 2389.89336830061 174 178 179
-940.109301779861 508.16242775517 2399.08540275573 174 178 177
-932.600760850582 505.936273350707 2409.98548028576 180 186 184
-928.783891014882 504.463602082886 2419.44260479141 167 171 170
-924.945914677007 502.990651820828 2428.86032245033 179 183 182
-924.820349990912 502.271416902528 2436.87330258009 173 177 176
-924.684044827933 501.55199688464 2444.86596910851 183 187 186
-924.536759624044 500.832387027368 2452.83838425233 184 186 185
-920.628927741362 499.358324251854 2462.1272902798 174 175 177
-914.822319849764 497.506843287598 2472.04060643339 185 186 188
-911.808930483518 496.220692147488 2480.91676918706 169 169 171
-903.129246538221 493.802736487619 2491.7205261522 174 174 176
-898.185785635767 492.13884258117 2501.16243475968 181 182 184
-896.049787884184 491.040433352192 2509.59343499673 173 177 178
-896.733146666934 490.507667086734 2517.03494431856 170 174 175
-894.568718476103 489.408823288002 2525.41352511326 177 181 182
-894.283732052437 488.687078812178 2533.13204069873 175 179 178
-893.987751373568 487.965144327707 2540.83027870602 173 177 176
-894.631052476389 487.431694243643 2548.19790901692 170 174 173
-894.314402363181 486.709417607734 2555.85802927616 170 174 173
-894.939635247594 486.175656347601 2563.19233526401 170 174 173
-893.647918645558 485.264319577004 2571.11757973147 172 176 175
-892.342908647875 484.352833781336 2579.01782616321 171 175 174
-894.85127168872 484.196066156828 2585.69932302331 170 175 171
-894.482335797686 483.472989634039 2593.26303966735 171 176 172
-887.386827736893 481.428447380789 2602.86257523239 168 173 169
-882.183437018845 479.761087029819 2611.82588735862 165 170 166
-882.728052182744 479.226210663306 2619.01158733321 165 170 166
-883.264260093075 478.691175094251 2626.18177696105 172 176 175
-877.040363308931 476.834392665623 2635.3260285456 171 175 174
-869.824303762336 474.788525672378 2644.70344958555 160 164 163
-869.349047800229 474.064160928251 2652.07123685117 169 173 172
-870.799545908818 473.717334317217 2658.86477187568 171 175 176
-866.426318306016 472.237330744803 2667.29594385198 165 169 170
-860.089796856956 470.37935489946 2676.23269927107 153 157 156
-858.588137975433 469.465495970683 2683.7710631672 142 146 145
-860.967518479511 469.307083513456 2690.21433876063 132 136 135
-865.293272341623 469.526388249749 2696.12133858659 133 137 136
-863.764147638276 468.612231801354 2703.60909836147 134 138 137
-865.154124855302 468.264752867269 2710.29062402771 140 144 143
-861.644706731191 466.972512234496 2718.25216403229 152 156 155
-861.056739867286 466.246960432827 2725.41229843945 166 170 169
-853.588706338954 464.198526816619 2734.32602582167 164 168 167
-851.987584049152 463.283736488068 2741.68067405142 131 135 134
-851.356638037984 462.557759635182 2748.76213839774 126 130 129
-851.700439019005 462.02076713862 2755.57736389115 164 165 167
-849.076397210712 460.916627511061 2763.1090389306 154 155 157
-845.448837268332 459.623364117826 2770.85298703939 140 141 143
-842.791742416892 458.518978615177 2778.32379757016 147 148 150
-837.147814249262 456.847317747838 2786.47558780126 129 130 132
-834.455080304153 455.742648189235 2793.88076612344 138 140 139
-833.732350303517 455.016023421558 2800.79272390377 122 124 123
-838.963804791505 455.423783863979 2806.30684129612 107 109 108
-844.19982509819 455.831589403183 2811.82987386654 107 109 108
-848.444135368482 456.050428447175 2817.58643980004 121 123 122
-845.704367116128 454.945523790133 2824.90504276215 143 145 144
-847.945177079087 454.786101932405 2831.09366257784 190 191 185
-842.178729707602 453.113678281154 2839.01938403995 177 178 172
-1068.4927157348 538.72228365627 2202.3705660448 214 218 219
-1064.2488804308 537.093353249424 2213.11023211496 184 188 189
-1059.98114999868 535.464034893381 2223.80583402609 184 188 189
-1045.67405634971 531.792898577449 2238.68750473385 184 188 189
-1038.60884442123 529.605820185836 2250.41520030464 176 180 181
-1036.99084363146 528.532002064487 2259.80578216115 167 171 172
-1035.35650138749 527.457854511955 2269.1667142829 174 178 177
-1025.46467436517 524.712624844377 2281.87280386497 172 173 168
-1017.36745881171 522.338181128884 2293.7609112979 172 172 170
-1000.05293673611 518.106577911706 2309.28773099489 176 176 174
-979.91938133525 513.317201759822 2325.80700273227 175 175 173
-973.531266959413 511.312392787386 2336.71951281698 175 177 174
-970.802779099733 510.050006972477 2346.1263038461 174 176 175
-967.132103834097 508.601576495206 2355.85909228022 175 179 178
-953.267352284432 505.109757127558 2369.49343582255 176 180 179
-942.130929844547 502.174541952665 2381.9681542798 173 177 178
-935.589482224426 500.167604253186 2392.59801643654 172 176 177
-932.733333316963 498.903290124396 2401.76993989719 173 179 177
-928.928742484725 497.452954760374 2411.25586036414 163 169 167
-924.171401300099 495.816476607338 2421.04882578819 196 200 199
-916.592628149713 493.622265318321 2431.82933944003 161 165 164
-915.518927184066 492.728341171041 2440.16079073228 185 189 188
-917.237118853185 492.391689500156 2447.44972281067 101 105 104
-919.886149142429 492.240757198761 2454.39118293265 159 161 160
-915.96776453061 490.788690084164 2463.66729513083 78 79 81
-910.149842330855 488.964558009289 2473.56802660202 88 89 91
-906.18594662987 487.511828882657 2482.76074077772 109 109 111
-900.317572243917 485.687029546643 2492.56848082618 188 188 190
-895.365552288542 484.047789986998 2502.00256610549 169 173 174
-891.333946168598 482.594189974653 2511.06998234563 174 178 179
-890.117604788368 481.698111210199 2519.13793974234 175 179 180
-888.887432177424 480.801777222898 2527.18088647868 177 181 182
-893.332353713148 481.020994250725 2533.30703099373 182 186 187
-894.93121176022 480.682280848645 2540.37536254749 173 177 178
-897.474681533785 480.529373191719 2547.12258785996 168 172 173
-896.207284413971 479.632450099047 2555.09639054146 169 173 174
-894.926097755215 478.735279666079 2563.04526161182 171 175 176
-887.904108791774 476.7218367387 2572.78936442029 172 176 177
-887.544050487635 476.010284817213 2580.37287425654 170 174 175
-890.044470744837 475.856696532271 2587.04021474123 170 174 173
-889.666134037967 475.14482165869 2594.59051438985 171 176 172
-885.43818412018 473.688565975973 2603.29601999418 169 174 170
-881.188732906822 472.232030209772 2611.96240081523 170 174 173
-881.729885929468 471.705770994095 2619.14382039749 172 176 175
-881.298649324372 470.993221870189 2626.59662473319 168 172 171
-877.962025317522 469.72220576511 2634.88234726983 166 170 169
-872.674268581506 468.078709727308 2643.69767142276 172 176 177
-870.265362655342 466.993434920903 2651.63018935695 171 175 176
-868.808841772652 466.094073196748 2659.25592987467 163 167 168
-866.368826638808 465.008396509425 2667.1316156975 152 156 157
-861.970232158447 463.550234348791 2675.52270154033 132 136 135
-862.413413833335 463.02276228335 2682.52407347737 129 133 132
-865.770045091653 463.053818160456 2688.70686912294 133 137 136
-869.126112533745 463.084830393197 2694.88861468294 136 140 139
-869.552149866991 462.557168944511 2701.85839810033 137 141 140
-868.992159951288 461.843184527886 2709.07346577115 143 147 146
-864.504841869959 460.384074747752 2717.30159202047 154 158 157
-857.055565291386 458.36603114625 2726.25845152976 167 171 170
-850.558989094958 456.533980129965 2734.9086332521 153 157 156
-850.916608219828 456.005651676579 2741.75238253557 130 134 133
-854.218645173123 456.036146075826 2747.83460045845 140 144 143
-855.549094974779 455.694027761649 2754.40876065779 166 167 169
-851.940085980955 454.420292498725 2762.19269986458 151 152 154
-848.312533937933 453.146395513205 2769.94248639182 116 118 117
-847.634631534902 452.431376294829 2776.94038032717 109 111 110
-847.936612952171 451.902629046485 2783.68167578827 106 108 107
-846.24665211863 451.001124601649 2790.87692909652 102 104 101
-845.536341248036 450.285843138498 2797.81564333641 106 108 105
-847.799062355467 450.12970499507 2804.04504497776 106 108 105
-849.062858318734 449.787147496737 2810.49648455155 107 109 104
-849.324330564382 449.258222580301 2817.16271859246 141 143 138
-840.592198784472 447.051368310278 2825.81869780637 178 180 175
-836.827141144562 445.776469106625 2833.31528509825 158 158 150
-1081.24202750193 535.191390195254 2169.76824303851 203 207 206
-1073.44795243407 532.857043544751 2182.22593909759 229 233 232
-1069.24222903181 531.253487624969 2193.04333054641 193 197 196
-1064.10572724043 529.466711436563 2204.20855201616 185 189 188
-1063.48394912481 528.593782984921 2213.37748562442 170 174 173
-1054.66283757235 526.074730061174 2226.00552865485 168 172 171
-1043.07229205552 523.006508735347 2239.71983355336 173 177 176
-1035.99770685808 520.85214987228 2251.44012943176 174 178 177
-1033.45882070306 519.611912566682 2261.20229306953 170 174 173
-1029.07163132352 518.005471907481 2271.68506801945 171 175 174
-1021.91259702702 515.849887726143 2283.2491738943 173 175 172
-1014.72164145821 513.693795974695 2294.75492233998 173 175 172
-997.393902721142 509.524602895149 2310.27620224217 176 178 175
-977.246071172083 504.805741571397 2326.79042284814 174 176 173
-967.164019411512 502.099034546915 2339.15773480929 173 175 172
-963.500021220908 500.672803016607 2348.90998353978 172 176 175
-957.043350367156 498.697209490979 2359.70519147547 174 178 177
-946.856854152841 495.989035268734 2371.88047408219 176 180 179
-934.77813796849 492.91429911168 2384.6949850272 173 177 176
-928.221149332871 490.937348504575 2395.30528218027 172 176 175
-926.280075038303 489.875347210994 2404.10573081044 173 177 176
-924.322832485257 488.813094296556 2412.87636739957 176 180 179
-920.486352368804 487.384397111833 2422.31014472247 179 183 182
-916.628267704657 485.955337367166 2431.70458256019 181 185 184
-914.617363440535 484.892246022933 2440.3762733515 178 182 181
-911.654833120131 483.645760016179 2449.3573990613 49 53 52
-910.547273584363 482.765327791943 2457.63013133764 78 82 83
-904.735538625295 480.968834262428 2467.55055376936 81 82 84
-902.654813850352 479.904689910601 2476.09351525778 151 152 154
-899.617299425699 478.657118952342 2484.93640526932 175 176 178
-895.618863923897 477.226048145157 2494.07210757456 173 174 176
-890.656151414374 475.611529933641 2503.49345728893 172 176 177
-889.447446144737 474.72955161556 2511.58020343203 169 173 174
-889.171243825069 474.030653495433 2519.32174496962 169 173 174
-889.831124784563 473.514795073955 2526.72515884443 166 170 171
-888.585594134179 472.63223790236 2534.74400232897 175 179 180
-891.125662089509 472.482622747648 2541.48545695922 164 168 169
-894.613468094547 472.516193463081 2547.91026313018 169 173 174
-894.291399203977 471.816505421452 2555.56721014052 168 172 173
-893.004511666172 470.933293276751 2563.50979380928 169 173 174
-888.839548073388 469.499953277059 2572.33803397436 171 175 176
-889.434207348149 468.983037522292 2579.62117532456 171 175 176
-890.020429989641 468.465969601211 2586.88875440933 171 175 174
-888.680881166523 467.582095320739 2594.73378101689 169 173 172
-886.367524555241 466.514634210702 2602.84789275164 172 176 175
-883.076728676099 465.263581844795 2611.22390508565 174 178 177
-881.692430629056 464.379098941112 2618.98695093489 171 175 174
-881.258719919299 463.677882040556 2626.43810853755 166 170 169
-878.883477122199 462.609661829423 2634.4381720227 167 171 172
-873.592524648779 460.990944980707 2643.25507026066 170 174 175
-872.149244658451 460.105798535485 2650.90893378428 165 169 170
-869.723140261552 459.036994820916 2658.81527804822 151 155 156
-869.22188037001 458.334995700619 2666.14196516759 142 146 147
-866.766207386783 457.265862040555 2673.99382819206 130 134 133
-869.159481676896 457.114077854981 2680.46465025159 124 128 127
-871.549394964822 456.962207442912 2686.92976912955 131 135 134
-872.960847228743 456.626816741853 2693.65442650831 136 140 139
-873.38964090207 456.107807676413 2700.63188129273 137 141 140
-872.832060170448 455.405167429942 2707.85479132492 149 153 152
-866.387086942189 453.601066802451 2716.6082855836 166 170 169
-855.992808918902 451.062407112916 2726.33759690629 153 157 156
-850.472253507871 449.441379038353 2734.73101422817 139 143 142
-853.777320697325 449.472441319844 2740.81897608172 139 143 142
-857.08184774358 449.503497169292 2746.90594257927 156 160 159
-859.39990296381 449.350918790556 2753.23868847712 153 155 154
-854.805120660325 447.912955362453 2761.27502335438 139 141 140
-851.177688328795 446.658440888282 2769.03085878565 116 118 117
-851.490536794137 446.138376131014 2775.79475173767 110 112 111
-853.777309874626 445.985604396564 2782.06940169057 103 105 102
-854.076361914091 445.46544182574 2788.80789108699 97 99 96
-849.399345232143 444.026770545882 2796.69327333656 101 103 100
-848.68092949396 443.32276902693 2803.61996912297 109 111 106
-843.967285146349 441.883848122735 2811.43740711026 113 116 109
-836.240203162725 439.8935382311 2819.89217622126 130 133 126
-824.489889228837 437.168080781713 2829.18561142664 148 151 144
-1069.87506278737 525.9751800583 2156.66581866061 179 183 182
-1077.44041061317 526.73837217569 2162.34967840822 202 207 203
-1077.78857840468 526.060706282356 2171.24593532601 168 173 169
-1066.36470796927 523.041231030355 2185.28144504816 187 192 188
-1061.23821236069 521.282065002558 2196.4733726729 161 166 162
-1057.89974000143 519.882747042774 2206.83241620235 177 182 178
-1055.44876088485 518.663269996853 2216.76249995199 170 175 171
-1044.78990370236 515.82187983232 2230.14376310623 171 176 172
-1035.0003293488 513.160128503581 2243.06251344257 176 181 177
-1026.99616091212 510.85820884774 2255.14356100197 174 179 175
-1024.44055813827 509.637094477209 2264.88073040451 168 173 169
-1015.46054978977 507.154084335089 2277.22737210488 168 173 169
-1011.94189639404 505.751963411767 2287.25418696744 172 176 175
-1006.56664058496 503.989030055682 2297.98746634216 172 177 173
-991.056003289873 500.242748439118 2312.74780250171 175 180 176
-969.968261645185 495.414025601872 2329.61562303607 173 178 174
-957.104498985869 492.207202690237 2343.06136847901 172 177 173
-952.499310510203 490.622518010969 2353.14974585553 172 177 173
-950.642749249611 489.578452007274 2362.11102287656 173 178 174
-943.217355001919 487.452135685701 2373.19404573566 173 178 174
-931.126186967132 484.423613704206 2385.99955304295 173 178 174
-922.702631786133 482.115990912391 2397.3075569105 175 180 176
-916.103404114257 480.168641114886 2407.84957461574 168 172 171
-915.059302743805 479.303271398422 2416.24354763655 185 189 190
-914.001470593814 478.437640269202 2424.61269288359 183 187 188
-914.796635057501 477.932618027956 2432.26817644165 180 184 185
-911.845273658747 476.705719967772 2441.27573434494 169 173 174
-906.067512033181 474.937218019625 2451.2670575901 182 186 187
-901.20033259721 473.348807884007 2460.87246553034 176 180 181
-894.432458904441 471.399163673613 2471.1031182521 184 188 189
-893.273969607367 470.532032973197 2479.28618146837 170 174 175
-894.924805646252 470.206123679265 2486.45446473102 170 174 173
-893.742812792668 469.338563488935 2494.59467571163 184 188 187
-889.7165540169 467.929269799313 2503.68525054421 167 171 172
-887.558676654003 466.880744155073 2512.09101124275 183 187 188
-888.223269819572 466.373605723868 2519.50571400939 179 183 184
-889.827140805653 466.0469100869 2526.58687926856 169 173 174
-888.578567349329 465.178342855998 2534.60433355083 157 161 162
-892.066967239457 465.212496758029 2541.03040736127 169 173 174
-890.797958206147 464.343636364037 2549.00968448961 171 175 176
-890.467742211012 463.655142742599 2556.65551813408 167 171 172
-889.172842341644 462.785914950959 2564.58706681316 167 171 172
-887.864164294292 461.916462112564 2572.4937114801 170 174 175
-889.411855789299 461.588802044892 2579.47126239413 171 175 176
-888.079930764705 460.719013292011 2587.33505061756 166 170 169
-888.652845691033 460.210421235019 2594.58070326173 166 170 169
-886.336262854804 459.159682619852 2602.69340594631 172 176 175
-885.926669587243 458.470059118995 2610.19291054501 169 173 172
-880.691407218183 456.876839333232 2619.1193962963 162 166 165
-878.324925778895 455.825460320208 2627.14063802076 169 173 174
-877.873692958704 455.135372405515 2634.56291599209 171 175 176
-875.477617357836 454.08364098419 2642.5296226845 154 158 159
-875.001880995795 453.393246508304 2649.9067419882 146 150 151
-870.637219986527 451.979625782738 2658.3741364667 133 137 138
-872.075844528674 451.650465630678 2665.15114651848 128 132 135
-870.592831784429 450.778894379233 2672.73601661716 122 126 125
-873.96282776032 450.8111877722 2678.94376456078 125 129 128
-875.382891286916 450.481784436671 2685.68656439259 142 146 145
-877.77327855589 450.333178819122 2692.15303255711 144 148 147
-879.183247079908 450.003677430207 2698.87723635307 143 147 146
-877.652186215103 449.131563564418 2706.37357402771 164 168 167
-867.289814295262 446.631501302307 2716.17266931025 156 160 159
-857.87182235338 444.311962862297 2725.64813949332 143 147 146
-854.313902122658 443.077450416079 2733.53783537811 145 149 148
-856.638964421976 442.928161038572 2739.88445764367 146 150 149
-860.931091023401 443.140729966809 2745.7270809656 137 141 140
-861.280287112943 442.629584649438 2752.56050608629 124 126 123
-859.646159420309 441.75647054186 2759.86748853515 116 116 114
-857.010064833905 440.702294586887 2767.39202145699 109 109 107
-853.36807545283 439.467046941361 2775.1268777663 109 109 107
-848.716300364785 438.050651727827 2783.06487854846 106 107 102
-844.043270327351 436.634053225153 2790.96423071654 109 110 104
-842.331221439427 435.76031594581 2798.12721024455 107 108 102
-837.620079021043 434.343403935192 2805.95637252124 141 142 134
-823.919776369693 431.297086748658 2815.79703667795 175 176 168
-1117.38493376056 529.153888056514 2107.52899372668 188 192 193
-1103.45663408498 525.651425547191 2123.15805936598 166 170 171
-1079.5773630328 520.197235013078 2143.1633587024 189 193 192
-1070.93686258603 517.757458307337 2156.14741850702 204 208 207
-1071.28407933378 517.091030095689 2165.0453056916 173 178 174
-1075.23545004464 517.133976491801 2172.32551128731 181 186 180
-1068.32563740583 515.04775167741 2184.36934327904 167 172 168
-1060.47788976673 512.783627987099 2196.74944323558 172 177 173
-1053.5036810436 510.69649789336 2208.67406261416 180 185 181
-1045.58873397819 508.431418882181 2220.93028329627 171 176 172
-1033.08811004383 505.278449434876 2235.06060614501 172 177 173
-1026.92127582968 503.367294193983 2246.40825443172 172 177 173
-1020.7251471344 501.455684821152 2257.70239250686 170 175 171
-1013.58609068955 499.36618548039 2269.32311440599 169 174 170
-1004.58432680541 496.921168804405 2281.64116915443 170 175 171
-1001.04599135127 495.540853582702 2291.63834256297 169 173 172
-994.732398505892 493.627588816808 2302.71544060751 170 175 171
-978.276758971891 489.760593979827 2317.81674797738 176 181 177
-961.763452044263 485.892912437527 2332.81178799614 175 180 176
-949.802302881223 482.912515374331 2345.8708958838 175 180 176
-941.489362536141 480.64198059521 2357.39349374239 174 179 175
-940.538542823525 479.792013753529 2365.96366070004 175 180 176
-934.944903773732 478.053594198587 2376.30266532485 174 179 175
-926.543299466219 475.781855884244 2387.66183207278 173 178 174
-918.107416937659 473.509657681066 2398.95781662815 174 179 175
-915.215629735927 472.303101245175 2408.08105949298 183 187 186
-911.37390278768 470.918523251626 2417.51895875794 177 181 182
-910.308010008959 470.066809425581 2425.87696002468 170 174 175
-912.029183951828 469.74798634536 2433.17673848373 179 183 184
-909.070151879955 468.540385414438 2442.17599167808 170 174 175
-902.347578105093 466.621534039289 2452.49921926231 174 178 179
-893.720817624366 464.346796955811 2463.44338098923 178 182 183
-888.814898206602 462.782698430679 2472.98485006186 179 183 184
-892.345886505499 462.818334440113 2479.48969741708 182 186 187
-893.993390769409 462.498279566749 2486.65361348708 168 172 171
-891.864659736008 461.466920999553 2495.11763785687 90 94 93
-885.943699876324 459.724005424236 2504.85328782353 74 78 79
-885.667598857962 459.047737586365 2512.60232532314 158 162 163
-887.273969681957 458.727047059942 2519.68989410399 172 176 177
-889.822086671619 458.584025620742 2526.44863948925 166 170 171
-888.570663526047 457.72948206157 2534.46456564567 176 180 181
-890.156763145105 457.408356219682 2541.51522532249 179 183 184
-887.930179338646 456.375527701755 2549.79934281181 171 175 176
-887.593578405582 455.698334505498 2557.4363274259 167 171 172
-887.245967100794 455.020965880846 2565.05300920519 166 170 171
-889.75425271137 454.877257818812 2571.73778670071 169 173 174
-893.216144686925 454.911413665314 2578.11510821108 170 174 175
-892.844663829264 454.233679554272 2585.68777962393 166 170 169
-891.502549061829 453.377773477859 2593.53700186928 167 171 170
-890.146931665535 452.521699225589 2601.36133974584 169 173 172
-886.853719937212 451.30946889632 2609.7445835039 165 169 168
-881.615290259338 449.741028638171 2618.67269572738 162 166 167
-877.317322705046 448.350279107249 2627.2696294755 166 170 171
-877.827869779778 447.849519615868 2634.40293169558 164 168 169
-876.395761282456 446.992551164149 2642.08581535142 148 152 153
-875.918590538252 446.313499405605 2649.46370756096 142 146 147
-873.490766506393 445.278119404338 2657.37694032328 128 132 133
-877.844514251048 445.489211792946 2663.33295637255 121 125 128
-876.365888250583 444.631657977794 2670.9306140771 119 123 124
-879.742269036183 444.664559199383 2677.15028763611 128 132 131
-880.193384065763 444.16309387621 2684.17356699365 150 154 153
-882.588293942348 444.017738401574 2690.64983468861 151 155 154
-881.070209781738 443.15980523736 2698.17430332481 151 155 154
-877.580938331906 441.945365785581 2706.19629320163 164 168 167
-869.172395315021 439.839831593264 2715.47788020979 165 169 168
-864.658204331275 438.446789824535 2723.67594610528 147 151 150
-864.053309765876 437.766296486181 2730.81900166586 138 142 141
-864.421728055443 437.263955311577 2737.69042750751 119 123 122
-864.781900151855 436.761530713189 2744.54666201013 110 114 113
-863.160878817533 435.902571193832 2751.88150178128 110 110 108
-861.526254579935 435.043462575741 2759.1917827416 110 110 108
-856.911195051718 433.64947078777 2767.20404731394 120 121 116
-852.275033901257 432.255286809627 2775.17744436247 133 134 129
-830.758900350012 427.829944841396 2787.14857647857 169 170 164
-1141.02248918441 528.912389100802 2049.41271547474 213 217 218
-1133.52829582804 526.689051437736 2062.45533140163 189 193 194
-1117.95682304159 522.893928608091 2079.20389171607 181 185 186
-1109.4876462724 520.494836024915 2092.5152815597 184 188 189
-1097.39633581303 517.396700172424 2107.41489609495 174 178 177
-1096.92686534142 516.568168069877 2116.87679789301 175 179 178
-1091.0503521642 514.69143794733 2128.76925607314 172 176 177
-1081.54428312684 512.115675965225 2142.23528316513 167 171 170
-1074.70309615427 510.063335848103 2154.41552010919 181 186 182
-1074.14988635616 509.233346750459 2163.7234761226 180 185 181
-1077.19983617181 509.101938623469 2171.40817163761 173 178 172
-1068.47646553709 506.699043552074 2184.25090915784 168 173 167
-1064.2496803919 505.169274939705 2195.05175363419 171 176 170
-1053.6430080457 502.415898346223 2208.55546176072 171 176 170
-1040.266588679 499.137732974885 2223.15168321484 169 174 168
-1031.3929619222 496.732707001443 2235.71793578542 170 175 169
-1022.48269148801 494.327224402628 2248.21615239561 172 177 171
-1021.75419277478 493.494416736151 2257.20087255184 174 179 175
-1010.03830342496 490.563583359133 2270.72596277694 173 178 174
-1001.02517655682 488.156669131977 2283.03457714296 169 174 170
-991.058131306466 485.57442070777 2295.65083437554 171 177 175
-979.214495518317 482.641879582572 2308.94096631218 171 177 175
-966.406739059658 479.533951132941 2322.51945702777 177 181 180
-953.551503281378 476.425388936109 2336.01093828628 174 180 176
-944.338328338755 474.015841402688 2347.95083590217 173 178 174
-936.011766194182 471.780723183911 2359.45903130135 174 179 175
-935.050096275773 470.944572065206 2368.01339743487 175 180 176
-929.443892059888 469.233486504385 2378.33751234231 175 180 176
-922.883475893926 467.347039205384 2388.96922615332 180 182 179
-913.507845881876 464.93533556884 2400.60969091018 183 185 180
-912.466050088983 464.098008725914 2409.01633739583 181 183 182
-908.6163185748 462.73542719256 2418.44612960827 173 174 176
-908.476103284672 462.072597108956 2426.44862249545 192 193 195
-906.45686943654 461.059521159317 2435.12003435539 75 76 78
-904.421480593112 460.046201132843 2443.76166083635 57 61 62
-896.750793434355 457.982397177693 2454.41234413423 168 172 173
-889.985989130857 456.093191029959 2464.66732127507 32 36 37
-885.070394159528 454.553779759869 2474.19841922362 31 37 37
-886.714151351429 454.239694426111 2481.3567346688 25 31 31
-890.235403600004 454.275650277309 2487.84377183672 34 40 38
-888.09787474404 453.260862837159 2496.2971029416 97 103 101
-884.055615344022 451.895606485743 2505.37149267359 59 63 64
-881.883128834201 450.880328907796 2513.76038288868 185 189 192
-883.482076245329 450.565442191517 2520.83654823363 172 176 179
-886.023560068686 450.425600914681 2527.58354611581 173 177 180
-888.561806837299 450.285691546547 2534.32456998801 175 179 182
-891.096598810336 450.145650518514 2541.05970451271 174 178 181
-890.772154263074 449.479947106765 2548.72250215748 172 176 179
-890.436669964386 448.814075302852 2556.36494504875 168 172 175
-890.090242560998 448.1480584159 2563.98721794703 167 171 174
-887.820790993028 447.131367661727 2572.19734678043 168 172 175
-889.364160669021 446.815486750051 2579.17099556818 168 172 175
-888.984793090513 446.149011135594 2586.7325475334 164 168 169
-891.473967515406 446.008221968912 2593.38305385009 164 168 167
-891.076291203353 445.341437813349 2600.91134417748 158 162 161
-888.743178388191 444.323939163309 2609.00364118237 159 163 162
-883.502598402084 442.780244339687 2617.93574431887 154 158 159
-879.203059650685 441.411612194246 2626.53643951675 144 148 149
-879.714038349803 440.919523606881 2633.67263885371 144 148 149
-879.248677370804 440.251903915624 2641.07619348268 134 138 139
-879.741427866582 439.759544676533 2648.17929068567 130 134 135
-877.315549710825 438.740963531862 2656.10064979764 119 123 124
-882.644850143314 439.125328509038 2661.78819244083 123 127 130
-880.19690307131 438.106453135553 2669.66937855786 131 135 134
-882.603112514836 437.964535683396 2676.16695785766 134 138 137
-884.030686944252 437.64709861189 2682.92717011801 132 136 135
-887.405861155077 437.680524649715 2689.14478238955 139 143 142
-884.91328382188 436.66119356544 2696.94324403842 154 158 157
-878.48780205629 434.939753746368 2705.75744450898 164 169 165
-870.07502278512 432.867066729106 2715.04111811675 132 136 135
-866.53965746896 431.671592425314 2722.98403619755 100 105 101
-865.934790514769 431.002461100828 2730.13005509505 110 115 111
-865.318937989753 430.333197072727 2737.25633386336 150 155 151
-863.70691811267 429.488333987142 2744.6119680515 155 160 156
-861.094476459748 428.467773091624 2752.19011178998 163 165 160
-877.241557444272 430.782782455795 2755.08930045023 169 170 165
-1174.45375446685 532.719812000212 1955.53713097097 198 202 203
-1170.71810232194 531.22248910701 1967.25101563921 193 197 198
-1176.67893473452 531.614265484642 1974.1017851845 191 195 196
-1178.21997283176 531.147019495126 1983.14042637877 181 185 186
-1169.11802499479 528.617961786679 1997.36425520271 225 229 230
-1154.65171192435 525.057474809223 2014.10116628765 234 238 239
-1140.13045875503 521.49623758407 2030.73680690491 224 226 225
-1122.88360334554 517.418695683645 2048.54971098203 179 181 180
-1118.05435796179 515.746347424937 2060.31444387806 175 177 176
-1114.98435034341 514.417330817632 2071.18787984767 177 179 178
-1113.68117585611 513.431712262295 2081.18451236435 175 177 176
-1099.82721844269 510.039183175273 2096.98336628414 172 174 173
-1091.30080450969 507.677462117495 2110.20072496591 173 175 172
-1084.53337126106 505.659038218393 2122.52680777372 171 173 170
-1087.62624567151 505.531583154355 2130.2916382097 172 174 173
-1083.51158996026 504.028262470584 2141.30666259958 168 170 167
-1083.88247999354 503.384473839124 2150.2548974722 161 163 160
-1076.11412103926 501.192534297357 2162.8027149917 166 171 167
-1076.45165638367 500.548134280657 2171.68942065753 172 177 173
-1068.62650381792 498.35535594474 2184.13253213415 171 176 172
-1062.58109096283 496.506129352787 2195.72262392783 170 175 171
-1053.7817487239 494.140382716424 2208.43680714871 172 177 173
-1043.12615671235 491.429979326376 2221.8634660521 167 172 168
-1029.6955879277 488.202788599651 2236.37593026242 179 184 180
-1020.77654341337 485.835424506254 2248.86947278464 164 169 165
-1019.12892451159 484.844352641444 2258.23096933717 175 179 178
-1008.31670719368 482.131847797124 2271.36893381207 161 165 164
-1001.12718456291 480.107358092198 2282.91638897814 178 182 181
-983.813887565096 476.188799111957 2298.53960086655 173 177 178
-973.790208574838 473.646763768141 2311.0642955037 170 174 175
-961.887055327494 470.759878246664 2324.25818935405 178 179 181
-951.781797698965 468.216782828588 2336.63252722441 168 172 171
-944.405189479381 466.189821561208 2347.83515465314 182 184 183
-933.300963306903 463.473544021965 2360.43492710913 172 174 173
-931.406951229285 462.479006300608 2369.3422194602 171 173 172
-923.937811807997 460.450802832871 2380.37429159318 165 167 166
-921.075756014188 459.283397654616 2389.56449379305 172 174 173
-912.620388989331 457.08213973996 2400.84597606084 60 62 61
-912.504577100368 456.430989595253 2408.89686365489 178 182 181
-908.650973398801 455.090470389829 2418.32566457575 178 182 181
-907.574850369969 454.266544868011 2426.67371132573 190 194 193
-902.748189832591 452.753159485023 2436.37569819571 66 70 69
-894.155023832949 450.550083389379 2447.40319627539 45 49 48
-891.14872058251 449.380635519701 2456.32748683901 193 197 196
-886.247674791097 447.866268335436 2465.89237042485 189 193 192
-884.140941299576 446.868680494205 2474.40751210072 97 101 100
-882.018064173716 445.870870869681 2482.89289599663 41 45 44
-882.705275135891 445.39003033388 2490.35710534797 86 90 89
-885.270910275198 445.253889022805 2497.14963455898 79 83 82
-884.999304271522 444.600374036558 2504.91327723132 72 76 75
-882.824693823105 443.601785875979 2513.30327999857 185 189 190
-883.475694423654 443.120344265995 2520.70071114135 178 182 183
-881.272649731539 442.121351034698 2529.03829634017 172 176 177
-883.802735024564 441.984564812287 2535.76524896793 176 180 181
-886.329391097265 441.847669392783 2542.48636604079 174 178 179
-889.80536791147 441.883219052064 2548.89001128489 171 175 176
-890.419784597523 441.401188578844 2556.21947661542 168 172 175
-891.98050424495 441.091519157955 2563.2269030891 168 172 175
-889.710233600159 440.091555517743 2571.44055568938 169 173 176
-888.381533101808 439.2639742063 2579.32246283411 168 172 175
-889.915782931543 438.953900948892 2586.28108504787 165 166 168
-890.48408206932 438.471164311478 2593.52602368963 165 167 166
-890.082594557791 437.815703843178 2601.050205556 161 163 162
-888.707243924473 436.987461728072 2608.84662012887 157 159 158
-885.390349859864 435.813814965544 2617.19791065335 146 148 147
-884.950825846811 435.157894171183 2624.65199803311 142 144 143
-884.500358729059 434.501828293784 2632.08591541987 129 131 130
-884.038948506607 433.845617333346 2639.49966281364 136 138 137
-885.504899653776 433.534612595511 2646.33239118976 127 129 128
-885.024158941635 432.878164060848 2653.71051484723 126 128 127
-888.419670692898 432.912408393403 2659.96577763986 130 131 133
-886.9490302812 432.083009406066 2667.58658905183 137 141 140
-887.413719575022 431.598942959947 2674.64057041045 132 138 136
