ply
format ascii 1.0
comment KinectMotionCapture
element vertex 750
property float x
property float y
property float z
property uchar red
property uchar green
property uchar blue
end_header
-971.955120563507 399.023443460464 2411.00001335144 155 154 150
-964.205861091614 398.528903722763 2407.99999237061 163 162 158
-956.474602222443 398.035198450089 2404.99997138977 161 160 156
-947.971522808075 397.211223840714 2400.00009536743 178 177 173
-942.243158817291 397.546529769897 2401.99995040894 181 180 176
-936.11603975296 397.7170586586 2403.00011634827 168 167 163
-930.371820926666 398.053914308548 2404.99997138977 168 167 163
-923.465847969055 397.894889116287 2404.00004386902 176 175 171
-916.566789150238 397.736638784409 2403.00011634827 185 184 180
-910.431921482086 397.910058498383 2404.00004386902 185 184 180
-904.668748378754 398.24965596199 2405.99989891052 183 182 178
-898.14954996109 398.258954286575 2405.99989891052 180 179 175
-890.519797801971 397.772312164307 2403.00011634827 184 183 179
-884.010910987854 397.782862186432 2403.00011634827 182 181 177
-878.233313560486 398.12508225441 2404.99997138977 175 174 170
-871.720969676971 398.136883974075 2404.99997138977 170 169 165
-865.929186344147 398.480355739594 2407.00006484985 175 174 170
-860.127329826355 398.824453353882 2408.99991989136 168 167 163
-853.961050510406 399.00353550911 2410.00008583069 171 171 169
-847.790122032166 399.18327331543 2411.00001335144 170 170 168
-841.614425182343 399.363458156586 2411.99994087219 179 179 177
-836.126387119293 399.875402450562 2414.99996185303 185 185 183
-830.966234207153 400.553464889526 2418.99991035461 184 184 182
-825.785040855408 401.232153177261 2423.00009727478 187 187 185
-820.920586585999 402.076870203018 2427.99997329712 183 183 181
-816.700398921967 403.25340628624 2434.99994277954 183 183 181
-811.777293682098 404.09928560257 2440.00005722046 184 184 182
-806.497514247894 404.780089855194 2444.00000572205 185 185 183
-800.541818141937 405.130118131638 2446.00009918213 183 183 181
-795.873761177063 406.143128871918 2451.99990272522 180 181 176
-790.529727935791 406.825393438339 2456.00008964539 180 181 176
-785.483300685883 407.673716545105 2460.99996566772 175 176 171
-780.410051345825 408.522605895996 2466.00008010864 179 180 175
-775.623261928558 409.537523984909 2471.99988365173 186 187 182
-771.115362644196 410.718679428101 2479.00009155273 179 180 175
-766.261100769043 411.734580993652 2484.99989509583 175 176 171
-761.068642139435 412.585258483887 2490.00000953674 183 184 179
-754.940211772919 412.939250469208 2492.00010299683 185 186 181
-749.101042747498 413.459271192551 2494.99988555908 180 181 176
-742.352843284607 413.482487201691 2494.99988555908 177 178 173
-737.373292446136 414.500415325165 2500.99992752075 176 177 172
-731.776833534241 415.187299251556 2505.00011444092 176 176 174
-726.737260818481 416.205942630768 2510.99991798401 179 179 177
-720.804810523987 416.727721691132 2513.99993896484 184 184 182
-715.42364358902 417.581379413605 2519.00005340576 185 185 183
-710.296332836151 418.601095676422 2525.00009536743 187 187 185
-705.136060714722 419.621139764786 2530.99989891052 186 186 184
-701.598227024078 421.636343002319 2542.99998283386 185 185 183
-697.44873046875 423.320442438126 2552.99997329712 183 183 181
-692.162334918976 424.341559410095 2559.00001525879 174 174 172
-686.039805412292 424.865514039993 2562.00003623962 185 185 183
-681.225657463074 426.218867301941 2569.9999332428 190 190 188
-678.466439247131 428.89940738678 2585.99996566772 178 180 177
-675.10062456131 431.248724460602 2599.99990463257 173 175 172
-671.658396720886 433.598428964615 2614.00008201599 197 199 196
-667.631089687347 435.616791248322 2625.99992752075 180 182 179
-664.292633533478 438.133239746094 2641.00003242493 174 176 173
-662.862658500671 441.977262496948 2664.00003433228 159 161 158
-660.815119743347 445.490092039108 2684.99994277954 118 120 117
-656.949162483215 447.841912508011 2698.99988174438 114 116 113
-652.284383773804 449.696332216263 2710.00003814697 133 135 132
-646.607160568237 450.887203216553 2717.00000762939 151 153 150
-640.655875205994 451.912343502045 2723.00004959106 132 134 131
-635.601282119751 453.60141992569 2733.00004005432 132 134 131
-630.491673946381 455.290824174881 2743.00003051758 151 153 150
-625.099658966064 456.81443810463 2752.00009346008 144 146 143
-620.106637477875 458.670198917389 2763.00001144409 135 137 134
-614.831328392029 460.360199213028 2773.00000190735 119 121 118
-608.843684196472 461.552292108536 2779.99997138977 105 107 104
-1059.41307544708 395.766884088516 2430.99999427795 139 138 133
-1049.31831359863 394.456118345261 2423.00009727478 137 136 131
-1043.14303398132 394.611448049545 2424.00002479553 126 125 120
-1036.10992431641 394.442230463028 2423.00009727478 129 128 123
-1030.7844877243 394.925117492676 2426.00011825562 131 130 125
-1023.75638484955 394.757688045502 2424.99995231628 122 121 117
-1017.57550239563 394.916862249374 2426.00011825562 121 120 116
-1009.72449779511 394.425719976425 2423.00009727478 134 133 129
-1002.71999835968 394.260972738266 2421.99993133545 139 138 134
-994.900763034821 393.77161860466 2418.99991035461 143 142 138
-987.100183963776 393.283128738403 2415.99988937378 147 146 142
-980.129539966583 393.121004104614 2414.99996185303 153 152 148
-973.166227340698 392.95968413353 2414.00003433228 162 161 157
-965.009152889252 392.310798168182 2410.00008583069 161 160 156
-956.477820873261 391.499906778336 2404.99997138977 160 159 155
-947.975516319275 390.689790248871 2400.00009536743 181 180 176
-942.247927188873 391.019940376282 2401.99995040894 182 181 177
-936.121582984924 391.187995672226 2403.00011634827 167 166 162
-930.378079414368 391.519635915756 2404.99997138977 171 170 166
-923.472821712494 391.363531351089 2404.00004386902 169 168 164
-916.574537754059 391.208201646805 2403.00011634827 177 176 172
-910.440266132355 391.379088163376 2404.00004386902 175 174 170
-904.677867889404 391.713500022888 2405.99989891052 170 169 165
-898.532509803772 391.885727643967 2407.00006484985 169 168 164
-891.271233558655 391.570150852203 2404.99997138977 186 185 181
-884.389758110046 391.418009996414 2404.00004386902 186 185 181
-878.244876861572 391.592144966125 2404.99997138977 180 179 175
-872.09564447403 391.766875982285 2405.99989891052 178 177 173
-865.941941738129 391.942203044891 2407.00006484985 186 185 181
-859.783589839935 392.118126153946 2407.99999237061 183 182 178
-853.620588779449 392.294555902481 2408.99991989136 181 181 179
-847.804486751556 392.63442158699 2411.00001335144 177 177 175
-841.978430747986 392.97491312027 2413.00010681152 184 184 182
-836.488127708435 393.478721380234 2415.99988937378 187 187 185
-830.982327461243 393.983095884323 2418.99991035461 181 181 179
-825.119853019714 394.325137138367 2421.0000038147 183 183 181
-820.261478424072 395.156353712082 2426.00011825562 184 184 182
-815.711736679077 396.150976419449 2431.99992179871 184 184 182
-811.462640762329 397.309005260468 2438.99989128113 185 185 183
-806.516051292419 398.141801357269 2444.00000572205 185 185 183
-800.560772418976 398.486405611038 2446.00009918213 184 184 182
-795.243978500366 399.157255887985 2450.00004768372 181 182 177
-790.227711200714 399.991512298584 2454.99992370605 182 183 178
-785.184383392334 400.826245546341 2460.00003814697 172 173 168
-779.797732830048 401.49849653244 2463.99998664856 174 175 170
-775.330722332001 402.660071849823 2470.99995613098 183 184 179
-770.825803279877 403.822094202042 2477.9999256134 190 191 186
-766.591429710388 405.147582292557 2486.00006103516 176 177 172
-760.785341262817 405.658632516861 2489.00008201599 172 173 168
-755.265772342682 406.333059072495 2493.00003051758 183 184 179
-749.424397945404 406.844884157181 2496.00005149841 186 187 182
-742.971241474152 407.03096985817 2496.99997901917 183 184 179
-737.397015094757 407.706528902054 2500.99992752075 184 185 180
-731.508731842041 408.219337463379 2503.99994850159 180 180 178
-726.182699203491 409.058541059494 2509.0000629425 180 180 178
-719.969093799591 409.408956766129 2510.99991798401 182 182 180
-715.164422988892 410.574913024902 2517.99988746643 182 182 180
-710.321426391602 411.74128651619 2525.00009536743 182 182 180
-705.997288227081 413.234144449234 2533.99991989136 184 184 182
-701.624035835266 414.727389812469 2542.99998283386 186 186 184
-697.474718093872 416.384100914001 2552.99997329712 187 187 185
-691.918134689331 417.225688695908 2558.00008773804 173 173 171
-686.60181760788 418.230652809143 2563.99989128113 176 176 174
-682.047545909882 419.725239276886 2572.99995422363 180 180 178
-678.755819797516 422.035872936249 2586.99989318848 184 186 183
-675.647258758545 424.51012134552 2601.99999809265 163 165 162
-671.942949295044 426.658481359482 2615.00000953674 163 165 162
-668.421626091003 428.970396518707 2628.99994850159 191 193 190
-665.82989692688 431.935369968414 2647.0000743866 184 186 183
-664.384067058563 435.716807842255 2670.00007629395 178 180 177
-663.305103778839 439.82520699501 2694.9999332428 161 163 160
-659.168779850006 441.975682973862 2707.99994468689 134 136 133
-654.720604419708 443.963289260864 2720.00002861023 133 135 132
-649.016320705414 445.134997367859 2726.99999809265 135 137 134
-644.214451313019 446.959882974625 2737.99991607666 120 122 119
-640.049695968628 449.274808168411 2752.00009346008 112 114 111
-635.808050632477 451.590031385422 2766.00003242493 118 120 117
-1041.66316986084 389.935225248337 2436.00010871887 133 133 123
-1036.30304336548 390.410274267197 2438.99989128113 135 135 127
-1029.24072742462 390.246033668518 2437.99996376038 135 134 129
-1020.50840854645 389.442384243011 2433.00008773804 140 139 134
-1012.22252845764 388.799697160721 2428.99990081787 145 144 140
-1002.71880626678 387.677758932114 2421.99993133545 147 146 144
-995.311856269836 387.35693693161 2420.00007629395 143 142 140
-988.326132297516 387.196987867355 2418.99991035461 143 142 140
-981.754064559937 387.197971343994 2418.99991035461 158 157 155
-973.974525928497 386.719524860382 2415.99988937378 165 164 162
-965.412437915802 385.921806097031 2411.00001335144 165 164 162
-957.276821136475 385.284811258316 2407.00006484985 164 163 161
-949.164867401123 384.648621082306 2403.00011634827 181 180 178
-941.860675811768 384.333223104477 2401.00002288818 176 175 173
-935.348272323608 384.338766336441 2401.00002288818 171 170 168
-930.77141046524 385.145366191864 2405.99989891052 167 166 164
-924.248278141022 385.152280330658 2405.99989891052 175 175 173
-917.34516620636 384.999811649323 2404.99997138977 179 179 177
-911.206185817719 385.168164968491 2405.99989891052 171 171 169
-905.438959598541 385.49730181694 2407.99999237061 172 172 170
-899.288952350616 385.666996240616 2408.99991989136 182 182 180
-891.652286052704 385.196924209595 2405.99989891052 175 175 173
-884.400844573975 384.88757610321 2404.00004386902 174 174 172
-877.891361713409 384.89893078804 2404.00004386902 177 177 175
-872.107863426209 385.231167078018 2405.99989891052 182 182 180
-865.954697132111 385.403841733933 2407.00006484985 183 183 181
-859.79700088501 385.577142238617 2407.99999237061 176 176 174
-853.634536266327 385.75091958046 2408.99991989136 173 173 173
-848.170638084412 386.245578527451 2411.99994087219 182 182 180
-842.342257499695 386.580616235733 2414.00003433228 187 187 185
-836.849987506866 387.076377868652 2417.00005531311 187 187 185
-831.341922283173 387.57261633873 2420.00007629395 181 181 179
-825.818121433258 388.06939125061 2423.00009727478 182 182 180
-820.278584957123 388.566732406616 2426.00011825562 182 182 180
-815.39386510849 389.384865760803 2430.99999427795 180 181 176
-810.815274715424 390.363693237305 2437.00003623962 183 184 179
-806.204557418823 391.343057155609 2443.00007820129 182 183 178
-800.907015800476 392.002552747726 2447.00002670288 182 183 178
-795.263350009918 392.502307891846 2450.00004768372 183 183 181
-790.247440338135 393.322914838791 2454.99992370605 182 182 180
-785.204589366913 394.144028425217 2460.00003814697 179 179 177
-779.81835603714 394.805341959 2463.99998664856 178 178 176
-775.038003921509 395.787596702576 2470.00002861023 188 188 186
-770.847201347351 397.0907330513 2477.9999256134 193 193 191
-766.921758651733 398.554712533951 2486.99998855591 180 180 178
-760.807693004608 398.897260427475 2489.00008201599 163 163 161
-754.985511302948 399.400413036346 2492.00010299683 173 173 171
-748.846650123596 399.743646383286 2493.99995803833 188 188 186
-743.291914463043 400.407791137695 2497.99990653992 186 186 184
-737.420499324799 400.912016630173 2500.99992752075 184 184 182
-731.824696063995 401.576906442642 2505.00011444092 180 180 178
-726.496279239655 402.402371168137 2509.99999046326 179 179 177
-720.280289649963 402.747243642807 2512.00008392334 186 186 184
-715.189158916473 403.733730316162 2517.99988746643 187 187 185
-710.627675056458 405.041217803955 2526.00002288818 183 183 181
-706.301212310791 406.50948882103 2535.00008583069 177 177 177
-701.925456523895 407.978087663651 2543.99991035461 181 181 181
-697.227358818054 409.286767244339 2552.00004577637 192 192 192
-692.485213279724 410.595685243607 2559.99994277954 185 185 185
-686.895966529846 411.423802375793 2565.00005722046 175 175 175
-682.604372501373 413.054227828979 2575.00004768372 182 182 180
-679.307520389557 415.326654911041 2588.99998664856 169 169 167
-675.934076309204 417.599469423294 2602.9999256134 184 185 180
-672.741174697876 420.03321647644 2618.00003051758 157 158 153
-668.449282646179 421.825498342514 2628.99994850159 186 186 184
-665.857791900635 424.741357564926 2647.0000743866 181 181 179
-664.412379264832 428.460121154785 2670.00007629395 182 182 180
-664.810538291931 433.463215827942 2700.99997520447 182 182 180
-662.11873292923 436.541140079498 2720.00002861023 134 134 134
-658.841729164124 439.298510551453 2736.99998855591 123 123 123
-655.709624290466 442.216813564301 2755.00011444092 112 112 112
-1036.72349452972 383.936852216721 2440.00005722046 134 134 126
-1030.50363063812 384.090453386307 2440.99998474121 145 144 139
-1022.60303497314 383.615463972092 2437.99996376038 153 152 147
-1013.88776302338 382.826656103134 2433.00008773804 149 148 144
-1004.37390804291 381.724089384079 2426.00011825562 150 149 147
-995.722949504852 380.936950445175 2421.0000038147 145 144 142
-988.326907157898 380.622714757919 2418.99991035461 146 145 143
-980.943918228149 380.309283733368 2417.00005531311 161 160 158
-973.170638084412 379.839330911636 2414.00003433228 165 164 162
-964.614510536194 379.055321216583 2408.99991989136 159 158 156
-958.473801612854 379.216283559799 2410.00008583069 156 155 153
-950.354278087616 378.591150045395 2405.99989891052 177 176 174
-943.042814731598 378.281474113464 2404.00004386902 173 172 170
-936.13338470459 378.129899501801 2403.00011634827 167 166 164
-931.55175447464 378.923058509827 2407.99999237061 165 164 162
-924.639821052551 378.77282500267 2407.00006484985 170 170 168
-918.116092681885 378.780633211136 2407.00006484985 178 178 176
-911.593675613403 378.789097070694 2407.00006484985 165 165 163
-906.200528144836 379.270285367966 2410.00008583069 176 176 174
-899.298965930939 379.122614860535 2408.99991989136 182 182 180
-892.404019832611 378.975570201874 2407.99999237061 170 170 168
-884.779751300812 378.514349460602 2404.99997138977 174 174 172
-878.633499145508 378.683269023895 2405.99989891052 180 180 178
-872.120201587677 378.695338964462 2405.99989891052 178 178 176
-866.327404975891 379.022777080536 2407.99999237061 172 172 170
-859.810411930084 379.035979509354 2407.99999237061 174 174 172
-854.002952575684 379.364609718323 2410.00008583069 182 182 182
-848.185181617737 379.693686962128 2411.99994087219 189 189 187
-842.357337474823 380.023300647736 2414.00003433228 180 180 178
-836.172938346863 380.196064710617 2414.99996185303 177 177 175
-831.014394760132 380.841583013535 2418.99991035461 187 187 185
-825.49375295639 381.330192089081 2421.99993133545 184 184 182
-820.295691490173 381.976842880249 2426.00011825562 182 182 180
-814.740598201752 382.466465234756 2428.99990081787 182 183 178
-810.500621795654 383.586406707764 2436.00010871887 186 187 182
-806.223034858704 384.706914424896 2443.00007820129 185 186 181
-801.253259181976 385.512977838516 2447.99995422363 185 186 181
-795.931935310364 386.161983013153 2451.99990272522 183 183 181
-790.2672290802 386.653989553452 2454.99992370605 182 182 180
-784.905731678009 387.303978204727 2459.00011062622 176 176 174
-778.88947725296 387.639284133911 2460.99996566772 176 176 174
-774.117588996887 388.605117797852 2467.00000762939 187 187 185
-770.246565341949 390.043973922729 2476.0000705719 192 192 190
-766.635179519653 391.640871763229 2486.00006103516 190 190 188
-761.135399341583 392.29291677475 2490.00000953674 174 174 172
-755.007982254028 392.630338668823 2492.00010299683 165 165 163
-749.770283699036 393.440693616867 2496.99997901917 182 182 180
-743.612706661224 393.778741359711 2499.00007247925 188 188 186
-738.033711910248 394.432306289673 2503.00002098084 186 186 184
-732.140600681305 394.92854475975 2506.00004196167 185 185 183
-726.809740066528 395.740300416946 2510.99991798401 183 183 181
-720.591366291046 396.079629659653 2513.00001144409 183 183 181
-715.213656425476 396.891981363297 2517.99988746643 184 184 182
-710.652589797974 398.177623748779 2526.00002288818 187 187 185
-706.326365470886 399.621248245239 2535.00008583069 187 187 187
-701.399147510529 400.749921798706 2542.00005531311 178 178 178
-696.979820728302 402.194261550903 2551.00011825562 192 192 192
-692.240655422211 403.481245040894 2559.00001525879 188 188 188
-687.45756149292 404.768615961075 2566.99991226196 172 172 172
-682.89577960968 406.213968992233 2575.99997520447 184 184 182
-679.334163665771 408.290445804596 2588.99998664856 184 184 182
-676.220715045929 410.682767629623 2604.00009155273 189 189 187
-672.511458396912 412.760049104691 2617.00010299683 185 185 183
-667.968213558197 414.364516735077 2627.00009346008 170 170 168
-664.879202842712 416.915655136108 2642.99988746643 179 179 177
-663.693845272064 420.729368925095 2667.00005531311 185 185 183
-666.069686412811 426.910132169724 2706.00008964539 181 181 179
-665.068626403809 431.040585041046 2732.00011253357 168 168 168
-1033.45572948456 378.537207841873 2447.99995422363 142 141 136
-1022.60065078735 376.98832154274 2437.99996376038 150 149 144
-1013.88621330261 376.21346116066 2433.00008773804 151 150 146
-1005.20133972168 375.439465045929 2427.99997329712 149 148 146
-997.368276119232 374.975502490997 2424.99995231628 154 153 151
-990.370869636536 374.821662902832 2424.00002479553 158 157 155
-981.351613998413 373.895436525345 2417.99998283386 165 164 162
-973.576247692108 373.433828353882 2414.99996185303 162 161 159
-965.418815612793 372.818410396576 2411.00001335144 145 144 142
-959.671020507813 373.131453990936 2413.00010681152 146 145 143
-950.754165649414 372.208207845688 2407.00006484985 176 175 173
-943.048357963562 371.749490499496 2404.00004386902 172 171 169
-936.139464378357 371.600776910782 2403.00011634827 163 162 160
-931.171834468842 372.225970029831 2407.00006484985 167 166 164
-924.647331237793 372.233211994171 2407.00006484985 171 171 169
-918.505728244781 372.395813465118 2407.99999237061 174 174 172
-912.359893321991 372.559070587158 2408.99991989136 166 166 164
-906.961917877197 373.032212257385 2411.99994087219 185 185 183
-900.429010391235 373.042106628418 2411.99994087219 185 185 183
-892.785310745239 372.588545084 2408.99991989136 179 179 177
-885.526895523071 372.290223836899 2407.00006484985 181 181 179
-879.010558128357 372.30184674263 2407.00006484985 182 182 180
-872.495174407959 372.314006090164 2407.00006484985 173 173 171
-866.340339183807 372.481375932693 2407.99999237061 172 172 170
-859.824001789093 372.494667768478 2407.99999237061 184 184 182
-854.016959667206 372.817844152451 2410.00008583069 188 188 188
-847.848117351532 372.986793518066 2411.00001335144 185 185 183
-841.674566268921 373.15633893013 2411.99994087219 179 179 177
-835.842311382294 373.481094837189 2414.00003433228 182 182 180
-830.34336566925 373.961001634598 2417.00005531311 184 184 182
-824.828743934631 374.441474676132 2420.00007629395 182 182 180
-819.298207759857 374.922424554825 2423.00009727478 181 181 179
-814.42254781723 375.713288784027 2427.99997329712 181 182 177
-809.520423412323 376.504749059677 2433.00008773804 184 185 180
-804.921329021454 377.451330423355 2438.99989128113 183 184 179
-800.290107727051 378.398507833481 2444.9999332428 182 183 178
-794.977366924286 379.036605358124 2448.99988174438 183 183 181
-789.965093135834 379.829943180084 2453.9999961853 182 182 180
-784.925758838654 380.62372803688 2459.00011062622 176 176 174
-779.542922973633 381.263077259064 2463.00005912781 175 175 173
-773.824691772461 381.748110055923 2466.00008010864 186 186 184
-769.334614276886 382.852822542191 2473.00004959106 192 192 190
-765.731692314148 384.422391653061 2483.00004005432 192 192 190
-761.463105678558 385.682731866837 2490.9999370575 177 177 175
-755.333304405212 386.014580726624 2493.00003051758 168 168 166
-750.393569469452 386.966079473495 2499.00007247925 177 177 175
-744.230806827545 387.29852437973 2500.99992752075 184 184 182
-738.941609859467 388.095945119858 2506.00004196167 186 186 184
-732.456266880035 388.274192810059 2506.99996948242 186 186 184
-726.833522319794 388.917297124863 2510.99991798401 187 187 185
-720.902144908905 389.405876398087 2513.99993896484 187 187 185
-715.806186199188 390.359491109848 2519.99998092651 187 187 185
-711.521327495575 391.778081655502 2529.00004386902 189 189 187
-706.351280212402 392.732322216034 2535.00008583069 186 186 186
-701.700210571289 393.996715545654 2542.99998283386 179 179 179
-697.005271911621 395.261496305466 2551.00011825562 191 191 191
-693.077921867371 396.991431713104 2562.00003623962 194 194 194
-688.019275665283 398.10186624527 2569.00000572205 178 178 178
-683.187127113342 399.367600679398 2576.99990272522 181 181 181
-679.885447025299 401.563555002213 2591.00008010864 189 189 187
-676.766753196716 403.914839029312 2605.99994659424 179 179 177
-672.53839969635 405.646562576294 2617.00010299683 190 190 188
-667.99533367157 407.223612070084 2627.00009346008 173 173 171
-664.906680583954 409.73111987114 2642.99988746643 179 179 177
-664.965867996216 414.254486560822 2671.99993133545 188 188 186
-667.820990085602 420.639038085938 2713.00005912781 178 178 176
-1021.75986766815 370.057553052902 2436.00010871887 149 148 143
-1012.21823692322 368.992745876312 2428.99990081787 157 156 152
-1005.20098209381 368.840306997299 2427.99997329712 154 153 151
-999.013960361481 368.992477655411 2428.99990081787 156 155 153
-991.597771644592 368.689715862274 2427.00004577637 156 155 153
-982.165336608887 367.62809753418 2420.00007629395 159 158 156
-973.579049110413 366.87108874321 2414.99996185303 154 153 151
-965.822756290436 366.418689489365 2411.99994087219 152 151 149
-960.470676422119 366.87844991684 2414.99996185303 158 157 155
-951.549053192139 365.971684455872 2408.99991989136 177 176 174
-944.623053073883 365.825176239014 2407.99999237061 169 168 166
-936.924993991852 365.375518798828 2404.99997138977 167 166 164
-931.565701961517 365.838080644608 2407.99999237061 180 179 177
-924.655079841614 365.693628787994 2407.00006484985 170 170 168
-918.895483016968 366.005539894104 2408.99991989136 164 164 162
-912.7476811409 366.166204214096 2410.00008583069 174 174 172
-906.971514225006 366.479396820068 2411.99994087219 184 184 182
-899.319171905518 366.033464670181 2408.99991989136 179 179 177
-892.42547750473 365.892112255096 2407.99999237061 170 170 168
-885.538280010223 365.751266479492 2407.00006484985 172 172 170
-878.657162189484 365.610927343369 2405.99989891052 173 173 171
-872.145116329193 365.62317609787 2405.99989891052 179 179 177
-865.993678569794 365.787893533707 2407.00006484985 186 186 184
-859.837472438812 365.953117609024 2407.99999237061 188 188 186
-853.676557540894 366.118907928467 2408.99991989136 181 181 181
-847.510993480682 366.28520488739 2410.00008583069 172 172 170
-840.991735458374 366.299986839294 2410.00008583069 183 183 181
-835.165321826935 366.619259119034 2411.99994087219 185 185 183
-830.01583814621 367.243021726608 2415.99988937378 182 182 180
-824.163436889648 367.563307285309 2417.99998283386 185 185 183
-818.976938724518 368.188053369522 2421.99993133545 182 182 180
-814.440011978149 369.117379188538 2427.99997329712 182 183 178
-810.203671455383 370.199173688889 2434.99994277954 186 187 182
-804.939687252045 370.825409889221 2438.99989128113 184 185 180
-799.981713294983 371.604174375534 2444.00000572205 183 184 179
-794.671952724457 372.231274843216 2447.99995422363 182 182 180
-789.340794086456 372.858852148056 2451.99990272522 182 182 180
-784.307360649109 373.638957738876 2457.00001716614 177 177 175
-778.930246829987 374.267339706421 2460.99996566772 176 176 174
-773.217797279358 374.744087457657 2463.99998664856 184 184 182
-769.355714321136 376.13382935524 2473.00004959106 189 189 187
-765.444874763489 377.524018287659 2482.00011253357 191 191 189
-761.485040187836 378.914564847946 2490.9999370575 181 181 179
-755.658447742462 379.392921924591 2493.99995803833 182 182 180
-750.716388225555 380.327999591827 2500 173 173 171
-745.146334171295 380.959153175354 2503.99994850159 176 176 174
-738.964736461639 381.286412477493 2506.00004196167 185 185 183
-732.479631900787 381.461769342422 2506.99996948242 184 184 182
-726.567804813385 381.941705942154 2509.99999046326 181 181 179
-720.926105976105 382.574111223221 2513.99993896484 180 180 178
-716.398537158966 383.81552696228 2522.0000743866 182 182 180
-711.545825004578 384.905159473419 2529.00004386902 187 187 185
-706.654727458954 385.99506020546 2536.00001335144 197 197 197
-702.001094818115 387.23748922348 2543.99991035461 196 196 196
-697.303771972656 388.480395078659 2552.00004577637 183 183 183
-692.832946777344 389.875710010529 2561.00010871887 189 189 189
-688.044965267181 391.11915230751 2569.00000572205 181 181 181
-682.682871818542 392.058402299881 2575.00004768372 173 173 173
-679.124355316162 394.063711166382 2588.00005912781 187 187 185
-676.273882389069 396.526277065277 2604.00009155273 163 163 161
-672.308087348938 398.380160331726 2615.9999370575 182 182 180
-669.039368629456 400.691241025925 2631.00004196167 180 180 178
-667.701244354248 404.221147298813 2654.00004386902 178 178 176
-668.477654457092 409.122496843338 2686.00010871887 187 187 185
-1020.91944217682 363.137722015381 2434.00001525879 152 151 146
-1011.80076599121 362.241506576538 2427.99997329712 159 158 154
-1006.85691833496 362.83802986145 2431.99992179871 156 155 153
-1001.0712146759 363.136976957321 2434.00001525879 157 156 154
-992.825090885162 362.541496753693 2430.0000667572 155 154 152
-982.979238033295 361.34997010231 2421.99993133545 156 155 153
-974.388480186462 360.606819391251 2417.00005531311 153 152 150
-967.428207397461 360.46114563942 2415.99988937378 148 147 145
-961.270570755005 360.614597797394 2417.00005531311 156 155 153
-952.739238739014 359.873503446579 2411.99994087219 175 174 172
-944.236755371094 359.133094549179 2407.00006484985 170 169 167
-936.541974544525 358.69175195694 2404.00004386902 173 172 170
-931.186079978943 359.146296977997 2407.00006484985 175 174 172
-925.046980381012 359.303086996078 2407.99999237061 158 158 156
-920.048177242279 359.908103942871 2411.99994087219 172 172 170
-913.514137268066 359.91695523262 2411.99994087219 184 184 182
-907.357275485992 360.075652599335 2413.00010681152 179 179 177
-900.076150894165 359.787255525589 2411.00001335144 170 170 168
-892.807006835938 359.499365091324 2408.99991989136 164 164 162
-885.917603969574 359.361350536346 2407.99999237061 169 169 167
-879.034399986267 359.223783016205 2407.00006484985 175 175 173
-872.52014875412 359.236031770706 2407.00006484985 187 187 185
-865.646839141846 359.099566936493 2405.99989891052 191 191 189
-859.493911266327 359.262108802795 2407.00006484985 183 183 181
-852.981865406036 359.275937080383 2407.00006484985 177 177 177
-846.822261810303 359.439492225647 2407.99999237061 179 179 177
-839.959800243378 359.304994344711 2407.00006484985 186 186 184
-834.488391876221 359.768122434616 2410.00008583069 186 186 184
-829.688251018524 360.530227422714 2414.99996185303 184 184 182
-824.520766735077 361.143589019775 2418.99991035461 185 185 183
-819.332122802734 361.75748705864 2423.00009727478 182 182 180
-814.457356929779 362.521082162857 2427.99997329712 183 184 179
-810.221493244171 363.58380317688 2434.99994277954 188 189 184
-804.957926273346 364.199101924896 2438.99989128113 187 188 183
-799.672961235046 364.814847707748 2443.00007820129 185 186 181
-794.366419315338 365.431010723114 2447.00002670288 182 182 180
-789.038360118866 366.047561168671 2450.99997520447 182 182 180
-784.008026123047 366.813987493515 2456.00008964539 178 178 176
-778.634071350098 367.431402206421 2460.00003814697 177 177 175
-772.610723972321 367.750465869904 2461.99989318848 184 184 182
-768.132209777832 368.816792964935 2469.00010108948 188 188 186
-764.849364757538 370.481133460999 2480.00001907349 190 190 188
-760.895490646362 371.847152709961 2489.00008201599 182 182 180
-755.680501461029 372.615933418274 2493.99995803833 177 177 175
-749.837875366211 373.086303472519 2496.99997901917 172 172 170
-744.276344776154 373.706430196762 2500.99992752075 176 176 174
-738.103032112122 374.027997255325 2503.00002098084 180 180 178
-731.334090232849 374.050974845886 2503.00002098084 185 185 183
-725.722849369049 374.672025442123 2506.99996948242 182 182 180
-720.089495182037 375.29331445694 2510.99991798401 180 180 178
-715.854406356812 376.662254333496 2519.99998092651 179 179 177
-711.288750171661 377.882093191147 2528.00011634827 173 173 171
-706.679165363312 379.102259874344 2536.00001335144 188 188 188
-702.026009559631 380.32278418541 2543.99991035461 191 191 191
-697.328805923462 381.543636322021 2552.00004577637 190 190 190
-692.858219146729 382.914274930954 2561.00010871887 188 188 188
-687.534749507904 383.836656808853 2566.99991226196 187 187 187
-682.708561420441 385.058432817459 2575.00004768372 185 185 185
-679.150402545929 387.028217315674 2588.00005912781 186 186 184
-676.559805870056 389.596551656723 2605.00001907349 170 170 168
-673.876583576202 392.16536283493 2621.99997901917 168 168 166
-670.591950416565 394.435495138168 2637.00008392334 182 182 180
-669.741034507751 398.201823234558 2661.99994087219 179 179 179
-669.500589370728 402.417540550232 2690.00005722046 181 181 181
-1004.97925281525 350.955843925476 2395.99990844727 156 155 151
-1012.21692562103 355.788767337799 2428.99990081787 180 179 175
-1006.44338130951 356.081783771515 2430.99999427795 161 160 158
-999.838411808014 356.082588434219 2430.99999427795 157 156 154
-992.00975894928 355.644702911377 2427.99997329712 150 149 147
-982.981860637665 354.768097400665 2421.99993133545 149 148 146
-975.601077079773 354.478180408478 2420.00007629395 156 155 153
-968.633413314819 354.335427284241 2418.99991035461 149 148 146
-962.468385696411 354.486346244812 2420.00007629395 160 159 157
-953.534543514252 353.612571954727 2414.00003433228 172 171 169
-945.02729177475 352.885901927948 2408.99991989136 168 167 165
-936.938107013702 352.306395769119 2404.99997138977 167 166 164
-931.580126285553 352.752894163132 2407.99999237061 173 172 170
-925.823271274567 353.053599596024 2410.00008583069 187 187 185
-920.056819915771 353.354901075363 2411.99994087219 176 176 174
-913.144648075104 353.217333555222 2411.00001335144 182 182 180
-906.61495923996 353.226870298386 2411.00001335144 172 172 170
-899.339854717255 352.943986654282 2408.99991989136 168 168 166
-892.817854881287 352.954626083374 2408.99991989136 175 175 173
-885.928988456726 352.819353342056 2407.99999237061 183 183 181
-879.776775836945 352.977603673935 2408.99991989136 192 192 190
-873.257517814636 352.989852428436 2408.99991989136 186 186 184
-866.379380226135 352.856159210205 2407.99999237061 176 176 174
-859.507441520691 352.722942829132 2407.00006484985 165 165 163
-852.995932102203 352.736741304398 2407.00006484985 177 177 177
-846.836805343628 352.897554636002 2407.99999237061 183 183 181
-840.323746204376 352.912306785584 2407.99999237061 185 185 183
-834.503829479218 353.220671415329 2410.00008583069 185 185 183
-830.047786235809 354.115754365921 2415.99988937378 184 184 182
-825.218915939331 354.864746332169 2421.0000038147 185 185 183
-820.363402366638 355.614334344864 2426.00011825562 182 182 180
-814.810156822205 356.071084737778 2428.99990081787 182 183 178
-810.572147369385 357.114791870117 2436.00010871887 183 184 179
-805.63622713089 357.86572098732 2440.99998474121 184 185 180
-800.34613609314 358.470469713211 2444.9999332428 184 185 180
-794.709980487823 358.929038047791 2447.99995422363 182 182 180
-788.735806941986 359.241425991058 2450.00004768372 183 183 181
-782.7507853508 359.554141759872 2451.99990272522 182 182 180
-777.071416378021 360.013902187347 2454.99992370605 180 180 178
-771.689772605896 360.620737075806 2459.00011062622 183 183 181
-767.530798912048 361.814498901367 2467.00000762939 185 185 183
-764.253735542297 363.448739051819 2477.9999256134 191 191 189
-760.30558347702 364.790081977844 2486.99998855591 188 188 186
-755.399465560913 365.691840648651 2493.00003051758 179 179 177
-749.860048294067 366.30055308342 2496.99997901917 176 176 174
-744.00120973587 366.762906312943 2500 180 180 178
-737.241148948669 366.78546667099 2500 180 180 178
-731.064975261688 367.101669311523 2502.00009346008 182 182 180
-725.456595420837 367.711573839188 2506.00004196167 186 186 184
-719.826221466064 368.32183599472 2509.99999046326 192 192 190
-715.878129005432 369.812786579132 2519.99998092651 188 188 186
-710.750043392181 370.717167854309 2526.00002288818 173 173 171
-706.4248919487 372.062116861343 2535.00008583069 167 167 167
-701.222598552704 372.967064380646 2540.99988937378 177 177 177
-696.260571479797 374.019116163254 2548.00009727478 197 197 197
-691.530525684357 375.218272209167 2555.99999427795 193 193 193
-686.756491661072 376.417636871338 2563.99989128113 188 188 188
-682.203769683838 377.764195203781 2572.99995422363 194 194 194
-678.65115404129 379.69833612442 2585.99996566772 189 189 187
-676.326096057892 382.367044687271 2604.00009155273 185 185 183
-674.93087053299 385.623604059219 2625.99992752075 171 171 169
-671.635687351227 387.852698564529 2641.00003242493 179 179 177
-670.271039009094 391.257137060165 2664.00003433228 182 182 182
-1010.13314723969 348.468124866486 2424.00002479553 175 174 170
-1009.34183597565 350.481003522873 2437.99996376038 182 181 179
-1001.07359886169 349.907070398331 2434.00001525879 154 153 151
-992.828965187073 349.333822727203 2430.0000667572 151 150 148
-984.202206134796 348.617553710938 2424.99995231628 147 146 144
-976.410925388336 348.189502954483 2421.99993133545 152 151 149
-970.239400863647 348.337203264236 2423.00009727478 150 149 147
-963.26869726181 348.198026418686 2421.99993133545 162 161 159
-953.935146331787 347.196966409683 2414.99996185303 175 174 172
-944.248855113983 346.05273604393 2407.00006484985 172 171 169
-936.944961547852 345.771700143814 2404.99997138977 172 171 169
-931.200742721558 346.066474914551 2407.00006484985 178 177 175
-925.447165966034 346.361815929413 2408.99991989136 167 167 165
-920.065522193909 346.801578998566 2411.99994087219 173 173 171
-912.396371364594 346.379190683365 2408.99991989136 178 178 176
-905.496656894684 346.245020627975 2407.99999237061 169 169 167
-898.976922035217 346.255153417587 2407.99999237061 170 170 168
-892.828822135925 346.409678459167 2408.99991989136 186 186 184
-885.572612285614 346.133351325989 2407.00006484985 189 189 187
-879.788815975189 346.432715654373 2408.99991989136 189 189 187
-873.632669448853 346.588879823685 2410.00008583069 175 175 173
-867.112159729004 346.601694822311 2410.00008583069 172 172 170
-859.878182411194 346.32733464241 2407.99999237061 179 179 177
-852.655470371246 346.053421497345 2405.99989891052 182 182 182
-846.499621868134 346.211552619934 2407.00006484985 186 186 184
-839.989840984344 346.226274967194 2407.00006484985 187 187 185
-834.519267082214 346.67295217514 2410.00008583069 184 184 182
-829.720139503479 347.407817840576 2414.99996185303 183 183 181
-824.894428253174 348.143190145493 2420.00007629395 183 183 181
-819.703936576843 348.735153675079 2424.00002479553 183 183 181
-814.156532287598 349.183768033981 2427.00004577637 183 184 179
-809.591472148895 350.064396858215 2433.00008773804 182 183 178
-804.664134979248 350.801587104797 2437.99996376038 182 183 178
-799.38268661499 351.395398378372 2441.99991226196 182 183 178
-794.079601764679 351.989597082138 2446.00009918213 183 183 181
-788.433074951172 352.440267801285 2448.99988174438 184 184 182
-783.089637756348 353.035271167755 2453.00006866455 183 183 181
-776.774883270264 353.198856115341 2453.9999961853 181 181 179
-771.710097789764 353.938549757004 2459.00011062622 184 184 182
-766.92920923233 354.822546243668 2464.99991416931 187 187 185
-763.657987117767 356.426745653152 2476.0000705719 189 189 187
-759.715497493744 357.743442058563 2484.99989509583 192 192 190
-754.815101623535 358.628660440445 2490.9999370575 184 184 182
-749.281406402588 359.226316213608 2494.99988555908 168 168 166
-743.130624294281 359.536319971085 2496.99997901917 172 172 170
-736.968755722046 359.846651554108 2499.00007247925 178 178 176
-730.795443058014 360.157161951065 2500.99992752075 184 184 182
-725.479662418365 360.900074243546 2506.00004196167 185 185 183
-719.562768936157 361.355125904083 2509.0000629425 186 186 184
-714.765429496765 362.386643886566 2516.00003242493 191 191 189
-709.648370742798 363.274425268173 2522.0000743866 191 191 189
-705.334186553955 364.594608545303 2530.99989891052 185 185 185
-700.419008731842 365.62705039978 2538.00010681152 184 184 184
-696.01184129715 366.947948932648 2546.99993133545 152 152 152
-692.096412181854 368.557304143906 2558.00008773804 156 156 156
-687.317192554474 369.734704494476 2565.99998474121 195 195 195
-683.024346828461 371.200621128082 2575.99997520447 195 195 195
-678.939044475555 372.810959815979 2586.99989318848 193 195 192
-676.611483097076 375.43049454689 2605.00001907349 187 189 186
-675.214052200317 378.627002239227 2627.00009346008 172 174 171
-671.15330696106 380.382597446442 2638.99993896484 171 173 172
-669.291198253632 383.435845375061 2660.00008583069 174 176 175
-1021.38459682465 345.688015222549 2450.99997520447 166 165 161
-1009.75668430328 343.996107578278 2438.99989128113 209 208 206
-1000.66387653351 343.151181936264 2433.00008773804 148 147 145
-993.239760398865 342.871069908142 2430.99999427795 146 145 143
-984.6111536026 342.168658971787 2426.00011825562 145 144 142
-978.027164936066 342.172056436539 2426.00011825562 148 147 145
-971.845507621765 342.317193746567 2427.00004577637 156 155 153
-964.46681022644 342.039883136749 2424.99995231628 165 164 162
-954.335749149323 340.77587723732 2415.99988937378 170 169 167
-945.039629936218 339.794516563416 2408.99991989136 163 162 160
-937.731087207794 339.519143104553 2407.00006484985 159 158 156
-931.981980800629 339.808523654938 2408.99991989136 156 155 153
-926.223635673523 340.098559856415 2411.00001335144 169 169 167
-919.692933559418 340.107083320618 2411.00001335144 186 186 184
-912.027060985565 339.692950248718 2407.99999237061 180 180 178
-904.754519462585 339.420437812805 2405.99989891052 174 174 172
-898.614168167114 339.571744203568 2407.00006484985 182 182 180
-892.469227313995 339.723527431488 2407.99999237061 189 189 187
-885.216176509857 339.452594518662 2405.99989891052 187 187 185
-879.070520401001 339.605510234833 2407.00006484985 182 182 180
-873.282730579376 339.899986982346 2408.99991989136 173 173 171
-867.125153541565 340.053886175156 2410.00008583069 173 173 171
-860.248744487762 339.926064014435 2408.99991989136 179 179 177
-852.669477462769 339.516460895538 2405.99989891052 180 180 180
-846.16231918335 339.53070640564 2405.99989891052 183 183 181
-840.004682540894 339.68648314476 2407.00006484985 184 184 182
-834.534645080566 340.12496471405 2410.00008583069 181 181 179
-829.735934734344 340.846180915833 2414.99996185303 181 181 179
-824.910700321198 341.567873954773 2420.00007629395 181 181 179
-820.058643817902 342.290043830872 2424.99995231628 181 181 179
-814.508974552155 342.730343341827 2427.99997329712 181 182 177
-809.609055519104 343.45343708992 2433.00008773804 182 183 178
-804.352104663849 344.03583407402 2437.00003623962 183 184 179
-799.728453159332 344.900965690613 2443.00007820129 183 184 179
-794.098377227783 345.342963933945 2446.00009918213 181 181 179
-788.45202922821 345.785319805145 2448.99988174438 181 181 179
-782.789766788483 346.228092908859 2451.99990272522 180 180 178
-776.794672012329 346.530050039291 2453.9999961853 180 180 178
-771.730184555054 347.256004810333 2459.00011062622 183 183 181
-766.949653625488 348.123490810394 2464.99991416931 185 185 183
-763.678729534149 349.69761967659 2476.0000705719 187 187 185
-759.736657142639 350.989669561386 2484.99989509583 195 195 193
-754.836618900299 351.858407258987 2490.9999370575 188 188 186
-749.303221702576 352.444976568222 2494.99988555908 168 168 166
-743.748009204865 353.031903505325 2499.00007247925 167 167 165
-737.875819206238 353.477865457535 2502.00009346008 170 170 168
-731.69469833374 353.782743215561 2503.99994850159 176 176 174
-726.081430912018 354.370504617691 2507.99989700317 180 180 178
-719.872534275055 354.675948619843 2509.99999046326 185 185 183
-715.356826782227 355.829507112503 2517.99988746643 188 188 186
-709.953248500824 356.559425592422 2523.00000190735 189 189 187
-704.800724983215 357.430964708328 2529.00004386902 197 197 197
-699.891090393066 358.444094657898 2536.00001335144 198 198 198
-695.762813091278 359.881550073624 2546.0000038147 180 180 180
-692.120909690857 361.60209774971 2558.00008773804 161 161 161
-687.877714633942 363.040268421173 2568.00007820129 171 171 171
-683.049321174622 364.195972681046 2575.99997520447 193 193 193
-678.701817989349 365.634769201279 2585.99996566772 190 192 191
-676.117539405823 368.063598871231 2602.9999256134 188 190 189
-674.468576908112 371.058493852615 2624.00007247925 174 176 175
-671.942234039307 373.629689216614 2641.99995994568 170 172 171
-670.072257518768 376.625567674637 2663.00010681152 173 175 174
-1013.06986808777 338.474094867706 2447.00002670288 205 204 202
-1002.31075286865 337.09242939949 2437.00003623962 156 155 153
-994.467914104462 336.679607629776 2434.00001525879 147 146 144
-985.831797122955 335.990965366364 2428.99990081787 147 146 144
-978.434205055237 335.717916488647 2427.00004577637 148 147 145
-972.250401973724 335.86049079895 2427.99997329712 157 156 154
-964.869856834412 335.588812828064 2426.00011825562 166 165 163
-954.736590385437 334.34933423996 2417.00005531311 174 173 171
-945.830702781677 333.525568246841 2411.00001335144 170 169 167
-938.906848430634 333.3939909935 2410.00008583069 168 167 165
-933.150291442871 333.678066730499 2411.99994087219 168 167 165
-927.000343799591 333.824425935745 2413.00010681152 176 176 174
-920.464634895325 333.833009004593 2413.00010681152 182 182 180
-912.793934345245 333.427101373672 2410.00008583069 174 174 172
-905.140578746796 333.021730184555 2407.00006484985 178 178 176
-898.251175880432 332.893520593643 2405.99989891052 185 185 183
-892.109632492065 333.042711019516 2407.00006484985 189 189 187
-885.227680206299 332.91557431221 2405.99989891052 180 180 178
-878.717184066772 332.927316427231 2405.99989891052 170 170 168
-872.570276260376 333.078026771545 2407.00006484985 168 168 166
-866.418540477753 333.229124546051 2407.99999237061 175 175 173
-860.262215137482 333.380788564682 2408.99991989136 184 184 182
-852.683544158936 332.979321479797 2405.99989891052 184 184 184
-846.88013792038 333.270281553268 2407.99999237061 186 186 184
-840.019524097443 333.146452903748 2407.00006484985 186 186 184
-835.242450237274 333.85357260704 2411.99994087219 183 183 181
-830.438792705536 334.561109542847 2417.00005531311 183 183 181
-825.608551502228 335.269153118134 2421.99993133545 183 183 181
-819.737136363983 335.562348365784 2424.00002479553 180 180 178
-814.190626144409 335.994422435761 2427.00004577637 181 182 177
-808.960855007172 336.565345525742 2430.99999427795 183 184 179
-804.039776325226 337.275147438049 2436.00010871887 185 186 181
-799.419164657593 338.123798370361 2441.99991226196 185 186 181
-793.792247772217 338.557511568069 2444.9999332428 184 184 182
-788.471043109894 339.130043983459 2448.99988174438 183 183 181
-782.489836215973 339.426040649414 2450.99997520447 183 183 181
-776.814341545105 339.860886335373 2453.9999961853 184 184 182
-771.436274051666 340.434551239014 2457.99994468689 187 187 185
-766.347646713257 341.147094964981 2463.00005912781 188 188 186
-763.082563877106 342.69106388092 2473.99997711182 190 190 188
-759.146213531494 343.958467245102 2483.00004005432 190 190 188
-754.858016967773 345.087766647339 2490.9999370575 189 189 187
-748.724222183228 345.386177301407 2493.00003051758 179 179 177
-743.472218513489 346.100479364395 2497.99990653992 172 172 170
-737.897932529449 346.676617860794 2502.00009346008 167 167 165
-731.717050075531 346.975833177567 2503.99994850159 172 172 170
-726.104021072388 347.552478313446 2507.99989700317 177 177 175
-720.468997955322 348.129421472549 2512.00008392334 185 185 183
-715.664207935333 349.122434854507 2519.00005340576 186 186 184
-710.257947444916 349.838465452194 2523.9999294281 188 188 186
-704.824209213257 350.55485367775 2529.00004386902 188 188 188
-700.190782546997 351.687252521515 2536.99994087219 185 185 185
-696.879982948303 353.513240814209 2549.99995231628 181 181 181
-693.227469921112 355.200916528702 2562.00003623962 188 188 188
-688.705801963806 356.472969055176 2571.00009918213 168 168 168
-683.339178562164 357.329338788986 2576.99990272522 143 143 143
-678.201735019684 358.324646949768 2584.00011062622 154 156 155
-675.103604793549 360.429584980011 2598.99997711182 192 194 193
-673.208832740784 363.228380680084 2618.99995803833 188 190 189
-671.967923641205 366.44372344017 2641.99995994568 175 177 176
-671.607971191406 370.214402675629 2668.99991035461 174 175 177
-1013.89896869659 332.094967365265 2448.99988174438 192 191 189
-1001.90138816834 330.333888530731 2436.00010871887 164 163 161
-994.879126548767 330.200642347336 2434.99994277954 154 153 151
-985.835134983063 329.39013838768 2428.99990081787 153 152 150
-979.647576808929 329.529523849487 2430.0000667572 149 148 146
-973.056018352509 329.533934593201 2430.0000667572 158 157 155
-966.068148612976 329.40337061882 2428.99990081787 165 164 162
-955.137550830841 327.917337417603 2417.99998283386 168 167 165
-946.621894836426 327.245533466339 2413.00010681152 165 164 162
-939.303636550903 326.981216669083 2411.00001335144 165 164 162
-933.931827545166 327.395558357239 2414.00003433228 167 166 164
-927.392780780792 327.403634786606 2414.00003433228 176 176 174
-920.473575592041 327.276647090912 2413.00010681152 172 172 170
-912.424504756927 326.743245124817 2408.99991989136 176 176 174
-904.774367809296 326.346039772034 2405.99989891052 189 189 187
-898.261606693268 326.356291770935 2405.99989891052 186 186 184
-892.120599746704 326.502740383148 2407.00006484985 166 166 164
-885.607182979584 326.514005661011 2407.00006484985 171 171 169
-879.459738731384 326.66140794754 2407.99999237061 167 167 165
-872.945308685303 326.673686504364 2407.99999237061 176 176 174
-866.431593894959 326.686412096024 2407.99999237061 183 183 181
-860.275626182556 326.83527469635 2408.99991989136 184 184 182
-853.760480880737 326.848924160004 2408.99991989136 187 187 187
