ply
format ascii 1.0
comment KinectMotionCapture
element vertex 782
property float x
property float y
property float z
property uchar red
property uchar green
property uchar blue
end_header
-949.67078378444 -498.422940982714 2442.26346282641 14 17 10
-935.659181547159 -495.445756036433 2428.37975367557 16 19 12
-923.75892320459 -493.36081585429 2420.06118443502 18 21 14
-921.604325583447 -495.57160084179 2438.80995097049 18 21 14
-907.10203837663 -492.30428277859 2422.99305032334 16 19 12
-891.716137150052 -488.597113132826 2404.33046431996 15 18 11
-877.427144007723 -485.337535405726 2388.43548190832 14 17 10
-872.627173943482 -486.36363817295 2399.70183925322 14 17 10
-870.992077913839 -488.863181296341 2420.37343086856 15 18 11
-854.607430586167 -484.575764867727 2397.85102812243 16 19 12
-839.941400007889 -481.030242445837 2379.98124577443 18 21 14
-840.117958542212 -484.409618286557 2406.32780219733 17 20 13
-841.098998856221 -488.225096835007 2435.54933285492 17 20 13
-829.298025566926 -486.005684684264 2426.13827951324 16 19 12
-817.56414543919 -483.7885819885 2416.70267445427 16 19 12
-819.841040467784 -488.328717741435 2450.73173137808 16 19 12
-815.036158951831 -489.486742682822 2463.05647573656 16 19 12
-809.584448072491 -490.34917113398 2473.50542824643 15 18 11
-799.660683556192 -489.011558139606 2469.74537303537 15 18 11
-826.673497278895 -506.126216753246 2585.56887658509 12 15 8
-814.757635614609 -503.900051620239 2576.20007602792 5 8 1
-802.909060245184 -501.676248154049 2566.80664964139 7 10 3
-801.963822918945 -505.007777652707 2593.56440671178 6 8 3
-778.848646710508 -496.943711275551 2546.03991552351 8 10 5
-768.047299951847 -495.165037100249 2539.43232895633 16 19 12
-765.344436252173 -497.617014165241 2560.49546960069 19 22 15
-755.397416887474 -496.276109065032 2556.74436644927 23 26 19
-743.853042109971 -494.062630981801 2547.23963349698 23 26 19
-732.915598093551 -492.142579684473 2539.62535276154 22 25 18
-726.310762931869 -492.551184564241 2547.32759732374 21 23 20
-715.446781124587 -490.633541557559 2539.68669760477 23 25 22
-955.664025634321 -509.685163895053 2459.50223462901 16 19 12
-930.669038685952 -504.990182108467 2440.13904308075 19 22 15
-914.103384948798 -500.761494798174 2418.74453179244 20 23 16
-900.320962105338 -497.743183413262 2404.78065621659 18 21 14
-877.4292059738 -490.511883334473 2364.57855684947 14 17 10
-859.66474548094 -485.546730209561 2338.34189480013 14 17 10
-873.439231010501 -495.174234187347 2403.00849414062 14 17 10
-871.149224986934 -497.424525097919 2421.8034788489 15 18 11
-860.494698562686 -495.766491319679 2416.20025497255 15 18 11
-853.36027921582 -495.760768888047 2420.92600169195 17 20 13
-844.336536866432 -494.854476547989 2420.00656811848 17 20 13
-845.27488801165 -498.744691778259 2449.23797035226 17 20 13
-822.654343735739 -491.246201086931 2406.82412271104 20 23 16
-821.667771242012 -494.234084079599 2430.42315836544 21 24 17
-822.083427580502 -497.965044209178 2458.78968076099 21 24 17
-816.653330280476 -498.850308073501 2469.22880297217 20 23 16
-805.22606403914 -496.746408708227 2460.74006274418 16 19 12
-826.169747981406 -514.769985492263 2585.09972146844 13 16 9
-808.163397489057 -509.378015966211 2555.78322810144 9 12 5
-795.795977924313 -506.822884390083 2544.4702040561 11 14 7
-769.826051885268 -497.125482226045 2487.43986319311 10 12 7
-763.950460632393 -497.8533605458 2496.98616884087 10 12 7
-765.875987807379 -502.741657607603 2533.24973404947 11 14 7
-765.681553639573 -506.582748397349 2562.89642624609 11 14 7
-752.156618442342 -503.292422302956 2546.72615290264 11 14 7
-744.450670890573 -503.12114314103 2550.60549256454 11 14 7
-741.054179282584 -505.321163801291 2569.80629800976 13 16 9
-737.571325574119 -507.517422212909 2589.03876591704 14 16 13
-712.049944914615 -497.423224051835 2528.67546754684 22 24 21
-967.593246652438 -520.438412312393 2468.22279918066 21 24 17
-959.262018713661 -519.973272104768 2470.21838649952 21 24 17
-951.952044119116 -519.969055745099 2475.00780539774 21 24 17
-934.966078258726 -518.883925105235 2478.06139651549 18 21 14
-892.552836543285 -502.617286087092 2383.76933177052 15 18 11
-904.872095505225 -511.666447658821 2443.67501663366 14 17 10
-876.139778590643 -501.552580343532 2386.6132228391 13 16 9
-877.160196853523 -505.383610299077 2414.75246208785 14 17 10
-862.645060019801 -501.864795527106 2397.89264978358 16 19 12
-860.647932935748 -504.313002673004 2417.63284371565 17 20 13
-857.927382646117 -506.45167727078 2435.52612671625 18 21 14
-847.298115397449 -504.76932231462 2429.91530599929 18 21 14
-836.094371676544 -502.78325587401 2422.40301720046 21 24 17
-835.109387726448 -505.831512097744 2445.9969204206 22 25 18
-822.102312555507 -502.93157799193 2432.80895640026 23 26 19
-836.132457221716 -513.588843183894 2503.70455977711 23 26 19
-800.276634917987 -502.767662465971 2446.08444791793 16 19 12
-809.609551712146 -511.273682326192 2503.91649523823 15 18 11
-808.113778932753 -514.299669711768 2527.6974131366 12 15 8
-806.50570179807 -517.32092445334 2551.51974681557 8 11 4
-789.552696503132 -512.298259451032 2524.99284628732 10 13 6
-778.171302054098 -510.161643717384 2516.48965331147 8 10 5
-777.014121013678 -513.480261662793 2542.25883545253 8 10 5
-785.8041752911 -522.243183151995 2602.40210825404 8 11 4
-775.718128276356 -520.858286006856 2598.70458403378 9 12 5
-768.96379538408 -521.288576137417 2606.45951054901 10 13 6
-750.759784022736 -515.372855007273 2574.05468398136 11 14 7
-741.907723676486 -514.59712355988 2574.12957709832 15 18 11
-741.612372718353 -518.649280682006 2604.86356710035 15 17 14
-746.720017495285 -525.861009843953 2655.79525790706 23 25 22
-963.655140894401 -524.054071635616 2434.18195473835 27 29 26
-942.688945018287 -517.794458559816 2401.73987019101 22 25 18
-950.915832443061 -524.847206252706 2448.35054969572 22 25 18
-935.538891905194 -521.0964953968 2430.75454942888 20 23 16
-936.403781484437 -524.853634058111 2457.88931706791 19 22 15
-881.070724339144 -508.942815849049 2376.79761772691 12 15 8
-885.431772077553 -514.410404147559 2414.26592518144 12 15 8
-871.181686463064 -510.988073173809 2398.36908619615 13 16 9
-859.278741780936 -508.659522126203 2389.00331759502 16 19 12
-850.941236534387 -508.045110938615 2389.94563788665 16 19 12
-846.084538021996 -509.141605280172 2401.22729565047 17 20 13
-846.188529066369 -512.722644971478 2427.58525701341 17 20 13
-849.267830975118 -517.851512282814 2463.41146112236 17 20 13
-835.547811534566 -514.591121456389 2448.37662108971 18 21 14
-828.945487359729 -514.901998529513 2455.01851649248 18 21 14
-819.901890746635 -513.971585924836 2454.10811663111 16 19 12
-820.481738753025 -517.998874581009 2483.45917980449 16 19 12
-822.108401070643 -522.639447913574 2516.65035627814 17 20 13
-791.246628356819 -514.120027808834 2474.10796416021 12 15 8
-792.677229439745 -518.751807286357 2507.37104055379 12 15 8
-791.646160072367 -522.141486209635 2533.08903992372 15 18 11
-781.667380924441 -520.74254230054 2529.35385541508 19 21 16
-781.599327841347 -524.741754531646 2558.9426981022 19 21 16
-784.183745367676 -530.275849761971 2598.11806021637 20 23 16
-772.724564343283 -528.10214403741 2589.64618282888 20 23 16
-762.425205559802 -526.546201455344 2584.97251219893 20 23 16
-750.264762982566 -523.915041847747 2573.5900220775 20 23 16
-750.8388226918 -528.509908469226 2607.16684294776 20 23 16
-742.714206865049 -528.1832449806 2610.14346827497 22 24 21
-752.025623945233 -537.985924698116 2676.41845070191 24 26 23
-952.776205530583 -527.656326148741 2405.86390878275 26 28 25
-945.635885367198 -527.670455773085 2410.59055592631 25 27 22
-938.144176623956 -527.52453655658 2414.39014113508 21 24 17
-938.092649763537 -530.879443921072 2438.68830325825 19 22 15
-917.099851760743 -524.368064651384 2405.20832418649 18 21 14
-914.638289303613 -526.606575765768 2422.9999743568 16 19 12
-919.039767877231 -532.177428967077 2460.44580026871 13 16 9
-896.014460290631 -524.564050423831 2420.32105359094 12 15 8
-877.458091597532 -519.022099330135 2392.28252938338 12 15 8
-867.792856844196 -517.767270236035 2389.4891049657 13 16 9
-850.788139645193 -512.869009487557 2365.10471928946 14 17 10
-849.191129554269 -515.576983787969 2385.74674638782 14 17 10
-846.235526530414 -517.647800382144 2402.66399663134 13 16 9
-829.754725643503 -512.914917959266 2379.14333066221 14 17 10
-841.955182343382 -522.727543916195 2442.23475356449 13 16 9
-840.292095717695 -525.577332538356 2463.9566448698 13 16 9
-818.207308626889 -521.641512427851 2449.87838019143 12 15 8
-812.195081134355 -522.277359858368 2458.41471855648 12 15 8
-804.963104971402 -522.281535378339 2463.17541881985 14 17 10
-799.490003588134 -523.229509028962 2473.62543447595 14 17 10
-793.684153313999 -524.018265325047 2483.14180726652 10 13 6
-795.953336859164 -529.207642183077 2519.25804656384 11 14 7
-785.985636363758 -527.790253304186 2515.52022846711 14 17 10
-781.175898003644 -529.200363323702 2528.89427351521 19 21 16
-772.926831036382 -528.724915818436 2530.86078636967 19 21 16
-768.036290447198 -530.131093790392 2544.26448658135 21 24 17
-766.135209943711 -533.258661324413 2568.18525791783 21 24 17
-754.248333125242 -530.743255768282 2557.76119349203 21 24 17
-748.411450415173 -531.673707165961 2568.34470664773 20 23 16
-746.840521776449 -535.104697923709 2594.25574012118 18 21 14
-740.3490442681 -535.716962061813 2602.96798741202 22 24 21
-714.818727241398 -525.081192442947 2542.64879839094 19 21 18
-941.71152424681 -534.358276482863 2400.84523735098 22 23 18
-939.699053576087 -536.807760350165 2419.52460792147 24 27 20
-938.952210858848 -539.90099794068 2441.96178102981 19 22 15
-912.816677339722 -534.271313234122 2418.81703845623 16 19 12
-904.992043666571 -533.965008521895 2421.68313289918 15 18 11
-904.055355894081 -537.049367659822 2444.18995373905 14 17 10
-884.786976311023 -531.092105591173 2414.30809892313 12 15 8
-858.918368882215 -521.754828610607 2364.68017545645 12 15 8
-867.929240547734 -529.835163695873 2416.26150642714 13 16 9
-870.63651250168 -534.8442667434 2450.09880692014 15 18 11
-851.113372415939 -528.578428806259 2418.19968622941 17 20 13
-846.472331375505 -529.88057056248 2430.45402734638 16 19 12
-820.698373452212 -520.248091510493 2378.68062084741 16 19 12
-814.592527718229 -520.749074243276 2386.19459375473 15 18 11
-824.620687660515 -529.758606911461 2443.73578797918 14 17 10
-826.491076824528 -534.583966588165 2476.82446691175 13 16 9
-813.809040396764 -531.705115727744 2464.58336958226 13 16 9
-786.349768644693 -520.816256883392 2404.98413823996 16 19 12
-790.165821748792 -526.757015399637 2444.7481280437 15 18 11
-812.474315975401 -542.932947050589 2545.28529035239 11 14 7
-792.567083746923 -536.054398995932 2509.30547546328 9 12 5
-789.225935299285 -538.29536738586 2527.41652685094 11 14 7
-774.712962759813 -534.302504726166 2508.45832906729 13 14 9
-768.772652705193 -535.103425050287 2518.02263835033 14 15 10
-764.472537943715 -536.85980645675 2533.31875805743 12 13 7
-758.16972231217 -537.4971604654 2541.96056433254 11 12 6
-753.207319985301 -538.929650832515 2555.3883893 11 12 4
-742.039731607877 -541.150341385901 2578.47797700708 10 13 6
-734.78933948355 -541.30321231601 2584.30045110685 20 22 17
-719.608793910829 -536.68751350653 2561.36532240363 17 19 14
-947.991772810515 -542.447671113688 2394.75336074147 20 22 19
-952.892997974088 -548.241871415927 2432.00075805412 21 22 17
-944.999394349225 -547.934360050199 2434.89200291459 22 25 18
-951.306112638864 -554.539712540893 2476.90081886176 21 24 17
-930.889722244736 -548.140720542489 2445.33604193489 17 20 13
-908.66555782304 -540.762432106604 2408.10239495236 16 19 12
-901.199963620974 -540.621596703773 2411.892362491 15 18 11
-898.318914834758 -542.778864561647 2428.77574718898 14 17 10
-887.879860700956 -541.158579373575 2424.15794218361 14 17 10
-879.095489869683 -540.359498947009 2424.2100028755 13 16 9
-868.085752297947 -538.413394200225 2417.6907654207 13 16 9
-864.749168001175 -540.400005984078 2433.68598331293 13 16 9
-859.135937327133 -541.237559585997 2443.12868833441 14 17 10
-861.297937536523 -546.163167241821 2476.1038501528 18 21 14
-843.774212094942 -540.781983903819 2449.81111016258 19 22 15
-816.883687616963 -530.341704986853 2394.23811906501 19 22 15
-825.051441485994 -538.528397643317 2446.11750724015 18 21 14
-824.189858792646 -541.971762906295 2470.70331877893 15 18 11
-817.817807199146 -542.474669146822 2478.3138691405 13 16 9
-801.9153090192 -537.760781899242 2455.64846140646 18 21 14
-799.108582425165 -540.218694236798 2474.61552473494 17 20 13
-796.506991798333 -542.835600771748 2494.5626143341 9 12 5
-805.965964415599 -552.280836794568 2554.41136226075 10 13 6
-790.741712282422 -547.894755705007 2533.60790124354 12 15 8
-786.162105351095 -549.524878750674 2547.94854110963 14 15 10
-774.198742695635 -546.93060124869 2537.55796356981 15 16 11
-761.191578701525 -543.689894713454 2523.3291874088 15 16 10
-753.254685216475 -543.371431199938 2526.23698745824 13 14 8
-755.180769125232 -548.886709142578 2563.51985421857 12 13 5
-755.023270406365 -553.260623006351 2594.17948026514 12 13 5
-749.610160390856 -554.552987651787 2606.715080734 10 13 6
-729.768454915575 -547.108570518183 2567.55397591746 8 10 5
-738.632564196669 -557.130609895951 2631.84181855468 15 17 12
-937.825209191572 -546.025297631731 2368.31145407465 19 21 18
-947.252716763261 -554.100853574017 2417.60839938794 22 23 18
-962.893171366047 -565.347063879776 2484.67481112891 17 20 13
-965.675468402006 -570.388147126785 2517.41588299754 16 19 12
-929.054419542447 -555.857358370684 2441.15416442871 17 20 13
-911.507083281317 -550.702095650238 2416.98632384469 17 20 13
-889.815595794984 -543.38109766869 2380.62162321358 15 18 11
-887.672591047663 -545.916372293077 2399.34169436135 14 17 10
-888.368416188588 -549.949298590612 2426.51708084238 14 17 10
-875.384138187806 -546.974310235491 2414.39305295438 13 16 9
-866.321881939231 -546.001690512053 2413.49261743385 10 13 6
-862.358839306509 -547.693741340389 2427.60430948018 9 12 5
-862.427439552525 -551.54641341771 2453.95463455194 8 11 4
-844.255989530228 -545.747383293968 2425.79565195921 9 12 5
-852.269719660884 -553.916579533315 2476.66576663796 11 14 7
-838.214910528296 -550.2811512829 2460.71405490311 16 19 12
-834.314149085717 -552.127728728548 2475.85826911677 18 21 14
-820.380709429628 -548.496329158542 2459.86215532277 19 22 15
-815.533614008576 -549.84288318838 2472.18801275751 19 22 15
-801.272223205068 -550.044667892557 2482.68777643466 16 19 12
-807.68917937944 -557.839963453894 2532.0329036808 11 14 7
-803.734010400584 -559.836030729996 2548.2524174919 10 13 6
-805.153265339281 -564.969461735638 2582.54832219433 14 17 10
-791.917140369331 -561.670960840861 2568.40684252581 17 18 13
-778.492559965314 -558.210766660222 2553.27973387828 18 19 14
-766.560612926676 -555.578978441752 2542.88057210853 19 20 14
-755.530320905206 -553.444439051377 2535.31646431456 18 19 13
-757.97294872728 -559.386044641317 2574.51259664574 18 19 11
-756.424361136864 -563.014056270245 2600.40090154324 16 17 9
-743.20072822342 -559.560034278127 2585.20006111917 23 26 19
-739.122852676208 -561.701657874806 2602.51973261534 17 19 14
-723.109534164155 -556.443296771913 2576.73549416879 20 22 17
-934.23187275802 -552.685884674337 2359.51472716551 16 18 15
-943.33191266736 -560.728292521106 2407.86659861771 18 19 14
-946.054088340963 -565.697873219435 2439.56835357915 15 18 11
-940.172391747951 -566.409704795576 2448.05127773601 15 18 11
-911.684312083048 -559.336459488228 2418.40382020575 17 20 13
-895.936228733951 -554.956225323625 2398.85705612434 15 18 11
-865.573199484023 -542.94651019521 2337.19751630899 14 17 10
-876.832946485441 -552.482138394356 2394.25153395535 14 17 10
-871.676076811281 -553.533658450781 2404.57909231921 14 17 10
-869.356592214698 -556.107265614963 2423.36039297249 13 16 9
-862.508580001378 -556.307646770453 2429.03333692231 12 15 8
-854.701343920799 -555.999669683909 2431.89323634984 11 14 7
-848.454912057716 -556.536443623199 2439.45533466855 9 12 5
-842.183175916778 -557.071885013129 2447.02698182994 10 13 6
-848.472386363535 -564.528092298691 2493.24443993593 12 15 8
-843.871233690531 -566.068941670621 2506.53283347767 14 17 10
-803.075852573576 -551.447349752582 2433.9280246064 19 22 15
-803.620212027303 -555.854323828227 2463.2633342325 18 21 14
-806.903791997571 -566.163995294247 2530.62364667911 11 14 7
-818.267612407691 -577.108395099697 2597.13357983826 11 14 7
-806.944396563469 -574.93342213098 2589.67869874249 15 18 11
-794.826571961611 -572.256597570884 2579.35072564114 16 17 12
-780.249237488106 -568.071993507506 2560.4303801603 17 18 13
-765.232941918177 -563.556355769788 2539.56113596996 17 18 12
-751.726591220286 -559.883524864944 2523.41297077873 17 18 12
-757.20445472843 -567.772104894565 2573.09252150078 20 21 13
-751.588838669829 -568.954351099108 2584.64345239488 22 23 15
-742.705732236948 -568.126787240867 2584.7335365592 20 23 16
-732.775051118777 -566.630747880672 2580.98820223689 24 26 21
-942.727770121002 -565.353764069964 2383.20453348056 18 20 17
-929.474436621798 -562.284113837729 2371.18540594917 20 21 16
-926.849067813804 -564.576178674331 2387.9659761671 15 18 11
-917.394138113275 -563.409440869922 2386.1560496348 13 16 9
-897.563882423299 -560.560116043731 2379.70986404185 15 18 11
-887.204012509363 -558.878162844694 2375.06794138558 14 17 10
-866.409887993109 -551.681708468405 2340.50091054844 14 17 10
-862.815754113317 -557.282788802555 2379.78300581264 16 19 12
-862.798240583675 -561.109647252934 2405.09975638974 16 19 12
-866.462845304902 -566.994826935989 2441.7230435727 16 19 12
-849.813434264829 -561.873313692994 2418.2932171255 15 18 11
-847.657947872639 -564.657933780416 2438.06556604767 15 18 11
-843.554081954194 -566.408602292563 2452.22425598964 14 17 10
-843.377604499692 -570.386627190907 2478.65391461799 14 17 10
-831.815688092223 -568.015481963941 2470.23426197909 14 17 10
-813.678430428415 -561.876529065047 2441.02169319196 14 17 10
-814.261978697511 -566.361721412654 2470.33711666145 14 17 10
-803.432922046798 -564.337221027443 2463.75814611879 19 22 15
-819.816171560165 -582.515703734375 2573.76347894864 13 16 9
-818.630477404626 -586.291429147302 2599.50853148684 13 16 9
-805.297671342858 -582.890902927945 2585.4101319687 16 19 12
-789.504127847444 -577.957984087195 2562.72166318952 18 19 14
-776.661432617829 -574.73553948767 2549.49830769505 19 20 15
-766.413957461858 -573.050104308736 2544.81555621798 20 21 15
-758.416615245228 -572.728593520925 2547.74554948343 20 21 15
-754.2486364531 -574.789817174177 2564.03721463369 24 25 17
-748.384172154697 -575.827112307118 2574.62294199106 26 27 19
-742.479367102754 -576.862400308073 2585.22322379522 26 29 22
-737.331836656065 -578.405403310908 2598.71022871141 19 21 16
-745.289944549535 -588.436244601921 2660.12641423592 21 23 18
-743.552418528176 -592.344729359706 2687.12876165283 17 19 16
-960.534683407662 -582.908247370492 2431.94164882525 17 19 16
-936.52785934062 -574.34350687698 2391.17874948607 19 20 15
-929.763625002711 -574.567171624261 2396.81949700334 16 19 12
-920.959166909326 -573.736845379621 2396.8812136988 13 16 9
-907.481581444858 -570.451296461877 2383.89329899119 12 15 8
-895.752880028011 -568.045183318982 2375.53662968956 14 17 10
-889.03229481048 -568.268886487783 2381.16151494322 14 17 10
-878.042838957907 -566.215457975562 2374.64300612767 12 15 8
-862.235346276534 -561.5388675668 2354.07337769695 12 15 8
-863.625716138022 -566.135808081128 2383.08722100455 14 17 10
-867.428466564708 -572.124974815109 2419.65246867568 14 17 10
-856.150952969976 -569.896418418929 2412.18527949678 13 16 9
-848.388097843823 -569.589997151639 2415.02893626781 12 15 8
-840.001889383041 -568.934259236025 2415.99207043381 13 16 9
-836.573926513941 -571.068591312782 2432.00934386105 14 17 10
-838.594461700977 -576.336691383831 2465.01006363504 15 18 11
-833.760908080455 -577.766015769328 2477.32475566959 15 18 11
-820.735042134035 -574.492939721725 2464.17177319903 14 17 10
-788.647683272649 -568.515084918095 2445.34893475451 18 21 14
-807.373521886815 -584.007867131462 2534.43991734286 9 12 5
-810.620225122101 -590.456386166492 2574.37246199358 9 12 5
-794.209714835637 -585.101330138364 2549.8066445642 11 14 7
-787.306615097096 -585.472599528407 2556.55326632797 9 10 5
-777.292499455818 -583.93688345713 2552.84124057245 12 13 8
-767.871768046667 -582.748524930832 2551.02051983459 18 19 13
-761.788035217152 -583.637425827279 2560.63030172324 17 18 12
-746.102840473567 -578.471473597975 2536.8534922774 12 13 5
-740.309227940627 -579.533200911642 2547.41137877527 11 12 4
-737.425521399859 -582.493025540762 2568.50190850556 14 17 10
-730.460684877832 -582.859083226388 2575.27135479268 23 25 20
-728.737603778687 -586.674563335226 2601.20891493873 19 21 16
-735.489026779453 -596.174737035243 2658.83709486331 16 18 15
-965.21460169446 -593.966713668803 2445.40649490638 16 18 15
-951.450247225493 -590.624906400821 2432.52701892992 17 18 13
-937.433154461741 -587.107729994766 2418.68579360624 14 17 10
-931.266427658303 -587.692594275553 2426.2155578957 14 17 10
-913.692981090329 -582.220269392468 2402.0811270132 14 17 10
-894.939746439573 -576.041369728076 2374.16219038804 14 17 10
-886.720785490814 -579.349220219348 2400.3648823178 12 15 8
-894.856523407539 -587.752002416571 2449.03967577228 12 15 8
-883.748688239227 -585.665779430812 2442.5666530032 12 15 8
-868.860346326507 -581.451182061783 2424.82838179024 12 15 8
-859.78696373026 -580.433850694349 2423.9353624546 12 15 8
-852.305313045446 -580.303391183103 2427.73012673356 12 15 8
-844.195575225059 -579.817935163457 2429.64677123493 13 16 9
-832.073217693279 -577.029974639173 2419.32857619796 13 16 9
-833.272283167905 -586.143761905413 2476.87017712609 10 13 6
-818.139874792558 -581.586810147018 2457.11304883004 9 12 5
-815.680958507889 -584.455360905443 2476.98931252413 10 13 6
-792.393020844211 -574.958586613393 2430.70224839799 12 15 8
-801.97080016321 -585.062139678283 2489.39134777341 13 16 9
-795.817332047628 -585.804841575424 2497.97094182088 8 11 4
-795.981709903013 -590.424169440668 2527.42854490439 10 13 6
-787.995398195259 -590.104310555005 2530.35440573307 13 16 9
-782.277035694107 -591.192620843023 2540.88294534055 16 17 12
-775.675740666542 -591.751032794097 2548.57260045632 18 19 14
-766.823061607479 -590.901075546252 2548.65331883006 22 23 17
-754.677689595704 -587.942122260071 2537.28983125748 23 24 18
-755.175552537092 -593.06649446019 2569.78808330138 22 23 15
-744.691114454133 -591.161596911231 2564.14143190353 21 22 14
-725.944368909997 -583.819128109806 2528.84152841917 22 25 18
-723.066482906891 -586.830321572644 2549.92581316375 19 21 16
-719.884857843493 -594.76658018658 2602.74808386086 11 13 10
-971.269080160892 -605.830481085692 2462.57762965302 12 14 11
-954.378611834724 -600.810429156529 2441.36084542735 16 17 12
-931.506744968071 -592.536509721772 2403.36329931358 13 16 9
-932.460612720388 -596.936117265399 2430.41726253768 13 16 9
-921.236323221389 -594.820182406468 2423.9887938086 13 16 9
-898.111065883694 -586.199597678431 2383.976357944 14 17 10
-894.659056486204 -588.244929349368 2398.94252736335 14 17 10
-884.602892098373 -586.676632757083 2395.24823774891 13 16 9
-881.71760101764 -589.078774647694 2412.11494200026 13 16 9
-882.93805959801 -593.821662727553 2441.17925417509 13 16 9
-874.439746483352 -593.151731226489 2442.18444540582 13 16 9
-858.036507503449 -587.978648733355 2419.73536831876 13 16 9
-847.739007822294 -586.231095054883 2415.07573387557 13 16 9
-852.745257098169 -593.300898617941 2456.45520493607 12 15 8
-826.650055597957 -582.379953031802 2403.82917891282 14 17 10
-827.510246779832 -587.106065398245 2433.02590982278 14 17 10
-828.22703630823 -591.826053529025 2462.27495171694 14 17 10
-817.956795911124 -590.077480869437 2457.60548983589 15 18 11
-810.714498512048 -590.124249464347 2462.36672647643 16 19 12
-812.937111630406 -595.908072180977 2497.38822412677 17 20 13
-805.593132411619 -595.949914066749 2502.18677731908 17 20 13
-795.201655866448 -598.716208243467 2526.01950971858 7 10 3
-784.074254398304 -596.428398495048 2518.50224992676 9 12 5
-779.518884136385 -598.254798854223 2532.81927426392 11 12 7
-773.499060694746 -599.184846584757 2542.40273087753 12 13 8
-765.497048282737 -598.862915071197 2545.33445274479 16 17 11
-756.944537925375 -598.183645993306 2546.35978609896 18 19 13
-753.863191226395 -601.072102178407 2566.46095454664 20 21 13
-752.312900715786 -605.026109784481 2592.32502695668 20 21 13
-733.495913243645 -597.571528827435 2557.05910404383 21 24 17
-716.476659138696 -591.1931596464 2527.45838691857 17 19 14
-718.025421326002 -597.27944340129 2564.83526553004 21 23 18
-718.089534949849 -602.468628728595 2597.48622473628 16 18 15
-977.317400594946 -617.796363797096 2479.74304277679 9 11 8
-958.672247674649 -611.784483466619 2453.90560090467 12 13 8
-941.204686522199 -606.329560238032 2430.79794112905 12 15 8
-933.316297564902 -606.022014461953 2433.68729390128 12 15 8
-925.762369622728 -605.897587388945 2437.50811837033 13 16 9
-913.55739272971 -603.204179250946 2428.27961846418 14 17 10
-898.784880381654 -599.046156515715 2411.56129530617 15 18 11
-879.872988750261 -592.50974665882 2382.66042319785 13 16 9
-874.088232253344 -597.394691534246 2416.39264145531 13 16 9
-861.191050659326 -594.160661982038 2404.25651324385 13 16 9
-849.958479841747 -591.843670722379 2396.77966721788 13 16 9
-844.432496368133 -592.817881368408 2406.18036106272 13 16 9
-844.785965882714 -597.260424766875 2433.44923193541 12 15 8
-835.74365209623 -596.221112165228 2432.54658265363 14 17 10
-823.660291403083 -593.35777815772 2422.22015995561 15 18 11
-822.57951697088 -597.060950424361 2445.79919868875 15 18 11
-818.375733620456 -598.936911777008 2459.98473884121 16 19 12
-800.380054769177 -592.43196161571 2430.74859853773 18 21 14
-804.753831963942 -599.585729361403 2472.35153522578 21 24 17
-805.397423847009 -604.547612089127 2502.67573178245 20 23 16
-809.382287540859 -611.684989469596 2544.42121203004 9 12 5
-787.504621893833 -602.640294321003 2501.85436658521 8 11 4
-783.299502343126 -604.683914699637 2517.09429832561 11 14 7
-778.462070856118 -606.361312896568 2530.4582380069 12 13 8
-778.899145058446 -611.48295495134 2561.91197233373 12 13 8
-771.677610836037 -611.70265308712 2567.71917335986 13 14 8
-760.034764188541 -609.022013086831 2558.28546704864 13 14 8
-754.734799794869 -610.509008281998 2570.76527227819 15 16 8
-749.114056830749 -611.812599469933 2582.30891029683 15 16 8
-732.433131303168 -610.79716877697 2586.31296607118 12 14 9
-711.49675554512 -601.616146279751 2542.34759023353 20 22 19
-714.735759120343 -609.0587385696 2586.4744073004 16 18 15
-973.713261786983 -624.637639570591 2470.93686182792 11 13 10
-966.380954611221 -624.699159177659 2475.72943510792 14 15 10
-957.002061117642 -623.641005329032 2474.95049947597 12 15 8
-942.254514959306 -619.601302372889 2459.28098829006 12 15 8
-937.63722947515 -621.153209988116 2471.50785288839 13 16 9
-916.715903765115 -613.58031308369 2438.08199844924 13 16 9
-900.602548091663 -608.619868975241 2417.64517305023 14 17 10
-879.066047031019 -600.502482840076 2381.28399448291 13 16 9
-884.312423090001 -607.634271788343 2421.50498533155 13 16 9
-875.853825644386 -606.955308288908 2422.49617354166 13 16 9
-854.970214685639 -599.035450758709 2386.94968217541 13 16 9
-846.000041370196 -597.989250562279 2386.02134123133 13 16 9
-853.050663178424 -606.402063565019 2432.9565288038 13 16 9
-842.746525576109 -604.610092760773 2428.30265750972 13 16 9
-840.198589780482 -607.450735035616 2447.14681483744 15 18 11
-820.120015162033 -599.733504798211 2412.35909122068 15 18 11
-817.847959564956 -602.757225628678 2432.1557535798 14 17 10
-817.891182168877 -607.256545613011 2459.53306492221 14 17 10
-819.293049145819 -612.674331737675 2491.68046549621 15 18 11
-804.5647512227 -608.108948822166 2472.84370107842 19 22 15
-812.238527894353 -617.580965640443 2525.87240050257 18 21 14
-803.365116208362 -616.707254578592 2525.96269838673 8 11 4
-792.491026234339 -614.542625471309 2519.41066307747 8 11 4
-785.38037145685 -614.776022670553 2525.17628951578 10 13 6
-790.421736153143 -622.930570142797 2571.79444596282 14 15 10
-780.367458987031 -621.31622438877 2568.10294513265 15 16 11
-773.405803958289 -621.727232879495 2574.86809815901 18 19 13
-763.396413839983 -620.113674858136 2571.15997443771 19 20 14
-756.695971205029 -620.707188664486 2578.88300511166 21 22 14
-750.510846614162 -621.666685948901 2588.52429982471 21 22 14
-743.75549413941 -622.257100965847 2596.26751511417 20 23 16
-723.989969776974 -613.854017635636 2557.1510637338 18 20 15
-723.084206339175 -618.481638533884 2585.93005307242 20 22 17
-968.390143534022 -630.481666059188 2457.49695061484 11 13 10
-966.904402936517 -633.76800933885 2478.05491046451 14 15 10
-957.518885675167 -632.698728408518 2477.27922105223 13 16 9
-947.480505982861 -631.251613489084 2474.63588247671 13 16 9
-929.78873864313 -625.458444063304 2450.56865020716 13 16 9
-921.528653343419 -624.959519374291 2452.54093782659 13 16 9
-897.154571089245 -615.209761621134 2408.80096560599 13 16 9
-874.342729554032 -606.224313489842 2368.7021835366 12 15 8
-877.349692759786 -612.146059271176 2402.36173459143 12 15 8
-872.155797719579 -613.348541620142 2412.69110100994 12 15 8
-867.558437776091 -614.925763322842 2424.90881592274 12 15 8
-862.27776374493 -616.123915079038 2435.270293463 12 15 8
-856.329082317139 -616.943700509823 2443.76966474044 12 15 8
-854.392848003153 -620.206796471274 2464.49280561737 13 16 9
-830.151985514521 -609.93110834147 2417.54418892216 15 18 11
-819.94762921375 -608.120288330106 2412.85548553678 15 18 11
-817.064010923439 -610.817260740477 2430.76589280446 14 17 10
-818.008323703849 -615.950316430747 2460.96791089234 15 18 11
-808.069829859875 -614.324343418199 2457.23496462302 16 19 12
-802.897532564738 -615.698997665366 2468.61030366769 19 22 15
-805.005677532934 -621.755501159888 2503.65281769563 18 21 14
-815.654500177065 -633.422555693056 2567.16808792375 13 16 9
-792.289067366706 -623.178162638223 2519.89903348677 8 11 4
-798.302193217116 -632.024144337943 2569.31186581352 10 13 6
-784.552041572401 -627.959760127673 2553.28182598424 12 13 8
-777.910691617591 -628.570338535897 2560.98184421158 14 15 10
-760.970833740769 -622.269760635922 2533.4797767587 18 19 13
-756.025038230949 -624.001179215343 2546.87926754015 19 20 14
-751.295992807454 -625.916448461706 2561.25243498109 19 20 12
-748.396036673026 -629.133914458199 2582.32942934641 18 19 11
-730.691807218798 -622.098600969186 2550.89404451164 20 23 16
-717.675245683829 -618.236344571625 2535.64876921711 17 19 14
-716.822103302813 -622.939463117663 2564.40319723681 19 21 16
-956.18771562373 -632.406096158653 2425.51989448072 11 13 10
-959.911023666656 -638.627645681669 2459.96310612064 12 14 9
-958.712971445296 -642.155307995943 2481.46514061544 11 14 7
-947.990134777378 -640.307774982229 2476.96733636809 11 14 7
-936.306614355211 -637.886243987021 2469.66222495861 12 15 8
-921.365803094366 -633.550313168307 2453.01847456499 13 16 9
-910.80732292749 -631.707787901881 2448.46082989121 13 16 9
-892.134017772969 -625.081234182697 2420.54662809165 14 17 10
-891.432107726366 -628.982706021199 2443.97330345134 13 16 9
-882.268617399994 -627.907915204917 2443.11710473992 12 15 8
-880.77083935304 -631.419979218176 2464.72896349467 12 15 8
-873.799088054749 -631.680495544617 2470.44232920634 12 15 8
-863.051305223111 -629.649163868659 2464.9011548075 14 17 10
-847.376382355475 -624.56634044922 2444.31400971421 13 16 9
-836.145949972649 -622.157990878518 2436.84327984504 13 16 9
-824.360827635542 -619.370195052238 2427.46935271313 14 17 10
-818.402576147112 -620.203988245281 2435.97114424497 15 18 11
-813.31559724803 -621.607302490504 2447.31306716439 15 18 11
-804.308675208178 -620.534594764371 2446.40007844742 15 18 11
-802.413574992288 -624.026753764314 2468.15780113239 15 18 11
-801.295017446863 -628.084655991376 2492.7906134902 21 24 17
-815.155925082446 -642.016532859486 2566.70080967854 21 24 17
-782.689674928402 -630.548818288181 2518.56424626565 9 12 5
-786.319578392955 -638.0054861786 2560.41460591603 12 14 9
-771.25529227495 -632.941525010715 2539.60417037249 13 15 10
-757.152388089326 -628.450812542589 2521.60135346173 17 20 13
-750.036474224676 -628.698280571004 2527.36808336264 18 21 14
-755.707706129436 -637.839928353658 2577.94938635881 16 17 9
-744.124892119374 -635.053964752922 2568.50181476976 15 16 8
-726.997093333821 -628.300210192077 2538.9691137349 19 22 15
-711.897094041959 -622.875715473494 2516.06549018061 18 20 15
-722.887247478766 -636.15205398615 2587.86827757715 20 22 17
-957.363002953457 -645.914159953088 2453.93952686791 15 17 12
-949.060444060618 -645.409541889832 2455.92742200772 11 13 8
-941.148934343904 -649.454730266478 2484.09613881794 12 15 8
-924.846065856809 -644.282811563692 2463.74387233177 13 16 9
-903.413309368523 -636.007883063751 2428.42369683093 13 16 9
-918.059489839875 -649.094513745647 2495.71250304695 13 16 9
-895.794850037936 -640.241958577729 2457.53798752657 13 16 9
-891.408181876051 -642.0636400981 2470.72726155652 12 15 8
-882.826370893147 -641.362962189651 2471.76511056403 12 15 8
-867.938651750652 -636.787699615134 2454.05357153569 12 15 8
-853.477324250755 -632.410135850251 2437.2390022625 13 16 9
-845.648359175582 -632.100237628207 2440.10694160252 13 16 9
-839.360242756312 -632.756927822595 2447.675137613 13 16 9
-833.352390503279 -633.605516615979 2456.19383461368 14 17 10
-824.284202192312 -632.520320470653 2455.30404850499 14 17 10
-807.72626047007 -626.607635492575 2430.83387244768 15 18 11
-804.423357471769 -629.192895663953 2447.83849422517 15 18 11
-800.453332001685 -631.388806999627 2462.98151686135 15 18 11
-816.398592159747 -651.765428936536 2571.91357831992 21 24 17
-781.243563519609 -633.335446607239 2485.81363087877 6 9 2
-785.05157354156 -640.91122501904 2527.59054495438 9 12 5
-780.740532221885 -643.091188657475 2542.8586747346 11 13 8
-775.243766195626 -644.498794986812 2554.34916486205 12 14 9
-761.103721686577 -639.946453861972 2536.36449240615 16 19 12
-749.550155790014 -637.126944362066 2526.90882497073 17 20 13
-741.602803403397 -636.80545181692 2529.82065367716 16 19 10
-746.060584356559 -645.309748403124 2576.6244588851 15 18 9
-735.592901048635 -643.256685552647 2570.98289915686 14 17 10
-729.933793855799 -644.655102545487 2582.53332158214 19 21 16
-970.329777124497 -657.821438292466 2465.39570470619 9 11 10
-955.158166439921 -653.364097034603 2448.84522732753 10 12 7
-951.611540678362 -655.620177210438 2463.82987311398 11 13 8
-956.738850155845 -663.001556329007 2503.00873710881 11 14 7
-940.314705330952 -657.757336375877 2482.70599011541 12 15 8
-916.404817348351 -647.985651955124 2440.9323798656 13 16 9
-929.859759883934 -660.477710378504 2504.43213542609 13 16 9
-919.841245783565 -658.980379357812 2501.78562212527 13 16 9
-895.302667778359 -648.630314798425 2457.08390095302 13 16 9
-886.744547145139 -647.925560388262 2458.11344994538 13 16 9
-874.696374130492 -645.058731518715 2448.84106217267 12 15 8
-859.874164814156 -640.426149769934 2431.11004578753 13 16 9
-842.034131500753 -633.834110213377 2403.95703712377 13 16 9
-840.107280862277 -641.850800763252 2450.98429693951 13 16 9
-833.783214417136 -642.519187385912 2458.56467243028 13 16 9
-827.433922353626 -643.186095653688 2466.15457918503 14 17 10
-830.968125350954 -650.313816957704 2504.86460693682 14 17 10
-813.170943639577 -643.536743815844 2476.64343351883 14 17 10
-806.168422920009 -643.808503965937 2482.36713055233 14 17 10
-807.199202612103 -654.510506985414 2543.04996562792 11 14 7
-788.520767320512 -646.960976026471 2510.94053434619 6 9 2
-781.71288268272 -647.422449561789 2517.64600914656 10 13 6
-781.660644949252 -652.565245079358 2547.14256603284 11 13 8
-775.590609670651 -653.606627873052 2556.73586608419 12 14 9
-758.397608125003 -646.85012986113 2528.29361889593 15 18 11
-749.88799372432 -646.138755231632 2529.3060432585 16 19 12
-737.308193219041 -642.506879515989 2516.0178061641 15 18 9
-731.823420557277 -643.937597963038 2527.50244911089 15 18 9
-733.233750947597 -650.422666655168 2563.83297999518 15 18 11
-727.591603563806 -651.846043622754 2575.37535701496 19 21 16
-959.43685691011 -664.588637907792 2461.37651340775 15 17 12
-954.836932800124 -666.278491074007 2473.58666175475 11 13 8
-952.873865301923 -669.565610176309 2493.2514376187 11 14 7
-936.813356985263 -664.454315443498 2473.87334894824 12 15 8
-918.890581765999 -658.148728871398 2448.86190266597 13 16 9
-919.836345348657 -663.229468768506 2476.93422845819 13 16 9
-931.067867154937 -674.690285311143 2534.92005338579 13 16 9
-902.244035476558 -661.604941615973 2478.11545867442 13 16 9
-882.726301895163 -654.114167716457 2447.37335320949 13 16 9
-873.889490705793 -653.205725385797 2447.45271898315 13 16 9
-863.175353611501 -651.10245984573 2441.9047473493 13 16 9
-848.752327469979 -646.611771705926 2425.0845428637 12 15 8
-839.403242595588 -645.308254686981 2423.24673344653 12 15 8
-839.006301578224 -649.771990340392 2448.65329087713 13 16 9
-832.687035788114 -650.454053076687 2456.23089022503 13 16 9
-830.277297944147 -653.717075593506 2476.05977632591 14 17 10
-827.475452476679 -656.777456450569 2494.97960894592 14 17 10
-825.776987818097 -660.627597521592 2517.7054324669 14 17 10
-800.711973699836 -653.842192161157 2494.25893096111 18 21 14
-794.531226271538 -654.713531897216 2502.83873067699 12 15 8
-797.226133150686 -661.72217816396 2540.79613439209 8 11 4
-791.190162169425 -662.784842115743 2550.37545190759 11 14 7
-789.915681310903 -667.208698000814 2576.10411581547 12 14 9
-770.624348377217 -658.972735636237 2541.0692425923 13 15 10
-754.58617313271 -652.918545424357 2516.4211469552 15 18 11
-747.205892522527 -652.992839915117 2521.23018690016 16 19 12
-727.568379371881 -649.587495284628 2513.68936704903 16 19 10
-719.671999065735 -649.266714440464 2516.58262198542 16 19 12
-718.382020342687 -653.873099824552 2543.36970094475 21 23 18
-957.914304817216 -672.438908176852 2458.13747531637 8 10 5
-953.997825887156 -674.561833867152 2472.19999312971 11 13 8
-934.234308690495 -667.155887052479 2442.6073459809 11 14 7
-935.647935650528 -672.519037469692 2471.55492735048 12 15 8
-929.97258517518 -673.623963047198 2481.00002918613 13 16 9
-930.496504515993 -678.572182711494 2508.16881515404 13 16 9
-930.561551315199 -683.312366195781 2534.45346717357 13 16 9
-904.332715890382 -671.670557014681 2485.13030870061 12 15 8
-882.557321623516 -662.666549196288 2447.85601548576 13 16 9
-871.493574935974 -660.335980960717 2441.38540995519 13 16 9
-866.472792962045 -661.842538620201 2452.69574547049 13 16 9
-855.463337472112 -659.513139336973 2446.20532570964 12 15 8
-847.29733813835 -659.000294094586 2448.14447869228 12 15 8
-840.3673078625 -659.293497237804 2453.84021931716 12 15 8
-836.778065025867 -661.801705337304 2469.88788227043 13 16 9
-827.067054917565 -660.279217984582 2467.13128500131 13 16 9
-827.885506866888 -665.801796602012 2497.34964292889 14 17 10
-829.150367048358 -671.720210690464 2529.50905003759 14 17 10
-814.336264936726 -666.774689785735 2510.73214352214 12 15 8
-795.8411943866 -659.220947710912 2479.62321722178 17 20 13
-796.94083291256 -665.131370029969 2511.84351285975 12 15 8
-809.080107595511 -678.864170537342 2581.06097378641 9 12 5
-796.957367136336 -675.727681465807 2570.76946922205 11 14 7
-786.59900253626 -673.796890088922 2566.14577486661 12 14 9
-767.339995671823 -665.45321116833 2531.10728375466 13 15 10
-741.91854987256 -652.509589102617 2474.1225918981 15 18 11
-743.977917880721 -659.401734030042 2511.253144727 16 19 12
-734.711597326846 -658.080608414205 2509.38659252078 16 19 10
-730.047778549994 -660.160556761258 2523.72363537032 16 19 10
-730.65581676003 -666.235973708781 2557.17665499408 13 16 9
-722.650471409041 -665.91018994754 2560.10987850147 20 22 17
-721.445087922789 -670.776473842414 2587.91316731411 19 21 16
-978.205873504826 -693.429685400678 2514.24576099539 9 11 6
-960.262616660205 -687.153786047373 2490.3063270514 11 13 8
-932.061459139208 -674.515884247284 2437.50846478922 11 14 7
-917.160336362198 -669.896026578762 2420.87197111841 12 15 8
-932.779237199723 -684.157960961214 2489.85178542926 13 16 9
-921.465691585323 -681.792320664268 2483.47458747291 13 16 9
-916.386887328906 -683.323141079755 2494.80417399876 13 16 9
-905.127402201134 -680.958601166755 2488.40725081169 12 15 8
-882.708506041773 -671.427782804304 2449.27340222267 13 16 9
-872.277219110006 -669.479193994981 2444.67754613359 14 17 10
-848.334370941807 -658.734297834825 2399.78916461404 12 15 8
-848.724754036297 -663.74494961598 2427.00175871219 12 15 8
-847.741827501531 -667.932394265523 2450.5089608102 12 15 8
-845.416350625326 -671.297611780169 2470.29926665608 12 15 8
-831.106987047898 -666.695521288813 2453.44642408299 12 15 8
-824.766908567242 -667.403300988256 2461.02964507704 13 16 9
-821.399543031336 -670.14948195177 2478.04554678455 13 16 9
-821.522345190532 -675.338647526664 2506.40845017199 14 17 10
-814.140556331843 -675.427338090631 2511.21720621882 11 14 7
-797.693751564337 -669.201317104321 2486.73029163435 16 19 12
-799.347491944585 -675.602123898934 2520.84537344277 13 16 9
-789.927515711453 -674.263843297203 2519.0356901811 10 13 6
-783.567483149963 -680.532673156425 2557.13924506531 11 13 8
-767.969099052044 -674.722143009547 2534.4460847224 11 13 8
-736.36678764971 -662.507662299326 2486.05171030869 14 17 10
-737.488975854804 -668.883675480084 2520.36179570225 15 18 9
-740.864115848413 -677.077015418439 2563.31594794943 15 18 9
-732.566360239221 -676.547795415469 2565.3042084368 16 19 12
-736.942254090335 -685.739944740996 2613.15242295396 21 23 18
-982.466447173652 -704.959733916957 2526.76057855038 13 15 10
-972.945051828941 -703.809005609826 2526.04040408325 12 14 9
-904.01760902657 -670.306444219585 2385.08406217541 11 14 7
-921.044805087014 -685.596753187073 2457.74133099962 11 14 7
-912.77109358692 -685.077659935688 2459.71983697436 10 13 6
-897.997084549859 -680.404111480224 2443.04120916375 12 15 8
-901.080170589196 -687.152805024494 2477.67726364257 12 15 8
-877.505805236234 -681.546512545532 2461.06658978259 12 15 8
-856.360589308231 -672.526992213193 2424.63131009786 12 15 8
-834.181204816024 -662.686650680294 2384.36723570549 13 16 9
-830.831578138768 -665.281505574196 2400.32155377566 12 15 8
-841.85471222268 -677.602113254024 2460.45133364927 12 15 8
-836.108133857903 -678.737127765753 2469.92004499394 13 16 9
-816.424828663703 -670.357479611699 2436.10524187827 13 16 9
-814.021154106394 -673.767087792129 2455.920864837 13 16 9
-815.981599683612 -680.271352750075 2489.91670304558 13 16 9
-801.280813699425 -675.204933517175 2471.10774649742 15 18 11
-802.171446810599 -681.081255634182 2502.33974402368 16 19 12
-793.648554243726 -680.349785595878 2503.35825476812 14 17 10
-783.415563644059 -678.38119533945 2498.6918593158 11 14 7
-789.142366556241 -687.954297889378 2547.087304852 14 17 10
-784.764458827843 -690.307802695595 2562.3666357514 11 13 8
-780.041318971504 -692.45219032257 2576.72037013032 10 12 7
-756.17434563961 -680.395618752101 2525.50379670774 10 13 6
-746.574277468423 -678.839324210423 2522.7094408729 12 15 8
-741.891581570931 -680.98396622287 2537.04871555417 16 19 10
-736.072527558621 -682.30377962125 2547.59637288971 18 21 12
-732.610081078819 -685.469684823302 2566.74826468568 17 20 13
-717.983585980926 -680.011135083199 2545.80878986666 26 28 23
-711.844119903944 -681.122040825024 2555.42207111704 16 18 15
-983.317514114366 -714.45406574088 2530.00147072699 14 16 11
-973.111167767572 -712.870338854852 2527.42972264124 11 13 8
-923.522045733359 -695.90651444442 2465.66313754369 12 15 8
-916.208965558836 -696.015384803904 2470.4451522422 12 15 8
-889.378601557864 -683.497734319269 2419.27352284114 12 15 8
-888.327650323627 -687.607041357103 2441.74452593199 12 15 8
-889.72909589296 -693.393440409171 2471.73115471033 11 14 7
-861.143847144681 -679.42171791047 2413.84019631933 11 14 7
-854.617669138817 -679.954245328832 2420.43770108679 12 15 8
-851.50651952726 -682.794616155412 2437.35340315136 13 16 9
-844.911580118535 -683.323414116537 2443.97617291227 12 15 8
-832.460164817021 -679.866199689407 2432.76147695889 12 15 8
-830.138032988343 -683.328928919433 2452.543464314 13 16 9
-821.985120138453 -682.80673928345 2454.47856753501 13 16 9
-811.74131580702 -680.818328587627 2449.81734229609 13 16 9
-808.664884749943 -683.854536076586 2467.77220985451 14 17 10
-808.45033323904 -688.978991795996 2495.19601272392 13 16 9
-799.641108128853 -688.033693034864 2495.26813631557 13 16 9
-803.862804657373 -696.493531206947 2537.89459506434 12 15 8
-808.72962786031 -705.570894559138 2583.43973051627 8 11 4
-786.661318842756 -695.011686377161 2539.9898691569 9 12 5
-785.396630149076 -699.696748419723 2565.69501247659 12 14 9
-777.593200692018 -699.578695313422 2569.60575498468 12 14 9
-763.151457001622 -694.456356830147 2550.70689783973 12 15 8
-755.126693174053 -694.131183858294 2553.64713072387 12 15 8
-746.560062360276 -693.388936495428 2554.68260068758 13 16 7
-738.004340720857 -692.646625373431 2555.71385744403 13 16 7
-723.07166162117 -686.910600403715 2533.83975617791 17 20 13
-713.544959558816 -685.338860922955 2531.01990902583 19 21 16
-710.836797490658 -689.172306876017 2553.04729697021 24 26 23
-988.591970923428 -726.747360460443 2545.29049563928 13 15 10
-983.41012056745 -728.350277042932 2556.65182860674 10 12 7
-944.325047627096 -708.382876561723 2474.22918128529 10 13 6
-928.332355149794 -702.947560434771 2454.85090050523 11 14 7
-930.947806281742 -709.463773421343 2487.54129286212 11 14 7
-911.127445223823 -701.472489801541 2456.94690758208 11 14 7
-876.232090915495 -688.279540066005 2407.68973390013 11 14 7
-855.973148961103 -679.668278792629 2374.10155681688 11 14 7
-870.813857190093 -694.476871466011 2443.32312579125 11 14 7
-855.079063652778 -688.847553069972 2422.79896787935 12 15 8
-839.472706066199 -683.222747954364 2402.22780382899 13 16 9
-830.495918943668 -682.06585035202 2401.31021822545 12 15 8
-833.206382161497 -688.981747207211 2436.06929911741 12 15 8
-830.567117754554 -692.280585360748 2454.91206794869 13 16 9
-812.746881443719 -684.963934841327 2426.73998310726 13 16 9
-805.871740366643 -685.290101226126 2432.41329329569 13 16 9
-798.684784210991 -685.403126528866 2437.14916890452 14 17 10
-805.020900266471 -695.263797155624 2485.30153062273 13 16 9
-796.238270560471 -694.311200522423 2485.36454174136 13 16 9
-791.613254763867 -701.928996825865 2528.06895369735 8 11 4
-785.886283078253 -703.298710513688 2538.57938900897 7 10 3
-776.742335339078 -702.129533266861 2537.72346565388 11 13 8
-775.983946277153 -707.299671285075 2565.3414183267 11 13 8
-764.319041286066 -704.227241012367 2555.94528784179 13 16 9
-755.458341351808 -703.267871285154 2556.03717584699 13 16 9
-745.529104509442 -701.464779416415 2552.31448436714 13 16 7
-742.082074758593 -704.72397960097 2571.4537354311 12 15 6
-727.376380545357 -699.126244943374 2550.553284044 20 23 16
-717.805022978457 -697.536218531539 2547.75129599713 16 18 13
-708.26513083754 -695.946901954052 2544.93756751595 24 26 23
-985.356239097147 -733.719933953168 2537.40685390824 11 13 8
-978.168315760066 -734.049955336831 2543.19351877227 11 13 8
-948.516076864942 -719.889467043749 2486.77129119516 10 13 6
-949.448995502528 -725.411774498253 2514.81471275571 10 13 6
-922.199414366226 -712.563024867036 2463.82012833747 9 12 5
-919.799787956436 -715.922294157817 2482.5712680591 9 12 5
-862.145042626565 -702.280163430684 2444.81725029237 11 14 7
-840.554039066158 -692.493377141237 2406.46872096264 12 15 8
-833.731467043343 -692.831811148561 2412.12200522774 12 15 8
-833.644565877818 -697.902405193849 2438.43693564472 12 15 8
