ply
format ascii 1.0
comment KinectMotionCapture
element vertex 750
property float x
property float y
property float z
property uchar red
property uchar green
property uchar blue
end_header
-693.392116722107 404.828170855896 2421.22499339684 216 217 219
-687.566931008177 404.913568465332 2431.95906745146 217 218 220
-676.9236654674 404.834480840681 2444.34285830696 212 213 215
-675.887145039635 405.077777346906 2453.30255845618 213 214 216
-672.921423851574 405.254471412551 2462.91307584518 212 213 215
-674.767082924877 405.593722106676 2470.84657504803 208 209 211
-670.828130426043 405.735068747324 2480.746758134 214 215 217
-672.670382773182 406.072803718368 2488.66613684086 203 204 206
-672.581967408064 406.343781786833 2497.23104581355 193 194 196
-675.389180888134 406.713708971877 2504.82725786604 204 205 207
-675.298172354899 406.983270452839 2513.38048662851 205 206 208
-673.270300206764 407.185030730283 2522.55255716999 209 210 212
-675.108900556207 407.519732278376 2530.45762723492 197 198 200
-678.88439331543 407.921471881067 2537.74551767749 189 191 190
-685.569950172336 408.424590299513 2544.12580574429 183 185 182
-684.504127233398 408.656997072214 2552.96278716197 151 153 150
-684.404928003433 408.922260078153 2561.48353763709 166 168 165
-684.303578637418 409.18658819762 2569.99427683527 168 170 167
-687.114295155533 409.55278329563 2577.60812037981 137 139 136
-691.870769873324 409.987452504068 2584.64192101959 150 152 149
-698.576491863345 410.491270895694 2591.11174296981 132 134 131
-702.368452338987 410.891887270986 2598.47177387719 128 130 127
-707.136929307183 411.327247018238 2605.5580571828 152 154 151
-705.086650045017 411.518964842795 2614.63729573554 159 161 158
-705.957075501782 411.814074952258 2622.85680917391 160 160 158
-705.850722807829 412.073428956053 2631.34842644399 168 168 166
-711.60080354457 412.542706649304 2638.18386510032 163 163 161
-715.401753789253 412.941756207687 2645.58443165096 136 138 135
-716.271731248936 413.234763912152 2653.80320752248 134 136 133
-715.183878260573 413.455891885107 2662.54974569378 137 139 136
-715.071488767156 413.711539049121 2671.01694159554 134 136 133
-718.874773639065 414.108894278518 2678.42987881603 127 132 128
-723.660935649178 414.541966079963 2685.59543828263 126 131 127
-729.431593826417 415.011076679785 2692.52165125552 121 126 120
-729.318595584839 415.264420039505 2700.98751968522 121 126 122
-1213.10616021765 401.469805101019 1901.85252087903 229 233 236
-1181.46819147042 400.959353124535 1926.78023145879 224 225 229
-1149.7861423663 400.440282267816 1951.5187679778 200 204 207
-1111.46477081759 399.72962140544 1979.01033296518 212 216 219
-1059.89166274509 398.640846440222 2012.12354902129 183 187 190
-1026.17312651097 398.040333760469 2037.04995178163 193 197 200
-1010.34454892735 397.934547162404 2053.9405876882 164 168 171
-1000.16073135197 397.984043352218 2068.27334172394 224 228 231
-983.344343276996 397.843119078285 2085.38818929468 144 148 151
-973.124659774788 397.885477106508 2099.56709586256 177 181 184
-976.140269538356 398.30233607953 2108.05293164078 185 189 192
-975.36878475802 398.6108054556 2118.14219873048 178 182 185
-967.01192743674 398.700719184867 2131.38900615763 200 204 207
-942.520139817867 398.323318264377 2151.27413744922 192 193 195
-923.687645866434 398.103846150319 2168.66496064014 176 177 179
-920.021559620694 398.320052669549 2179.72351923665 175 176 178
-908.746825719322 398.313138406356 2193.83865328204 171 172 174
-875.586315494365 397.663470417812 2216.69545873534 165 166 168
-838.574435654803 396.893411616626 2240.87952129484 211 212 214
-794.848055250114 395.917397344146 2267.49269717317 225 226 228
-757.73101306688 395.127040132567 2291.2252928259 233 234 236
-742.489368332984 394.97681608234 2306.17093670111 232 233 235
-735.810685147644 395.077486366085 2317.69251952292 234 235 237
-730.07575907962 395.20426229878 2328.79999211058 235 236 238
-720.510441198023 395.214512506593 2341.32488874249 237 238 240
-723.355363042038 395.595049902539 2349.08102495442 238 239 241
-719.50736882157 395.77365985633 2359.35901905383 239 240 242
-720.436778688934 396.095214348568 2367.82289800703 240 241 243
-720.407849214564 396.3872438311 2376.636467862 232 233 235
-719.418251769227 396.649254965073 2385.79193032604 240 241 243
-712.672003492871 396.734490497736 2397.02486071424 242 243 245
-702.076984616507 396.699685770617 2409.59520836743 231 232 234
-695.306375991312 396.77968930943 2420.72387033605 217 218 220
-689.485679717779 396.886777902182 2431.46496951911 218 219 221
-679.809769414867 396.872780844063 2443.51679378697 225 226 228
-677.814880080961 397.094543595714 2452.82244077548 223 224 226
-672.927484069598 397.225013781865 2463.10603941758 203 204 206
-673.810725574085 397.534103765028 2471.37271881745 192 193 195
-670.837498744187 397.721659425902 2480.94486000675 201 202 204
-673.64480546421 398.08969365976 2488.54259630016 214 215 217
-673.558585964022 398.366159090551 2497.11286761877 224 225 227
-675.401214641099 398.702888993758 2505.03449579985 171 172 174
-676.277534536979 399.008449917613 2513.27383669934 163 164 166
-678.119819240372 399.344223539898 2521.19451158775 212 213 215
-677.059647205749 399.586807536697 2530.05040822904 210 211 213
-678.900307270295 399.921316269577 2537.96466799093 199 201 200
-680.741096835073 400.255384621355 2545.87975742311 193 195 192
-683.551529935953 400.620187181445 2553.49208470307 147 149 146
-682.483149348629 400.859440227423 2562.3137688966 155 157 154
-682.381684776943 401.1289389665 2570.82204565333 184 186 183
-686.16296210853 401.523770948318 2578.13840267507 154 156 153
-693.834156357977 402.04524970814 2584.29477103475 146 148 145
-703.457668868957 402.631058324087 2589.90352782075 147 149 146
-707.25281488786 403.026875214843 2597.28041896391 150 152 149
-711.050278598983 403.422614687154 2604.66865513757 136 138 135
-709.004493555077 403.625697817459 2613.76101309909 133 135 132
-708.903794243653 403.891729454657 2622.27361485816 137 139 138
-710.751666843005 404.221499873317 2630.22244411828 154 156 155
-717.480417961008 404.712993125545 2636.80099489573 160 162 159
-723.238663686111 405.172519768873 2643.67814843588 132 134 131
-724.114874221017 405.469052971091 2651.92123082847 140 142 139
-725.967849280123 405.797595632868 2659.89326658737 127 129 126
-728.79944735223 406.158556450731 2667.60220490118 133 135 130
-731.632525281726 406.519124376103 2675.31680899371 127 129 124
-733.486782660703 406.846327163252 2683.29528346197 126 128 123
-739.263097884334 407.305772962713 2690.25210915476 124 126 121
-1238.82616096022 391.963058505798 1879.52283141254 238 239 243
-1211.00091574498 391.649783054134 1902.90782517117 220 221 223
-1177.49255457027 391.189635234789 1928.67782209573 224 225 227
-1157.11513132589 391.04732539583 1948.32822590928 195 199 202
-1131.0572620093 390.75853494408 1970.37408111953 179 183 186
-1071.97612039059 389.63734543581 2006.87615548621 172 176 179
-1042.99397968953 389.259252055415 2029.75881854255 161 165 168
-1020.57732744209 389.040116396476 2049.58229134555 172 176 179
-1004.73911498389 388.9821818318 2066.4023254501 208 212 215
-985.098037236275 388.823526354684 2084.75069901071 143 147 150
-978.666566065979 388.997678937077 2097.31842026307 162 166 169
-980.7398853234 389.388107785324 2106.22501985383 202 206 209
-983.760408320316 389.802751673609 2114.73380900446 185 189 192
-969.729020681688 389.776180267661 2130.38340727573 169 173 176
-949.988721781847 389.59773482281 2148.30619518673 140 141 143
-934.963393190525 389.53740647519 2164.15326509146 143 144 146
-934.155080664471 389.845571127593 2174.08042718108 147 148 150
-918.145260856529 389.753283374755 2190.16446602847 147 148 150
-888.805394595569 389.304895736386 2211.51212931391 145 146 148
-849.913912773348 388.596723152427 2236.48999702125 207 208 210
-798.597038908912 387.549076970591 2266.15173177953 223 224 226
-756.73467889479 386.742660660355 2291.76628961933 232 233 235
-739.592836265585 386.589676896963 2307.45409024137 229 230 232
-733.869584982298 386.739909090519 2318.59921243858 236 237 239
-730.999067428976 386.96533009054 2328.6016786164 234 235 237
-724.303585452969 387.085697666564 2340.03656459034 235 236 238
-722.37403821539 387.333775101864 2349.6157554089 236 237 239
-716.615813421736 387.47609808913 2360.61141614175 243 244 246
-719.457815786853 387.852427285462 2368.35716257613 246 247 249
-720.386807883668 388.175950284514 2376.81695637002 235 236 238
-718.441012254346 388.419493764745 2386.32612774324 236 237 239
-706.904951645669 388.395934111201 2399.30058270346 236 237 239
-697.270381358381 388.422204950928 2411.50980418329 243 244 246
-690.500249995059 388.525807821952 2422.62668888573 233 234 236
-688.52120217773 388.76165347835 2431.99385960265 226 227 229
-680.771322766846 388.833944980116 2443.368233225 224 225 227
-679.740573230536 389.09368746359 2452.3436902543 216 217 219
-676.781706627167 389.297817396285 2461.96936241537 210 211 213
-673.817034506309 389.500437125148 2471.56925396942 206 207 209
-671.809749509296 389.729019748398 2480.81626731133 197 198 200
-670.76170820282 389.983915778054 2489.71837738202 190 191 193
-671.639393292018 390.293155343018 2497.96157045188 197 198 200
-673.481481941702 390.629560298801 2505.88101008514 235 236 238
-674.357823967353 390.937628739606 2514.11788725097 208 209 211
-679.099308441759 391.357263317235 2521.0944751358 155 156 158
-679.008565797929 391.636255668196 2529.64441504076 188 189 191
-681.819159879673 391.999263788233 2537.25850712602 223 225 224
-681.725549468382 392.276804846359 2545.79666360124 213 215 212
-684.536757760522 392.638948740057 2553.41505697105 208 210 207
-681.531471140506 392.829182135659 2562.84326291965 204 206 203
-681.430748839982 393.103987163124 2571.35168956449 193 195 192
-685.21147824729 393.493286188394 2578.66888642107 189 191 188
-690.937695201588 393.940496316721 2585.41214694803 181 183 180
-695.696874640244 394.359030624422 2592.4673561652 181 183 180
-703.378184263019 394.865253162813 2598.67727188867 167 169 166
-707.173246971146 395.255138696513 2606.05837095774 160 162 159
-708.049040879449 395.556806373783 2614.29659752336 164 166 163
-708.923656906436 395.857778285344 2622.53004289313 147 149 148
-714.673210540744 396.306080259639 2629.37549606584 143 145 144
-721.403798630952 396.784515131912 2635.96873570137 141 143 142
-726.187325060292 397.203808482529 2643.13187172864 143 145 142
-729.997797975909 397.593313236947 2650.58001458623 143 145 142
-732.83289114565 397.952710026233 2658.30527422089 138 139 134
-736.64774641047 398.34190361767 2665.77291124541 125 126 121
-733.612112564773 398.518967596201 2675.0762220955 133 134 128
-715.876599014381 398.238506025144 2688.22294548058 123 124 116
-1218.86948558017 381.675636992031 1888.76760533101 233 234 238
-1204.19772426663 381.731903089745 1906.10303255534 218 219 221
-1173.51878390123 381.434934903975 1930.5748035826 210 211 213
-1171.96552213276 381.769756612134 1941.76001803435 189 190 194
-1148.7523857672 381.626029381635 1962.58577693237 176 180 183
-1108.54742928429 381.099975084755 1990.78250220197 155 159 162
-1040.23615261694 380.290752616739 2041.10793514049 145 149 152
-1010.25750712183 379.967954575587 2064.12439442739 160 164 167
-994.406784154577 379.957361080126 2080.8603691524 147 151 154
-988.930169252233 380.178240773541 2093.05184695188 128 132 135
-991.010913351513 380.569724313625 2101.99054433087 148 152 155
-990.252483984097 380.895959310955 2112.12689192031 173 177 180
-977.17854624375 380.937737947613 2127.39895786345 132 136 139
-967.876101798744 381.063451612113 2141.01322779999 129 130 132
-956.662151264921 381.141938764331 2155.34706440862 136 137 139
-948.278256367022 381.283503733928 2168.44326273963 127 128 130
-929.435769461174 381.177251753443 2185.72345884114 157 158 160
-905.815631582466 380.953653575051 2204.80271247411 149 150 152
-864.097329612991 380.296050569643 2230.96454578571 167 168 170
-807.099872910639 379.265562175379 2262.92488250945 225 226 228
-756.690449331717 378.379729411923 2291.93269937335 234 235 237
-736.697728998898 378.212114678173 2308.73680300347 225 226 228
-731.928829934582 378.406454064113 2319.50608797926 227 228 230
-724.290046033142 378.529604919149 2331.34009850063 233 234 236
-722.366171042864 378.789354556744 2340.93633288434 234 235 237
-721.3926103375 379.071180790795 2350.15080785327 234 235 237
-716.592674957042 379.258337945757 2360.78646691315 238 239 241
-720.391539853438 379.655435371213 2368.17899240072 238 239 241
-719.408119270048 379.934367763828 2377.35172113932 224 225 227
-717.463666675219 380.188499309478 2386.86058314066 236 237 239
-704.974021269607 380.178656267393 2400.18133336277 203 204 206
-697.260262975285 380.285002187647 2411.69484770245 209 210 212
-690.493695567185 380.412854757327 2422.81317436057 240 241 243
-686.596635937443 380.611052755969 2432.86343699919 234 235 237
-679.810020562578 380.734362451892 2443.89609275541 222 223 225
-680.70277212489 381.050955593087 2452.2013522377 215 216 218
-676.785194423701 381.244095401755 2462.16417551499 212 213 215
-673.822599074407 381.460133248245 2471.76641283099 203 204 206
-673.743706205193 381.74900419264 2480.36167298151 191 192 194
-674.625975575548 382.06201718225 2488.6228476256 198 199 201
-675.507388714465 382.374348335581 2496.87956384476 207 208 210
-675.422525147426 382.660867335677 2505.45098341412 212 213 215
-677.266693608873 382.997054031516 2513.37971626756 241 242 244
-682.00978902132 383.408868428935 2520.36800244651 158 159 161
-680.955439366611 383.668138727864 2529.23974150439 155 156 158
-682.799996328754 384.003004280398 2537.17096336868 215 217 216
-681.740319128253 384.26033936305 2546.02036442676 222 224 221
-685.520816517987 384.645606440967 2553.33891034022 202 204 201
-683.487742855283 384.875333668385 2562.47161077032 191 193 190
-685.329653870111 385.207831799886 2570.3925655087 193 195 192
-686.200907937254 385.513701200573 2578.60940201724 196 198 195
-689.984898242823 385.897693129839 2585.94408972756 190 192 189
-692.799468109596 386.255270510866 2593.57998200218 179 181 178
-699.505335044727 386.718489347855 2600.07323558544 178 180 177
-704.271232512172 387.12910462623 2607.16270601566 168 170 167
-706.119832940401 387.459839963933 2615.11417497454 172 174 171
-707.968495484182 387.790123248459 2623.06618353318 184 186 185
-714.691738138462 388.254455588063 2629.63643601312 182 184 183
-723.372415939093 388.773491188418 2635.68620049522 176 178 177
-732.062041860576 389.293514293048 2641.77372831583 152 154 151
-736.85304665926 389.705557047514 2648.97299649279 141 143 140
-740.670225745651 390.090422191841 2656.45450587348 134 135 130
-742.533986479772 390.420196733054 2664.47334496848 132 133 127
-741.461800870592 390.666716355084 2673.27398808459 132 133 125
-1223.90163286808 371.580879265027 1875.86863420413 175 175 177
-1210.19065073101 371.706187791261 1892.84079257607 173 173 175
-1209.61003249836 372.075486976011 1903.7353493422 231 231 233
-1198.68633403079 372.247973228476 1919.29182987765 166 166 166
-1198.09216307645 372.614519910008 1930.12828448988 150 151 155
-1188.08246245406 372.799639276066 1945.14852883842 145 146 150
-1022.59408900215 371.403397893496 2068.84264452327 128 129 133
-1018.08425846417 371.667967032123 2080.71114116822 134 135 139
-1013.56605732394 371.930739142805 2092.54380907854 138 139 143
-1011.8777613472 372.248663060762 2103.14501028457 129 130 134
-998.823991698426 372.336153910866 2118.47797559696 127 128 132
-994.276808941879 372.592819634473 2130.18761182545 130 131 133
-976.449557979866 372.576889553989 2147.33090461082 125 126 128
-956.699314453304 372.516879255081 2165.14021109206 128 129 131
-940.717830184346 372.529698576892 2181.28729207235 144 145 147
-930.412292942601 372.655938031093 2195.03854137096 138 139 141
-885.87404896347 372.066063037869 2222.40455728664 130 131 133
-762.355531177497 370.130398783115 2289.85128035414 225 226 228
-741.422076043443 370.00535106153 2307.0424212648 227 228 230
-734.753650952761 370.178479965317 2318.56550294698 223 224 226
-727.120604741702 370.328860364385 2330.40878150361 232 233 235
-726.154634595183 370.620129546835 2339.65115080655 234 235 237
-722.320771825039 370.848609508469 2349.96317070425 237 238 240
-713.702768939074 370.971751557977 2362.03859035588 239 240 242
-714.631470748792 371.300443775597 2370.4951510229 238 239 241
-714.602771957694 371.607670327287 2379.30079898128 224 225 227
-715.528785281815 371.935115861189 2387.74624589316 217 218 220
-704.959266934767 372.007848645205 2400.36571349277 235 236 238
-696.29095814872 372.11984716431 2412.22601067655 230 231 233
-688.568289465802 372.250393615102 2423.68602675769 205 206 208
-685.632279689819 372.485949341871 2433.39284920968 207 208 210
-678.848615307069 372.633460413274 2444.42427427571 193 194 196
-681.663811703612 372.996034776633 2452.05998833902 187 188 190
-679.672529012753 373.249170364193 2461.36307579361 199 200 202
-677.676469861145 373.500929004535 2470.64592529041 212 213 215
-677.601147847033 373.795637977393 2479.25457335515 212 213 215
-676.560138000515 374.067314037512 2488.17779861655 186 187 189
-677.443805023747 374.382465364591 2496.4427880122 195 196 198
-676.39690195635 374.652195002063 2505.34118917524 184 185 187
-680.173114095552 375.033537971597 2512.64315984264 160 161 163
-683.951714799631 375.414844724717 2519.95676361255 240 241 243
-681.933783114586 375.659661791465 2529.14731295424 228 229 231
-683.779670092968 375.994555243008 2537.08437922573 151 153 152
-682.72227548279 376.260066741921 2545.93902958855 153 155 152
-685.534893019394 376.616929913789 2553.56673884809 221 223 220
-684.472770705826 376.880639024245 2562.40161633673 222 224 221
-686.316015462356 377.213252477419 2570.32838047969 191 193 190
-689.129794508151 377.568857691961 2577.96086149559 188 190 187
-690.973847094063 377.900598671283 2585.89169856003 193 195 192
-693.789423070143 378.255573450754 2593.53355509614 193 195 192
-699.522741431665 378.681625095863 2600.32055323644 183 185 182
-704.288403734389 379.084158271879 2607.41374102429 174 176 173
-708.08456062506 379.462939419405 2614.80510651766 167 169 166
-710.909107654024 379.817530097214 2622.48672058841 166 167 169
-716.658789049154 380.244449120931 2629.34531350197 158 159 161
-724.364034151099 380.720453824343 2635.67847585648 148 150 149
-732.076756933957 381.197262040074 2642.04411657407 143 145 142
-737.843928942986 381.625793346758 2648.97883489976 146 148 145
-744.593341644924 382.079344146033 2655.66966260035 149 150 144
-748.415590670764 382.459157696862 2663.17648423247 151 152 144
-1240.54816827534 362.007871393681 1868.27514171608 162 162 164
-1234.36162110461 362.30017632754 1881.85264562066 121 121 123
-1234.73756512718 362.695440155523 1892.39068830048 148 146 147
-1237.93058833447 363.135567044468 1901.64462432033 193 191 192
-1243.94575514667 363.62157565297 1909.63834410771 132 133 137
-1254.67074481388 364.185168554976 1915.55641690899 144 145 149
-1142.97390373043 363.863905519193 2006.80718622912 124 125 129
-1041.77615052505 363.252408472211 2080.6996519339 106 107 111
-983.902920273839 363.675288674812 2144.39942343721 115 116 118
-973.648598986054 363.84574683799 2158.35035168461 120 121 123
-959.582889408734 363.945479026365 2173.77442010495 127 128 130
-948.344828527245 364.091988650115 2187.96200405881 137 138 140
-765.161849535573 361.789950980382 2288.89640172991 224 225 227
-747.09487315589 361.782306929653 2304.97845287826 223 224 226
-738.528150358113 361.945208160091 2317.25754345029 223 224 226
-729.948280363149 362.105298567776 2329.47926673365 228 229 231
-724.216396710578 362.315920613884 2340.55191681858 231 232 234
-719.429490296726 362.542301741502 2351.22191873904 235 236 238
-712.724106166218 362.730723103224 2362.57314311096 238 239 241
-714.609036853729 363.080015939758 2370.67378917232 236 237 239
-712.668678876218 363.356043270836 2380.18890243721 224 225 227
-713.594690151755 363.685847504696 2388.63186660099 231 232 234
-706.858994314366 363.8672957197 2399.85470794679 224 225 227
-699.154252097448 364.027732589988 2411.37613777871 234 235 237
-689.519862796828 364.148188208894 2423.53076037873 224 225 227
-684.667817377949 364.359612672835 2433.92251940037 219 220 222
-682.687195643341 364.625859893695 2443.26595973579 209 210 212
-684.544640059801 364.967094141025 2451.25022527755 200 201 203
-682.557193636619 365.231249660778 2460.56373596967 182 183 185
-680.564961001216 365.494113321561 2469.85691568729 195 196 198
-679.530389910477 365.775148523011 2478.80300906854 208 209 211
-681.381698446882 366.11355546759 2486.76189932095 190 191 193
-682.26948289708 366.431936540349 2495.04313283697 194 195 197
-683.155943253742 366.749696158069 2503.31998356547 211 212 214
-685.006464665652 367.086636174341 2511.27626809398 187 188 190
-686.857132661451 367.423196620236 2519.23342180631 184 185 187
-683.876880198015 367.658985564521 2528.74514836089 220 221 223
-683.790919360173 367.953789755186 2537.30685964551 211 213 212
-680.800386458175 368.186756639331 2546.77494451874 172 174 171
-684.580173769878 368.561037485154 2554.09790957351 178 180 177
-684.487982223017 368.853274345517 2562.63258837994 210 212 209
-688.270461359641 369.227153683749 2569.96765131713 214 216 213
-692.05574626599 369.600898723918 2577.31407066858 186 188 185
-693.902379447684 369.933028851004 2585.25605043823 182 184 181
-698.662685899256 370.32754749301 2592.33035115273 194 196 193
-699.53960309947 370.637942848425 2600.56839425331 188 190 187
-705.277390280879 371.053574283946 2607.38121341117 178 180 177
-710.047219107865 371.448324986055 2614.49733869823 172 174 171
-714.820836185755 371.843211208026 2621.63007748918 163 165 162
-720.57244837318 372.259848911989 2628.50322572057 159 160 162
-726.329065104994 372.676832816767 2635.39822322881 163 165 164
-733.066380407196 373.115936848111 2642.04423994559 163 165 162
-737.857305819555 373.511924900623 2649.2536875627 155 157 154
-744.605845056891 373.951989615455 2655.94859835031 142 143 137
-752.337924806748 374.414679584989 2662.40784088872 158 159 151
-1285.06752486134 354.294412228131 1891.27696610064 120 120 122
-951.077314217079 355.190248290027 2187.0108237751 241 242 244
-760.357121087584 353.309620194647 2290.93856876273 225 226 228
-749.907792560355 353.476006851284 2304.03257768466 214 215 217
-740.394883803578 353.653906287011 2316.68981326223 219 220 222
-729.914530582594 353.813906581585 2329.65086578966 227 228 230
-719.418319371385 353.970581509859 2342.54399476351 231 232 234
-713.677144546028 354.199973999027 2353.56357602527 233 234 236
-705.061748921368 354.381316392732 2365.61733963861 234 235 237
-708.85326415056 354.760392712102 2372.98807769147 233 234 236
-709.779428095811 355.092942414501 2381.43009981088 224 225 227
-712.617690683694 355.456330364705 2389.16697825422 231 232 234
-708.756693754123 355.709238533089 2399.34506156624 223 224 226
-700.09928944993 355.880977447657 2411.21827281906 239 240 242
-688.552985216455 356.001850421481 2424.06155151191 243 244 246
-681.78496109172 356.199740322206 2435.13226536793 240 241 243
-680.764333658942 356.492649513754 2444.13281863246 199 200 202
-683.581497642851 356.849808462681 2451.78038818725 202 203 205
-683.517405286624 357.157528303004 2460.4297816053 198 199 201
-683.45077567512 357.464358698234 2469.06960397047 194 195 197
-678.570972905478 357.687000041984 2479.33245073803 199 200 202
-679.459608050552 358.008392121023 2487.61566192938 226 227 229
-680.346946293449 358.32922530656 2495.89457335732 198 199 201
-682.197394532158 358.666384054373 2503.85040679187 208 209 211
-685.012833274243 359.020309800767 2511.49118919249 225 226 228
-684.933524655869 359.322340674134 2520.07796348326 190 191 193
-682.920176156057 359.588720333338 2529.27602656235 159 160 162
-680.902014490151 359.853803464742 2538.45364263873 194 196 195
-680.813188468187 360.152710560725 2547.00031507931 222 224 221
-684.593271736764 360.521562838011 2554.32669078643 192 194 191
-686.439070966409 360.854763394591 2562.26436609204 158 160 157
-689.253908708605 361.205416061676 2569.90551167043 156 158 155
-691.100533088774 361.537862847834 2577.84726640698 175 177 174
-694.887852610939 361.906117306587 2585.20588082657 192 194 191
-699.648299323125 362.292573883721 2592.28662786385 191 193 190
-703.441363077502 362.660926633525 2599.67049686269 197 199 196
-708.209024461839 363.047665493666 2606.78178345466 186 188 185
-712.007818852748 363.416085253754 2614.1908655207 182 184 181
-716.782203225013 363.80310480021 2621.33269878416 184 186 183
-723.508628879134 364.227942339213 2627.93912053334 188 189 191
-730.241299074513 364.653369791564 2634.572712355 187 189 188
-736.979979642611 365.079359455177 2641.23354507192 175 177 174
-740.797635257627 365.448645432559 2648.72523105841 163 165 160
-745.594168876955 365.837001096133 2655.96279437223 156 157 151
-769.787081821696 344.692934179089 2278.32282917703 218 219 221
-745.096564817295 344.718538814539 2297.09629620378 218 219 221
-740.350384685501 344.99030103261 2307.91906987081 220 221 223
-732.739856144873 345.223636012311 2319.81278305893 224 225 227
-727.974996905278 345.49132387057 2330.55564223935 223 224 226
-718.435528970567 345.695110620672 2343.08061673094 227 228 230
-711.743210765788 345.933407045747 2354.46008220288 229 230 232
-706.948519675466 346.194551985257 2365.07641983334 231 232 234
-709.786299512007 346.555558318872 2372.81148537513 231 232 234
-710.713853363759 346.890849251738 2381.25910633032 224 225 227
-711.640598628324 347.22558230419 2389.70240590177 228 229 231
-706.82473356359 347.481397952657 2400.22748692742 224 225 227
-697.212587940497 347.669327182836 2412.44152859979 222 223 225
-689.502209996544 347.880738567002 2423.90814263278 223 224 226
-684.656015888348 348.129854464086 2434.30351702457 241 242 244
-686.517112317012 348.471663445173 2442.30353739288 226 227 229
-685.498317229047 348.772150399329 2451.30770803002 216 217 219
-683.515420417502 349.057891621854 2460.62857092225 199 200 202
-682.48893991364 349.356179568874 2469.60016858098 187 188 190
-676.649653856163 349.583561222883 2480.1885980343 181 182 184
-677.537825829023 349.907373550328 2488.46943112199 219 220 222
-676.49884349268 350.202194325162 2497.387977794 220 221 223
-680.275073960115 350.567486658876 2504.69946968595 180 181 183
-682.125135493789 350.903942056096 2512.65401276355 214 215 217
-682.045301720861 351.210915051077 2521.23556612679 211 212 214
-682.928884439809 351.53177908073 2529.49682400419 192 193 195
-682.845220989876 351.837121305632 2538.06137436308 164 166 165
-685.659490251559 352.186258139594 2545.70090645291 183 185 182
-687.507736851289 352.520200802377 2553.64892979606 216 218 215
-688.38810097188 352.838627144713 2561.89743844604 218 220 217
-691.204574870146 353.186786344143 2569.54726044532 186 188 185
-693.053149324359 353.519397358754 2577.49751173585 177 179 176
-695.871681512805 353.867016386734 2585.15672145668 194 196 193
-700.632736822679 354.245466303169 2592.24377317115 196 198 195
-703.45516341511 354.59283427739 2599.92029153736 193 195 192
-711.137968580954 355.018786482264 2606.18400987239 203 205 202
-715.911036367678 355.397957634677 2613.32357126122 200 202 199
-720.687892642793 355.777322199658 2620.47971314984 192 194 193
-725.468523810619 356.15684889644 2627.6523940262 178 179 181
-731.227124751207 356.552771416305 2634.56852271826 171 173 172
-740.890470970413 357.014375334001 2640.42477646907 173 175 172
-749.588111228894 357.460852797646 2646.59196362254 171 173 170
-753.413705679366 357.825596978496 2654.12239043094 153 154 148
-753.335096524654 358.123715466218 2662.71346168776 159 159 151
-750.7371813488 336.07168094964 2286.02698310422 217 221 220
-743.151635875158 336.336475771322 2298.01228240252 220 224 223
-734.603010372542 336.589363006973 2310.3171068254 211 215 216
-728.895817915309 336.867811901395 2321.45866698073 217 221 224
-722.226751852372 337.134620032636 2332.92491151894 219 220 222
-713.641139937333 337.379712208604 2345.07133733601 220 221 223
-708.856166506494 337.661184669548 2355.71745416831 224 225 227
-705.016816910039 337.950673258517 2365.96941267147 231 232 234
-706.898799324703 338.298587634785 2374.05787771232 230 231 233
-708.780999433401 338.646221535414 2382.1474670049 232 233 235
-710.663416998647 338.993517067697 2390.23821355331 223 225 224
-707.763151864203 339.288719172727 2400.06746540222 220 222 221
-696.241618250071 339.488177078042 2412.97476301072 220 222 221
-689.492500981262 339.737027699901 2424.09773150552 197 199 198
-684.648998003641 340.004874772412 2434.49503391131 195 197 196
-686.510777555609 340.346599600589 2442.49811400978 218 219 221
-685.493858834551 340.655121895672 2451.50474046299 224 225 227
-682.552455976238 340.940492142744 2461.15958502908 227 228 230
-681.527001100918 341.24668092912 2470.13105518136 209 210 212
-677.613314816851 341.518057680325 2480.06609627667 186 187 189
-678.503354784756 341.844581554161 2488.35247957127 183 184 186
-675.540960974796 342.124522443204 2497.91801930285 219 220 222
-676.42636131437 342.449374887693 2506.18494080676 194 195 197
-678.274639692037 342.78531893406 2514.13192703331 202 203 205
-678.193902088731 343.097242375918 2522.70549949831 220 221 223
-681.971629341825 343.456038202101 2530.02849453287 202 203 205
-682.854505738969 343.77871791341 2538.28557202553 166 168 167
-686.635595532045 344.137286261854 2545.62351814014 162 164 163
-686.551046463936 344.446698248489 2554.18177225505 175 177 176
-689.36718067779 344.792484546511 2561.83149307257 223 225 224
-690.248058495528 345.113024674119 2570.08102210816 214 216 215
-694.034561905323 345.470708420755 2577.4433440255 173 175 174
-696.85433750336 345.815695240163 2585.10849469264 166 168 167
-701.615757253426 346.186137989353 2592.20186189447 180 182 181
-707.351770105801 346.569759423359 2599.02568957561 181 183 182
-714.064215543523 346.966849243474 2605.58791316345 172 174 173
-720.7831597877 347.364531234292 2612.17733952417 171 173 172
-725.562870485701 347.736348861552 2619.350498504 173 175 174
-730.346359326902 348.108300257863 2626.54022747714 164 166 165
-736.10750751087 348.494019311107 2633.47358213438 166 168 167
-746.746611204181 348.948148110098 2639.07757514901 173 175 172
-755.446452356596 349.376320745839 2645.26522700892 165 167 164
-758.300116801465 349.72253344891 2653.08007681174 154 157 150
-755.296666089786 349.984820798661 2662.47399304573 158 159 151
-758.28499551748 327.731113132003 2283.181729889 218 222 221
-744.057370907374 327.9781022332 2297.80678225542 221 225 224
-734.56290567646 328.25406008907 2310.48652944462 213 217 218
-726.004900587026 328.533740614577 2322.73534948597 219 223 226
-720.289619892297 328.83119724495 2333.82900207495 219 220 222
-713.611982916706 329.119603537043 2345.24477490973 220 221 223
-711.689492437647 329.441089211971 2354.8107991252 224 225 227
-708.808562419059 329.754190129602 2364.71472511787 232 233 235
-709.739088618672 330.095086857479 2373.17214680169 230 231 233
-708.758660515064 330.420645295092 2382.33063821036 230 231 233
-710.64175073968 330.767768084595 2390.42445048449 233 235 234
-707.743752507807 331.076350529783 2400.2558217308 220 222 221
-696.227614154892 331.313523716971 2413.16362465559 216 218 217
-694.269315842715 331.626042902365 2422.57821917087 232 234 233
-692.306499060451 331.937274820559 2431.97257342616 239 241 240
-693.215216607892 332.271604215726 2440.33666992561 178 179 181
-688.366581457382 332.555991704731 2450.70054208259 155 156 158
-685.429322758713 332.855212091015 2460.36550199998 141 142 144
-683.446829263562 333.161300149348 2469.67617479188 181 182 184
-683.381884656997 333.483290267025 2478.31450580428 211 212 214
-682.352846223738 333.795742662196 2487.2665006891 232 233 235
-678.433046265496 334.080770794835 2497.16548571251 218 219 221
-676.431800786685 334.381859104557 2506.3975535789 217 218 220
-676.353484639266 334.699697879354 2514.97831716556 219 220 222
-677.237099195968 335.025860842417 2523.23659867884 215 216 218
-680.049384364053 335.369823394443 2530.87043105481 212 213 215
-684.794267111303 335.732281813579 2537.89562283339 204 206 205
-688.576655320349 336.085637020328 2545.24235671523 189 191 190
-688.494698232885 336.400675693809 2553.80872315415 170 172 171
-691.312444661941 336.743877599892 2561.46706837403 173 175 174
-693.163570338777 337.077104080658 2569.42819982164 194 196 195
-696.952222784165 337.429680240817 2576.80190933077 209 211 210
-697.83534935127 337.752213664509 2585.06126166833 187 189 188
-704.537044258435 338.134874675346 2591.58351237932 166 168 167
-709.303883650336 338.497694158517 2598.70524539622 166 168 167
-716.016685275135 338.881481963204 2605.27686236022 180 182 181
-721.764285930399 339.255440634121 2612.15634947654 178 180 179
-727.516687403366 339.629752002554 2619.05787072222 173 175 174
-732.30117770748 339.993864425436 2626.25662334508 178 180 179
-739.036559315135 340.379770035764 2632.92649507599 182 184 183
-748.701182646358 340.798958562356 2638.81332386467 168 170 167
-757.400741685969 341.208425200585 2645.01073483015 162 164 161
-757.32956457387 341.518806765686 2653.62842961013 158 161 154
-751.399482850789 341.760862197753 2663.80813050393 157 158 152
-756.335141862983 319.303750980327 2284.10374483947 218 222 221
-752.560318475138 319.638131117945 2294.6125527757 219 223 222
-738.323603410461 319.927802061714 2309.17244330516 212 216 217
-726.919411144014 320.225382815399 2322.53801531335 217 221 224
-718.353081051556 320.532013581984 2334.73321294115 221 222 224
-710.72556358188 320.840071547031 2346.50811351731 221 222 224
-710.708756707564 321.18061067082 2355.34765714411 224 225 227
-704.015333745592 321.488989325552 2366.68212075237 232 233 235
-706.852295821827 321.841060571786 2374.41883809852 230 231 233
-707.780943562423 322.183656726274 2382.86698266432 229 230 232
-710.619574166381 322.535380620202 2390.61125680453 222 224 223
-707.72362900269 322.857348151439 2400.44488879015 229 231 230
-699.08241631787 323.147392365013 2412.31986631712 222 224 223
-694.256540345923 323.455420557239 2422.77012381491 222 224 223
-691.337705644999 323.772034826875 2432.50603994853 225 227 226
-690.329836169873 324.098017707523 2441.54335924825 235 236 238
-685.482270345496 324.400958293788 2451.90103114529 229 230 232
-683.505275931551 324.718788196258 2461.22902988246 139 140 142
-682.483732130501 325.041100810615 2470.20825096833 134 135 137
-684.341409394848 325.380003476469 2478.19491393188 132 133 135
-682.35316999146 325.694612837303 2487.47525499558 195 196 198
-681.322241018153 326.014027059294 2496.41482435446 222 223 225
-678.362115700629 326.320046983406 2505.97502153168 226 227 229
-678.286367592987 326.643421520764 2514.56384542382 220 221 223
-678.208065740128 326.965990534068 2523.14297623931 223 224 226
-681.021350041565 327.307291424625 2530.78277687381 221 222 224
-685.766587121304 327.661740925706 2537.81424062916 205 207 206
-689.54987703689 328.009598934474 2545.16709481036 200 202 201
-693.335783659885 328.357620939825 2552.53138325192 187 189 188
-697.124048287166 328.705543583622 2559.90720726835 164 166 165
-698.979597293313 329.039420550697 2567.88744785412 170 172 171
-699.866965933605 329.365597412173 2576.16226384422 196 198 197
-700.753214444533 329.691204214615 2584.43247919022 204 206 205
-707.455640964111 330.060583247511 2590.96685224251 171 173 172
-714.164597206967 330.430704435309 2597.52847608919 161 163 162
-717.967096268825 330.778489383983 2604.96710619887 169 171 170
-719.829402904257 331.110817853806 2612.97803556134 177 179 178
-724.608002762117 331.466273552578 2620.1559230926 180 182 181
-733.281084302671 331.853827330986 2626.24954739758 184 186 185
-743.9096089212 332.258598605249 2631.83595340841 176 178 177
-750.653692100122 332.632172078413 2638.55033621665 160 162 159
-755.454598907368 332.989682222944 2645.82639904912 164 166 163
-754.408683029964 333.29691318569 2654.70600687367 166 169 162
-744.576689086247 333.52619147167 2665.9269502385 154 155 149
-747.763984936353 311.227503246934 2296.65180203924 216 220 219
-741.131241199386 311.572065724738 2308.23128465807 211 215 216
-731.635306190094 311.910377249951 2320.86896717707 216 220 223
-724.027483678056 312.248545187402 2332.71294536144 215 216 218
-714.503590215466 312.581059322668 2345.23083669073 212 213 215
-709.727942104594 312.918961436267 2355.88485616735 213 214 216
-703.037455707852 313.25130756124 2367.21816308769 222 223 225
-703.966466464574 313.596614908421 2375.66522626573 223 224 226
-705.848804518798 313.943404929817 2383.75591976784 222 223 225
-706.77641082432 314.287774785367 2392.19734552811 228 230 229
-705.791632121321 314.627129301231 2401.32855129102 231 233 232
-703.847165170127 314.963118331076 2410.78920413111 216 218 217
-699.027304084899 315.290440565452 2421.25461855368 203 205 204
-695.156417246803 315.618491457999 2431.3449247444 209 211 210
-691.278287906133 315.944796098092 2441.40434339202 214 215 217
-687.392933265289 316.269444242806 2451.43289750803 214 215 217
-686.378417479744 316.60113129009 2460.43757433699 219 220 222
-685.36037605048 316.931860531617 2469.42727850206 234 235 237
-686.260073624517 317.267780437612 2477.75069232446 218 219 221
-681.391386252338 317.583521214762 2488.00776187988 160 161 163
-682.285010938422 317.917621065448 2496.3065719729 139 140 142
-681.253015209559 318.244126947 2505.23618310015 153 154 156
-682.143230156477 318.57679733006 2513.5208086875 172 173 175
-682.068967020821 318.905143990587 2522.11325177981 213 214 216
-681.027904386802 319.228790542348 2531.00567708322 217 218 220
-685.772882242206 319.575038070432 2538.04082267972 208 210 209
-686.659329880593 319.905291424177 2546.31026895669 198 200 199
-693.341954474504 320.259917614099 2552.76497406555 194 196 195
-698.097226972376 320.606704525662 2559.84516652983 193 195 194
-700.921434478305 320.945009027536 2567.53486346362 178 180 179
-701.81107408657 321.274066873484 2575.81799214374 168 170 169
-702.699345919998 321.602524623899 2584.09653298845 173 175 174
-707.463728559297 321.949182932377 2591.21694561557 186 188 187
-714.171790765916 322.305727695051 2597.78261503427 183 185 184
-718.945027440438 322.65302296084 2604.94166899536 172 174 173
-721.77971918598 322.990482323913 2612.67806260178 178 180 179
-725.587631759395 323.332828444804 2620.14266028718 186 188 187
-736.204397229121 323.712059048081 2625.69335732442 175 177 176
-748.77868512719 324.103647822235 2630.74777056681 163 165 164
-752.603905159452 324.447703063476 2638.28871603184 175 177 174
-752.535026600488 324.769317083483 2646.90884658519 185 187 184
-750.513923784885 325.078667876852 2656.04746547139 175 178 171
-750.540502520293 302.465145212002 2286.69985951189 219 223 222
-741.072031255165 302.840495060764 2299.43677835077 217 221 220
-738.237454362447 303.202468269007 2309.51621779013 212 216 217
-733.496137917835 303.56581314023 2320.30655773455 217 221 224
-728.746400213711 303.927323283097 2331.06086789349 214 218 221
-718.278570062625 304.293766660342 2343.95568119028 212 213 215
-707.794902611694 304.657003958322 2356.78259194646 212 213 215
-702.059502285203 305.012484633482 2367.7545444288 221 222 224
-702.035481020566 305.360988578435 2376.55652624433 223 224 226
-704.871250239338 305.706675944804 2384.29282837468 224 225 227
-702.935100473924 306.055242067755 2393.78273408341 218 220 219
-703.860208143881 306.40114607412 2402.21224708092 232 234 233
-701.916223262371 306.74755797065 2411.66998021809 217 219 218
-696.141545873944 307.093705844841 2422.47325821404 194 196 195
-689.399854291613 307.437806519645 2433.57401199441 207 209 208
-691.267414662394 307.779520273102 2441.60257221911 208 209 211
-692.176844069055 308.120770532784 2449.96573495323 216 217 219
-689.248906265152 308.460568475147 2459.64790170045 205 206 208
-684.39580319113 308.798273267842 2469.96072612001 194 195 197
-682.415046295394 309.135381315651 2479.26080642299 189 190 192
-681.390328113861 309.471780525027 2488.21775408761 202 203 205
-681.323511714207 309.80776468249 2496.83960606593 189 190 192
-684.141014428975 310.145299911671 2504.49912388419 134 135 137
-684.071418455661 310.479992681762 2513.10948701422 150 151 153
-683.99973009825 310.813876272058 2521.71001941906 199 200 202
-682.961560004656 311.145833818711 2530.61030266342 216 217 219
-684.813657401398 311.480385647872 2538.57493654117 215 217 216
-686.66589103684 311.814498263139 2546.54042909625 204 206 205
-693.347377437019 312.155547521393 2552.99919058729 196 198 197
-697.135996559021 312.492613688779 2560.38187572563 198 200 199
-698.992938646906 312.826298072511 2568.36836830198 191 193 192
-700.849993745082 313.159625996181 2576.35556852484 174 176 175
-703.675419072761 313.49441001749 2584.05270251336 173 175 174
-708.440162664275 313.833031628768 2591.17943262636 182 184 183
-713.208718210074 314.171821791487 2598.32286126588 184 186 185
-717.981082815899 314.510895707456 2605.4829079202 185 187 186
-721.786284981524 314.847896745473 2612.93979220378 189 191 190
-730.451510902357 315.197080870051 2619.02028149692 192 194 193
-739.125250893027 315.547347662535 2625.13873829917 166 168 167
-748.780333020454 315.901404266147 2631.02291793701 164 166 165
-750.659197748838 316.234547124537 2639.10633278341 186 188 185
-750.590439956099 316.561388704395 2647.72392082223 189 191 188
-750.51900676949 316.887316911405 2656.3313431636 178 181 174
-733.422105403545 294.1266667635 2293.63511083963 215 219 218
-733.435137714854 294.489093602041 2302.59326944089 210 214 213
-733.446186170015 294.850903614223 2311.54196241751 212 216 217
-732.504807612042 295.216085732132 2320.84922322836 210 214 217
-726.806529375541 295.60012475613 2331.96795990133 207 211 214
-717.293728196253 295.997518821349 2344.49548354393 215 216 218
-709.670002119931 296.384448836764 2356.2407012156 208 209 211
-702.986602965337 296.765229463098 2367.57675100907 221 222 224
-701.058129281288 297.126030223619 2377.09328593284 219 220 222
-701.03232639073 297.478924399929 2385.88592109975 233 234 236
-700.049953545591 297.83434449737 2395.01827920569 229 231 230
-702.88426421142 298.176150637033 2402.74935051311 233 235 234
-700.941612137958 298.533119901819 2412.20674726987 236 238 237
-696.125725343826 298.897721662991 2422.6677481046 203 205 204
-690.344595711742 299.263231363834 2433.43120580998 199 201 200
-690.298419671216 299.610282530851 2442.13750182805 213 214 216
-693.124260780678 299.948754295131 2449.83429898026 214 215 217
-692.116969836587 300.29715523266 2458.85989564096 216 217 219
-688.227906163016 300.651648692369 2468.854551586 222 223 225
-686.251588509107 300.99985219109 2478.16766775976 220 221 223
-684.270264307606 301.346825302228 2487.46053228976 220 221 223
-683.245508664742 301.690507320485 2496.41303136788 213 214 216
-684.140901842426 302.029326286952 2504.71577241164 206 207 209
-685.997582302982 302.365713302316 2512.69952250785 196 197 199
-686.89143578513 302.70345564759 2520.99611200097 139 140 142
-683.929356406054 303.046914172771 2530.52567829668 163 164 166
-683.854329628091 303.384442661271 2539.10935589044 218 220 219
-684.741569007459 303.719750540284 2547.37931812683 215 217 216
-688.524537121802 304.050718001326 2554.74068873522 209 211 210
-691.343803934736 304.382902205482 2562.41221389334 205 207 206
-694.164653960415 304.714856048826 2570.08976467749 205 207 206
-697.953942698914 305.045687391101 2577.48015406233 179 181 180
-701.746051515278 305.376589394199 2584.88184236119 185 187 186
-708.44640948297 305.705432206663 2591.43094226518 171 173 172
-711.276356173139 306.037255112507 2599.14865519806 185 187 186
-717.986811423412 306.366950232064 2605.74174823721 189 191 190
-727.615259663376 306.696248226278 2611.52203944366 174 176 175
-739.195782606648 307.02639964251 2616.79098058431 164 166 165
-744.958376704271 307.359145706489 2623.76186375097 173 175 174
-748.78120923949 307.692431965147 2631.29862249475 180 182 181
-747.74210208275 308.025342443944 2640.1931296058 186 188 185
-748.646125634579 308.357483187926 2648.53891536463 184 186 183
-748.575042328881 308.688665781467 2657.14370261338 170 173 166
-732.44209346152 286.125358489577 2303.13662117031 220 224 223
-731.504534458306 286.49912787882 2312.45566238364 214 218 219
-728.664216320039 286.885532378845 2322.49543290517 212 216 219
-724.867452251646 287.277216166283 2332.87493985926 208 212 215
-716.308820933931 287.700102623369 2345.03568491601 211 212 214
-709.639866297425 288.107335814745 2356.41982702889 206 207 209
-699.151244879442 288.537545973886 2369.18551650735 216 217 219
-701.033469492817 288.883766755651 2377.27604493199 222 223 225
-699.102216726375 289.254065531619 2386.77474719789 224 225 227
-699.074215878777 289.611207113143 2395.55519871694 233 235 234
-699.044197007716 289.96761024686 2404.32610558427 236 238 237
-695.190564171994 290.346290568572 2414.4626642561 236 238 237
-692.285569816635 290.717715723398 2424.22733093974 215 217 216
-687.461666518816 291.098718259065 2434.64336004872 213 215 214
-690.286415535985 291.434426461125 2442.33697025123 223 224 226
-690.239508965355 291.785995280766 2451.0363035872 223 224 226
-687.314895530318 292.152373336053 2460.71748586126 217 218 220
-686.302383314081 292.507114173766 2469.71743208229 214 215 217
-683.367222305608 292.870784592159 2479.35264181451 214 215 217
-682.346408459876 293.223306462309 2488.31731140567 214 215 217
-679.40023851685 293.58427289955 2497.90668624461 215 216 218
-682.21721883629 293.915932484776 2505.56735795049 208 209 211
-684.073349280494 294.252021748257 2513.54885948625 205 206 208
-684.96673935294 294.592126449232 2521.84310387981 169 170 172
-683.932721003134 294.940178800453 2530.75112924612 163 164 166
-684.822691347454 295.278881229343 2539.0311291214 217 219 218
-686.676311563652 295.612857986765 2547.00281165591 219 221 220
-690.460571236755 295.938582192553 2554.37295752652 213 215 214
-693.281443526423 296.268180837561 2562.05307807994 201 203 202
-696.103681825211 296.597553284043 2569.73935109778 211 213 212
-698.927497073251 296.926809987917 2577.43155472641 215 217 216
-703.687899916621 297.248799458243 2584.54893948869 201 203 202
-710.388590011777 297.56422038464 2591.10739725235 194 196 195
-715.157870949983 297.886966682914 2598.2634588651 196 198 197
-723.809090797361 298.197175405264 2604.30623981249 181 183 182
-733.439398821926 298.505448313931 2610.10709256819 171 173 172
-742.108765526962 298.818019358141 2616.22844956676 166 168 167
-742.044171694153 299.157396780375 2624.85809964536 179 181 180
-743.921308836681 299.490442874513 2632.93395866847 183 185 184
-742.880537324568 299.830887882507 2641.81778651909 189 191 188
-746.70254691915 300.157655062844 2649.3536668115 191 193 190
-747.605401479984 300.491663116358 2657.69211662261 179 182 175
-738.086167411076 277.692470584972 2301.07059167284 223 227 226
-732.410086494989 278.122804722696 2312.25882682149 202 206 207
-730.521981016969 278.513102145054 2321.93589830505 193 197 200
-727.678980629402 278.911695465272 2331.95776663813 186 190 193
-718.175800818503 279.373669683079 2344.48970362679 203 204 206
-709.609006563684 279.823646950032 2356.59963056884 207 208 210
-698.17341941336 280.297906362437 2369.72294204537 201 202 204
-701.008085318138 280.634811659577 2377.45954766601 210 211 213
-696.21940973967 281.042193159392 2388.01529512196 224 225 227
-699.052312495338 281.37811489908 2395.74362337936 225 227 226
-698.069077751698 281.748311407241 2404.86349246258 229 231 230
-696.127221250699 282.126042562105 2414.31218350348 228 230 229
-692.269825115563 282.519273125063 2424.42251452639 225 227 226
-690.317261114484 282.894310726583 2433.82560642378 210 212 211
