ply
format ascii 1.0
comment KinectMotionCapture
element vertex 787
property float x
property float y
property float z
property uchar red
property uchar green
property uchar blue
end_header
-984.495748463268 -596.277497974212 2673.09966930922 12 14 9
-980.55339544053 -594.675789356073 2681.13523515019 13 15 10
-986.973044231401 -595.313705297399 2686.40540196845 13 15 10
-990.283069521631 -595.280907333483 2692.50300462929 12 14 9
-998.79625464919 -596.368028027745 2697.25888222126 11 13 8
-953.146742284772 -585.817111474767 2715.87662245398 11 13 8
-960.57640793713 -586.682549152799 2720.82117439584 13 15 10
-959.661492289879 -585.758501071428 2727.87606013559 14 16 11
-960.82813091326 -585.283032273057 2734.39480753846 16 18 13
-946.284831533963 -581.451812362516 2744.75326857622 19 21 16
-968.389151090616 -585.453993625147 2746.13469030358 18 20 15
-988.441498165667 -589.009134181451 2748.10619398516 15 17 12
-978.059549910184 -586.07636228378 2757.3882541302 15 17 12
-882.416506351127 -605.212089591108 2476.32561999123 11 13 10
-861.832435420927 -599.713361238808 2490.88056449968 16 18 13
-795.324184686073 -583.770364393798 2521.40071089337 17 19 14
-803.507880339036 -584.859309125055 2525.54954453581 15 17 12
-823.699370500238 -588.672491051718 2525.58455988738 16 18 13
-859.948862611833 -596.117627229363 2520.2216509317 15 17 12
-860.205437593741 -595.389810977375 2527.25731101499 14 16 11
-814.29510816823 -584.221475278508 2549.81113503934 15 17 12
-826.534034208432 -586.218876836127 2552.68538255585 15 17 12
-855.898866858341 -592.074237810065 2549.94301316165 14 16 11
-846.044899984312 -589.078926272023 2560.21493426679 13 15 10
-836.157461456756 -586.084367847646 2570.42506842507 14 17 10
-832.296141500936 -584.452090858126 2578.61886139929 14 17 10
-840.551063513072 -585.542700579235 2582.89869684033 13 16 9
-801.231915693421 -575.971534681169 2602.2899983404 13 16 9
-841.893606930329 -584.322145408575 2596.30942640002 12 15 8
-828.851804565329 -580.650610650661 2607.26659401471 12 15 8
-827.965279350519 -579.701643605707 2614.38118859419 13 16 9
-829.10377005161 -579.206833464568 2620.85398319176 13 16 9
-839.407871249469 -580.753526290741 2624.53537581317 14 17 10
-833.40636751816 -578.672395104293 2633.15806369862 15 18 11
-820.231156642297 -575.004930703945 2643.86864471098 15 18 11
-878.612414761216 -587.208972333693 2633.36466708971 15 17 12
-856.228303087041 -581.502115862701 2646.78639653446 16 18 13
-881.973897158836 -586.450977934563 2646.11989285428 16 18 13
-963.217942754381 -603.640250643222 2629.63697226966 11 13 8
-989.14745901502 -608.588163425498 2629.3090204781 9 11 6
-943.084651190005 -597.671178483409 2649.39202313461 7 9 4
-966.976821252114 -602.16700346034 2649.68307571069 7 9 4
-950.678405530168 -597.824850674541 2661.19730920737 7 9 4
-977.723677037477 -603.001330515548 2660.73790034544 9 11 6
-989.312197518677 -604.779100339945 2664.59678075549 10 12 7
-1006.10035337704 -607.690303010105 2667.10338996904 11 13 8
-970.033954738083 -599.047313164688 2683.73826619699 11 13 8
-961.904585064704 -596.52299944768 2692.8102938992 14 16 11
-976.618538480984 -598.983557705414 2695.86768807415 16 18 13
-965.338871846332 -595.781569250929 2705.69443898395 16 18 13
-972.782975054783 -596.658061854536 2710.66221977119 16 18 13
-947.889730841236 -590.513803851015 2723.83033182216 16 18 13
-954.270740262122 -591.165829395517 2729.02519074135 15 17 12
-933.461891577166 -585.930212716932 2740.97230119277 16 18 13
-988.005033180391 -597.00183472341 2734.32487557818 16 18 13
-997.582860446339 -598.335708127198 2738.84931672512 14 16 11
-1007.17687361469 -599.670570562226 2743.40322927305 12 14 9
-1025.19691969869 -602.817820653212 2745.98972529934 12 14 9
-867.685499970577 -607.660769272306 2488.68045731922 14 16 11
-822.104215256272 -596.35603848542 2511.88047142112 18 20 15
-818.339545456064 -594.701693191102 2520.2586580497 17 19 14
-837.555280944277 -598.33114371559 2520.66913400154 15 17 12
-856.812360213899 -601.960279182929 2521.15574344487 14 16 11
-852.050276476514 -600.076993556366 2529.88365486979 15 17 12
-869.351323583271 -603.246514084941 2531.14108357717 15 17 12
-851.510463660859 -598.378751306624 2544.20614182933 15 17 12
-850.723938334899 -597.4154757734 2551.50895729132 14 16 11
-847.91173180551 -595.993532861951 2559.45420978968 14 16 11
-850.129033758206 -595.719898573249 2565.72931902722 13 16 9
-844.261741031181 -593.610342938489 2574.60739323891 13 16 9
-851.521412089323 -594.485486445945 2579.23637539888 13 16 9
-848.663170896012 -593.065568933773 2587.09635268189 13 16 9
-829.563744377486 -587.974248665086 2600.02870542806 12 15 8
-823.607846177392 -585.867343541624 2608.74302096526 12 15 8
-833.896271204336 -587.432895061887 2612.38991104225 12 15 8
-849.293075236302 -590.146111455362 2614.51190870997 12 15 8
-855.547339881953 -590.79426921149 2619.47482401991 12 15 8
-866.912327165789 -592.590036275487 2622.91767824266 13 16 9
-813.920183168216 -579.933013839648 2645.5842389107 14 17 10
-857.081180934055 -588.115623108557 2646.36617221523 15 17 12
-933.294462409724 -603.637851981205 2638.05147813412 11 13 8
-968.448094247185 -610.710331135959 2635.01525118267 8 10 5
-978.971266267552 -612.278700705149 2639.09303630581 7 9 4
-960.647429456632 -607.427147928029 2651.26493736691 8 10 5
-981.493300914043 -611.290030741599 2652.48853304249 8 10 5
-967.244608144806 -607.357510886113 2663.41929236011 9 11 6
-974.682877229493 -608.24086816044 2668.37427877846 10 12 7
-976.951596146835 -607.978793864057 2674.7404768473 10 12 7
-969.881669666187 -605.654173433527 2683.58616230804 10 12 7
-961.747766435217 -603.101551137666 2692.65836496264 11 13 8
-958.78554635404 -601.696107673174 2700.32275347173 15 17 12
-964.13816020052 -602.125234328762 2705.80853952104 16 18 13
-971.581890811063 -603.013754027842 2710.77151398582 14 16 11
-988.430895940563 -605.965830530876 2713.37774446652 13 15 10
-954.102389258195 -597.68873870301 2728.86878451302 9 11 6
-979.327659321308 -602.475953754458 2729.40922440855 10 12 7
-987.844498368991 -603.597270938558 2734.16103437068 12 14 9
-1043.58044914731 -615.031087358806 2727.48368331632 12 14 9
-1032.22639274878 -611.800117301402 2737.18283752352 12 14 9
-1010.32093247858 -606.279275914858 2749.31365188512 14 16 13
-862.581931062237 -613.079449978945 2490.35435610567 16 18 13
-842.916361509749 -607.687342673661 2504.45122524932 17 19 14
-843.171179001345 -606.944243382772 2511.48824892206 15 17 12
-849.420000245106 -607.595893102343 2516.44010271653 15 17 12
-842.656216178586 -605.226855930723 2525.86219691528 12 14 9
-822.829532028725 -599.838026223192 2539.661761315 15 17 12
-833.06791506468 -601.420009410457 2543.21167370136 14 16 11
-838.297421621729 -601.84070279157 2548.47307483521 14 16 11
-835.478159264992 -600.403126313268 2556.41005172702 13 15 10
-848.771861541133 -602.682587257702 2559.02460438258 12 14 9
-840.896058580447 -600.084702180032 2568.58511194149 12 15 8
-844.108488092156 -600.042134984911 2574.50615599836 12 15 8
-853.392151495602 -601.393192217767 2578.48491290527 12 15 8
-857.62596234097 -601.583711601025 2584.09906571067 12 15 8
-837.514944725169 -596.201872155496 2597.37358693891 12 15 8
-838.675646755054 -595.696929712147 2603.89027921562 12 15 8
-857.12145574041 -599.139134229318 2605.05582819223 11 14 7
-880.697831204284 -603.742183971411 2604.73383219835 11 14 7
-906.365324805864 -608.809148911434 2603.88817148243 11 14 7
-876.959695811451 -601.342257985556 2619.72993452302 12 15 8
-833.160550964878 -590.627379750544 2639.6853452316 12 15 8
-910.017159670266 -607.300009630461 2623.74819569387 13 16 9
-893.957398587268 -602.120230873507 2642.29815261251 16 18 13
-936.22727347066 -610.901418768372 2637.03104042285 10 12 7
-978.595431286708 -619.682235890863 2631.94530419724 7 9 4
-992.223094999305 -621.966524223726 2635.17262108614 7 9 4
-982.157891261736 -618.915348489398 2645.07283866072 9 11 6
-979.287285296573 -617.489078462967 2652.91198521131 8 10 5
-965.029373919106 -613.512233698426 2663.83911927019 7 9 4
-952.798271615201 -610.000483547108 2674.12395784533 7 9 4
-952.965768203565 -609.273196245625 2680.99562746558 9 11 6
-965.578465751148 -611.329875943628 2684.53998693601 10 12 7
-962.630043938423 -609.908578238268 2692.23401643786 13 15 10
-970.069353193289 -610.807286182044 2697.18629964639 13 15 10
-971.269819895788 -610.315283349113 2703.77223518577 13 15 10
-980.808996523244 -611.679515876239 2708.216461133 13 15 10
-971.568605261829 -608.870712275567 2717.44597339139 13 15 10
-994.707862246665 -613.250940479074 2718.50184333561 15 17 12
-1017.89693055329 -617.631934567192 2719.64909505876 16 18 13
-1053.71243249576 -624.795623859958 2717.80273900189 17 19 14
-1015.10391478284 -615.499419820306 2734.18822903918 18 20 15
-1011.0642281546 -613.855203722337 2742.05756354673 16 18 13
-976.500346439596 -605.489622743653 2757.14231658825 15 17 14
-898.341546448498 -628.10686356153 2477.58021991291 19 21 16
-860.748625327078 -618.421726057829 2498.0658412247 17 19 14
-840.038767415339 -612.734612232977 2512.44558782325 14 16 11
-841.280443087457 -612.219724073901 2519.11419626989 16 18 13
-837.507597517245 -610.530022931168 2527.48797842223 12 14 9
-810.643139640692 -603.435477578073 2543.66134310477 15 17 12
-807.809016805309 -601.982242293621 2551.57569780423 14 16 11
-880.393205913256 -618.153349014375 2534.27651096772 14 16 11
-859.497876124029 -612.470511898727 2548.31385489213 12 14 9
-836.523853993456 -606.318884524235 2562.89918287649 11 13 8
-833.675920300251 -604.867290916862 2570.78764320482 12 15 8
-824.747140321919 -602.006706113041 2580.60533285385 12 15 8
-861.337969392368 -609.717517445583 2575.79031059808 12 15 8
-851.391857731745 -606.622793332497 2585.92265612384 12 15 8
-826.190038153595 -600.006160262917 2600.78059861119 12 15 8
-847.657308738488 -604.194048454324 2600.93402094374 12 15 8
-877.310287889033 -610.260410975979 2598.65815281993 10 13 6
-880.544638523168 -610.221246241302 2604.61849062299 10 13 6
-896.018799030458 -613.00010675208 2606.86352460752 11 14 7
-891.09898044663 -611.083510243742 2615.31084595511 12 15 8
-824.80467202025 -595.081188666017 2642.0127128465 13 16 9
-927.474156348326 -617.075792570249 2625.42059997194 15 17 12
-958.688991854697 -622.637280960419 2630.39919948032 11 13 8
-1009.33027063868 -633.398491634604 2623.01378661489 8 10 5
-1002.39305844628 -631.016511127332 2632.12080722634 8 10 5
-978.924569259561 -624.880639692588 2645.79198205369 11 13 8
-971.915700635278 -622.500930600817 2654.76653036776 10 12 7
-978.325862594986 -623.17258096846 2660.00910451654 8 10 5
-976.460191455862 -621.967984328159 2667.51504812478 8 10 5
-939.331604525299 -612.786992124627 2684.47295457971 8 10 5
-971.653604135459 -619.326992081404 2682.73336571816 9 11 6
-985.339748172289 -621.644382751373 2686.05828400305 11 13 8
-984.483013757778 -620.67804341777 2693.23289350849 12 14 9
-970.071093459905 -616.66320682897 2703.88820204972 14 16 11
-954.57231175543 -612.41499980459 2714.73005741926 15 17 12
-970.363877701653 -615.204998644122 2717.5550040633 16 18 13
-985.14102230111 -617.761237138748 2720.69984525876 18 20 15
-1060.68076540541 -633.921907175633 2708.83959927493 18 20 15
-899.227503885012 -635.000707195487 2477.13653188068 17 19 14
-844.648231753049 -621.164641268512 2503.58354028012 15 17 12
-825.907556709482 -615.889746273743 2517.23141141826 13 15 10
-846.148060791329 -619.887497021002 2517.30056429251 17 19 14
-838.368990330032 -617.228871006415 2527.05775087676 14 16 11
-840.813295970591 -616.191964863892 2540.32479545221 12 14 9
-848.064554462953 -617.10012094116 2544.92837779005 12 14 9
-885.548951878261 -625.137837365919 2539.54317968853 12 14 9
-856.546227779238 -617.491305241502 2556.17998016704 12 14 9
-815.340957493366 -606.994782212631 2576.61073616938 11 14 7
-832.677375559513 -610.28072751288 2577.89770287054 11 14 7
-832.836018702059 -609.527842064355 2584.76078729723 11 14 7
-831.973262331624 -608.537879881224 2591.93142522102 11 14 7
-823.994011043064 -605.885714745516 2601.31849986621 11 14 7
-856.644847245432 -612.735504245937 2597.97574182098 11 14 7
-864.944990905409 -613.884691799656 2602.3206282698 11 14 7
-891.600759839075 -619.309077931022 2601.07030251879 11 14 7
-855.055800679318 -610.009340092287 2619.13731611925 12 15 8
-839.970189316388 -604.94985061102 2637.32793903152 14 17 10
-893.327260177352 -616.549313340489 2628.34038029708 15 17 12
-936.556220436639 -625.773534981574 2622.58917191088 15 17 12
-926.493325936626 -622.651957135319 2632.51480800428 16 18 13
-944.155189516495 -625.941149091683 2634.39985620898 13 15 10
-1020.52786047014 -642.761764604091 2619.6429538449 11 13 8
-987.833963560561 -634.419653975893 2636.04509233588 10 12 7
-973.625260960405 -630.351699379472 2647.09012896373 10 12 7
-962.472714172097 -626.996871077509 2657.19663862101 10 12 7
-984.389539770632 -631.238112439203 2658.16133434809 9 11 6
-980.457668596645 -629.546582392255 2666.24318942994 9 11 6
-980.656498407516 -628.805272489455 2673.17670344951 10 12 7
-989.155516702807 -629.963259596953 2677.88471037621 10 12 7
-981.032582709219 -627.32547807387 2687.00269664518 11 13 8
-967.676426935055 -623.502342517291 2697.42730064291 10 12 7
-985.548408822611 -626.79854565446 2699.69668628939 10 12 7
-976.323695602756 -623.926744096243 2708.97397814657 10 12 7
-981.697109556985 -624.377749885635 2714.49093561977 10 12 7
-1012.18458580793 -630.523399088131 2713.72601652557 14 16 11
-992.460889049033 -625.282368203559 2725.55574795925 15 17 12
-1006.24175309094 -627.634143238874 2729.04453348319 19 21 16
-971.852528223737 -618.344897111493 2751.07318015585 18 20 15
-862.211298869115 -632.758463509258 2490.0997008181 12 14 9
-859.49709154821 -631.271596938139 2498.24471564019 13 15 10
-843.767497443232 -626.659812741366 2510.88569538086 13 15 10
-826.987136982505 -621.808291762992 2523.78202606456 14 16 11
-849.490170971241 -625.569481475016 2530.19882615429 9 11 6
-837.653745210336 -621.92191372911 2541.25039003965 10 12 7
-858.992031164268 -626.206442985492 2541.13802835743 10 12 7
-845.105346237882 -622.079405879151 2552.7930815265 11 13 8
-852.364888919352 -622.999694663998 2557.40825143471 11 13 8
-835.386740534106 -618.153333776136 2569.93875809419 12 15 8
-813.299065204873 -612.106819508827 2584.00732605856 12 15 8
-808.366421458388 -610.145736115101 2592.44494199039 12 15 8
-820.655166076776 -612.269466908012 2595.37282506554 12 15 8
-827.889668023224 -613.192299248496 2599.94117559826 12 15 8
-833.101273039963 -613.63512770067 2605.16299605176 12 15 8
-857.661711777401 -618.641974313648 2604.41464212798 10 13 6
-890.431838031363 -625.570290283013 2601.26766564616 10 13 6
-849.788566861668 -615.206319086614 2620.57687572986 11 14 7
-829.473732685261 -609.647218031177 2633.52984749705 12 15 8
-849.006796331462 -613.454646569215 2634.47042598227 13 16 9
-888.047719632656 -621.824613202463 2629.73375284608 13 15 10
-911.791891365045 -626.592649419949 2629.67074982659 13 15 10
-926.343980979827 -629.199930071592 2632.38582019418 14 16 11
-929.612009215473 -629.166686791235 2638.40631653563 12 14 9
-963.771893005059 -636.33626093319 2635.62800663035 11 13 8
-985.637484070296 -640.625087895119 2636.48416271486 9 11 6
-972.451984446625 -636.752795052807 2647.23691286377 8 10 5
-980.930684621984 -637.922223300394 2651.90461471602 8 10 5
-928.364542498129 -624.93127166342 2673.33978651041 9 11 6
-982.385803871536 -636.663338061479 2665.53391840888 10 12 7
-960.79836633944 -630.875146495688 2678.33053665224 11 13 8
-995.24295418207 -638.047889214999 2676.07489651691 11 13 8
-1002.72422630392 -638.981341971845 2681.09340433657 14 16 11
-988.347504787828 -634.876361966863 2691.84106213454 13 15 10
-979.140901430831 -631.972464527862 2701.16080899823 12 14 9
-1001.22189852139 -636.268239704271 2702.41104653601 11 13 8
-1017.07883483519 -639.125116645543 2705.33610953145 10 12 7
-999.47822386117 -634.304899174102 2716.71393219299 10 12 7
-953.535148463132 -623.008115787322 2735.01605451468 11 13 8
-972.516445082276 -626.588033323389 2737.12555383371 16 18 13
-1015.69711684138 -635.686672102953 2733.43809882878 17 19 14
-875.644464422093 -640.925767458374 2499.65985385589 18 20 15
-834.075835295798 -629.172990695626 2528.25981035768 13 15 10
-812.19464977343 -623.055238321366 2542.72957351227 14 16 11
-861.641182317882 -634.194012345537 2533.03326330429 13 15 10
-890.063311667515 -640.228202421509 2530.61861660765 13 15 10
-789.635837814789 -614.390060034717 2577.86913321137 13 16 9
-826.136267215197 -622.369324109816 2572.80712005018 13 16 9
-838.434598986095 -624.517167095858 2575.74538459709 13 16 9
-819.344769643152 -619.134102268959 2588.78362632624 13 16 9
-833.679077562817 -621.768557161893 2591.08998460383 13 16 9
-833.819896298381 -621.002529926185 2597.92423871285 13 16 9
-846.158724711179 -623.151753857175 2600.93707292748 13 16 9
-866.668867223766 -627.244262765943 2601.47364421418 13 16 9
-891.301830121089 -632.308329927498 2600.84146800065 12 15 8
-894.547923439136 -632.272570681112 2606.82237863636 12 15 8
-856.901821484099 -622.523986458934 2625.11396693879 12 15 8
-852.931549589588 -620.790133487469 2633.13792350095 13 16 9
-870.466194819629 -624.156119337922 2634.76590042551 14 16 11
-897.273111274798 -629.707578002336 2633.75534909726 13 15 10
-916.94739591702 -633.559591309393 2634.94225113864 13 15 10
-923.289361398093 -634.255925588279 2640.05197656105 13 15 10
-961.571327665696 -642.478223179849 2636.07864966825 12 14 9
-957.655959074843 -640.747970802638 2644.20250063442 8 10 5
-985.735043642157 -646.543565115472 2643.34348218929 8 10 5
-973.552888826641 -642.873110798048 2653.76606982726 8 10 5
-924.063627920875 -630.466434039818 2674.34008505056 9 11 6
-941.817426897786 -633.837078107054 2676.36972482211 9 11 6
-979.32660827223 -641.819279363848 2673.16210706934 9 11 6
-977.435290125484 -640.579976201248 2680.63081390184 9 11 6
-983.854738488587 -641.283010250534 2685.88102969895 15 17 12
-996.532668955935 -643.442936880202 2689.51381160568 15 17 12
-993.589434821033 -641.963938283144 2697.23523831979 16 19 12
-993.764088530793 -641.213993880073 2704.12688466198 17 20 13
-1006.47872557845 -643.376615106355 2707.82636633565 17 20 13
-980.482380026312 -636.563105621995 2721.2822357081 19 22 15
-946.028813906689 -627.810184679259 2736.68636058286 17 19 14
-963.956301376577 -631.18927824229 2739.03290419733 15 17 12
-999.78403032832 -638.693613988783 2737.10609197141 15 17 12
-995.714206720334 -636.979973036327 2744.94087661017 16 18 13
-831.259598154962 -637.459577716729 2507.89848014321 12 13 8
-852.504713170362 -641.841735921512 2507.58489678657 20 21 16
-868.786313987094 -644.994970839687 2509.08707474397 9 10 4
-840.956727955906 -637.335240658166 2525.77065952044 14 15 9
-867.294618068311 -642.94617337726 2523.87959817695 12 13 7
-823.281147906914 -631.356967820744 2545.81855367188 13 14 8
-877.848078334142 -643.847741848235 2534.55851229165 14 15 9
-884.141239536088 -644.544716378841 2539.57828521501 14 15 9
-867.218188724891 -639.591753390595 2552.24218386779 13 14 8
-878.552719247246 -641.517964968529 2555.58929087719 12 15 8
-876.747611716599 -640.251135822678 2563.22533663254 12 15 8
-898.24321572032 -644.634211048557 2563.37217239841 11 14 7
-884.263353928679 -640.421159129437 2574.88222705974 11 14 7
-846.867436474676 -630.560636182509 2593.66761259656 11 14 7
-854.138161876873 -631.506936655325 2598.29502305478 11 14 7
-849.193708429851 -629.506936276901 2606.7226219593 12 15 8
-891.15256411548 -638.802826671586 2600.72870682284 10 13 6
-882.141266865001 -635.821651421912 2610.43140052525 11 14 7
-833.215520467207 -623.266333313007 2632.08652121551 10 13 6
-842.523677517743 -624.70676405386 2636.08294564645 13 16 9
-902.084507360507 -638.1766235897 2625.25295772623 13 16 9
-924.832552130926 -642.808501028633 2625.5136408574 13 16 9
-877.737599883764 -630.7490924274 2646.15669221229 14 17 10
-930.341207557762 -642.500459371681 2637.85249586594 15 18 11
-930.518008275123 -641.73382639526 2644.75310955473 14 17 10
-975.050828465708 -651.521653302181 2639.115649783 6 9 2
-983.532407738578 -652.719587096018 2643.78007459703 6 8 3
-965.135938498181 -647.537766286517 2655.91770999746 7 9 4
-959.112501842434 -645.302024857567 2664.54655382192 9 11 6
-992.467754888749 -652.391894021593 2662.42714964856 10 12 7
-987.486183469377 -650.403353796336 2670.78253128337 9 11 6
-973.128811095807 -646.207324085656 2681.59315626011 9 11 6
-967.054525700944 -643.97570205443 2690.126736954 15 18 11
-976.587792657971 -645.425124079353 2694.53497989337 16 19 12
-993.440912079004 -648.593002523706 2697.08388107913 15 18 11
-1003.01580607215 -650.044320056773 2701.5676094591 15 18 9
-977.044916864614 -643.155669741816 2715.0923898871 13 19 9
-983.466322302536 -643.873216300552 2720.34184088159 16 22 12
-976.265232406101 -641.402731521201 2728.99015742928 16 21 14
-966.939102512173 -638.44285464639 2738.10741166223 12 17 10
-995.423041142984 -644.315111227619 2737.96993963469 12 17 11
-1072.38141146419 -661.471522063989 2726.30406363867 13 20 13
-935.726514229343 -670.792023585423 2463.70823404196 10 11 6
-772.137089191879 -629.254572226674 2528.52586733953 10 11 6
-822.341507094717 -640.891896613808 2517.95872241722 14 15 10
-853.623071852192 -647.80774055259 2514.19256002051 10 11 6
-858.882262695681 -648.263978710091 2519.49837114065 12 13 8
-847.063366865615 -644.497788509901 2530.61784805407 13 14 8
-851.305057499323 -644.706562981409 2536.24150777725 13 14 8
-801.144212086686 -631.503561295622 2560.04942713891 14 15 9
-863.831970526756 -646.118709739711 2546.16631652191 14 15 9
-918.591401465618 -658.745695321646 2535.21935695026 14 15 9
-900.663526271448 -653.491996983249 2548.24043728193 12 15 8
-903.947649598493 -653.454071302589 2554.2919435263 12 15 8
-873.771151174563 -645.222708319234 2571.06062950954 11 14 7
-861.784128617719 -641.462037841219 2581.86973508495 11 14 7
-829.427852165122 -632.736880615895 2599.00750511544 11 14 7
-866.194266687533 -640.894615921839 2594.38101696851 11 14 7
-816.419990086228 -627.951436346417 2616.70697348498 9 12 5
-831.818808643402 -630.89684724863 2618.76285041174 11 14 7
-855.422494505971 -635.828222995011 2618.39234861505 13 16 9
-861.68708248471 -636.540309945617 2623.35502554907 11 14 7
-846.449286809319 -632.040940827559 2634.75241155492 10 13 6
-879.368202146708 -639.206971416328 2631.80759947346 11 14 7
-871.287085626621 -636.446378369427 2641.03942772896 10 13 6
-890.938623656026 -640.386941026297 2642.15786593478 13 16 9
-952.012696448961 -653.47966415212 2638.45452329047 14 17 10
-961.496118622363 -654.940106994755 2642.76727415279 8 11 4
-980.295346898072 -658.633811116443 2644.50769857144 9 11 6
-968.094868008013 -654.88551886137 2654.91999241845 8 10 5
-992.113604263453 -659.821170006814 2655.3115582158 9 11 6
-1003.73771164879 -661.780481526783 2659.18180022746 9 11 6
-983.188928537343 -656.050563812452 2671.75586547308 9 11 6
-952.182953204573 -647.841427802164 2686.99230816211 9 11 6
-939.831961105884 -644.098681881588 2697.1266171374 14 17 10
-954.545453991209 -646.806145770111 2700.10841030131 15 18 9
-976.593688061211 -651.250564578484 2701.2536903778 15 18 9
-989.284345653396 -653.463696727788 2704.8938797564 14 17 8
-989.443329342694 -652.701530301845 2711.76038149762 13 19 7
-990.642728526585 -652.188445523531 2718.35069346446 13 19 9
-988.691165830458 -650.932605861636 2725.71357247023 14 20 10
-1016.29511599222 -655.863971795441 2732.70028854442 10 17 10
-1021.71499216714 -656.347395792466 2738.29294966368 11 17 13
-864.013148838866 -655.228791120671 2524.72523509282 13 14 8
-807.179730296555 -638.544819761244 2564.80228604112 14 15 9
-864.914850470377 -652.06339221996 2552.71513991539 14 15 9
-868.156468457856 -652.026268137735 2558.68823003788 12 15 8
-871.39836253795 -651.989849831905 2564.66161570304 12 15 8
-835.082292953576 -642.165574267975 2583.30733857134 12 15 8
-833.196304104141 -640.875864091729 2590.80100541212 12 15 8
-863.837980710713 -647.61718532438 2588.02575834036 11 14 7
-844.658612477177 -642.062411440251 2600.95095829524 11 14 7
-853.968084722286 -643.534675316235 2604.94022870886 10 13 6
-879.625656409413 -649.021878895096 2603.94994510114 11 14 7
-827.663504674745 -635.440974736938 2626.67388076808 13 16 9
-848.220294771996 -639.674949685148 2627.25420786408 12 15 8
-917.167069704483 -654.916628374568 2620.46405521896 12 15 8
-965.626757124111 -665.9240062358 2613.22237347381 11 14 7
-883.578082143803 -645.074768969985 2644.13066665498 12 15 8
-867.223389484791 -640.281021603666 2655.67720069123 14 17 10
-955.993418212593 -661.071402159932 2637.14789694397 14 17 10
-1004.71452541317 -672.079566878004 2630.38677718379 11 14 7
-969.820544126731 -662.773380687328 2647.26207622817 10 12 7
-974.160840096344 -662.998648477293 2653.06212923947 9 11 6
-968.141312400541 -660.716830421492 2661.71201857373 7 9 4
-972.475037324311 -660.944035865943 2667.4988992966 7 9 4
-970.578289804625 -659.66736656714 2674.96936155768 8 10 5
-959.30778782026 -656.135081456638 2684.91229514819 9 11 6
-939.6697794125 -650.598118608911 2696.98861609859 12 15 8
-942.91598838719 -650.578489193907 2702.96488886509 13 16 7
-961.823749186546 -654.320858495284 2704.88978547303 13 16 7
-978.680218335801 -657.562616984981 2707.4226301207 13 16 7
-990.337557774481 -659.551549824059 2711.34508417382 12 18 6
-991.536966485676 -659.034565079659 2717.93658646574 12 18 8
-990.633520409427 -658.017315753101 2725.04059443014 13 19 9
-984.467854695758 -655.747842444206 2733.41749275071 12 17 10
-908.884417425319 -676.611480091044 2480.26931303823 11 13 8
-873.146386472022 -666.672366211539 2500.01268859174 6 8 3
-874.420182703189 -666.125510775206 2506.74948159421 12 14 9
-823.463744398733 -652.382249865602 2531.37193162987 13 15 10
-808.169271635045 -644.332374245758 2571.22669445812 12 15 8
-801.332486910978 -640.96456489822 2587.15978128901 12 15 8
-874.495762500906 -658.433158365957 2570.53545818663 12 15 8
-847.258729659438 -650.789329663029 2586.18877079155 12 15 8
-859.616546482363 -653.038541874343 2589.20645955287 11 14 7
-873.016591850391 -655.541746160828 2591.94931215622 10 13 6
-877.264400216978 -655.762647706755 2597.58007239204 11 14 7
-819.226746412562 -640.515034427193 2622.32107186268 11 14 7
-812.154844442763 -637.94858756885 2631.23584638142 11 14 7
-843.958150680403 -645.018762525486 2628.38285101678 12 15 8
-888.133943788403 -655.131456080742 2621.99105908722 12 15 8
-935.492440207605 -666.004871688446 2614.87917104094 12 15 8
-929.714550891477 -662.905155406159 2630.56383464424 11 14 7
-891.777010605978 -652.737234505651 2648.44602244362 13 16 9
-896.026630132348 -652.964673327292 2654.07814783465 13 16 9
-993.226651511683 -676.007104658426 2633.45699844854 10 13 6
-955.202665459991 -665.842368006718 2651.17873491769 10 12 7
-961.595207456398 -666.578516673284 2656.36950673526 8 10 5
-951.409858829542 -663.260272683447 2666.12906906343 7 9 4
-950.532764863036 -662.224155710703 2673.28721726107 7 9 4
-965.234072017848 -664.990884815002 2676.22928058124 8 10 5
-974.761914913474 -666.491097171362 2680.61176970811 9 11 6
-944.716788268054 -658.361814905315 2695.4765751911 11 14 7
-943.79652816851 -657.329875454306 2702.55407673543 12 15 8
-931.378109772664 -653.511499358585 2712.58661582058 13 16 7
-948.200942257908 -656.789820664723 2715.04660129893 13 16 7
-979.71595736938 -663.616761251198 2713.85183530757 12 18 8
-990.335779046463 -665.376431731572 2718.04984851295 12 18 8
-985.360138070875 -662.564677292153 2733.00859744959 13 18 11
-1060.18710693071 -679.784282340195 2721.63428905383 12 19 12
-923.459484189455 -685.23789921006 2489.67676548514 5 7 2
-929.813026836237 -685.968367059898 2494.79751873504 10 12 7
-850.883747404411 -664.095286432612 2535.98094298611 9 12 5
-809.88988382531 -651.972123932784 2563.63407737005 10 13 6
-844.40842355419 -659.885257033183 2559.17699781867 11 14 7
-779.79039079228 -642.673550469455 2587.21022529205 11 14 7
-844.916151905448 -657.475573557696 2579.86964793457 13 16 9
-839.988621313024 -655.391761184401 2588.35357509892 13 16 9
-777.038335850093 -638.698795430018 2615.06849875527 10 13 6
-827.015939688286 -650.457762673429 2606.16242014902 10 13 6
-875.072507365583 -661.703841536487 2598.10704104219 10 13 6
-831.409768621702 -649.085649770548 2625.23059636542 9 12 5
-829.452688905462 -647.775427477387 2632.60018682209 12 15 8
-846.964823490266 -651.334574482034 2634.12817066326 13 16 9
-895.312298282672 -662.581238674485 2626.60815096927 13 16 9
-954.0532217238 -676.389954394911 2616.28360807537 11 14 7
-899.859324833392 -661.220391517932 2645.9552019123 12 15 8
-929.913945617526 -667.856431387897 2644.24671185748 12 15 8
-915.612903159173 -663.476938191513 2655.21560493434 7 10 3
-952.988053964408 -671.90720952692 2651.62673635527 7 9 4
-968.699663390729 -674.95832793311 2654.22610419154 8 10 5
-968.888004415027 -674.167922063803 2661.15509162126 9 11 6
-953.494973317393 -669.536179679299 2672.30627460916 9 11 6
-969.242860166211 -672.589851957897 2674.9720994757 9 11 6
-938.18336786868 -664.118526797392 2690.18896056098 9 11 6
-949.767878464137 -666.149775704204 2693.96423951731 10 12 7
-939.460888884868 -662.803435880896 2703.50853098402 12 15 8
-938.523449409255 -661.763341841857 2710.55739302736 13 16 7
-945.944994659552 -662.77302115664 2715.44312930282 13 16 7
-969.08742888024 -667.625479657725 2716.36333732745 13 19 9
-982.842206831062 -670.173916998388 2719.7450052451 14 20 10
-1025.14920641059 -678.859488149805 2723.03462755785 10 15 8
-869.890479521133 -678.99125544907 2500.89443158691 15 17 12
-909.901554061808 -686.653263986586 2508.7294421168 10 12 7
-906.161446831768 -684.802806327147 2517.2117789404 9 12 5
-794.451995153346 -655.229417625596 2561.75585768311 9 12 5
-806.700827492546 -657.527048960185 2564.55803921855 9 12 5
-824.179191245157 -660.309575113733 2572.60286511141 11 14 7
-845.61592043449 -664.939514848314 2572.56718196582 11 14 7
-820.393039158573 -657.654012411985 2587.58753137674 13 16 9
-806.376826445673 -652.411230702263 2605.68478958126 10 13 6
-825.935384220397 -655.718013499613 2613.16771335882 11 14 7
-907.777996223911 -675.629290708841 2594.85230160251 11 14 7
-906.948633657951 -674.564124606963 2602.10697223276 8 11 4
-864.10882510856 -662.883071289633 2622.00252725684 12 15 8
-859.103713682306 -660.784197377599 2630.34779421262 12 15 8
-849.970131005876 -657.650493216626 2639.8714514184 12 15 8
-881.937214030455 -664.874357486934 2637.2734537656 10 13 6
-925.302303509477 -674.946357818062 2631.51766676177 9 12 5
-939.90433558697 -677.769221562354 2634.26026424782 12 15 8
-917.377589381378 -671.272984390283 2647.65704634124 13 16 9
-938.191891471524 -675.650874071957 2648.66720245185 9 12 5
-937.32056132269 -674.593093439352 2655.84297032697 6 8 3
-955.088501343659 -678.1958152696 2657.82832309918 8 10 5
-974.967723410967 -682.316900642208 2659.31122672182 9 11 6
-966.845620293518 -679.44987659246 2668.50018346357 10 12 7
-932.697618428535 -670.113243444986 2684.64183133463 9 11 6
-938.023401509665 -670.613505493716 2690.05637455031 9 11 6
-956.907497190522 -674.479565187608 2691.90105460953 10 12 7
-946.604373190611 -671.099616964722 2701.46256234052 12 15 8
-950.89983358743 -671.344059248546 2707.17388414262 13 16 7
-978.21935786165 -677.283357966065 2706.98948025353 13 16 7
-971.025014417203 -674.683270471328 2715.68917904456 13 19 9
-939.678511329954 -666.132166189035 2730.40216626853 16 22 12
-969.164011919022 -672.59224975884 2729.81517781598 13 18 11
-910.352635621885 -691.629992183367 2522.86705901118 9 11 6
-851.375701145544 -673.728994426177 2563.59788211845 12 15 8
-854.593258434694 -673.696824865006 2569.525230303 12 15 8
-830.387278427115 -666.598964075095 2584.24411506219 12 15 8
-776.61898480943 -651.912916608765 2608.20816537455 12 15 8
-785.839785103369 -653.453656573045 2612.0137596994 12 15 8
-879.014752114701 -674.824304732757 2603.52724905818 12 15 8
-875.219623263978 -672.152894984032 2618.50017096221 9 12 5
-851.75654803374 -665.324408362329 2632.38908289376 11 14 7
-816.972672746555 -654.810490619755 2656.17548384136 12 15 8
-904.55572371933 -676.237710091406 2637.38690428337 13 16 9
-915.010226514674 -678.045438362239 2641.26641394489 14 17 10
-937.873496246368 -682.992777180551 2641.64415083834 14 17 10
-946.485417259523 -683.473052516224 2653.1085108955 10 12 7
-946.650337623995 -682.668389726579 2659.99871082312 10 12 7
-953.034215122726 -683.433831376365 2665.16473802859 10 12 7
-984.361856318094 -690.477140580748 2663.56029062635 10 12 7
-949.182430124187 -680.783422795648 2680.02714345645 10 12 7
-952.445770003986 -680.767252883162 2686.03388273294 10 12 7
-948.409704771583 -678.921737630083 2693.9704125782 11 13 8
-940.179263782284 -676.031304604777 2702.96715580985 11 14 7
-967.466693088939 -682.033028620371 2702.70495081464 13 16 9
-990.627493108355 -686.989823946506 2703.62705634641 14 17 10
-956.195270292225 -677.565460573128 2719.27235244348 14 20 10
-930.0652588851 -670.234240067864 2732.63756840843 13 18 11
-931.179950883681 -669.703255609234 2739.07747124131 10 15 9
-939.654079950845 -671.003824631 2743.69682493288 15 20 14
-870.642689246347 -692.323071868957 2500.38402554626 2 7 3
-835.865197521557 -677.009606517336 2561.57909796623 9 14 8
-845.146934013064 -678.564629375041 2565.49246989199 12 15 8
-804.826904198181 -666.340618087805 2592.30043541914 12 15 8
-780.620191218077 -657.530358608938 2620.22273103697 12 15 8
-810.27996965825 -664.376433425261 2617.72489199992 12 15 8
-799.106763902845 -660.648914837722 2627.90598618019 12 15 8
-826.802567873038 -666.9670722627 2626.1843948113 9 12 5
-877.112673277275 -679.100483948846 2617.77724377292 9 12 5
-832.160069731105 -665.835796115802 2644.83771709822 11 14 7
-848.688219504144 -669.248480274548 2646.7158258565 11 14 7
-902.609376255974 -680.547269763835 2651.54544271689 14 17 10
-974.294824624256 -697.155326852405 2645.15171192544 9 11 6
-937.170260819639 -686.831039032718 2662.46083091393 9 11 6
-970.531871576776 -694.476206957243 2660.18612959904 9 11 6
-985.261091405147 -697.365980832528 2663.14252723603 9 11 6
-960.475548712063 -690.216050996199 2676.81114888458 11 13 8
-948.123547035221 -686.238085077451 2687.01433671051 11 13 8
-912.782657207305 -676.448793691031 2703.21296950956 10 12 7
-903.459190890952 -673.266061700002 2712.4021398132 11 13 8
-965.220730655284 -688.050381640843 2703.10957296514 12 15 8
-973.725652914236 -689.361219937947 2707.78247275794 13 16 9
-973.856822191538 -688.559558959172 2714.60969557832 13 18 11
-990.776246171195 -691.98634257879 2717.20268464394 16 21 14
-967.791926457899 -685.374895130918 2729.79255186051 8 13 7
-983.678801787532 -688.539858447526 2732.68003004525 16 21 15
-862.234985242573 -697.553989116278 2496.03697807336 9 13 12
-833.389426816692 -688.967966342405 2513.24535965159 23 28 24
-849.675745614313 -692.407252449239 2514.6701931682 1 6 2
-889.401161898598 -701.156387271773 2515.30800201628 5 10 6
-884.314704663705 -696.21735225588 2545.50776592582 7 12 6
-904.911652400612 -696.307147100297 2581.24699895115 11 14 7
-883.658984740145 -689.870725245832 2594.8542565999 12 15 8
-831.659137559769 -675.424766693501 2617.76849945731 12 15 8
-848.138010395211 -678.870977693692 2619.54539247155 9 12 5
-834.912990544427 -674.574457485919 2630.35353614406 9 12 5
-879.396514814201 -683.583710546291 2637.54935015887 10 13 6
-857.949181936644 -676.333404210139 2657.38773324661 13 16 9
-841.491078172282 -671.241840476195 2668.83363512442 14 17 10
-1024.91097523072 -716.853297094362 2630.80301177506 7 9 4
-978.501863404235 -704.022622443619 2650.82408116642 6 8 3
-953.775002584153 -696.798960217637 2664.62280236706 6 8 3
-983.042265820155 -703.456871551815 2663.57494464798 7 9 4
-976.98160430303 -701.040230250304 2672.1897256032 9 11 6
-940.672340566301 -690.884240118234 2688.83241573852 10 12 9
-885.480782318852 -675.925370067882 2710.26086661374 10 12 9
-964.020106686765 -694.321335171393 2703.24519641919 11 14 7
-970.555654513657 -694.305434574527 2715.27004133873 12 17 10
-978.024684296658 -695.366814263077 2720.22806716546 15 20 13
-1005.48076603472 -701.500424900132 2720.23638361321 16 21 14
-979.311667515187 -694.023634069191 2733.57399158893 13 18 12
-858.038028791799 -699.346852567034 2525.84827116358 7 12 8
-1034.25205942397 -744.615567477832 2481.01271834979 6 11 5
-882.154549192444 -702.189603331572 2546.08376582736 7 12 6
-892.512485449604 -704.048320931464 2549.76983421202 10 13 6
-881.563920393824 -700.241725656275 2560.38786360919 10 13 6
-952.200652022017 -717.180286155793 2551.96596225524 10 13 6
-904.772414726051 -702.828500294452 2581.14510964047 10 13 6
-892.708146022565 -698.756552758048 2591.90524885552 12 15 8
-824.410417200196 -679.017757347435 2626.6205983702 9 12 5
-848.07787008296 -684.388820746912 2626.23515232748 9 12 5
-883.354343238732 -691.065934408252 2636.23355201986 10 13 6
-829.86250861643 -676.214132214955 2658.64060322174 11 14 7
-792.744800449507 -665.678520740403 2676.02588048799 14 17 10
-816.506617944162 -671.053837512358 2675.81270908095 13 16 9
-945.876189308596 -703.933852517449 2645.83503260269 13 16 9
-1087.29583875079 -738.953526834929 2620.45680144282 7 9 4
-925.700440939206 -695.24458934551 2679.01982115002 7 9 4
-959.135536615257 -703.050903359433 2676.8318119391 9 11 6
-957.196887596777 -701.691299814222 2684.25014979835 10 12 7
-919.752620284174 -691.166104428944 2701.03118871127 10 12 9
-977.32289353053 -705.176213887339 2692.72314627546 10 12 7
-983.74940425664 -705.97683741965 2697.95700381489 11 14 7
-973.419301535411 -702.4649700028 2707.50856366486 12 15 8
-960.95809081335 -698.415239513863 2717.53197304437 11 16 9
-967.472212857806 -698.407393761224 2729.51498978337 19 24 18
-1033.16305775501 -751.266550122877 2481.23935272564 10 15 11
-859.728977028392 -702.69851776273 2553.32992472219 9 14 8
-849.769716495368 -699.127636407393 2563.58127767067 9 11 6
-871.266981984383 -704.004318649877 2563.58273109812 9 12 5
-868.574460416605 -701.498053110614 2578.41908702853 9 12 5
-880.296090874838 -701.967060581499 2595.60615785042 12 15 8
-850.771110540243 -693.225925463337 2611.61160431955 12 15 8
-794.517523296729 -677.403677690308 2635.57652921949 9 12 5
-866.500776140144 -694.794335478169 2627.37986692723 11 14 7
-889.243708399377 -699.949090404771 2627.47390685392 11 14 7
-904.825832218936 -703.197720211981 2629.77623543741 10 13 6
-928.690219208997 -708.626118076336 2629.73574540947 10 13 6
-869.997458889489 -692.266484892272 2653.60578839147 12 15 8
-850.43839394107 -686.257881587869 2665.96913304914 13 16 9
-946.766445895324 -710.753075047514 2645.42169164171 12 15 8
-991.50276098358 -721.631087443214 2639.83065413616 12 14 9
-890.168326926157 -692.452026969306 2688.53309423137 8 10 5
-914.193988615244 -697.887454416364 2688.78659957144 10 12 7
-921.584159852617 -698.966790693972 2693.59419023655 11 13 10
-947.782291007487 -704.948719766904 2693.44982376486 11 13 10
-962.537086953551 -707.936481206826 2696.42328935677 11 13 8
-978.367678167756 -711.197397134184 2699.17890005412 12 15 8
-976.411533319877 -709.830525325307 2706.5667413725 12 15 8
-968.146227682407 -706.831043809574 2715.53165111654 12 17 10
-953.548212045442 -702.19902808848 2726.0307995375 17 22 15
-927.334440966632 -694.573125260187 2739.33058343737 11 16 10
-882.898597145129 -715.469960185018 2545.57331954038 10 15 11
-852.666577562164 -706.361259708728 2562.50372601196 9 14 8
-871.307911601238 -709.61041841477 2570.43183630176 6 11 5
-872.502284201194 -709.034404964279 2577.03182745301 6 11 5
-881.16988200612 -708.687092029276 2595.19236278173 8 13 7
-857.777774522312 -701.511768464305 2609.31660280834 9 14 8
-806.638257941041 -686.909796859859 2631.74526753514 10 15 9
-865.197032599689 -701.744333842132 2620.77723360281 10 15 9
-838.589395489923 -693.746931454895 2635.57964745585 8 13 7
-894.234128861441 -707.75683164611 2625.84454432972 7 12 5
-919.099754838401 -713.514901918336 2625.43157643844 7 12 5
-940.925402045889 -718.448298761818 2626.01992839444 7 12 5
-958.666096411457 -722.28205865786 2627.88619763309 9 14 8
-931.970150575668 -714.289607706621 2642.5247066466 11 16 10
-885.524167914259 -701.072813994844 2662.59407805609 15 17 12
-954.371854995589 -716.711497207135 2663.96250278753 9 11 8
-888.957428157104 -698.549263966926 2688.70206070578 7 9 6
-883.810760480207 -696.339720480737 2696.8207648594 7 7 5
-928.724643321595 -707.332109831715 2691.52140698238 8 10 5
-927.778514483804 -706.224639997591 2698.57454903785 11 13 8
-956.109198508277 -712.81880380638 2697.93761678684 12 14 9
-924.810516362575 -703.738640950028 2712.89765458442 10 13 6
-933.270950823661 -705.10995635851 2717.47105070324 11 14 7
-906.051011411995 -697.132372087637 2731.14136932921 16 21 14
-909.239234446701 -697.131159774095 2737.00545697315 12 17 10
-900.851627647725 -694.10619018844 2745.75309740104 11 16 10
-951.444889738279 -706.482921699633 2739.90835096112 8 13 7
-855.735119932437 -712.74936852429 2568.34109385219 9 14 8
-882.35958943857 -719.114937274023 2566.75016914977 7 12 6
-886.623984451296 -719.368289686297 2572.40218082936 7 12 6
-821.50582571314 -700.730110949657 2599.9445559826 6 11 5
-910.041690784744 -721.201753966259 2600.11564441176 8 13 7
-885.713933438969 -712.829462273229 2621.33870903339 8 13 7
-901.287407491012 -716.144933854967 2623.60452413326 8 13 6
-916.016145087273 -718.333528906296 2633.11579635918 10 15 8
-921.330325337673 -718.873636712395 2638.49701738959 11 16 10
-977.757951256875 -731.331718150549 2643.35876968239 12 14 9
-948.874940817303 -722.710601189509 2658.39352020871 7 9 6
-951.106185889064 -722.422442317327 2664.69864123345 9 11 8
-923.143534036304 -714.081617338572 2679.22700984641 7 9 6
-953.477733492745 -721.294255676427 2677.85982475048 7 7 5
-910.821714311533 -709.067783715319 2696.14211733734 8 10 5
-948.516481594683 -718.226712277796 2692.92195899468 10 12 7
-892.169107157868 -701.556115398135 2721.1991073465 10 13 6
-875.417382494884 -696.277664397041 2732.16118786229 12 17 10
-885.921866423873 -698.220819623597 2736.09189617382 15 20 13
-894.35450312919 -698.778627033941 2747.20320418071 12 17 11
-879.698272052285 -731.384304017624 2517.98165029497 10 15 9
-827.395603644877 -715.923231475825 2542.75951961659 9 14 8
-876.335466593565 -727.654393069981 2540.41290961723 9 14 8
-910.260349509551 -735.178009457267 2543.44082440314 12 17 11
-854.571048473623 -718.881178005786 2568.58629184623 11 16 10
-865.929545316106 -721.101838509226 2571.88893024006 10 15 9
-905.040789037751 -730.032921830882 2573.45775160365 9 14 8
-919.549204352709 -733.096768961114 2575.95519773993 8 13 7
-930.209302060242 -734.177228963716 2586.77644105727 6 11 5
-847.416572311827 -709.736922953166 2625.85639826379 7 12 6
-851.620146679289 -710.000304199243 2631.39302956753 9 14 8
-846.558386945991 -707.740233315603 2639.68308956166 9 14 7
-909.528129878042 -723.991494731823 2627.94138518612 10 15 8
-831.212547998674 -701.820821084972 2657.65319932001 13 18 11
-863.295828963474 -709.659864345872 2655.08441770827 13 18 12
-814.724694457047 -695.624969564384 2675.72137086437 14 16 11
-818.874226583754 -695.894075973493 2681.15688696241 13 15 10
-954.797120179716 -731.779409017698 2649.6389011343 12 14 9
-964.311785458372 -733.452080873604 2653.94529198849 7 9 6
-958.394903582015 -730.07051225075 2669.4590819327 7 9 6
-928.302450183049 -721.090562082858 2684.49265879638 8 8 6
-916.920591767571 -717.159336315481 2694.35075754802 8 10 5
-949.407458883409 -725.006927699373 2692.52167380191 9 11 6
-944.288763694293 -722.7607392372 2700.70234013584 11 13 8
-938.101952187303 -720.235340664197 2709.11781389558 11 14 7
-903.563027881817 -710.139936937152 2724.76866259724 13 18 11
-909.902479111115 -710.98213200889 2729.82990041448 15 20 13
-874.753033884874 -735.609892357554 2526.65043851358 13 18 12
-853.908606981721 -727.909596056173 2547.73299708055 11 16 10
-856.11688861629 -727.60177009221 2554.00230271637 12 17 11
-968.946247894734 -755.266003844462 2545.93137153234 10 15 9
-920.221621016554 -740.799990565558 2568.53047003544 9 14 8
-874.432301380229 -727.185305278369 2589.92772308701 8 13 7
-901.199592260794 -733.6792865714 2588.56085653628 7 12 6
-853.204752424506 -719.500798056137 2610.30090228059 6 11 5
-860.498574698383 -720.615907624835 2614.92053185809 5 10 4
-820.535831928925 -708.705521633276 2633.83159813841 6 11 5
-865.962858127337 -719.435261736806 2633.78509143979 8 13 6
-955.794177062072 -743.206649009055 2614.19694667577 10 15 8
-846.583601609316 -711.46754181906 2659.75808881128 13 18 12
-791.761430167291 -695.600334528146 2682.13906562489 14 16 11
-876.811602917704 -717.10000551483 2671.36007807684 8 10 5
-973.52471325771 -742.574085613873 2651.22645719986 7 9 6
-980.987702710085 -743.699234823918 2656.1541969086 8 10 7
-968.667297411502 -739.44613030971 2666.49823624997 8 10 7
-943.791594691818 -731.796911191373 2680.15118407237 8 8 6
-926.157208293224 -726.13065063117 2691.7213106982 9 11 6
-910.563224805587 -721.032018927675 2702.6433091596 10 12 7
-949.366964723414 -730.657013617748 2699.20779827351 11 13 8
-935.844858306385 -726.127085535207 2709.53973632442 12 15 8
-928.579673552998 -723.297159429038 2718.17826239211 14 19 12
-929.696334443465 -722.73353457547 2724.63160203585 16 21 14
-894.844436118938 -747.825647080184 2519.74443900528 17 19 14
-872.013216850386 -739.482749971105 2541.59627095598 14 16 11
-876.273592405419 -739.744895371309 2547.23824588229 14 16 11
-848.017012482399 -730.857628629263 2563.50515315957 14 16 11
-962.137078147522 -762.002773521866 2533.49697728036 13 15 10
-863.760867589848 -732.509334317249 2579.27496832319 13 15 10
-864.93443325604 -731.917819617158 2585.84084904305 12 14 9
-889.625625354531 -737.902740378606 2585.03884670657 11 13 8
-906.362466380766 -740.725764582117 2593.82249786987 11 13 8
-820.303058319146 -715.83719981129 2627.02873513356 9 11 6
-855.407509565683 -723.811860387876 2629.9756531396 6 8 3
-908.340166897911 -735.779928535994 2634.90127669236 8 13 6
-850.548047318682 -718.90371589202 2658.46830921431 9 14 8
-966.279909048544 -746.306155809507 2660.04443869906 8 10 7
-969.568084158383 -746.301744248203 2666.09331850282 8 10 7
-961.378925995037 -743.154225161781 2675.24279536771 9 9 7
-927.042853992971 -732.862240472239 2691.32584248656 7 9 4
-892.614006292853 -722.571478736272 2707.23789042425 7 9 4
-947.117837069628 -736.577853432731 2699.635622578 9 11 6
-949.316946301043 -736.293740733177 2705.88042316695 11 14 7
-922.115383264756 -728.00761292297 2719.67732489035 13 18 11
-931.633245142939 -729.726926767918 2723.97556863687 14 19 12
-865.176386700106 -746.89211157596 2522.56434361208 19 21 16
-850.218430221598 -741.671392186212 2534.6928259915 20 22 17
-854.455800696258 -741.936411433464 2540.29162615649 17 19 14
-821.1774446676 -731.521571955587 2558.35695071699 16 18 13
-811.158426327839 -727.74707355571 2568.55963014013 21 23 18
-866.168953296333 -742.446645577667 2557.45070691631 15 17 12
-850.058723339544 -736.941691178485 2569.6607274633 13 15 10
-853.264385117709 -736.921599182079 2575.56256565549 13 15 10
-894.940498732742 -744.048245313576 2597.1953820035 14 16 11
-802.673455870735 -717.194642173081 2632.26588508836 12 14 9
-868.517812389943 -734.784222697531 2619.06375575656 11 13 8
-879.95412475639 -737.079385153348 2622.48761100216 9 11 6
-898.627892689143 -741.39569199478 2623.80955688642 6 11 4
-916.308743766838 -745.424211719662 2625.50719499819 6 11 4
-897.856096068281 -739.353775307197 2637.8087335613 7 12 5
-885.965958591397 -730.657409928558 2682.00430317552 9 11 8
-1015.51246672951 -764.700831642938 2660.46239023884 9 9 7
-949.995492062949 -744.792261268489 2691.88290257394 6 8 3
-921.818042808144 -736.138019295289 2706.11097501732 7 9 4
-943.916499605842 -741.335366506863 2707.12169803618 10 13 6
-1021.72892274046 -761.826770384446 2693.90938249114 12 15 8
