ply
format ascii 1.0
comment KinectMotionCapture
element vertex 750
property float x
property float y
property float z
property uchar red
property uchar green
property uchar blue
end_header
-1004.90582685048 240.880996448926 2329.71416219713 184 189 182
-995.499826829102 240.7004721987 2327.78505890668 180 185 181
-985.747664269365 240.422052088397 2324.90753252471 195 199 200
-971.968428925425 239.08247352248 2311.68024529217 192 195 200
-958.642392462025 237.835251672901 2299.36181858586 190 193 198
-947.58068832923 237.163432952836 2292.66393602818 196 199 204
-935.48650383112 236.199153294141 2283.11920269905 201 205 208
-924.176010593947 235.425097246129 2275.43719005378 199 203 204
-914.346091976387 235.035538467503 2271.51297354026 200 204 205
-905.259002880869 234.837935426516 2269.46670931188 198 201 206
-897.250209197021 234.929855232798 2270.25017353912 202 205 210
-888.206589937927 234.729451615391 2268.18790377873 209 212 217
-880.5717217622 234.916349846438 2269.90922933755 207 210 215
-872.598854623344 235.005184445578 2270.67966162324 197 200 205
-865.99891238622 235.482750810481 2275.24681411491 196 199 204
-858.37449741877 235.667589146852 2276.96444051352 205 208 213
-851.090822344376 235.949357922512 2279.63213310654 206 209 214
-841.476320274921 235.54652686253 2275.62864625642 200 203 208
-833.219536913666 235.533067709946 2275.42770719842 197 200 205
-825.96192018652 235.812180409765 2278.08573141011 196 199 204
-819.029753316712 236.188761554738 2281.69941785381 193 196 201
-810.801719963731 236.172541132128 2281.48782449588 195 198 203
-803.549864014139 236.449820791767 2284.14361729494 201 204 209
-796.615918592699 236.82490940554 2287.75809164464 206 209 214
-789.046931571778 237.002741748416 2289.45479607005 206 209 214
-781.795905767544 237.278410840372 2292.11016572622 211 215 218
-774.545219017294 237.553530714826 2294.76537075201 203 207 210
-767.29489229501 237.828100552084 2297.42040346493 195 199 202
-759.435365559443 237.904615015064 2298.14872535172 187 191 194
-751.586405372411 237.980134693994 2298.87287865131 186 190 193
-744.047874993275 238.153755684922 2300.558453587 189 193 196
-737.406195850921 238.623901308178 2305.14021075695 204 208 211
-730.754824025167 239.093935629995 2309.72573555016 207 211 214
-725.261703082375 239.960869380205 2318.18685025078 169 173 176
-717.712257396094 240.132862418606 2319.87626829586 167 171 174
-711.889712884907 240.900918589229 2327.38280393623 180 184 187
-706.04214021662 241.669522343786 2334.89872886733 200 204 207
-700.733072952357 242.637783063589 2344.36717147361 189 193 196
-694.271987525495 243.207888389201 2349.95766482647 171 175 178
-688.902677691992 244.17746132216 2359.4480948291 167 171 174
-682.95001920712 244.947892933989 2367.00208499331 157 161 164
-677.243984178344 245.818859954712 2375.54086369394 156 160 163
-670.701033705234 246.390080375006 2381.16118582817 156 157 159
-664.143443370102 246.961396528358 2386.78683439729 165 166 170
-657.835006534212 247.633103352101 2393.39608701713 176 177 181
-653.335873297993 249.007916051104 2406.86740442542 210 211 215
-650.333668378193 250.98736509991 2426.24055267854 194 195 199
-646.732862411901 252.768282605535 2443.68259456464 191 192 196
-642.041725336378 254.148828633845 2457.22436107246 200 201 203
-639.052465794449 256.236454394421 2477.66726982147 195 197 196
-1004.06533719489 232.814684905141 2328.34437132876 182 187 180
-997.278948574209 233.301264880779 2332.97994688479 186 191 187
-986.769337703677 232.852766232588 2328.23168474753 195 199 200
-973.71940305052 231.746836159511 2316.89015681231 191 194 199
-960.380089437724 230.543651920964 2304.58013120632 192 195 200
-948.213291216596 229.618060337422 2295.06470024678 195 198 203
-934.30778507808 228.219782578782 2280.81205244543 200 204 207
-923.720609747636 227.663337490227 2275.01701711535 199 203 204
-914.603135265715 227.481065523367 2272.98294979299 197 201 202
-905.864515513083 227.391435472812 2271.88477653775 198 201 206
-896.795503387311 227.206121953718 2269.8326172262 199 202 207
-887.752170323497 227.019284975934 2267.77126710493 197 200 205
-879.771330357102 227.114459594584 2268.54482027763 192 195 200
-872.143895316803 227.303227279148 2270.26384045771 181 184 189
-865.543124352064 227.775436588456 2274.83088985885 192 195 200
-858.594311949207 228.152714126632 2278.45093109905 193 196 201
-851.30500710706 228.434673146201 2281.12068355233 194 197 202
-842.351614533481 228.241059496848 2279.02588905735 194 197 202
-834.414803606721 228.331238041603 2279.7830678647 193 196 201
-826.816177930446 228.515753339875 2281.49129967158 191 194 199
-819.222870879644 228.699495035526 2283.19754065253 193 197 200
-810.667142197729 228.596285724132 2282.03189162601 195 199 202
-803.412213562592 228.873745020833 2284.68881440103 193 197 200
-797.109936125002 229.437405682524 2290.22112058726 198 202 205
-789.532926688558 229.618350491055 2291.92097469801 219 223 226
-781.961420221512 229.79864968091 2293.61903496561 217 220 225
-774.085559489024 229.882277569516 2294.35357402097 203 206 211
-767.449180432153 230.348927013722 2298.93339598378 198 201 206
-759.584301280535 230.431143119809 2299.66383849715 190 193 198
-752.334283880757 230.704777814412 2302.31868826358 176 179 184
-744.785193234273 230.881610454084 2304.00834246502 179 182 187
-737.538585807854 231.154129276044 2306.66186906569 199 203 206
-730.586848040383 231.522512726054 2310.28204782232 209 213 216
-724.797904078922 232.276914809626 2317.77559920371 200 204 207
-718.694503384012 232.935040411682 2324.30932976865 195 199 202
-713.718052886083 233.980450281385 2334.72929747646 184 188 191
-707.848738295753 234.736355694513 2342.25216395421 183 187 190
-702.236022838505 235.589621405738 2350.75570055787 169 173 176
-695.197975244699 235.958370605297 2354.40726651211 149 153 156
-689.537793866106 236.812389647088 2362.92810610754 152 156 159
-683.299755791793 237.472710160717 2369.51092109824 163 167 170
-677.855929694292 238.425156100396 2379.02713339901 167 171 174
-670.495456003507 238.69655688912 2381.72194753232 179 180 182
-663.934373119494 239.259970035178 2387.34826878108 178 179 183
-657.622316017453 239.921128785146 2393.95804091057 177 178 182
-653.640680171204 241.461835927124 2409.38721586351 220 221 225
-649.593234932479 243.004519481098 2424.84045096363 235 236 240
-647.272138536824 245.23434543218 2447.18468696067 218 219 221
-641.554808852035 246.193655295369 2456.80104558522 208 209 211
-638.813064423731 248.330759362938 2478.22431225286 189 191 190
-636.96836293117 250.863612939635 2503.61824302667 181 183 180
-997.877153104955 221.375626587551 2292.39741011756 153 159 147
-1001.71997225643 224.389956684475 2323.22758149454 182 187 180
-994.94565821586 224.870631856529 2327.85857868056 188 193 189
-985.934066281119 224.806409057694 2326.86150348812 195 199 200
-974.731372420048 224.19545388536 2320.21944004538 190 193 198
-963.213667894025 223.49101304158 2312.61796762138 191 194 199
-951.025346795457 222.601547082964 2303.11308246758 197 200 205
-934.573145662959 220.614663258649 2282.27518536239 201 205 208
-922.906840548476 219.808968905505 2273.65350913639 200 204 205
-913.43641063546 219.548688893665 2270.67498740294 199 203 204
-905.762587497092 219.744182523906 2272.41136960447 201 204 209
-897.392568004578 219.75578353087 2272.25346431453 200 203 208
-887.993724727134 219.491068128804 2269.24859781071 190 193 198
-879.316645261259 219.408293305305 2268.12858189601 189 192 197
-872.374669484428 219.783679672856 2271.74574213614 197 200 205
-865.768028110346 220.250685495916 2276.31478617136 196 199 204
-859.488970438127 220.809627374871 2281.83829970513 199 202 207
-851.518407439726 220.907645930552 2282.60833344899 195 198 203
-842.560276209633 220.727900712082 2280.51656138639 185 188 193
-834.288082989529 220.731390786251 2280.32250015504 185 188 193
-827.014078593915 221.011203492807 2282.98653143875 187 190 195
-819.415230231445 221.197914828233 2284.69475554514 194 198 201
-810.532138565382 221.013122858971 2282.57533800545 196 200 203
-802.634400581526 221.10519860608 2283.31846329223 197 201 204
-795.381828001132 221.3820894097 2285.97448713037 201 205 208
-788.44430449285 221.751511553961 2289.58983398921 213 217 220
-780.877537458169 221.934319044698 2291.2861071931 216 219 224
-773.935539449606 222.302844125681 2294.90301212108 209 212 217
-766.681687360385 222.577760171129 2297.55935185416 207 210 215
-759.123676892667 222.758736645428 2299.25230531532 204 207 212
-752.477067475597 223.219443634271 2303.83539598443 193 196 201
-745.521208244484 223.586380257038 2307.45696305815 191 194 199
-738.263907585718 223.859376538557 2310.1144109368 195 199 202
-731.00708231464 224.13187782631 2312.77164874119 201 205 208
-725.209164344106 224.873112355028 2320.26746720405 196 200 203
-720.253428150354 225.89663131919 2330.67825692346 182 186 189
-714.970740919081 226.827117568458 2340.13426452894 165 169 172
-708.516785935144 227.381937156315 2345.72101379079 147 151 154
-702.048101945529 227.936766633307 2351.31311539969 157 161 164
-695.006878415731 228.302989895384 2354.96564470472 148 152 155
-689.895386626199 229.329962050656 2365.43354113543 144 148 151
-684.196084488329 230.168895021368 2373.96745650372 167 171 174
-679.009075005565 231.197641176368 2384.46267089427 172 176 179
-672.170090160146 231.659166903495 2389.11572055617 161 162 164
-665.853682217995 232.310222994658 2395.72631124752 179 180 184
-658.990551032041 232.77176934344 2400.38813573767 176 177 181
-653.944559855621 233.898105136029 2411.90603241309 208 209 213
-649.370141980087 235.21587765619 2425.4006540908 232 233 237
-646.786867593106 237.296645806885 2446.76209200629 223 224 226
-641.321252603338 238.332485052068 2457.35932373064 221 222 224
-638.824157402242 240.513746519079 2479.76384243536 203 205 204
-639.451793352462 243.939258494334 2514.99315796069 178 180 177
-991.739233617245 212.180748626659 2277.9344177658 154 160 148
-1002.00874186506 216.606041092085 2324.6687185698 180 185 178
-995.975463991533 217.257376661571 2331.17645856151 188 193 189
-985.840852210799 216.940200668712 2327.36840991353 194 198 199
-975.373500697642 216.532838473846 2322.6078971758 188 191 196
-963.48352542042 215.770187361629 2314.07073640099 195 198 203
-949.475223462618 214.474247143504 2299.86315971208 199 202 207
-933.034169722166 212.554816785078 2279.02630181244 204 208 211
-922.093286521657 211.958581886284 2272.29022339271 203 207 208
-912.625870642348 211.714471515741 2269.31182657288 203 207 208
-904.601189962718 211.823805834976 2270.10237709513 202 205 210
-896.586788747764 211.93227808694 2270.88938196272 199 202 207
-888.234647527139 211.950683918621 2270.72549426008 191 194 199
-879.897885131365 211.968071859526 2270.55594205135 192 195 200
-872.604816410947 212.251815653362 2273.22719672702 201 204 209
-864.971612014747 212.445811169501 2274.94870757901 199 202 207
-858.356447114568 212.907178833984 2279.52016881804 201 204 209
-851.061017875313 213.189496307982 2282.19217354074 198 201 206
-843.100736675285 213.292101700574 2282.95907191055 187 190 195
-834.160908543504 213.124696718412 2280.86132643025 184 187 192
-827.211214060569 213.494459334393 2284.48086684514 183 186 191
-818.632512937814 213.414539320903 2283.32532178382 185 189 192
-810.719087514883 213.513229203666 2284.0749002587 186 190 193
-801.537308959822 213.250660591255 2280.99132796819 201 205 208
-795.240774133075 213.797958268388 2286.52031303493 207 211 214
-788.299972500025 214.164872160133 2290.13640740269 207 211 214
-781.666422724437 214.62173385415 2294.71446287998 192 195 200
-774.094555626491 214.807063185698 2296.4127794053 183 186 191
-767.142046007742 215.172842827616 2300.03329644825 173 176 181
-759.271745603709 215.266287898944 2300.76655594958 171 174 179
-752.317385913565 215.631081602206 2304.38741649705 180 183 188
-745.059183401784 215.904708648127 2307.04523964495 179 182 187
-737.801414329729 216.17784233967 2309.70286808355 193 197 200
-731.42634745214 216.723593898842 2315.26027013652 200 204 207
-725.619474702913 217.451749448947 2322.75835537695 174 178 181
-721.232237502307 218.636430250616 2335.10811476061 153 157 160
-715.648768781818 219.457288227503 2343.59857971115 151 155 158
-708.615969728112 219.821633899894 2347.2479064205 154 158 161
-702.141222130398 220.368690626406 2352.8416246995 157 161 164
-695.09428131994 220.732546822457 2356.4960527084 197 201 204
-689.69971787546 221.646443107917 2365.99145740432 202 206 209
-683.996445645513 222.469362905264 2374.52560703665 172 176 179
-678.534115214331 223.384835693567 2384.04575297345 168 172 175
-672.76823559726 224.209130348799 2392.60275395593 171 172 174
-666.440513430397 224.849879505865 2399.21667785538 174 175 179
-659.829733663725 225.398768791401 2404.85995999948 171 172 176
-653.986718658745 226.224529665871 2413.44509779375 184 185 189
-649.14673502823 227.420443105914 2425.96020447854 195 196 200
-645.790433260104 229.172602423751 2444.37804949872 219 220 222
-640.075011362162 230.094303969942 2453.99062303984 220 221 223
-636.830212175306 231.9433305609 2473.4418200127 212 214 213
-1004.92823772423 209.405974784841 2332.66446863622 175 180 173
-998.870746621403 210.04738842912 2339.18025757834 187 192 188
-987.230376895623 209.40857375409 2331.62830562727 191 195 196
-974.173301963307 208.425139239683 2320.29886881439 193 196 201
-962.28984414641 207.694808283844 2311.7617786089 200 203 208
-945.747325021067 205.847827987614 2290.96725336695 202 205 210
-931.496045685029 204.509914311149 2275.77823628254 198 202 205
-920.563943127514 203.940432348815 2269.04098607723 195 199 200
-911.815556311389 203.884294845225 2267.94888862911 194 198 199
-904.146096077404 204.085050877288 2269.683828375 194 197 202
-896.832053232658 204.371222271911 2272.36288690407 194 197 202
-888.822564639661 204.484385783872 2273.14846079467 200 203 208
-880.823235131902 204.596570436065 2273.9300153463 199 202 207
-873.519419870265 204.880793772851 2276.60521082626 203 206 211
-865.875628983597 205.07788285885 2278.33080156259 202 205 210
-857.89950143173 205.187582619159 2279.10373848324 201 204 209
-849.93380048872 205.29638478565 2279.8730736057 201 204 209
-841.646068098423 205.317424658876 2279.68598249881 194 197 202
-833.373854680189 205.337292284506 2279.49316431861 187 190 195
-826.426079189653 205.704300069565 2283.1117996351 182 185 190
-818.499374957278 205.809507561706 2283.86644025892 181 185 186
-810.905295734392 206.001080728951 2285.57355269602 181 185 186
-802.67748414018 206.017188300812 2285.36431796361 190 194 197
-795.41625630218 206.294536468717 2288.02352109074 190 194 197
-788.155311593189 206.571456708478 2290.68258905861 181 185 188
-781.20657896145 206.935451063822 2294.30159907761 181 184 189
-774.87151540457 207.474591015692 2299.84371326028 182 185 190
-767.908125407098 207.838145821407 2303.46801568598 177 180 185
-759.723296352316 207.849595977495 2303.24281237335 180 183 190
-751.554279908167 207.859921962008 2303.0117789249 204 207 214
-744.597179470999 208.22172608098 2306.63340971978 209 212 217
-737.338955968308 208.494996636084 2309.29121359667 219 223 226
-731.84468889933 209.297718719397 2317.74789985517 203 207 210
-725.737467689526 209.924282266368 2324.2806371492 156 160 163
-721.054234306531 210.993728559172 2335.66269219674 151 155 158
-714.894319411773 211.62127952155 2342.21464958746 162 166 169
-708.147181027397 212.071741991332 2346.83349324039 194 198 201
-701.671513689263 212.610795161303 2352.4269418145 198 202 205
-694.902500322745 213.061024520304 2357.05346157611 222 226 229
-688.675925592457 213.689231523109 2363.629942793 217 221 224
-683.249779653395 214.584918417249 2373.13544866762 189 193 196
-677.788423618029 215.481475184393 2382.65381332582 189 193 196
-672.291955364943 216.378897999296 2392.18500091603 170 171 173
-666.228915185855 217.098379366664 2399.77525261776 166 167 171
-660.141040857589 217.818370959914 2407.37482030113 167 168 172
-654.549581366563 218.717957827688 2416.94068505667 179 180 184
-649.955337695782 219.976996774989 2430.43782434322 183 184 188
-645.561184436439 221.327461946264 2444.9359720663 207 208 210
-639.841689195973 222.230444744546 2454.5486132463 203 204 206
-635.839932022589 223.763826002233 2471.05110252081 201 203 202
-832.600110757866 133.266082477828 1569.29161837351 201 209 196
-1000.64342150994 202.539439465128 2344.36953751595 188 193 189
-987.876967914155 201.683105597013 2334.01039893629 191 195 196
-975.550167673458 200.906066309025 2324.56431122717 194 197 202
-962.193336787588 199.877428333512 2312.27382009862 202 205 210
-944.562762356337 197.849480185627 2288.66079457442 204 207 212
-929.958771799486 196.479866577543 2272.53098267452 198 202 205
-919.75114480448 196.103534068252 2267.67844350486 195 199 200
-912.426504250662 196.391191570896 2270.36146470885 194 197 202
-904.74901984909 196.594970809295 2272.09954804191 195 198 203
-897.426792671125 196.88143228411 2274.78160213361 197 200 205
-889.061809159437 196.916746549972 2274.62365628596 198 201 206
-881.057263447737 197.03460013935 2275.40778811599 198 201 206
-873.405331376348 197.235326214786 2277.13635696188 198 201 206
-865.75864795636 197.43523795509 2278.86321163796 201 204 209
-857.779788802893 197.550523241838 2279.63756248895 201 204 209
-849.141816338273 197.496799938773 2278.50552951566 204 207 212
-841.188894029388 197.610075277398 2279.27055918843 205 208 213
-833.246286581253 197.722365668312 2280.03151246379 202 205 210
-825.968265676546 198.002514001707 2282.69702841967 198 202 205
-818.690433515107 198.282178543832 2285.3624392952 186 190 191
-811.090909927244 198.476733646686 2287.07175486637 189 193 194
-803.177337365634 198.585864546997 2287.82192028845 194 198 201
-795.591163669367 198.778885534234 2289.52626959118 195 199 202
-788.324618907176 199.056024632546 2292.18738878191 194 198 201
-781.681722150993 199.502516200862 2296.76780362046 187 190 195
-775.028982400694 199.948961893972 2301.35204563233 193 196 201
-768.672901575669 200.480363848989 2306.90146663884 204 207 212
-759.869851083553 200.329975113977 2304.75530860846 214 217 224
-751.997206405915 200.434098343251 2305.49047986175 219 222 229
-744.135191204399 200.537343432892 2306.22146846488 219 222 227
-737.469166064416 200.981777384989 2310.81038576867 184 188 191
-731.380824451657 201.597419720321 2317.33543937322 169 173 176
-724.981346567517 202.127510329023 2322.90052921788 199 203 206
-719.432908132527 202.915168799046 2331.37576139435 221 225 228
-712.996106999414 203.445705675126 2336.95444584861 240 244 247
-707.111437835694 204.148360200183 2344.47861904971 246 250 253
-700.920882893069 204.765376905145 2351.04091429394 244 248 251
-693.875403844746 205.124100373767 2354.69467822253 214 218 221
-687.928579964009 205.827724978573 2362.24150776058 216 220 223
-681.683630677715 206.445408476154 2368.82361682318 212 216 219
-676.772400043548 207.495746095323 2380.28707005445 190 194 197
-671.27950696005 208.374151246894 2389.81552373822 169 170 172
-666.017114688545 209.340144080114 2400.33364699379 170 171 175
-660.188482835824 210.133601696716 2408.91112151631 174 175 179
-655.111228238009 211.188357159652 2420.43497651662 185 186 190
-650.762487379624 212.505097971561 2434.91407965222 194 195 199
-645.842450466755 213.649590509271 2447.45439291165 190 191 193
-640.619313821748 214.708395895826 2459.03181221669 194 195 197
-636.351863993463 216.11731883556 2474.5548907944 205 207 206
-1008.12890560644 194.296976607757 2342.09442928303 176 181 174
-996.072116725499 193.640266657369 2333.62587158489 198 203 199
-985.558599344877 193.300364622449 2328.88722261734 192 196 197
-972.878295473704 192.478108322775 2318.49960811963 194 197 202
-961.000222321745 191.812805991052 2309.96546797668 204 207 212
-943.74158151373 189.940851753428 2287.29588553173 206 209 214
-930.583749462222 188.946732115802 2274.93544081182 202 206 209
-919.65385000082 188.431534903267 2268.20148601002 199 203 206
-911.971079376236 188.638752620473 2269.9420037704 196 199 204
-904.645863758942 188.925866854777 2272.62519292608 199 202 207
-897.670539892317 189.293236649705 2276.25386491639 201 204 209
-888.953031117749 189.256020914938 2275.15197599384 194 197 202
-880.945679144024 189.37947663987 2275.93729582907 191 194 199
-872.948596529445 189.501965280021 2276.71881145237 192 195 200
-865.981062481939 189.866932630585 2280.34472614584 191 194 199
-857.996914648896 189.987903378248 2281.12142754984 194 197 202
-850.357764468757 190.189307264007 2282.84565770174 195 198 203
-842.391783551849 190.308555639448 2283.61562842712 197 200 205
-834.436278181678 190.426874732573 2284.38197718239 198 201 206
-826.164254282566 190.462635298699 2284.19028929052 199 202 207
-818.880822067926 190.742518699375 2286.85775138892 195 199 200
-811.597615302434 191.021946650191 2289.52509720876 193 197 200
-804.314660196513 191.30076924715 2292.19230591631 187 191 194
-796.398651397133 191.4150572676 2292.94374562801 190 194 197
-787.865075506064 191.364132228581 2291.77399259249 199 203 206
-780.286882497417 191.558687426198 2293.47555797031 198 201 206
-773.640991427404 191.999430158409 2298.05662699667 194 197 202
-766.985274844415 192.440185884086 2302.64152128651 207 210 215
-759.104325683915 192.550572766668 2303.37992816769 218 221 228
-751.535385603902 192.742801134386 2305.07795604602 214 217 224
-744.868045051325 193.182476485237 2309.66673793929 211 214 219
-738.487141041778 193.704784303158 2315.22449197379 174 178 181
-731.797773332558 194.144324211616 2319.82152124619 181 185 188
-724.807617583736 194.500750373615 2323.45475650173 232 236 239
-718.389787064704 195.02310186663 2329.02593061924 234 238 241
-711.957187341271 195.545494595737 2334.60247405468 229 233 236
-707.209806176969 196.56778162786 2346.00427815869 228 232 235
-701.855389541088 197.424457700139 2355.48077865489 235 239 242
-695.352872978046 197.948094088558 2361.08281933994 240 244 247
-688.284312850513 198.304666371046 2364.74455287572 240 244 247
-681.484474991769 198.744593197171 2369.38174929565 231 235 238
-676.839283509312 199.854583166671 2381.81959761467 222 226 229
-671.071763881518 200.630556028019 2390.37354851812 176 177 179
-666.335875607922 201.743048407739 2402.84453919828 170 171 175
-660.760996035626 202.604797169303 2412.40152490116 172 173 177
-656.192239956902 203.804002783159 2425.88488906779 183 184 188
-651.568074899651 205.004764653827 2439.38875712449 186 187 191
-646.633167901907 206.122831567472 2451.93247938866 187 188 190
-641.900576979272 207.326772642745 2465.47572820493 200 201 203
-638.612935390058 209.039432363173 2484.93220233335 214 216 215
-1005.78409192764 185.886846825184 2336.97854063095 176 181 174
-994.860304340468 185.493524726377 2331.31837137035 200 205 201
-983.982303865377 185.097920698406 2325.64113945197 196 200 201
-972.782458411398 184.622632451679 2319.00827736214 197 200 205
-958.346825162314 183.447889931965 2303.898554502 206 209 214
-943.283216741109 182.113790111695 2286.87186236747 204 207 212
-930.847542069304 181.31834343593 2276.3971334184 195 198 203
-920.986154828426 181.06367865327 2272.49452860492 192 196 199
-912.58031932355 181.118425259538 2272.35289202169 192 195 200
-904.894580112392 181.327992188428 2274.09466563283 194 197 202
-897.91348411842 181.692818405235 2277.72524293674 197 200 205
-889.538319108953 181.744863874316 2277.57251311086 199 202 207
-881.523113511023 181.874075526149 2278.36112075657 199 202 207
-873.176079315941 181.92393358227 2278.19775060033 199 202 207
-865.863163072779 182.208065960217 2280.87624594567 197 200 205
-858.21334777513 182.413102455457 2282.60462522147 200 203 208
-851.237573460314 182.774743099886 2286.23302860297 199 202 207
-843.593108229362 182.978587900701 2287.95937408337 198 201 206
-834.636634585056 182.866412731997 2285.87184372051 201 204 209
-826.359491674425 182.91056173788 2285.68264867894 205 208 213
-818.746314312036 183.111724740836 2287.39742375576 192 195 200
-811.781664826947 183.470399655947 2291.02156129983 183 186 191
-803.216930903417 183.432632468332 2289.86412192852 173 176 181
-795.938925640326 183.710904306771 2292.52949061667 176 179 184
-787.405532042884 183.670929686074 2291.36049757357 186 189 194
-780.761065228703 184.106822831311 2295.94068320522 204 207 212
-772.871603508436 184.224168738962 2296.68296239384 210 213 218
-766.217610962791 184.659421782539 2301.26656078477 205 208 213
-758.339158788704 184.775354814744 2302.0047331881 191 194 199
-752.579084456432 185.449736103477 2309.48150314702 181 184 189
-746.196760851952 185.964595866686 2315.03921100605 172 175 180
-740.095489526963 186.559632379606 2321.56740771841 187 191 194
-733.094020777044 186.914372888425 2325.20488053213 167 171 174
-726.669659997151 187.42935695556 2330.7778714546 142 146 149
-719.653803982316 187.783690826004 2334.4202867152 172 176 179
-712.919198570729 188.218269331888 2339.033378198 169 173 176
-707.590746855638 189.055588682244 2348.49898416781 141 145 148
-702.788223095948 190.055092231455 2359.91885029215 148 152 155
-696.272022378005 190.571253691893 2365.52529894932 162 166 169
-689.465608947372 191.006613800482 2370.16453995532 226 230 233
-682.376691677156 191.360914750003 2373.83349862984 235 239 242
-677.17594868192 192.282365293781 2384.32586160127 233 237 240
-670.595943271137 192.799084902622 2389.95553501269 200 204 205
-665.858020989665 193.884650004969 2402.42523301822 175 179 182
-660.281584952688 194.72758165523 2411.98136446207 170 174 177
-655.450532898161 195.815744252412 2424.48509599673 180 184 187
-650.569054120551 196.905311859529 2437.00725546387 187 188 192
-646.147317214111 198.159577074667 2451.50816692151 239 240 242
-641.917411937479 199.497281401306 2467.01197629029 225 226 228
-640.120814072841 201.655103047316 2492.36013245152 207 209 208
-890.910297131549 150.476403920765 1994.19013187014 161 168 152
-921.922815674421 158.078251204634 2089.09238740589 157 163 151
-1000.43836988771 176.907973531872 2324.37712356784 172 177 170
-995.512619382759 177.728290429335 2333.69538450781 199 204 200
-983.517334523107 177.133820355096 2325.20917618703 194 198 199
-970.112936536997 176.237950058066 2312.94573120046 196 199 204
-954.235076467348 174.815358207845 2294.07484362349 204 207 212
-940.649852172054 173.836436336146 2280.80427701451 200 203 208
-930.390806264622 173.52787230281 2275.97527920122 189 192 197
-921.95953229523 173.592323739285 2275.84387191767 185 189 192
-913.188596194952 173.580494494602 2274.76305629494 190 193 198
-905.14264912608 173.717831670292 2275.56370086054 192 195 200
-897.456442309558 173.929514880354 2277.3055497418 194 197 202
-889.775419047577 174.140594730887 2279.04572402385 196 199 204
-881.755009476298 174.275385514121 2279.83689772815 195 198 203
-873.402857146434 174.333691527598 2279.67602459435 196 199 204
-865.744887553915 174.542335748708 2281.40738453513 200 203 208
-858.429006961157 174.826018235231 2284.08692299497 203 206 211
-851.781795076784 175.26114146869 2288.66830222789 200 203 208
-844.129333646375 175.468067934666 2290.39778554441 189 192 197
-835.494625071597 175.445942131707 2289.26669645395 186 189 194
-827.207245497832 175.498679582916 2289.08186878844 185 188 193
-819.583511360937 175.702994546248 2290.80071735834 197 200 205
-812.607981497126 176.059444625156 2294.42864028516 210 213 218
-803.714315812313 175.956532851944 2292.31924267513 190 193 198
-795.479187582396 176.005352357929 2292.11513451891 181 184 189
-786.632248391549 175.899721164711 2289.98855423425 195 198 203
-779.989571103252 176.330184704977 2294.56767999157 208 211 216
-772.411154614761 176.529870096669 2296.26971364935 220 223 228
-765.756392769193 176.959793538058 2300.85318942883 217 220 225
-758.788360011251 177.312572247243 2304.47836567008 189 192 197
-753.621244680081 178.128192171277 2313.88371481635 170 173 178
-748.120346808366 178.867333800184 2322.33801304768 156 159 164
-742.293270404947 179.529862528722 2329.83823308068 155 159 162
-735.268170844479 179.882906283433 2333.4841638325 152 156 159
-729.11047020866 180.468327094555 2340.0321379126 163 167 170
-722.356518745625 180.898732560112 2344.65168937462 170 174 177
-715.592989958911 181.32908176766 2349.27497069849 175 179 182
-709.668740978282 181.992906969313 2356.81059499902 167 171 174
-704.280516804876 182.813134719438 2366.29688326437 154 158 161
-698.301186603826 183.478100196858 2373.85260667645 156 160 163
-690.920321078923 183.75282888345 2376.55508102411 157 161 164
-684.631221780576 184.339990496947 2383.15092851923 165 169 172
-678.862718367546 185.084260663593 2391.70284484987 182 186 189
-672.261322609889 185.593776738162 2397.33974665944 239 243 244
-666.440588688751 186.339045994494 2405.91071567807 228 232 235
-659.539777995232 186.770472652572 2410.5839579696 210 214 217
-653.929375426693 187.595407187011 2420.15107281884 225 229 232
-648.798647681549 188.57888456729 2431.68897857657 214 215 219
-646.171230228203 190.352706903086 2453.0435500792 212 213 215
-643.699742877099 192.208648135394 2475.41421855912 195 197 196
-642.375431378913 194.463353751429 2502.73145217733 188 190 189
-886.290009407951 142.650066577135 1983.54521042936 162 169 153
-1011.97792706683 171.219916431556 2353.88753874199 160 165 158
-998.399209440753 170.375522706375 2341.69131461664 194 199 195
-986.382360443267 169.814486344512 2333.2157182892 189 193 194
-970.017311212027 168.387736251754 2313.45472054204 200 203 208
-952.680545790968 166.739653546992 2290.83041516758 204 207 212
-940.192220385635 166.022953648701 2280.38101208263 195 198 203
-929.93397426571 165.736065012207 2275.55335911981 184 187 192
-921.859865559679 165.880904612461 2276.36480193569 189 193 196
-913.086616660876 165.880050054941 2275.28590900245 191 194 199
-905.389908371832 166.095448806785 2277.03185380662 193 196 201
-896.999322660112 166.164904256634 2276.88578620658 197 200 205
-889.664893625644 166.451336407633 2279.57227147845 201 204 209
-881.641774739031 166.591741622257 2280.36485319656 202 205 210
-873.62885055255 166.73122613709 2281.15340702374 206 209 214
-865.626308403804 166.869785024081 2281.93837313188 192 195 200
-858.644052895787 167.226765934719 2285.56877978991 189 192 197
-851.322673604326 167.510246455671 2288.25030089487 186 189 194
-843.669908183778 167.719983739562 2289.98010674312 182 185 190
-835.035383649048 167.708778510741 2288.84977475876 182 185 190
-826.421639877557 167.696241256154 2287.71204614449 183 186 191
-819.12399779856 167.976858655413 2290.38472660162 179 183 186
-812.147852573806 168.330712501623 2294.01267722227 182 186 189
-803.573242692218 168.315276142586 2292.86051105409 188 192 195
-795.019456453725 168.298489997314 2291.70067703082 198 202 205
-786.800032861025 168.354467260327 2291.49140285432 225 229 232
-780.462538747805 168.853907866838 2297.03165907563 219 223 226
-773.493057888756 169.205029857276 2300.65698215906 199 203 206
-766.82477887803 169.630227314789 2305.2452669545 179 183 186
-759.843255415317 169.980926670464 2308.87493367964 163 166 171
-753.75939851057 170.554677657197 2315.39519705219 153 156 161
-747.655561187061 171.128778954615 2321.92300079799 149 152 157
-742.418605046285 171.927178489332 2331.35242642734 144 148 151
-735.973909254464 172.42741424348 2336.93169303955 143 147 150
-730.385966773008 173.152300580298 2345.41654226197 158 162 165
-723.61590354502 173.578035602274 2350.04159534083 150 154 157
-717.121649658808 174.078719365171 2355.63890207283 199 203 206
-709.764040854838 174.354027940478 2358.33297013392 204 208 211
-703.528218529196 174.929876870653 2364.90860654404 176 180 183
-697.272611541958 175.506068461025 2371.49171162425 152 156 159
-691.272191344624 176.157982583529 2379.05411307842 159 163 166
-685.24697544759 176.810345877387 2386.62581193744 160 164 167
-679.736911607808 177.614446293663 2396.15489799087 174 178 181
-673.656730781969 178.26798878564 2403.74640233983 204 208 209
-667.286844377051 178.846248429399 2410.37093115685 229 233 236
-659.323098189962 178.969326199846 2411.14063316019 224 228 231
-652.409565690973 179.395546757836 2415.81785064758 180 184 187
-647.030099484565 180.27833557276 2426.37223338431 196 197 201
-644.666606382631 182.076608430167 2448.69931232687 199 200 202
-643.714391806147 184.335874880375 2476.94824951919 195 197 196
-643.628243648858 186.905109869536 2509.172379133 191 193 192
-1010.38284422625 162.946178768754 2350.64290250401 157 162 155
-998.303607941446 162.420721207739 2342.19265829831 196 201 197
-985.545792398377 161.754169071321 2331.84470052442 196 200 201
-967.350328322738 160.046562678502 2307.39478898694 202 205 210
-950.762165623125 158.609756788066 2286.64754177831 199 202 207
-939.010112051986 158.069322703998 2278.07703549774 190 193 198
-929.117465819084 157.873466220721 2274.19022543008 186 189 194
-921.402782069062 158.093246004953 2275.94328625542 193 197 200
-912.629706719084 158.103223103791 2274.86514753115 204 207 212
-904.580812503272 158.251497812692 2275.667433855 205 208 213
-896.542121234638 158.398927136016 2276.46594927928 204 207 212
-888.860486708141 158.615479871076 2278.20675859456 198 201 206
-881.183970680372 158.831266824772 2279.9456503876 196 199 204
-873.17090517766 158.976205857842 2280.73466711238 194 197 202
-865.84633439323 159.260823488824 2283.41743360336 193 196 201
-858.521838742998 159.544961768551 2286.10013662745 193 196 201
-850.8635118739 159.75813220282 2287.83222219549 193 196 201
-842.879010219854 159.899989706022 2288.610628095 190 193 198
-834.576117694786 159.970305707544 2288.43276319698 188 191 196
-826.288789591051 160.039566788968 2288.24916356476 188 192 195
-818.988135999213 160.320331658636 2290.92294934448 178 182 185
-811.687721839176 160.600640531981 2293.59661372398 170 174 177
-803.750473521887 160.738285313468 2294.35778716035 179 183 186
-795.507720281757 160.803868906269 2294.15771433381 189 193 196
-787.907561075576 161.010954741096 2295.86820631272 194 198 201
-780.934539010484 161.360130812048 2299.49466922656 206 210 213
-774.265130666226 161.780429601067 2304.08299473893 187 191 194
-767.891481409538 162.272274789441 2309.63556008997 171 175 178
-761.199795152745 162.692431851328 2314.23196931105 148 152 155
-754.197619162358 163.040841642198 2317.86896712376 151 155 158
-747.786904381347 163.532662695442 2323.43525225598 157 161 164
-741.952297854868 164.168495027761 2330.936448285 179 183 186
-734.920824636726 164.516561002061 2334.58406493928 177 181 184
-728.755853754053 165.080857050992 2341.13308667605 174 178 181
-722.283141541141 165.573225174009 2346.72193908085 181 185 188
-716.080877124046 166.13799610496 2353.28454678983 165 169 172
-709.010718125952 166.485773730928 2356.9464519897 159 163 166
-702.216141239079 166.905767199289 2361.57997859204 183 187 190
-696.522225086785 167.616244742429 2370.10224486236 176 180 183
-691.348215652128 168.472840677939 2380.58000114352 180 184 187
-686.406340722108 169.403290902173 2392.04528859765 173 177 180
-681.419119088491 170.335053013947 2403.52740550144 169 173 176
-676.386548184682 171.268051477047 2415.02609278283 164 168 169
-670.514389772571 171.983023595076 2423.61346028279 154 158 161
-661.728137109537 171.893465673145 2421.46578875226 169 173 176
-653.747299118971 172.022362653203 2422.24213991833 229 233 236
-647.062743362981 172.517395982672 2427.90790982683 212 213 217
-644.690556541901 174.261832493891 2450.234339791 205 206 208
-643.224629699319 176.303812195391 2476.52016652948 194 196 195
-644.629552735461 179.23394215169 2514.62961011906 193 195 194
-1011.41229702758 155.150321583333 2353.94713302202 150 155 148
-999.324233991653 154.657873181486 2345.50258650026 193 198 194
-984.339820672003 153.631525814234 2329.53689646267 199 203 204
-966.520636679853 152.068872857208 2306.02750714026 210 213 218
-949.938637376063 150.699820627224 2285.28338696559 190 193 198
-939.276605302519 150.391863156947 2279.53429868909 186 189 194
-929.379480278023 150.215208531573 2275.65056474546 199 202 207
-921.302443654024 150.371044465403 2276.46364676957 198 202 205
-911.818336918625 150.258064528703 2273.50120836521 193 196 201
-903.771953663416 150.411706185509 2274.30324161282 194 197 202
-895.386537501834 150.497306587674 2274.1565138835 196 199 204
-888.402905300551 150.850827741701 2277.78715970174 197 200 205
-880.726099266708 151.069454742724 2279.52637115098 197 200 205
-873.054436638196 151.287314988995 2281.26365595505 200 203 208
-865.387873345879 151.504513221869 2282.99878372354 195 198 203
-857.39026582154 151.653330608078 2283.78273091746 191 194 199
-850.070546973144 151.936805788265 2286.46364831813 189 192 197
-841.757276237366 152.016281509697 2286.29024532929 190 193 198
-834.116820217482 152.230523995349 2288.01566432942 187 190 195
-825.177394808311 152.171801507232 2285.92622709786 170 174 177
-817.881418420107 152.45250268843 2288.59830866845 178 182 185
-809.943722128288 152.596193406788 2289.35984674113 187 191 194
-802.65337196421 152.87569210091 2292.02979336364 190 194 197
-795.679211045474 153.223171984711 2295.656796391 191 195 198
-788.700144873508 153.570380849605 2299.28530692702 202 206 209
-781.71627738633 153.917330718195 2302.91554241948 193 197 200
-774.727661016076 154.263959989492 2306.54747916993 154 158 161
-767.73435950204 154.610312033057 2310.18135159703 143 147 150
-760.13021796555 154.818520024444 2311.89312086935 157 161 164
-753.13265519518 155.164145326421 2315.5284867371 177 181 184
-746.428229629207 155.578561005532 2320.12883712587 192 196 199
-740.600077209497 156.200712156684 2327.62665586855 214 218 221
-733.5756878367 156.546029881312 2331.27149133597 213 217 220
-727.127179237918 157.02982945212 2336.85090314785 214 218 221
-720.376209640061 157.444263895274 2341.46842045237 207 211 214
-714.185693643554 157.997915896852 2348.02592057797 214 218 221
-707.127705610517 158.342670824295 2351.68292123648 224 228 231
-701.185131242874 158.966405492961 2359.22243324882 217 221 224
-696.049680660904 159.800426822251 2369.6842220554 175 179 182
-691.973302380886 160.915540470691 2384.04915254639 177 181 184
-686.202536745927 161.61187047158 2392.59827366515 162 166 169
-680.941139077793 162.449295431052 2403.10608058733 173 177 180
-675.639568288293 163.287830086643 2413.62882194678 167 171 172
-670.297805261587 164.127323912389 2424.16598472107 176 180 183
-663.343663978289 164.545113118993 2428.85757505117 174 178 181
-656.120631483216 164.892149603349 2432.57471470801 180 184 187
-649.407137313416 165.380350024941 2438.25073778045 205 206 210
-645.222647128612 166.576348669728 2453.72760852611 203 204 206
-642.986789950821 168.341332984666 2477.07235710788 194 196 195
-642.887420477108 170.748388995523 2509.28905385958 193 195 194
-1009.50938033699 145.25430510294 2328.29273403725 160 166 154
-1006.8204079067 146.379767623382 2343.22090495612 177 182 175
-996.250382329877 146.172909455367 2338.5128259106 188 193 189
-980.917029825754 145.136464860561 2321.60634618832 205 209 210
-962.388458082071 143.521554329173 2296.2176486844 204 207 212
-948.38645604236 142.666335748551 2282.04129045524 190 193 198
-938.094918587091 142.446463667672 2277.23078999093 193 196 201
-928.922172550047 142.416690472761 2275.2283111761 200 203 208
-920.131626929613 142.449652508567 2274.15825430737 200 204 207
-912.069725012821 142.609780207838 2274.96616114453 196 199 204
-903.666439752539 142.704654429561 2274.82662565433 197 200 205
-895.627481144972 142.862992191665 2275.62606127201 200 203 208
-887.598831167613 143.020436970736 2276.42193830546 204 207 212
-880.268156999554 143.306245960978 2279.10701227488 200 203 208
-872.596209605643 143.526886497901 2280.84461032227 197 200 205
-864.929359797274 143.746805537983 2282.58004748206 195 198 203
-856.59538293081 143.836231697164 2282.41491858453 200 203 208
-848.944176988167 144.054602606171 2284.14480923669 198 201 206
-841.298231999599 144.272351046099 2285.87274142038 198 201 206
-833.986051506179 144.554608562106 2288.55082797888 199 202 207
-826.348065284119 144.771106822877 2290.27551981055 206 210 213
-818.392140202916 144.921451444842 2291.04443743989 207 211 214
-809.484214011128 144.874315261288 2288.94417525964 208 212 215
-801.556998773333 145.022644581207 2289.70250946693 217 221 224
-794.587292137869 145.367314018287 2293.32742772796 215 219 222
-789.178362243193 146.040927462898 2301.74336633328 182 186 189
-782.496742245943 146.451474272775 2306.33513869013 149 153 156
-775.497338950815 146.795950692071 2309.97108660461 169 173 176
-768.187738062515 147.07399831472 2312.64791825252 193 197 200
-760.878558380528 147.351582837024 2315.32456191869 212 216 219
-754.17035202436 147.761292798371 2319.9259309566 212 216 219
-748.047910998903 148.30387382326 2326.45811587108 214 218 221
-741.905388292159 148.846687619217 2332.99736047222 203 207 210
-734.865069053057 149.189948073323 2336.64782863395 202 206 209
-727.820156494964 149.533030730112 2340.29995230588 203 207 210
-721.345660731833 150.009389554194 2345.88824481428 210 214 217
-714.571477907117 150.418984450676 2350.51383120436 229 233 236
-707.222935133679 150.694504454485 2353.2046211887 227 231 234
-700.714412518309 151.170882958463 2358.80527841526 220 224 227
-695.854546167568 152.050562310165 2370.23719263461 195 199 202
-691.773196445281 153.133338848706 2384.60123524544 184 188 191
-686.270577460711 153.881080230577 2394.12336392424 171 175 178
-680.193781119279 154.494785444398 2401.71088708191 168 172 175
-675.160050851449 155.379294449559 2413.20633699676 169 173 174
-670.60981863048 156.400400901663 2426.66953288405 172 176 179
-664.956615099624 157.152032368033 2436.24666809672 177 181 184
-658.231212594638 157.633164874819 2441.92648462909 173 177 180
-651.491241890145 158.114420089916 2447.61160359398 174 175 179
-647.278676363022 159.276320811033 2463.09610242307 203 204 206
-645.013379501492 160.985464541286 2486.44733428624 215 217 216
-1003.35538677915 137.849808334298 2335.30331969902 185 190 183
-994.294346541069 137.907111880404 2334.33312598372 197 202 198
-976.388586515049 136.500757936447 2310.86724030111 206 210 211
-959.726561392616 135.271369571737 2290.16248006809 196 199 204
-946.835109133995 134.6477955526 2278.80001836701 197 200 205
-937.637153971095 134.633105275133 2276.80758269927 202 205 210
-929.542117774775 134.80088627015 2277.62836022317 210 213 218
-921.100595631909 134.906425833859 2277.50352234546 212 216 219
-912.320387179854 134.949345901498 2276.43046094465 215 218 223
-903.560525272188 134.990948519915 2275.34965317125 214 217 222
-894.821210905683 135.03131755503 2274.26154093393 214 217 222
-887.833804880141 135.379596752295 2277.89316241024 212 215 220
-880.153858684774 135.603735919104 2279.6339306998 207 210 215
-873.161338567381 135.951262153022 2283.26735350545 200 203 208
-865.148022075013 136.112186978858 2284.05792188305 198 201 206
-857.144962767766 136.272188662896 2284.84443948231 200 203 208
-849.152347547694 136.431292070037 2285.62734888131 197 200 205
-841.831873619017 136.714439448731 2288.30851589785 197 200 205
-834.18316809525 136.934542660653 2290.03737445371 199 202 207
-827.191434314428 137.279314862348 2293.67055806287 209 213 216
-818.901877122713 137.372841115929 2293.48959918802 212 216 219
-810.627961256933 137.465309443864 2293.30287740987 213 217 220
-803.323918586721 137.745521917428 2295.97785288987 202 206 209
-796.020192252911 138.02527538912 2298.65267880054 192 196 199
-790.594463174845 138.683257936939 2307.07354180395 164 168 171
-784.20715257594 139.152338561867 2312.62960751626 164 168 171
-778.112635420583 139.684879415689 2319.15063478786 202 206 209
-770.471660360945 139.90054165496 2320.8763494973 212 216 219
-762.533641908586 140.052121894299 2321.63885420522 198 202 205
-756.106938588317 140.520895938647 2327.20920964057 186 190 193
-749.962859823156 141.053468075571 2333.74824686663 177 181 184
-744.388786859971 141.714002550355 2342.22320132145 185 189 192
-737.907177085537 142.183552729167 2347.81356489416 185 189 192
-731.120819584552 142.589140956098 2352.44301818647 180 184 187
-724.037523560757 142.930643084622 2356.10922306483 179 183 186
-716.664909675496 143.207699342518 2358.8088749009 184 188 191
-709.010652656946 143.419980013867 2360.53916030011 192 196 199
-702.760439216419 143.953530114503 2367.11708833375 218 222 225
-696.490304900776 144.487425805384 2373.70202613951 242 246 249
-691.298341349084 145.279944680219 2384.18121680383 218 222 225
-684.706476423958 145.75020090946 2389.811693486 181 185 188
-678.638733213823 146.350093592372 2397.39488512357 181 185 188
-674.146983812877 147.339763810879 2410.83446009203 171 175 176
-669.071232744829 148.201111701905 2422.34343019863 164 168 171
-664.473503511176 149.193881615018 2435.82174549723 165 169 172
-658.265557881501 149.797377736932 2443.45614982428 171 175 178
-652.545925320066 150.531893683947 2453.0561298052 173 174 178
-647.553444533123 151.463341937615 2465.60669011323 201 202 204
-645.276663465707 153.115973131877 2488.9578306586 213 215 214
-1002.13876911291 129.710086580452 2332.99784080193 191 196 189
-989.737052685811 129.254964679888 2323.6032621377 201 206 202
-971.863505316096 127.923578200121 2300.13132880221 202 206 207
-957.433165931785 127.110852989594 2285.04699726626 190 193 198
-946.012817711395 126.761185160675 2277.43717413603 186 189 194
-936.456281462305 126.701386978379 2274.50506474233 186 189 194
-928.366170098305 126.874408414226 2275.32419398407 188 191 196
-919.929816679281 126.98787480557 2275.19807620669 191 195 198
-912.216430308564 127.217906358406 2276.95143915772 198 201 206
-903.805528772996 127.329454997776 2276.81592905779 198 201 206
-896.107385089334 127.557938013548 2278.5636369286 205 208 213
-888.414261873778 127.785821650069 2280.30922114542 205 208 213
-880.38280012731 127.953768117273 2281.10691216932 201 204 209
-872.020566880326 128.06153884264 2280.95343400279 199 202 207
-864.350678670715 128.287131035876 2282.69065748158 192 195 200
-857.021844907511 128.571557959345 2285.37495848365 194 197 202
-849.359754662469 128.795876481876 2287.10899826332 192 195 200
-841.703010081959 129.019555533442 2288.84130181845 195 198 203
-834.051549175928 129.24258145205 2290.5716363363 197 200 205
-827.707829251901 129.704658371728 2296.11133547864 191 195 198
-820.379792391395 129.986761404342 2298.79517159476 190 194 195
-813.372442491507 130.328465383415 2302.43354331889 187 191 192
-806.042343149936 130.609815294839 2305.11807198764 170 174 175
-799.658608273591 131.071550399801 2310.67228427444 165 169 170
-793.572555398069 131.593845071717 2317.18946306452 165 169 170
-787.466330771354 132.116421895358 2323.71399229815 171 175 176
-781.339974597812 132.63936862727 2330.24586398894 163 167 168
-773.973119991957 132.919862243335 2332.94368261668 157 161 162
-766.304199777895 133.139014780661 2334.68006850401 158 162 163
-759.240751298143 133.479338065376 2338.33871877335 164 168 169
-752.172705069024 133.819440258715 2341.99927720127 161 165 166
-746.279308595984 134.403629895265 2349.51768299658 167 171 174
-738.899451763308 134.682398463195 2352.22009566397 167 171 174
-732.099626036456 135.083258793627 2356.85434004644 165 169 172
-724.428610049297 135.299902730933 2358.59129812896 166 170 173
-717.901649769771 135.761829773148 2364.19730976021 170 174 177
-711.077974814047 136.162282250627 2368.84018869002 181 185 188
-704.803559571568 136.686072550386 2375.42591944937 172 176 179
-697.401753345389 136.963138203748 2378.1361786681 190 194 197
-690.823652239074 137.425323211567 2383.76104545145 220 224 227
-684.502650221966 137.949564500129 2390.36373696339 236 240 243
-678.161978902986 138.474203492318 2396.97385938401 226 230 233
-673.934682079538 139.49634308995 2411.38635490363 182 186 187
-669.118587797991 140.395826558183 2423.87041557605 176 180 183
