ply
format ascii 1.0
comment KinectMotionCapture
element vertex 750
property float x
property float y
property float z
property uchar red
property uchar green
property uchar blue
end_header
-926.712633787795 338.474556201571 2235.2935084713 239 240 244
-906.855573908647 338.634507818464 2252.5027462539 238 239 243
-889.827164942404 338.817562764109 2268.49275384064 240 241 245
-888.973407065459 339.160260775259 2278.19934618318 240 241 243
-891.930190207765 339.541141121859 2286.44820589844 226 227 229
-892.980330033019 339.902107563661 2295.41982325006 227 228 230
-894.029467652101 340.262524372562 2304.387347581 227 228 230
-891.255963685552 340.581865777246 2314.76207050342 213 214 216
-892.300623874509 340.940754955191 2323.71076320474 224 226 225
-882.821480906677 341.185073744182 2336.47772457389 231 233 232
-874.285089151757 341.436811441569 2348.83713404606 225 227 226
-873.397928391313 341.770368162628 2358.401910681 209 211 210
-884.008872829663 342.231305357651 2363.87781334668 178 180 179
-894.63093333647 342.694007333497 2369.40274822737 170 172 171
-901.425829927912 343.114622367677 2376.31337584592 167 169 166
-900.544437384966 343.447558389792 2385.90393563951 143 145 142
-900.620390597831 343.79062773643 2395.15074536564 146 148 145
-901.655769956551 344.144148978178 2404.06169863596 150 152 149
-908.463176484046 344.565282158161 2411.02714747123 148 150 147
-917.202405846367 345.010170063 2417.37853506217 146 148 145
-928.840729428603 345.491028466272 2422.81353813342 146 148 145
-935.671326810027 345.915063416866 2429.88055889287 147 149 146
-943.473099212606 346.351672127899 2436.66224748638 159 161 158
-954.178291931597 346.825000684578 2442.54617408789 165 167 164
-970.68993489826 347.372234835441 2446.63366882562 169 171 168
-988.186981517626 347.93459414443 2450.49703028261 178 178 176
-1001.83552398368 348.450893652259 2455.65547023231 191 193 188
-1004.01421125751 329.013137211291 2175.94414998 221 225 228
-976.665645861987 329.202677567354 2196.57752336223 231 235 238
-946.428492796347 329.365369480168 2218.16930028093 236 237 241
-916.149828896517 329.519990437643 2239.58181725157 237 238 242
-900.09929440627 329.76761505694 2255.28651843604 237 238 242
-886.881384668718 330.031192448186 2269.79370617223 239 240 244
-890.790373598621 330.416327702323 2277.67853724621 240 241 243
-889.936015479519 330.766182114174 2287.37827541542 227 228 230
-890.031940266258 331.122256357075 2296.70544232715 229 230 232
-892.034569474906 331.492196740518 2305.31259155251 219 220 222
-894.037439843483 331.861831787194 2313.92098305633 206 207 209
-896.040537657566 332.231101269983 2322.5305918286 221 223 222
-885.612179686888 332.500538275549 2335.65639823386 227 229 228
-881.866466196501 332.821014311222 2346.30165905911 217 219 218
-879.0707713578 333.147735116132 2356.57425591386 200 202 201
-883.934346951764 333.536856323362 2364.10679445839 183 185 184
-891.678136497274 333.950694156231 2370.6463703225 182 184 183
-902.307705731464 334.390154835426 2376.21697633567 178 180 177
-907.188371327729 334.78132353135 2383.824705404 160 162 159
-908.230767079604 335.138923774237 2392.76417780268 146 148 145
-905.427219668552 335.461668211279 2403.00342406649 142 144 141
-908.388600953307 335.83492762431 2411.27702822618 149 151 148
-912.314016560634 336.216747042361 2419.23619495495 156 158 155
-922.983490513256 336.660963265257 2424.98093346324 156 158 155
-929.809701179165 337.070688241655 2432.03595408007 155 157 154
-942.428061888804 337.535961538606 2437.24232505881 157 159 156
-955.060211092186 338.003189330402 2442.50830650119 161 163 160
-971.568591713986 338.509812246695 2446.60422526245 168 170 167
-984.230778395642 338.981606629744 2451.9998831899 178 178 176
-1003.67460771674 339.52239798611 2455.34067608825 189 191 186
-1014.31236045451 319.926681397436 2171.98685732227 230 234 237
-987.930294054506 320.204854223275 2192.27064444201 231 235 238
-943.465597858351 320.403508398137 2219.49696708507 234 235 239
-914.146969131563 320.653452152672 2240.52747944178 235 236 240
-897.151005977646 320.948024515854 2256.59487103538 236 237 241
-888.695099681677 321.275154773239 2269.26568869877 237 238 242
-890.700740584902 321.646339973653 2277.88537702189 233 234 236
-891.753835793103 322.012880346095 2286.86673908655 225 226 228
-892.805935771086 322.378930145549 2295.84400413349 227 228 230
-892.902795988436 322.739794545149 2305.17247567675 209 210 212
-892.99740738302 323.09989337846 2314.49148789463 201 202 204
-891.179232769487 323.449543282985 2324.50062252937 219 221 220
-883.620533537417 323.768277828615 2336.57249622424 224 226 225
-884.658966091106 324.129877561057 2345.49215212319 213 215 214
-881.867404710629 324.470302022602 2355.77490332888 199 201 200
-885.774803731916 324.846223812336 2363.65814740995 187 189 188
-891.601616564051 325.23304835056 2370.88020806295 187 189 188
-901.269991380125 325.642589113305 2376.78924255112 186 188 185
-907.109597713272 326.030935466093 2384.06678364595 164 166 163
-910.073443703765 326.402596999565 2392.35218853723 147 149 146
-909.195113113785 326.750670920883 2401.9473374387 145 147 144
-908.313256405113 327.097671251033 2411.52757968448 149 151 148
-911.276663874861 327.467884454458 2419.810817651 152 154 151
-923.868943473542 327.899945718752 2424.92179448762 153 155 152
-936.475015053942 328.333991007849 2430.09237978937 153 155 152
-951.022999105929 328.782967932855 2434.69746763146 154 156 153
-959.799429482026 329.195220896755 2441.23197909119 159 161 158
-973.41103477447 329.641861620175 2446.26862363211 171 173 170
-989.935287421889 330.110911274229 2450.45658303256 180 180 178
-1010.3439532643 330.610443551905 2453.51794822821 189 191 186
-1010.37934076498 310.760968708515 2173.71698776676 224 228 231
-979.26078463773 311.114670428163 2195.86885612012 233 237 240
-934.806906090033 311.444641274935 2223.06561136611 235 236 240
-911.194451552035 311.789868942368 2241.84415743178 234 235 239
-895.154337789708 312.139352883422 2257.53486801033 229 230 234
-896.214709653288 312.510219818963 2266.54575046054 225 226 230
-899.177809009912 312.883718977199 2274.82678442271 219 220 222
-898.332257105898 313.250458354219 2284.55539665528 220 221 223
-893.670644401891 313.609009873614 2295.69977641429 217 218 220
-890.908263379905 313.969517375736 2306.09821446299 203 204 206
-891.002955844575 314.334605486631 2315.41464939217 209 210 212
-886.320411722026 314.688287549969 2326.46965733769 227 229 228
-882.5850119963 315.042294535584 2337.14173114276 224 226 225
-883.623818401714 315.406388790884 2346.06156725055 199 201 200
-881.790957045932 315.762461716458 2356.00220584085 189 191 190
-885.698159864895 316.132837555551 2363.88893369927 192 194 193
-891.524365506152 316.508709749575 2371.11476053121 195 197 196
-899.273290353585 316.890750959818 2377.69566722409 191 193 190
-904.151767102542 317.264982104893 2385.30262667597 196 198 195
-908.07424852129 317.636545286364 2393.25489606572 179 181 178
-911.038660245795 318.004949422733 2401.54470980102 145 147 144
-912.082197470947 318.36668129328 2410.486782099 144 146 143
-916.00998188643 318.737903161299 2418.46370670231 148 150 147
-929.565141194732 319.144105230288 2423.27540246885 148 150 147
-945.061320172057 319.55977480304 2427.52196680882 149 151 148
-956.720312064573 319.963307859139 2433.09352658611 154 156 153
-959.713246179801 320.334209891822 2441.50647078758 160 162 159
-971.39175632697 320.740371742858 2447.16249304919 172 174 171
-990.807092216476 321.180669660232 2450.43792086977 184 184 182
-1014.10974545922 321.641224987149 2452.60339319287 190 192 187
-971.375962271938 301.678055469457 2189.45721897916 229 233 236
-944.986422665791 302.112881464206 2209.61702298723 233 237 240
-923.306088292624 302.532580474073 2227.75190174689 233 234 238
-909.193064752363 302.934404041408 2242.78979735134 231 232 236
-899.811039943437 303.325219499536 2255.89855262836 226 227 231
-898.973392768236 303.701658724574 2265.65629250857 221 222 226
-899.084066727228 304.075952669362 2275.03665011182 217 218 220
-900.144464001945 304.448514561572 2284.04773403054 216 217 219
-898.345539873661 304.823337917125 2294.12689117316 211 212 214
-891.774499416743 305.20096085411 2305.95991525986 207 208 210
-889.00906325815 305.573435098072 2316.33785217283 212 213 215
-883.373335338264 305.946267361969 2327.73881296602 221 223 222
-885.370632607612 306.313201514074 2336.32423476733 217 219 218
-885.456413730136 306.680493534353 2345.59901851966 197 199 198
-885.53971871857 307.047022399818 2354.8644262744 191 193 192
-889.449655988642 307.412189575015 2362.7651808525 195 197 196
-893.362046907732 307.777592139447 2370.67769558167 196 198 197
-898.235696819697 308.143090462021 2378.26852157467 193 195 192
-903.1132773216 308.508951440285 2385.87645470534 197 199 196
-907.994764710059 308.875142042661 2393.50140995102 189 191 188
-912.880168974032 309.241635073607 2401.14344732434 156 158 155
-916.808651710161 309.607845178171 2409.12531047505 149 151 148
-923.62412186178 309.976065339016 2416.15850039626 146 148 145
-941.029536142354 310.353654844085 2419.72675263183 145 147 144
-951.715735110624 310.728151520518 2425.58511152792 146 148 145
-956.633004491473 311.098254983623 2433.36544139469 155 157 154
-957.698013934875 311.464152922724 2442.40076870084 163 165 162
-971.302081796806 311.845359581055 2447.44268516797 172 174 171
-994.573438053435 312.242179400977 2449.50773211393 185 185 183
-1012.0768537048 312.634819099999 2453.50006913134 190 192 187
-944.716528929724 292.751276052425 2200.26360217326 222 226 229
-928.750495568184 293.215195293733 2216.21236008709 225 229 232
-913.709783406635 293.670176300572 2231.68855300076 234 235 239
-907.192040035234 294.083093253979 2243.73567591151 232 233 237
-903.513831176239 294.481415411752 2254.63261442034 220 221 225
-897.926833975573 294.886031702623 2266.22961646257 215 216 220
-898.03818547782 295.26544716921 2275.60994739921 211 212 214
-899.098922436948 295.640381962827 2284.6211324997 201 202 204
-897.301320890267 296.025731989472 2294.69992625338 202 203 205
-892.639583113904 296.420274446447 2305.82258617758 200 201 203
-887.969434304476 296.81301287223 2316.90924332484 208 209 211
-886.15401102352 297.194003162724 2326.91206852181 221 223 222
-887.198665648756 297.564272069914 2335.85512993166 219 221 220
-888.242545379145 297.933988932727 2344.79401499304 211 213 212
-889.285416164893 298.303154995431 2353.72877802668 201 203 202
-889.370256307595 298.674577899062 2362.99807204063 185 187 186
-892.325277011504 299.037016496854 2371.25001227304 184 186 185
-896.240003149679 299.396736283207 2379.17507333446 177 179 176
-903.033335443193 299.749146547738 2386.12000998526 191 193 190
-906.95528236929 300.109422868055 2394.07656265609 194 196 193
-912.79966401571 300.465216023748 2401.39429325505 188 190 187
-917.688688394315 300.823687305214 2409.05700106656 158 160 157
-928.348800909063 301.170235516406 2414.81684641968 151 153 150
-942.867415363631 301.510715489644 2419.35632928771 151 153 150
-946.81545782404 301.873673571782 2427.42738297706 152 154 151
-950.766380889782 302.236683873257 2435.51001314596 161 163 160
-954.719943535111 302.599688578422 2443.6042781122 167 169 166
-973.140313131729 302.940522187167 2447.11021984438 174 176 173
-991.581900976848 303.284741868787 2450.70766980535 175 175 173
-1009.0792602529 303.633596265714 2454.69798562404 189 191 186
-952.175847757848 283.708652408549 2197.44131389952 234 238 241
-925.794742062913 284.303092619577 2217.54331629122 233 237 240
-912.655669328415 284.792149328162 2232.26528563424 233 234 238
-909.93745935608 285.201440409198 2242.82967382416 230 231 235
-905.31358258618 285.62288866773 2254.10443241487 222 223 227
-897.830473188074 286.062494022628 2266.43830613008 219 220 224
-895.090196484072 286.466747919495 2276.90841831612 210 211 213
-897.101807996324 286.837405329897 2285.55472700536 204 205 207
-900.065797601227 287.201397480866 2293.84527562465 208 209 211
-894.45607169818 287.621386371592 2305.33199386032 213 214 216
-885.976125368745 288.057481265493 2317.83278786941 219 220 222
-881.299220149159 288.466838733573 2328.87989760973 227 229 228
-884.25143665506 288.827303526075 2337.11955545016 220 222 221
-889.115570512248 289.176054260266 2344.67829861732 207 209 208
-892.071744933627 289.536581117582 2352.93644721576 201 203 202
-892.159755852765 289.913557409786 2362.21644717253 192 194 193
-893.202814989298 290.284318090154 2371.15110228602 192 194 193
-894.244861693212 290.654498440456 2380.08163737031 189 191 188
-900.077709203396 290.998140753861 2387.35568865991 188 190 187
-905.91570672875 291.342299094808 2394.65213036777 199 201 198
-912.71864826808 291.682042707186 2401.6457745828 194 196 193
-920.487929026965 292.017725758755 2408.34473389447 164 166 163
-931.147692948866 292.340031632163 2414.11730169838 151 153 150
-943.741622580547 292.654795392692 2419.30454009033 152 154 151
-942.880144991562 293.034932847473 2428.95400787313 154 156 153
-946.828412314137 293.391971167571 2437.02953424522 162 164 161
-955.596147577515 293.727424184888 2443.57090125784 168 170 167
-979.796210533546 293.997138985418 2445.24671709432 175 177 174
-1000.16664606486 294.287816157503 2448.26137289328 179 179 177
-1013.80437648439 294.610146713921 2453.48625495005 191 193 188
-945.425227756648 274.765392412158 2200.29494181233 228 232 235
-934.210943920554 275.282555275302 2214.36820856226 230 234 237
-914.446050297623 275.883825186819 2231.72401486984 234 235 239
-910.782365795881 276.316176228396 2242.66602778267 227 228 232
-899.516411950478 276.822884901312 2256.51775556759 205 206 210
-897.733642754538 277.232382757295 2266.64770622467 197 198 202
-892.143435421561 277.677662246628 2278.20664581234 194 195 197
-897.959068830702 278.011165281551 2285.40971905419 188 189 191
-896.16450111201 278.417533129575 2295.49060601331 190 191 193
-896.270545344578 278.804880584635 2304.84288473078 200 201 203
-884.936662101255 279.297232368 2318.40480718398 210 211 213
-880.262055384506 279.725211216943 2329.45109296168 211 213 212
-878.442095410393 280.125519102031 2339.42256490113 208 210 209
-884.257125830914 280.456905744557 2346.62531223179 208 210 209
-886.255019187291 280.822236526906 2355.21430378511 208 210 209
-889.209513398741 281.179017317787 2363.4661653156 200 202 201
-892.165234620533 281.535763173432 2371.72454071772 198 200 199
-896.080012512778 281.884297645684 2379.65640867379 192 194 191
-902.871494900171 282.209255091569 2386.60934042563 193 195 192
-908.710741563854 282.542753707628 2393.91755625744 188 190 187
-915.514618086054 282.869122006305 2400.92318746743 153 155 152
-924.244599001862 283.181113799197 2407.31198623677 152 154 151
-932.983449804698 283.494323810874 2413.73915431325 153 155 152
-939.80895253462 283.823396776905 2420.83849223546 155 157 154
-939.908142245955 284.2038714022 2430.1656947747 158 160 157
-945.779488685463 284.540731839151 2437.61338336726 164 166 163
-959.360295921467 284.822020418655 2442.61156868931 169 171 168
-983.556148410129 285.029712162777 2444.30531072117 175 177 174
-998.138027986581 285.309993208744 2449.15898314527 183 183 181
-1014.66580307483 285.579383730047 2453.48098383779 190 192 187
-938.67840236314 265.853364255367 2203.14692140097 229 233 236
-932.201178908339 266.344646940197 2215.32541979423 229 233 236
-917.182212054851 266.945449101751 2230.81166780084 231 232 236
-910.677768127748 267.431091152208 2242.87353477459 231 232 236
-897.51868022489 267.999929330876 2257.46038091922 232 233 237
-896.686241785728 268.407613938265 2267.22269597268 233 234 238
-893.949620719655 268.838373559636 2277.69441361099 227 228 230
-899.765614873469 269.160931216693 2284.90660062573 221 222 224
-899.877654725515 269.554668476503 2294.28154121645 216 217 219
-899.035146803357 269.959249380906 2304.00130983323 209 210 212
-889.61394872858 270.466590040524 2316.86890885301 214 215 217
-883.991991710053 270.92530351989 2328.27895322097 216 218 217
-881.222271778331 271.347986914258 2338.60956839385 214 216 215
-883.21996670613 271.713370103044 2347.19765473298 210 212 211
-886.173335132948 272.067381495668 2355.44618427852 203 205 204
-890.083761800429 272.410286670019 2363.3632756155 190 192 191
-893.997113229517 272.753338489615 2371.29208247173 189 191 190
-898.870226953838 273.085797467278 2378.89997837725 193 195 192
-905.662624108696 273.39737609784 2385.8648101029 185 187 184
-912.461648457132 273.709655915106 2392.85734622929 176 178 175
-918.307924677309 274.033206806779 2400.20238925656 165 167 164
-927.03819204966 274.32638860672 2406.60351374173 162 164 161
-933.857013467968 274.641143033565 2413.68183165944 154 156 153
-938.760444999541 274.976741944795 2421.42147845419 156 158 155
-938.860335957512 275.362371123469 2430.74873934946 159 161 158
-945.692483112503 275.678318529151 2437.8861628665 165 167 164
-959.270116243684 275.926978608995 2442.88955227505 169 171 168
-983.459285247199 276.07221893156 2444.59057491403 177 179 176
-993.218084349685 276.364653235242 2450.96694900906 187 187 185
-1006.84493301092 276.620896519166 2456.18383656624 192 194 189
-948.805362552298 256.28562307127 2189.60444948208 222 226 229
-928.150259070822 257.03421638072 2207.50832074149 217 221 224
-927.351278922115 257.456737395602 2217.40825956481 220 224 227
-922.758360329538 257.938940969913 2228.78370339741 227 228 232
-916.2611488598 258.449323531742 2240.86288917715 226 227 231
-901.213946599513 259.091718617742 2256.20025214243 214 215 219
-896.588093580182 259.566931842914 2267.43359303347 210 211 215
-891.953883198042 260.040292481849 2278.63119620807 202 203 205
-897.767996115539 260.351561407077 2285.84173307702 202 203 205
-896.928684796074 260.76470845518 2295.57054943779 205 206 208
-898.941518835397 261.133813153416 2304.22315853901 214 215 217
-890.477465134631 261.65922291215 2316.74036611327 216 217 219
-888.671678017012 262.082956950432 2326.7605133115 219 221 220
-886.860955461946 262.505559695871 2336.76066393388 217 219 218
-886.000236622229 262.913076667095 2346.39737146495 206 208 207
-887.045583514907 263.292056443857 2355.3383599543 197 199 198
-890.001387481882 263.643105393105 2363.59936430299 190 192 191
-894.870656494162 263.967014527132 2371.1964333454 193 195 194
-900.70105467005 264.277822839228 2378.47791693608 191 193 190
-907.493746415823 264.575857378671 2385.4520129908 189 191 188
-915.251049659294 264.861465001736 2392.12655880192 175 177 174
-923.974593655833 265.134998631916 2398.50961263817 168 170 167
-930.78857336431 265.435753167221 2405.57482947672 163 165 162
-934.728993872292 265.775870224748 2413.62573080474 155 157 154
-937.711844639665 266.128798299456 2422.00481367133 158 160 157
-940.695888487552 266.481627710184 2430.39029837837 160 162 159
-950.413662384302 266.746518139726 2436.60317863967 165 167 164
-960.141756392616 267.012807278387 2442.85962616238 170 172 169
-976.620684715816 267.194219797722 2447.01812570207 180 182 179
-983.482385794658 267.500666021909 2454.2902826792 191 191 189
-1004.81394724946 267.626465011367 2457.08078205642 195 197 192
-947.735576916905 247.274079142566 2190.19065453459 222 226 229
-934.656106281947 247.942617851416 2205.06969955657 225 229 232
-931.023020487376 248.427707352132 2216.11552893231 226 230 233
-925.488549525362 248.946843630657 2227.8755484645 229 230 234
-915.205251177832 249.552619738079 2241.44274732301 229 230 234
-904.906169675687 250.155256996603 2254.94224269323 229 230 234
-898.387479773156 250.684609834561 2266.91671085877 227 228 230
-896.60644575171 251.124780323783 2277.03626705149 219 220 224
-900.522312157688 251.460036787385 2284.98182772674 205 206 210
-899.686485532634 251.881394920168 2294.72117016341 204 205 207
-899.798887779001 252.284682609721 2304.09209042106 219 220 222
-894.195889283492 252.788924505537 2315.55998502809 221 222 224
-897.158482702106 253.139616426836 2323.85111759773 220 221 223
-895.355262141344 253.573874065346 2333.87747129422 211 213 212
-894.501744379919 253.990274782538 2343.54068578859 196 198 197
-893.644520832727 254.4057282759 2353.18921399625 194 196 195
-894.694178193076 254.787392720299 2362.14761785143 193 195 194
-899.566474200617 255.103540543 2369.76150411517 195 197 196
-901.573227543898 255.468496911115 2378.38975808471 202 204 201
-909.322867736983 255.736839067226 2385.04069107234 168 170 167
-915.164608460594 256.038141408027 2392.37883396423 157 159 156
-925.803355428947 256.260859989998 2398.11736297564 166 168 165
-930.699626757208 256.579483015704 2405.83544245797 156 158 155
-932.721055860307 256.945188055068 2414.52792592185 160 162 159
-936.663148204502 257.279594203636 2422.58846688131 162 164 161
-941.568439625839 257.598722255295 2430.34708345232 164 166 163
-952.246556063948 257.826611472149 2436.2560557917 167 169 166
-959.087793838417 258.116727936805 2443.44764431182 173 175 172
-970.748688357841 258.332399401673 2449.1380822102 188 190 187
-981.458902820531 258.564865019037 2455.18580521728 182 182 180
-1004.71120164788 258.606456631812 2457.37689420997 188 190 187
-939.265364566802 238.848190519693 2203.38917894778 228 232 233
-932.799122153512 239.411735659883 2215.57465011985 227 231 232
-925.375233280437 239.993616212741 2228.08580190326 229 233 234
-915.096748059042 240.634329528747 2241.65366123863 230 234 235
-908.594905057208 241.190579987571 2253.68654623575 228 232 233
-903.031118155069 241.72427889708 2265.30881761115 220 224 225
-900.305575536493 242.195631252157 2275.80547794049 221 222 226
-900.424308025197 242.605627040408 2285.20034740205 222 223 228
-898.639315823628 243.054728131354 2295.29829529896 211 212 216
-895.89872687298 243.522391114061 2305.72973639326 225 226 230
-892.200233471884 244.008299829419 2316.48686040109 225 226 230
-896.11430410421 244.336261263408 2324.42771215241 211 212 214
-895.265635666743 244.761556186666 2334.10815068621 194 195 197
-896.320750296094 245.147232048139 2343.08824302278 188 190 189
-892.603660978338 245.628402661086 2353.76512311314 183 185 184
-894.608764821864 245.993420419601 2362.38607233024 183 185 184
-897.569578572487 246.33913095713 2370.67337895699 209 211 208
-900.531846644776 246.684804147949 2378.96711612756 194 196 195
-909.236326545353 246.917865946689 2385.28996680205 166 168 167
-915.077676687992 247.208067049239 2392.63183154475 168 170 169
-925.713971207561 247.406249583966 2398.37507136858 164 166 165
-926.775437005294 247.790177980149 2407.38309199726 157 159 156
-929.754237404097 248.136950354234 2415.74903360307 163 165 162
-935.614372183991 248.429045736296 2423.17256010789 167 169 166
-944.360939457498 248.667488620967 2429.67770697447 169 171 168
-955.99974923799 248.853214681829 2435.28843972005 168 170 165
-964.765892399358 249.094383121761 2441.87824612474 174 176 171
-973.540875005905 249.336735581692 2448.50630780689 178 180 177
-989.065526893944 249.456827127393 2453.05218950959 171 173 170
-1011.35310479652 249.45705687485 2455.5718105308 186 188 185
-1029.80980597917 249.531153196909 2459.39473628741 197 199 194
-940.089260606718 229.814050645378 2203.22051282141 222 226 227
-934.573253750503 230.378414359557 2215.03529452253 225 229 230
-923.368235971104 231.080369242911 2229.04070421628 226 230 231
-914.040432383584 231.732578097125 2242.23464632056 222 226 227
-911.332654505992 232.220660552117 2252.79974821742 222 226 227
-905.773916099613 232.776089430458 2264.43148531072 232 236 237
-904.950647428276 233.215416274676 2274.21559670476 226 227 231
-902.224760466132 233.699249915139 2284.70231216327 229 230 234
-904.244215332232 234.068749373166 2293.38386425033 231 232 236
-900.558543397568 234.572845999169 2304.1867894783 225 226 230
-896.865710296921 235.075326164619 2314.95910923961 225 226 228
-895.070056622386 235.531708211035 2325.00470772404 217 218 220
-893.269487488322 235.986904573524 2335.03042965787 199 200 202
-896.231376261159 236.330792582927 2343.32245899172 192 193 195
-895.378635608073 236.762237546084 2352.98133574881 203 204 206
-897.386248224776 237.127371679508 2361.61327161549 209 210 212
-897.483555042739 237.535549243835 2370.91588307961 171 173 172
-901.402173234586 237.856690904479 2378.8807851616 179 181 180
-909.149288041353 238.092140893865 2385.53993594292 181 183 182
-916.904050059424 238.328684092935 2392.2321417452 172 174 173
-921.793113674305 238.629844124839 2399.92981747019 156 158 157
-921.894828755631 239.037036862324 2409.25134711043 165 167 164
-927.747738665053 239.317335732527 2416.65106141427 188 190 187
-936.484489130932 239.535478913784 2423.12488940303 183 185 182
-950.031112824008 239.65097355937 2428.06995695208 176 178 175
-958.788686031828 239.872116121981 2434.63377777958 175 177 174
-969.478044899706 240.053357384127 2440.61972753395 178 180 177
-973.444258390777 240.379429685313 2448.79254824692 168 170 165
-988.002510039672 240.481745114316 2453.64677599671 182 184 183
-1005.46691065601 240.525942572908 2457.67104626643 182 184 181
-1025.84300251103 240.5129531429 2460.88923385879 190 192 187
-925.791933791962 221.187162329862 2209.08635130986 227 231 232
-919.324064356691 221.797285415885 2221.23725726076 223 227 228
-919.469275627529 222.22335127768 2230.73935557287 219 223 224
-914.877891737635 222.778035511429 2242.07784502081 220 224 225
-915.962838234043 223.176428346187 2251.18191401263 220 224 225
-908.514132391517 223.805093149799 2263.55619098713 217 221 220
-902.950838738984 224.380241370055 2275.15625677308 220 221 223
-900.225740788542 224.877096513395 2285.63987665879 231 232 236
-905.094477828087 225.170210384266 2293.25162788086 226 227 231
-903.313218725064 225.640048666832 2303.35274260756 231 232 236
-895.820108767372 226.25914181091 2315.53697924978 228 229 231
-889.266618872136 226.850789452425 2327.32145886376 201 202 204
-889.369438143078 227.266156969329 2336.64304606023 181 182 184
-895.188113828416 227.532455645399 2343.90013914039 209 210 212
-895.289965669653 227.94714778385 2353.21894693132 214 215 217
-898.252444251552 228.287506168022 2361.51673772398 197 198 200
-894.532339725791 228.79858442563 2372.16274037388 178 179 181
-900.360023006197 229.065199548547 2379.45933997479 182 184 183
-908.105248204786 229.284037011568 2386.11993500117 178 180 179
-917.771514858049 229.455860477324 2392.16058367266 166 168 167
-919.788950587616 229.820671321775 2400.83599597226 162 164 163
-917.016731775432 230.304318452723 2411.11865635119 178 180 177
-924.783024973023 230.525632123288 2417.8717190843 189 191 188
-936.394076859041 230.653500195715 2423.39416476151 187 189 186
-953.776903846277 230.642261812068 2427.09158025742 181 183 180
-966.377482105651 230.751200368662 2432.42808957925 169 171 168
-978.03060867445 230.885459731356 2438.13218135924 169 171 168
-980.079139435638 231.253284804663 2446.94284338106 173 175 172
-992.713471691348 231.367099461384 2452.42631067162 180 182 181
-1009.21362779912 231.391290888718 2456.76973794008 182 184 181
-1025.73230158879 231.418384542545 2461.19414418095 188 190 185
-925.673720294285 212.201470748816 2209.29411899693 221 225 226
-919.20961097125 212.835633245116 2221.4463685583 225 229 230
-916.518076293238 213.352822813332 2232.06592748116 227 231 232
-914.767328426094 213.840123871996 2242.29122122666 224 228 229
-916.800551882345 214.212471076586 2251.03177068921 225 229 230
-911.251720098991 214.811339777356 2262.68269858693 235 239 238
-902.848290663779 215.492920854164 2275.37519667345 215 217 216
-899.176492096302 216.031152149094 2286.21917903884 210 211 213
-904.993841786387 216.287733484749 2293.47614444356 219 220 222
-905.115098738696 216.712340183913 2302.87354448305 214 215 217
-897.627079340963 217.358492927398 2315.06429748757 202 203 205
-888.223888749354 218.057462102676 2327.89853820034 200 201 203
-888.32737882508 218.477949974172 2337.22006972316 206 207 209
-893.191912677689 218.760484954614 2344.82060785462 218 219 223
-897.107365198176 219.070751766563 2352.77795639875 196 197 201
-899.117528844433 219.435633559156 2361.42128198747 182 183 187
-896.355138119612 219.935764143752 2371.7375555427 207 208 212
-902.183426658417 220.191521234406 2379.04320860019 209 210 212
-909.928622303504 220.394126213036 2385.71322081403 164 166 165
-918.637841268907 220.571025095502 2392.0899877269 158 160 159
-917.785373881792 221.015736476223 2401.74226577748 182 184 183
-918.844843624532 221.406348090332 2410.73755978933 193 195 194
-928.527799931358 221.558529277371 2416.86330562009 197 199 196
-939.179946166917 221.685857519867 2422.71698499157 186 188 185
-957.519631117205 221.605237762431 2426.11526887328 175 177 174
-969.159505416297 221.710676681204 2431.77791477496 176 178 175
-976.007958717861 221.947964629402 2439.03345747603 178 180 177
-979.017488681107 222.289489071101 2447.53681146832 177 179 176
-990.686408716233 222.399033538094 2453.32503483883 181 183 182
-1012.95681598555 222.228214188919 2455.87068407747 192 194 191
-1030.43724574342 222.189423192295 2460.01439906274 195 197 192
-923.511329276147 202.834377020461 2200.71730672545 219 225 225
-910.445230328399 203.715146333735 2215.53044798146 219 223 224
-907.754382738426 204.245529371011 2226.14527464177 220 224 225
-911.677053122666 204.554819143819 2234.13500390736 212 216 217
-909.925140867434 205.052100388596 2244.34929666973 206 210 211
-913.849431631194 205.361220883335 2252.34735223384 206 210 211
-911.144548004384 205.887973843955 2262.90137672517 219 223 222
-904.641298411946 206.537150612197 2274.87340725475 221 223 222
-900.024667416479 207.122404002522 2286.08266365547 207 209 208
-899.196853161626 207.582984928968 2295.83424363718 213 215 214
-901.215402386323 207.950852300791 2304.51276488715 212 214 213
-896.580415017063 208.531913679146 2315.64359815206 210 211 213
-891.937050307076 209.111176862347 2326.73857367529 202 203 207
-892.995782010823 209.506966914784 2335.72865608514 210 211 215
-893.101427179879 209.932456207536 2345.05674251599 206 207 211
-895.110751768117 210.297163736444 2353.69647322873 194 195 200
-897.120334243712 210.66153990025 2362.3375352396 202 203 208
-896.267330897282 211.115125437763 2371.98223205598 216 217 221
-904.004839788601 211.30043191786 2378.62854642367 199 200 202
-908.883495731717 211.57553651191 2386.29459850806 156 157 159
-914.722127728382 211.82157278803 2393.65154825542 164 165 167
-914.825474115409 212.244391618523 2402.97216201981 194 196 195
-918.75616370631 212.549429914642 2410.99972910183 201 203 202
-928.437212044142 212.679701976321 2417.12995355587 194 196 195
-941.962935638169 212.695369239425 2422.04163845427 184 186 185
-955.503731997823 212.713358082167 2427.01837714958 175 177 174
-964.260298019617 212.877747349452 2433.61114017101 178 180 177
-970.144334778555 213.129421151311 2441.16485360632 178 180 177
-978.916760541817 213.295921205276 2447.82626227437 174 176 173
-995.391730233987 213.23579908447 2452.10829418555 179 181 180
-1015.73445129018 213.065152876614 2455.273245824 178 180 179
-1028.39772853767 213.124439131561 2460.91524681016 191 193 188
-919.617509062127 193.97382376056 2202.440687794 216 222 222
-915.051136532745 194.588204303119 2213.85428026205 219 223 224
-907.642430321678 195.303430350668 2226.35390612126 217 221 222
-908.729010021861 195.709279676354 2235.46078628379 220 224 225
-909.814852482489 196.114728109068 2244.56356712639 225 229 230
-911.846236025144 196.485859912672 2253.29672373061 222 226 227
-913.877901633512 196.856809168168 2262.03123064742 191 195 194
-905.484657964614 197.597745815663 2274.73370207032 173 175 172
-903.716436555432 198.101152988308 2284.87361066028 207 209 208
-898.147864256637 198.737172341214 2296.4146132826 214 216 215
-898.267134861936 199.171253674764 2305.79877407481 213 215 214
-895.533729453484 199.704260497814 2316.22343687468 212 213 215
-891.84339064823 200.268987116113 2326.97013660538 199 200 204
-891.951703955156 200.70021592423 2336.30769100132 199 200 204
-890.153759518643 201.19649479324 2346.3197290629 190 191 195
-893.114507634044 201.527846772475 2354.61519169817 198 199 204
-895.123495699527 201.891772865786 2363.25389911299 206 207 212
-896.17884717048 202.287976952239 2372.22775634119 184 185 189
-902.005866469835 202.521588446008 2379.54084171652 164 165 169
-906.882968809031 202.788122231457 2387.20508879821 181 182 184
-912.719963608131 203.022841335939 2394.56039409166 198 199 201
-914.736293679635 203.386506112316 2403.23160830575 190 191 193
-920.58093257373 203.621983636819 2410.62123821083 183 185 184
-931.218900695537 203.698765288901 2416.44325692306 191 193 192
-941.868446009432 203.777250173358 2422.31420320584 184 186 185
-954.447226796871 203.794131573557 2427.60880534275 177 179 178
-961.282480311551 204.002261059258 2434.82333224651 177 179 176
-969.084405422494 204.17980796744 2441.75806545273 181 183 180
-977.854630910096 204.327009436182 2448.42112923833 181 183 180
-992.401991557879 204.288334275337 2453.3102910338 184 186 185
-1008.88973635587 204.189957828683 2457.6711173538 187 189 186
-1022.50813368161 204.187529131521 2463.00290587752 193 195 190
-921.384268815012 184.905584854451 2201.88938500711 217 223 223
-912.103302989818 185.723986151583 2215.19197226296 222 226 227
-908.473869044053 186.317948495986 2226.18985833383 226 230 231
-910.507119379849 186.689461508773 2234.9310168875 220 224 225
-908.758407142746 187.207631873175 2245.14712447223 210 214 215
-910.789788785507 187.578300535132 2253.88054510921 202 206 207
-912.821455981956 187.948816178935 2262.61531406026 194 198 197
-912.011088558145 188.428241572207 2272.43269111388 188 190 189
-910.24933588609 188.942967173235 2282.59336113951 179 181 180
-905.636906152251 189.565018741059 2293.79948722903 193 195 194
-899.117433466704 190.257290637651 2305.67468233283 214 216 215
-897.336721684193 190.767806600697 2315.75428358531 207 208 210
-892.699735948455 191.384534432947 2326.85533305482 194 195 199
-893.761020077659 191.785336879176 2335.8537147929 188 189 193
-890.062632678969 192.363566135048 2346.55700598143 194 195 199
-893.023929191801 192.691934112514 2354.855553853 203 204 209
-895.033562725297 193.055624901509 2363.49724396943 202 203 208
-897.0434409067 193.419039883694 2372.1401743658 184 185 189
-900.007714056702 193.747097472814 2380.45310798357 187 188 190
-905.838049541673 193.970002325455 2387.78710367664 201 202 204
-910.718162282885 194.228437675499 2395.46937955622 202 203 205
-915.602212589989 194.487294741147 2403.16875857642 178 179 181
-922.403717657582 194.677127523798 2410.24424552497 177 179 178
-929.211409248014 194.86778443593 2417.34759553577 190 192 191
-937.941485144553 194.990357716407 2423.84822262769 185 187 186
-948.597674970531 195.045464468226 2429.76219870634 179 181 180
-957.346744233674 195.170749179575 2436.34492672019 178 180 177
-967.064650456381 195.263107364244 2442.65878150695 179 181 178
-977.752785593737 195.322921552741 2448.71184465048 178 180 177
-992.296651005282 195.24884324351 2453.60642740051 181 183 182
-1005.89520205333 195.211001010578 2458.87050448505 182 184 181
-1015.65943554133 195.310239626443 2465.38554341277 189 191 186
-920.47759209888 176.392641681706 2212.01497945898 215 219 220
-918.744395557017 176.924259997835 2222.29154847457 217 221 222
-913.227849418254 177.612837256655 2234.03198184689 217 221 222
-909.592518141753 178.220662011249 2244.99464105925 216 220 221
-910.679120729514 178.630449208149 2254.09930595036 213 217 218
-915.55089016317 178.883071574029 2261.74823542577 199 203 202
-914.743986743393 179.370588764946 2271.57611754232 207 208 210
-912.98600247936 179.896206840681 2281.74698674316 201 202 204
-905.533246686713 180.653815497334 2294.02757674492 200 201 203
-899.01728682416 181.370183606762 2305.90407876174 191 192 194
-894.389730315392 182.007115081641 2317.0347957056 200 201 203
-890.703909271296 182.603719465097 2327.7826538299 207 208 210
-889.863410239128 183.083537197305 2337.46702292638 194 195 197
-889.97104990768 183.524124118637 2346.79501833706 197 198 202
-895.788636269107 183.734985857921 2354.07991742528 208 209 213
-898.753381363869 184.060724355078 2362.39629471725 196 197 201
-896.953236107749 184.576146912624 2372.38737500948 180 181 185
-898.010151512411 184.976873987088 2381.36546355524 181 182 184
-902.884156632726 185.226238959793 2389.02616064416 196 197 199
-912.537743077412 185.287914987347 2395.07571814971 189 190 192
-917.422722787335 185.538602414004 2402.7839977681 172 173 175
-923.267958997634 185.752257658099 2410.18909494457 183 184 186
-931.032488411786 185.892000424926 2416.98127636444 176 178 177
-938.804658061289 186.032777341524 2423.80651680231 175 177 176
-947.542650185789 186.137486188952 2430.35253462363 174 176 175
-955.330706768118 186.280436453765 2437.24650373224 180 182 181
-969.842804231323 186.166520535143 2442.02452981181 184 186 185
-981.49085364301 186.165366630208 2447.78589437911 187 189 188
-996.033686372164 186.056224947872 2452.69654966754 185 187 186
-1004.82466736033 186.168694927356 2459.47150205354 183 185 182
-1009.77664866709 186.427950865498 2467.46998952399 186 188 183
-923.969373469881 166.759897181655 2201.17042746354 216 222 222
-923.18695822315 167.260825578872 2211.09833052101 228 232 233
-921.457506148441 167.803245445423 2221.38504669326 221 225 226
-918.779177643973 168.38683813366 2232.02265705495 210 214 215
-916.094744696593 168.969125964905 2242.63522161514 217 221 222
-912.458972290634 169.592131057143 2253.58809478914 222 226 227
-911.654587426305 170.087894462936 2263.42222495523 213 217 216
-911.793754918483 170.540971459488 2272.88180383525 205 206 208
-911.930490670332 170.993437619839 2282.33211275329 198 199 203
-907.325046372867 171.653058885386 2293.54692342382 193 194 198
-897.967908630796 172.518113470261 2306.48641346451 197 198 202
-892.393431008209 173.214895405519 2317.96565526733 201 202 204
-891.558594383072 173.703590693959 2327.66975469719 204 205 207
-891.670738540784 174.150264141052 2337.01510599271 197 198 200
-892.731947359368 174.555263847341 2346.00960076701 190 191 193
-898.550741953343 174.75534307308 2353.30616594506 187 188 190
-900.565369092323 175.119175687608 2361.9697773421 182 183 185
-901.627342533963 175.523440064962 2370.96807398181 178 179 181
-901.734568173797 175.967757407434 2380.29313724253 180 181 185
-907.565094870299 176.168727850688 2387.63979021625 175 176 178
-913.400578437962 176.370338354408 2395.00899596309 173 174 176
-917.330262198822 176.653029207735 2403.04636122605 195 196 198
-924.131096117232 176.815497647639 2410.13498551802 200 201 203
-931.894969062864 176.938841487073 2416.93391947356 190 191 193
-941.580972270601 176.983483712794 2423.13634260709 188 189 191
-945.529698896865 177.268216418357 2431.25533432587 185 187 186
-950.439577541806 177.513439812644 2439.07654673761 180 182 181
-960.149101179253 177.561288369144 2445.38072855283 179 181 180
-977.547177492512 177.295020515131 2449.29534135519 180 182 181
-994.965279820398 177.032047923678 2453.29626212985 177 179 178
-1003.75405728241 177.125247680689 2460.07283862783 184 186 183
-1008.70513560365 177.376132284812 2468.07227077001 184 186 181
-932.325608354142 157.325660407459 2197.97439525453 215 221 221
-915.523480034703 158.603267939146 2214.31774542867 205 209 210
-919.451279116541 158.88489633258 2222.34634420555 208 212 213
-916.773695704989 159.481473990493 2232.98068695065 212 216 217
-915.979572845862 159.987056303399 2242.85426225322 212 216 217
-907.620321290934 160.849584052973 2255.63500656511 207 211 212
-906.814437430166 161.352550661738 2265.45829460202 187 191 192
-906.005136216141 161.854693925478 2275.2670080797 193 194 198
-908.033689379232 162.222818920034 2283.98946091059 191 192 196
-903.428649600104 162.900617795725 2295.19536264494 187 188 192
-895.970254592444 163.709171436299 2307.4211388463 198 199 203
-891.346607290635 164.383110832327 2318.54731515375 200 201 203
-893.361439433499 164.747673175552 2327.21140071323 204 205 207
-893.476097010783 165.199699369428 2336.5646792701 203 204 206
-896.441181387488 165.519901099484 2344.88472176845 187 188 190
-901.310235780576 165.752917168121 2352.53430540789 181 182 184
-901.423429239375 166.203809120807 2361.88071292969 181 182 184
-900.581582589704 166.69736457875 2371.55106356677 184 185 187
-901.642910474496 167.103484088981 2380.54542438315 183 184 188
-907.472565013503 167.293353448103 2387.89584983505 175 176 178
-913.307417211931 167.483862790631 2395.26880274639 180 181 183
-915.326976285907 167.846756294368 2403.95469943986 206 207 209
-924.03698329519 167.909621605749 2410.40200974963 201 202 204
-932.755883894883 167.973738167494 2416.88777438917 185 186 188
-943.397740158273 167.95393195819 2422.78264990448 184 185 187
-945.432408866379 168.318285654221 2431.5342694986 183 185 184
-951.300147890799 168.512784885315 2439.0497939575 188 190 189
-961.00860407117 168.538828120863 2445.36101070998 190 192 191
-976.483800604281 168.313425688564 2449.89217194982 191 193 192
-991.976536419815 168.090829926554 2454.49897056368 179 181 180
-998.840592958872 168.24839817782 2461.86907221474 186 188 185
-1003.78827482392 168.490421688445 2469.85874942332 186 188 183
-918.071853981581 148.988201289494 2203.86200618173 214 220 220
-912.576810584305 149.743346028437 2215.65695377166 213 217 218
-910.844127862829 150.305438279822 2225.91894961249 215 219 220
-911.938075841208 150.723571770371 2235.04998709134 213 217 218
-913.975320277507 151.093693966995 2243.80956398161 213 217 218
-909.398560545343 151.795771662566 2255.12580385881 213 217 218
-908.595483806715 152.306745212599 2264.95675226899 209 213 214
-906.842935798552 152.864081967431 2275.13292084862 211 212 216
-908.872730427849 153.231988116475 2283.86097301141 193 194 199
-903.323643789765 153.975557299503 2295.42566977467 194 195 199
-896.817243759221 154.764060598525 2307.30078393625 189 190 194
-894.094184981025 155.363232349587 2317.73321030054 191 192 196
-896.111505444174 155.727849673393 2326.40822849253 199 200 202
-897.179307468512 156.138822031545 2335.4282638046 201 202 204
-898.245913905179 156.549310897014 2344.44440145496 193 195 194
-901.214050748099 156.866743822239 2352.77952339561 180 182 181
-901.328307401934 157.322808031376 2362.12866022448 170 172 171
-903.345079837461 157.685970916388 2370.80211894498 183 185 184
-904.409223674935 158.094863330427 2379.80725753697 186 187 189
-909.286589773491 158.319818598795 2387.49712201995 199 200 204
-911.305333255345 158.682512977719 2396.17954186416 205 206 208
-914.279040971314 158.99924602885 2404.54071032914 197 198 200
-922.031467511371 159.088325996951 2411.30935772859 189 190 192
-930.747537669896 159.133005893221 2417.79408182832 179 180 182
-937.55928196583 159.269653278417 2424.94597061971 180 181 183
-942.462538906625 159.497457333248 2432.74933589177 183 185 184
-952.159604030379 159.500267008767 2439.02402231862 195 197 196
-963.783684789294 159.414547678602 2444.7295058379 195 197 196
-976.379438407606 159.285905843395 2450.18557845438 184 186 185
-988.989242235787 159.159395605714 2455.70122422969 186 188 187
-995.850269847102 159.302914791844 2463.06732829495 184 186 183
-1003.67883748407 159.402667039148 2470.16522007278 190 192 187
-917.007996229214 140.01577942091 2204.4513225781 215 219 222
-915.283909062744 140.589760979114 2214.74311606533 216 220 223
-917.326072580729 140.960735237209 2223.52386810392 216 220 223
-911.82164655283 141.734544593249 2235.26757891941 213 214 216
-909.139775133268 142.355647777822 2245.86751471064 212 213 215
-908.341076767274 142.875189691999 2255.71271711685 213 214 216
-909.429464470718 143.293748494101 2264.81900267206 212 213 215
-911.462664564417 143.662042042063 2273.56183341421 215 216 218
-910.656837062372 144.179568082783 2283.37680641769 192 193 197
-904.165192603576 144.994446056803 2295.30251580297 198 199 201
-894.819641536577 145.955863544017 2308.23638588585 192 193 195
-894.942722481701 146.419662441862 2317.61877191542 192 193 195
-898.858977037734 146.685390700899 2325.60693722228 201 202 204
-899.929591289288 147.099048540198 2334.63778531258 197 199 198
-898.148751972502 147.659728648925 2344.6873196635 201 203 202
-902.067678613027 147.92516768416 2352.68742982343 197 199 198
-901.232506047017 148.435383417864 2362.37739128153 185 187 186
-903.24992046258 148.798281468602 2371.05383470217 176 178 177
-904.31502043555 149.209624637182 2380.06174512328 180 182 181
-910.145251837871 149.377610321568 2387.4275838295 196 197 199
-913.119280268278 149.691667042111 2395.79065326642 192 194 193
-915.140126790302 150.054060407259 2404.48251736164 192 194 193
-922.891672801005 150.126715496692 2411.25803163012 188 190 189
-931.606982919448 150.152304493613 2417.74954878905 177 179 178
-936.50560965524 150.371281222976 2425.53661624884 181 183 182
-943.321961533319 150.494826270143 2432.71760147505 191 193 192
-952.059975510421 150.523608717722 2439.30837302023 200 202 201
-967.514278953022 150.21978519767 2443.79359200961 192 194 193
-980.109865737636 150.061539452673 2449.26525510319 185 187 186
-992.719041371 149.905428960946 2454.79662900415 188 190 187
-996.701624626082 150.177773991114 2463.07209852777 188 190 185
-1004.52953928251 150.261156840981 2470.17674084275 191 193 188
-916.885261377276 130.989126755903 2204.66325854975 211 215 218
-921.75557491034 131.200364471187 2212.33011358972 212 216 219
-916.263490804496 131.997327826116 2224.11350517551 213 217 220
-911.704795975125 132.73924146477 2235.48591920345 211 212 214
-909.024926254029 133.373518356864 2246.08801369543 209 210 212
-909.171997349225 133.84793603146 2255.5709549167 208 209 211
-913.096601711973 134.110787805435 2263.59651971822 202 203 205
-913.241811090089 134.584420189115 2273.07171902577 203 204 206
-913.385063565928 135.057440415267 2282.53756873689 210 211 213
-907.845457230794 135.84433379012 2294.11855929268 197 198 200
-898.507091986637 136.838396516366 2307.0638069698 201 202 204
-893.893924583377 137.568705223957 2318.20300914951 197 198 200
-896.861016889459 137.880618808515 2326.53786096661 191 193 192
-897.931343910408 138.296483106218 2335.56614558689 192 194 193
-897.100951962061 138.815655062795 2345.27190543812 196 198 197
-902.92023269935 138.971735600107 2352.5964914348 194 196 195
-905.891495567863 139.28341704006 2360.94985768849 187 189 188
-906.961026662794 139.698131068527 2369.97531155176 176 178 177
-908.029562527508 140.112354524005 2378.99666839732 173 175 174
-912.908763965806 140.320995375517 2386.70421604995 180 182 181
-913.977555551512 140.734784247056 2395.72804176794 183 185 184
-915.999667480611 141.097049690977 2404.42555721359 193 195 194
-921.841110653225 141.255233559771 2411.84656653583 189 191 190
-932.464869325895 141.159717772194 2417.70622355923 176 178 177
-935.451889626075 141.471946351037 2426.1276178997 178 180 179
-941.310091531924 141.632252096947 2433.62122782031 187 189 188
-947.173447178409 141.793161293061 2441.13719315655 201 203 202
-962.620814105156 141.450561666119 2445.61465270734 194 196 195
-978.085720551814 141.110826602172 2450.16771662805 194 196 193
-992.609121756606 140.824041224202 2455.09722966455 196 198 195
-999.470972837033 140.940528876531 2462.4817750631 191 193 188
-1005.37866214118 141.107786765733 2470.18936589896 199 201 196
-914.880320694824 122.068368212381 2205.63164160597 211 215 218
-915.983201938436 122.494962346003 2214.79706791534 205 209 212
-915.200908716451 123.033023661683 2224.70366831409 209 213 216
-909.701592501243 123.849255543723 2236.4449443588 214 215 217
-907.022922258227 124.496454689838 2247.04363758268 213 214 216
-910.001855091479 124.80903080023 2255.43027589635 210 211 213
-913.927048668643 125.066141626781 2263.46181375324 199 200 202
-914.074127823886 125.544986342575 2272.94218665067 193 194 196
-914.219032754487 126.023194116774 2282.4133532921 203 204 206
-912.46908101981 126.611005551169 2292.58303833465 207 208 210
