ply
format ascii 1.0
comment KinectMotionCapture
element vertex 751
property float x
property float y
property float z
property uchar red
property uchar green
property uchar blue
end_header
-1004.02621584176 434.179407468094 2090.75973720888 125 127 124
-998.339645953596 434.989430353236 2096.08692214302 130 132 129
-993.041621260995 435.975773890005 2102.35279392817 136 138 135
-986.919278870376 436.609727629116 2106.75821613672 132 134 131
-981.584851102876 437.596467780195 2113.03759875652 128 130 127
-975.436277206932 438.230493856424 2117.45255731402 136 138 135
-970.065283923661 439.217426145346 2123.74498575074 137 139 136
-960.758639071481 438.43778150978 2120.66802216886 160 162 159
-954.204915475972 438.893991996481 2124.15021411977 181 185 186
-948.032236187854 439.526623934008 2128.57408018678 185 191 191
-944.91970457074 441.575191533771 2140.52587279953 167 173 173
-937.943059315923 441.854161882293 2143.08179878297 200 206 206
-931.723575693393 442.48696924315 2147.52242955309 192 198 198
-926.246034400879 443.474254270286 2153.85359749759 226 232 232
-923.736758074316 445.881052183504 2167.74660063768 251 255 255
-921.908004452547 448.644741826146 2183.55238484824 215 221 221
-918.902114417512 450.877953772159 2196.54617282282 175 181 181
-914.741926989648 452.579465509443 2206.7190654366 177 183 183
-909.814015728112 453.926421535821 2215.01103668116 221 227 227
-905.937806749737 455.80779089333 2226.16113034693 211 216 219
-902.015403475401 457.690264662737 2237.32783715961 190 193 198
-896.624186132503 458.861499283384 2244.70833020463 188 191 196
-890.854150502468 459.854915316 2251.14623492057 183 186 191
-885.414288646317 461.026800448711 2258.54445142624 198 201 206
-880.992891043195 462.734232940741 2268.8126982367 188 191 196
-877.221599447609 464.799851305192 2281.00512959642 208 211 216
-871.684624034606 465.973685674897 2288.43877817739 213 216 221
-866.462396038422 467.326559860753 2296.83787797387 209 212 217
-861.209641197718 468.680017871982 2305.2483676752 203 206 211
-856.596832209627 470.39188017427 2315.58674997168 211 214 219
-850.945054770172 471.567654142048 2323.0620024807 216 219 224
-845.267917074281 472.743750465256 2330.54674795077 223 224 229
-839.565284660498 473.920261333261 2338.04053358209 220 221 226
-832.537241553591 474.379928631647 2341.69557875152 226 227 232
-825.826661988532 475.018410492184 2346.31507127047 236 237 242
-819.426014453275 475.836271634523 2351.90229883961 238 239 244
-813.644988984871 477.013390904079 2359.42486782181 243 244 249
-807.209035184472 477.831321727706 2365.02492874055 244 245 250
-800.445681474947 478.469543559025 2369.66357646846 243 244 249
-794.60153471454 479.647164492714 2377.20911763789 241 242 246
-788.424985741829 480.645093276085 2383.79506441186 244 245 249
-781.923704865902 481.463195106168 2389.41887401317 246 247 251
-775.407438048785 482.281227539021 2395.04812333357 251 252 255
-770.972439969569 484.361112391958 2407.48278061327 253 254 255
-766.783587719342 486.622644871748 2420.90826571037 252 253 255
-763.716336554577 489.607648585444 2438.24755163216 251 252 254
-760.280995944274 492.414295308024 2454.64031041042 251 252 254
-755.61759456388 494.50030756999 2467.15841750979 248 249 251
-748.610058781085 495.141865321207 2471.88629176078 248 249 253
-742.161026047247 496.144666651562 2478.5716097596 243 244 248
-737.099903249768 498.05251346362 2490.15422488086 244 245 249
-731.714246976088 499.780301051388 2500.77435890302 242 243 248
-727.670571105334 502.414750460924 2516.30859992741 248 248 255
-723.28713546478 504.869781573347 2530.88619480121 250 250 255
-721.013792484839 508.776984657165 2553.33964097221 253 252 255
-715.413128304453 510.510614349129 2564.03833623747 253 252 255
-712.434817353389 514.059975401923 2584.58781151952 251 250 255
-709.101399857303 517.430591175932 2604.1860131858 249 248 253
-705.681758292903 520.803981198354 2623.81575261567 247 247 249
-702.434563460576 524.361482256795 2644.46328338075 252 252 254
-698.584009166645 527.558301755324 2663.16971082252 252 252 252
-694.905884134932 530.939411628207 2682.89394947832 250 250 250
-692.898246184064 535.597520920577 2709.57424566665 255 255 255
-1044.24444419018 418.754132109404 2038.71737338765 102 105 94
-1047.25113957794 423.004891452636 2062.47822821667 104 107 96
-1045.04506699468 425.188205589786 2075.17764760496 108 114 104
-1041.51618197192 426.85509991304 2085.11855240758 112 118 108
-1038.36545372552 428.696146461715 2096.00200925808 119 124 117
-1032.66684448954 429.500684676569 2101.33315471227 121 123 118
-1025.70936979849 429.786171137638 2103.88260696105 121 123 120
-1017.10434473182 429.378434520995 2102.71189209094 127 129 126
-1009.74695618602 429.489189811489 2104.32665377316 125 127 124
-1004.02107018768 430.292709728308 2109.66763306727 122 124 121
-997.471191850426 430.749365455121 2113.14846148553 127 129 126
-990.514255361801 431.032091496767 2115.6975099071 132 134 131
-983.157993129849 431.140585659041 2117.31194605672 128 130 127
-976.599379052903 431.595974891499 2120.79585293825 139 141 138
-970.429275896811 432.224873486299 2125.21850131308 148 150 147
-962.291878106118 431.983637513519 2124.95699886901 179 181 178
-956.891034789328 432.959885566345 2131.25946680124 142 146 145
-951.855774343841 434.110717699961 2138.50908793744 162 168 168
-947.561979741203 435.610521489791 2147.64874963118 152 158 158
-939.80204917066 435.541453619293 2148.32964576615 196 202 202
-933.187921087285 435.995068308933 2151.83384338418 209 215 215
-929.576396710934 437.845144827569 2162.88515179403 200 206 206
-928.906405756491 441.094267027966 2181.50671799533 232 238 238
-927.036541341261 443.821807462018 2197.32471178553 185 191 191
-922.148268446954 445.152207291781 2205.6010317312 179 185 185
-917.594927619071 446.658164565983 2214.83546060591 194 200 200
-913.368875594639 448.34009709863 2225.03080701888 213 219 219
-908.380539243122 449.672621003817 2233.34364404127 206 212 212
-904.077681254622 451.35635050122 2243.5672868345 187 190 195
-898.667108493551 452.514777427597 2250.95359176358 196 199 204
-893.93694910296 454.024726997484 2260.25256668753 190 193 198
-887.769241208417 454.832948539504 2265.75443121405 194 197 202
-883.673470913203 456.695385725131 2276.98287128913 184 187 192
-878.841011596865 458.20736811943 2286.31916899777 195 198 203
-873.630057197013 459.544304540659 2294.7132244488 208 211 216
-866.687398401536 460.001601412048 2298.33681313357 199 202 207
-861.427990545478 461.339121326681 2306.74851757039 199 202 207
-856.137988607118 462.677122281988 2315.17137428154 211 214 219
-850.817417067389 464.015841528668 2323.60539227312 212 215 220
-844.806307123768 465.002123692493 2330.13035007881 217 218 223
-838.120018736529 465.635666242289 2334.74064402173 222 223 228
-830.449145950405 465.739066717234 2336.46900567386 221 222 227
-824.072817394644 466.548533454297 2342.04676387318 240 241 246
-818.320871734455 467.711474383147 2349.55769729053 239 240 245
-812.543522243629 468.874826304781 2357.07763757839 244 245 250
-806.426213862774 469.861566648743 2363.64121583497 243 244 249
-799.664633015343 470.494345835064 2368.2790630645 243 244 249
-794.440679918682 472.012695619248 2377.75808559561 240 241 246
-787.646463493154 472.645440112367 2382.40778793862 243 244 249
-780.842241632638 473.277934253811 2387.06085243722 245 246 251
-773.726390557829 473.732755511585 2390.74743589747 247 248 253
-769.299417247179 475.785409302742 2403.17712285028 249 250 255
-764.821735799826 477.839211118525 2415.62532059376 250 251 255
-760.881614634927 480.249893976438 2430.03824221825 249 250 252
-757.172308005729 482.840130106269 2445.44765837758 249 250 252
-753.396950780441 485.432292522837 2460.88121854037 246 247 249
-746.976914099954 486.423896378859 2467.55515631675 242 243 245
-740.820914742695 487.593755110003 2475.2134195755 238 239 244
-736.046825302333 489.655270127533 2487.76989544767 241 242 247
-732.058774294046 492.253065105116 2503.28116023515 240 240 248
-728.004816003416 494.852602112931 2518.81650305238 247 247 255
-723.337419686562 497.097105701527 2532.41457632331 249 249 255
-719.428030066345 499.878806117219 2548.97769267084 251 252 255
-714.373063886412 501.94784421465 2561.63678923906 250 251 255
-711.130315593432 505.269822048125 2581.1986318738 250 251 255
-706.483559610829 507.699903106767 2595.86976409006 249 250 254
-702.820126212645 510.847604230387 2614.50449742336 246 247 251
-700.367759952743 514.89314832847 2638.10023806822 242 243 247
-698.064586328689 519.12104612531 2662.72183223558 246 247 251
-694.636594218788 522.635635311274 2683.43206997729 242 243 247
-693.12346788402 527.587634730503 2712.08797847863 253 254 255
-692.719351960854 533.441241139293 2745.7420050287 249 250 254
-690.192451595628 537.863716983145 2771.52637929012 236 237 239
-680.741701889345 537.260558964076 2769.58139254273 252 254 253
-897.697327846236 351.221850774033 1709.27990706988 102 106 91
-1036.45917266382 417.672372021945 2074.53022079174 108 114 100
-1040.46283498763 422.380718067289 2101.1632887573 117 120 109
-1036.41491081503 423.858883392599 2110.21198383358 120 123 116
-1030.25973328032 424.486199981151 2114.62883549947 123 125 120
-1021.62413215417 424.090437210215 2113.47013350582 117 119 114
-1012.59951063662 423.522898300546 2111.3732602084 119 121 116
-1005.22603165534 423.636485848501 2112.99408184844 116 118 113
-997.857370487731 423.749335450977 2114.61335162194 120 122 119
-990.493428437866 423.861405104571 2116.23084791435 126 128 125
-983.931884887555 424.314645854519 2119.71565707713 147 149 146
-977.761278130192 424.938799981847 2124.13813045156 140 142 139
-971.973822496968 425.733947246096 2129.50084857624 185 190 186
-964.214724261146 425.672588588776 2130.18202396519 177 179 178
-959.574695366618 426.981554950632 2138.36653035369 138 142 141
-954.13151553389 427.948202276605 2144.68365634191 149 155 153
-950.201676500041 429.601466973023 2154.76921441726 136 142 140
-943.56405396239 430.053915546305 2158.28186046751 158 164 162
-938.056228739584 431.021362307919 2164.62253487236 169 175 173
-935.158669260548 433.192469813194 2177.57202210318 136 142 140
-933.697910348831 436.053291409408 2194.31823931943 139 145 145
-929.935834342174 437.883868928976 2205.42303186509 155 161 159
-925.022953889371 439.199046044125 2213.70688977751 161 167 165
-920.44501399642 440.687073055435 2222.94915785465 159 165 163
-916.557150879725 442.520853212831 2234.09964092014 189 195 193
-910.820753571337 443.493169699446 2240.52398588137 208 214 214
-905.063734497392 444.465650736645 2246.95558161481 196 200 203
-899.286197925038 445.4383381101 2253.39464769435 193 197 200
-893.840966953517 446.583946188586 2260.79257805032 173 177 180
-888.720480083669 447.902935451243 2269.15240910846 173 177 180
-884.264774809204 449.568579499513 2279.43022248476 173 177 180
-879.422951463377 451.062049913954 2288.76852573854 180 184 187
-874.545358705184 452.556203628799 2298.11987691924 188 192 195
-868.271854921376 453.357959602764 2303.65969322799 188 191 196
-861.983082044799 454.159597693628 2309.2050484771 200 203 208
-856.013968555932 455.134769826388 2315.71390912403 210 213 218
-850.35694716028 456.283817602949 2323.18930473072 207 210 215
-845.004210394879 457.606716222149 2331.63356155988 206 207 212
-837.657429684204 457.887407925747 2334.32410153365 218 219 224
-829.661475840403 457.819689664759 2335.09110992297 218 219 224
-822.64230362277 458.272890124845 2338.74218972665 235 236 241
-816.577013758771 459.248009656668 2345.28599089369 245 246 251
-811.442594297283 460.746007153954 2354.7309468802 241 242 247
-805.643739623798 461.895952944338 2362.25794359978 240 241 246
-799.195721495291 462.697621186899 2367.86116090428 240 241 246
-793.041966755106 463.67375643357 2374.4371813204 238 239 244
-785.947683034441 464.126140597511 2378.11549036306 241 242 247
-779.152879055288 464.752952866902 2382.76495859061 243 244 249
-772.046475815073 465.204679194621 2386.44762147507 244 245 250
-767.6275587255 467.2299220392 2398.87231310053 247 248 253
-763.157912530883 469.256432831603 2411.31553218364 248 249 253
-759.225603454039 471.634400477022 2425.72340127338 249 250 252
-756.106815338997 474.53959407413 2443.0753907039 248 249 251
-752.333910405047 477.096525052782 2458.50540158891 246 247 249
-746.204130597055 478.252509573326 2466.15283716414 240 241 243
-740.049322620676 479.408803470798 2473.80964406111 237 238 243
-734.994370040078 481.267649857632 2485.38606584528 240 241 246
-731.566187555597 484.181361943035 2502.85111260289 239 239 249
-727.509567403177 486.745926933638 2518.38478387993 245 245 255
-722.839862537658 488.960744812741 2531.98145609911 251 252 255
-718.385598149239 491.352977419574 2546.58004746941 251 252 254
-713.333629967872 493.394861805277 2559.23600596125 250 251 253
-710.092626511345 496.670751549746 2578.79348290621 252 253 255
-704.658450944749 498.539700256196 2590.50870718411 250 251 255
-701.265452465627 501.820041399541 2610.12174549402 245 246 250
-698.819287502705 505.808544356353 2633.71067482435 245 246 250
-698.312206074515 511.212118269968 2665.23504446393 240 241 245
-695.126270820796 514.854858658244 2686.93355930977 242 243 248
-693.347542193762 519.560642445879 2714.60083749841 232 233 238
-693.178189507802 525.507549503986 2749.24316166842 245 246 251
-690.145844309496 529.514719397712 2773.0467350474 241 242 246
-683.848729672231 531.225067448061 2783.99672028141 240 241 243
-677.271096556698 532.759577596352 2793.96880492536 251 253 252
-673.512690226232 536.420045975121 2815.8766576174 251 253 252
-670.363895781762 540.615232965847 2840.80328380835 250 252 251
-992.186685240896 392.983342121076 1977.82326490857 106 111 91
-1033.49429526964 415.48085787082 2104.24117170385 117 119 106
-1029.42390005687 416.940606595043 2113.29664179095 125 127 116
-1021.61396916563 416.891166024502 2113.99744013654 141 143 132
-1013.40485879679 416.673039872754 2113.76373723814 139 142 133
-1006.42976588184 416.957547428527 2116.31951698934 138 141 134
-999.45431289379 417.241652193466 2118.8753971774 140 142 137
-992.879684975615 417.69331998513 2122.3648417002 145 150 144
-986.299572335749 418.144666161256 2125.85625476195 145 150 146
-980.506345003502 418.932475905743 2131.22051633405 168 172 171
-975.091014691582 419.888923395405 2137.52675395155 172 178 176
-969.263893353601 420.676985835394 2142.90334955508 145 149 150
-964.198131987117 421.802509412496 2150.16214325031 137 141 142
-959.10644593893 422.928523889893 2157.43013908996 136 140 141
-955.522434525509 424.730644153543 2168.46808693638 138 142 143
-950.368949403035 425.857988207464 2175.75889132446 140 144 145
-945.946128014835 427.324006745159 2184.94288414371 136 140 141
-941.862929616969 428.959980179437 2195.08285878199 134 138 139
-938.111846352507 430.766485996743 2206.18184100321 136 140 143
-933.573342878995 432.235179457616 2215.40806729565 173 177 178
-928.630903141333 433.535299996562 2223.70178346887 151 155 156
-924.023066623795 435.005631164166 2232.95332462756 164 168 167
-919.379315629491 436.476770405235 2242.21797583484 198 202 201
-912.89795771121 437.099491333484 2246.75324863896 199 203 202
-907.121825585493 438.061940450615 2253.19103193751 168 172 173
-902.035668262154 439.364580993401 2261.53715624516 167 171 172
-896.918781842147 440.667826957151 2269.89449126762 176 180 181
-892.121275682415 442.141878485861 2279.21522723744 174 178 179
-886.592810404968 443.276030176996 2286.64253533985 158 162 163
-881.038873889406 444.410627664618 2294.07938604093 174 178 179
-875.801817576337 445.716068871378 2302.48054893305 177 181 182
-868.834650426128 446.168904346893 2306.11270580405 192 196 197
-862.874450394361 447.133485207977 2312.61752872891 209 213 216
-856.559138027289 447.927465930409 2318.17194901092 197 201 202
-850.892987993189 449.063246782815 2325.64940607891 184 188 189
-844.542121168854 449.857306886257 2331.2167506199 203 207 210
-837.19477066218 450.137961306483 2333.90749480887 205 209 212
-830.172187398231 450.589316172695 2337.55992902602 205 209 210
-823.788632535453 451.382807666407 2343.13910745644 238 242 245
-818.028735643506 452.519096039148 2350.65066457172 233 237 240
-811.609808100797 453.312719361599 2356.24270517185 229 233 236
-804.861517275739 453.934617129729 2360.87490261678 231 235 238
-797.479713338649 454.21304493041 2363.5779970289 234 238 241
-791.953352945677 455.521528560721 2372.08425020836 231 234 239
-784.863516402416 455.971164500897 2375.76099037184 235 238 243
-779.289290644905 457.280314053551 2384.28493938595 237 240 245
-771.875546707542 457.557429387691 2386.99953977196 238 241 246
-767.750849675898 459.72796051735 2400.39484867165 241 244 249
-762.977518102891 461.55553940476 2411.86684209014 242 245 250
-759.040085523818 463.901205658944 2426.27388124384 243 246 251
-755.624445406788 466.593562915942 2442.65111307563 243 246 251
-751.848885596734 469.115402500648 2458.07944087512 241 245 248
-746.003926647492 470.430560913901 2466.7019564979 238 241 246
-740.128867324697 471.746286485395 2475.33570581504 233 236 241
-734.785803486029 473.408198897713 2485.93564832409 234 237 242
-731.073513377595 476.108649816567 2502.42102061274 237 240 247
-726.462240649208 478.29212277063 2515.99409721746 239 242 249
-722.342210952231 480.823256129297 2531.54828509333 249 252 255
-717.614645234489 483.009890605216 2545.16410815553 247 250 255
-712.831361285116 485.198001702847 2558.80003285195 243 246 251
-710.118582837458 488.77484712507 2580.32166018059 245 248 253
-704.150903973577 490.272715688082 2590.0693608723 248 251 255
-700.493968413316 493.333693562547 2608.69518988942 237 240 245
-696.497835454271 496.22334390611 2626.36452458142 237 240 245
-697.025513273825 502.243149295455 2661.82590223037 247 250 255
-693.084614350934 505.312783261376 2680.55555891715 233 237 240
-691.066150773719 509.776535185833 2707.22486958305 229 233 236
-689.917438122874 514.940371090352 2737.89772308887 223 227 230
-689.36249379794 520.631161675837 2771.59426654772 245 249 252
-683.794496749607 522.842721081933 2785.51733050004 240 244 247
-677.45040982726 524.532692035669 2796.48284504477 238 242 245
-671.541652798733 526.572568115875 2809.44995557116 249 253 254
-666.287978865534 529.137286671136 2825.41857302815 245 249 252
-664.224801230792 534.148108741922 2855.34533032407 246 250 253
-660.644626704396 538.115469320296 2879.34494699496 252 254 253
-654.455880863083 540.163429297503 2892.4143979148 253 255 254
-918.552573052297 362.783650332311 1848.70340056271 108 110 96
-1009.3038648295 407.823395184284 2104.98629348076 113 117 103
-1003.97613895832 408.768260354758 2111.25982721052 128 131 120
-999.031285121613 409.878815762395 2118.47356128729 133 136 127
-994.86263976441 411.320846476806 2127.56339248945 140 146 136
-990.657814260004 412.763695647484 2136.66643105166 139 144 138
-987.604854253619 414.704706958186 2148.58846376729 132 137 133
-984.500403093154 416.647135102465 2160.52931205527 109 114 110
-977.826564515818 417.097856495947 2164.05473212908 112 118 114
-972.31228538378 418.046260682766 2170.39631468886 127 131 130
-966.005791074687 418.662683643385 2174.86757778514 126 130 129
-963.520873492003 420.941207698797 2188.7420520114 126 130 129
-959.45165678394 422.556267970636 2198.8753686452 128 132 133
-953.828938559145 423.506587598628 2205.25649572284 127 131 132
-947.810044573327 424.290770398149 2210.70247680617 130 134 135
-942.521601641272 425.408143530732 2218.04156411281 126 130 131
-937.577790861453 426.692655512339 2226.33460074656 144 148 149
-931.867383806271 427.644139181721 2232.74767629817 148 152 153
-926.501647352804 428.7627006456 2240.11468260009 158 162 161
-921.473021197885 430.048681232652 2248.43864665344 169 173 172
-916.05344704132 431.168201578763 2255.82554086919 168 172 171
-910.608129098005 432.288086651796 2263.22156198344 152 156 155
-905.137256236305 433.408361239806 2270.62715185402 155 159 158
-899.640686345179 434.529058279254 2278.0418559898 165 169 168
-894.818460573726 435.985078843766 2287.37021305785 169 173 172
-889.960511656529 437.441945864825 2296.71186785807 155 159 158
-884.376972403222 438.564136138929 2304.15828389616 166 170 171
-877.398774587556 439.015318394363 2307.79432388407 163 167 168
-870.755304778466 439.634072428405 2312.38819871765 193 197 198
-865.11312392615 440.756589293463 2319.85594609272 170 174 175
-858.441699235439 441.375185257466 2324.45996605799 175 179 180
-851.428057019491 441.825251555475 2328.10880012685 182 186 187
-844.409518167877 442.274959563381 2331.75964059903 207 211 212
-837.385944715014 442.724222951911 2335.41202247842 205 209 210
-831.655020114093 443.847038116954 2342.91229060255 205 209 210
-824.933173006539 444.464462107868 2347.53428819294 222 226 227
-819.478438930634 445.756495405647 2356.01352994292 215 219 222
-812.092982078613 446.03619745315 2358.71804774017 214 218 221
-804.707787370333 446.315234185195 2361.42242009165 230 234 237
-797.011295104975 446.424697816428 2363.16054773754 233 237 240
-791.483399351084 447.717102896328 2371.66614561898 229 232 237
-785.312305875641 448.67157012743 2378.24708526764 233 236 241
-779.424903830313 449.79551200258 2385.80403823057 235 238 243
-772.005475949464 450.072968577555 2388.52072955387 236 239 244
-766.976961610804 451.70561563884 2399.00417629937 239 242 247
-762.204120949477 453.508653664751 2410.47388539875 240 243 248
-758.266813496868 455.821964676393 2424.87869213986 241 244 249
-754.850852665578 458.476473174344 2441.25293044461 242 245 250
-752.518132945575 461.81253876453 2461.55174470434 239 242 247
-746.947522404517 463.281847438976 2471.15302067348 239 242 247
-741.058168542764 464.581874004315 2479.79077921837 233 236 241
-734.576749904215 465.542110854289 2486.48465267458 234 237 242
-730.023965243579 467.69423669746 2500.03411317822 236 239 244
-725.415558366111 469.847867579256 2513.60415118492 237 240 245
-722.117708658785 472.854985330852 2532.09519268888 244 247 254
-718.197345085952 475.523654636574 2548.65402221302 244 247 254
-713.133415674621 477.51187384256 2561.3102775454 243 246 251
-708.55019229313 479.842759726929 2575.95084154744 245 248 253
-702.854149078289 481.492264287931 2586.6780985276 247 250 255
-698.420294349909 483.997132348793 2602.34432906425 237 240 245
-694.952414365043 487.187737277184 2621.97780389661 236 239 244
-695.229006731838 492.947003214732 2656.4441959648 239 242 247
-692.309028878124 496.657766184949 2679.11776714919 230 234 237
-690.288653593345 501.056681292103 2705.78288036884 225 229 232
-688.394233023339 505.630850939053 2733.48226328803 220 224 227
-688.089009629364 511.409057488825 2768.16122566606 238 242 245
-684.224681704313 514.791343268319 2789.02001809247 241 245 248
-675.708182822607 514.915464854918 2791.05719090312 237 241 244
-669.097580277626 516.412733443589 2801.03844464379 246 250 253
-663.156857591418 518.426226726026 2814.01517886985 250 254 255
-660.41960532416 522.847679698862 2840.94246093711 239 243 246
-657.790595235392 527.444900788622 2868.91048708374 247 251 254
-652.989078176843 530.497444518 2887.95129486836 248 252 255
-647.882074182873 533.380472126718 2906.02400533483 247 251 254
-644.032618076535 537.299235328791 2930.11754106153 244 248 251
-642.49312169799 543.117209078366 2965.24821597128 248 252 255
-956.171254401283 379.522824586522 1984.56037043703 108 112 98
-998.848340703104 405.728760765076 2137.42618738829 112 118 106
-998.996177836552 408.945848251743 2156.8147450993 107 112 105
-998.259817028101 411.84011504354 2174.36658670586 111 116 109
-994.688429756899 413.595410587873 2185.39641472747 115 120 113
-989.11702750238 414.535863864312 2191.75815235398 116 123 116
-983.136728890877 415.313297734349 2197.1896010709 118 124 120
-976.755206901326 415.927352774495 2201.68794587773 119 123 122
-970.746201843334 416.704717498646 2207.12981950755 119 123 122
-964.721609595643 417.482155426992 2212.57736207212 124 128 129
-959.815243682313 418.750792455932 2220.85559578912 125 129 130
-954.502525432159 419.856145689998 2228.20234200468 131 135 136
-949.536918450178 421.12590691228 2236.50218504888 130 134 135
-944.17011873095 422.232182694732 2243.8686507009 133 137 138
-938.409986163929 423.174817134025 2250.29938001508 133 137 138
-931.898847423724 423.789246887041 2254.84459342255 137 141 142
-925.377432213002 424.403349946454 2259.39377031338 130 134 135
-918.845604325293 425.017278121688 2263.94646302026 139 143 144
-914.090954112637 426.45367175915 2273.2490407723 136 140 139
-908.945373835221 427.726192567288 2281.61422878343 143 147 146
-904.473885460735 429.3287329505 2291.8930154804 146 150 149
-898.911965869089 430.43781061192 2299.33058691593 156 160 159
-893.324549255987 431.547275525616 2306.77770590094 149 153 152
-887.022171940612 432.326994246506 2312.3263503021 159 163 164
-879.678109286182 432.611331491668 2315.0161777659 147 151 152
-871.994484190029 432.729715139953 2316.75004901027 155 159 160
-866.675185545944 434.004604595598 2325.17878845141 166 170 171
-859.318578612151 434.287526430587 2327.87306692803 163 167 168
-851.962093998373 434.569847966504 2330.56725566768 201 205 206
-844.276435124821 434.685855780266 2332.3019409045 202 206 207
-837.9031463181 435.463998543579 2337.876231205 198 202 203
-832.811567103693 436.905295858587 2347.30134360161 210 214 215
-826.397753008792 437.683771822366 2352.89038340172 204 208 209
-820.287888399729 438.628177637797 2359.44806284868 205 209 212
-812.258593592945 438.576054838995 2360.22836196447 218 222 225
-805.18167254314 439.021626601693 2363.8998484902 225 229 232
-797.477119401494 439.1340255461 2365.64112642923 226 230 233
-791.940015296463 440.410473292068 2374.14886604413 222 225 230
-786.372632541854 441.687554715437 2382.66790914674 227 230 235
-780.774882925904 442.965167851204 2391.19802578904 228 231 236
-773.640772666098 443.409758854191 2394.89021730259 229 232 237
-767.696548728297 444.521257965504 2402.46713127183 232 235 240
-762.023250738816 445.799917986413 2411.02477646457 235 238 243
-757.200214660724 447.579965494916 2422.51098877267 236 239 244
-753.204608453624 449.86238452287 2436.93464679116 238 241 246
-751.167037357224 453.316665562976 2458.20169825369 236 239 244
-747.031726063644 455.60300981992 2472.67615823619 236 239 244
-740.569152888498 456.552491756563 2479.36262725768 231 234 239
-734.367300993603 457.669308900492 2487.03329408761 233 236 241
-729.531458992855 459.624376497523 2499.60417535619 232 235 240
-725.471995362218 462.083526715855 2515.13092606275 232 235 240
-721.892871282992 464.880103679962 2532.64197753831 236 239 244
-717.155489601513 467.007583607732 2546.25664949839 239 242 247
-711.826537111547 468.800838698875 2557.9279310768 242 245 250
-706.18681072084 470.427074645269 2568.63271608043 244 247 252
-701.295473741405 472.55859247627 2582.30388475346 245 248 253
-697.650093424227 475.532544038083 2600.91869473732 237 240 245
-693.408242189803 478.172389023798 2617.59215796123 232 236 239
-692.157997505227 482.834816397028 2646.13070301339 225 229 232
-690.775672619378 487.501452834546 2674.71755534349 225 229 232
-689.261270213391 492.172311922843 2703.35246069725 217 221 224
-687.614875817896 496.84748204043 2732.03590327698 215 219 222
-687.061521886694 502.370617839603 2765.71947336996 227 231 234
-683.683735216299 506.041864675872 2788.55640213481 238 241 246
-675.406781865313 506.337648918678 2791.58604751711 228 231 236
-667.842701165354 507.140057234223 2797.59482810662 227 230 235
-662.611941474066 509.633609068927 2813.54975031628 242 245 250
-659.870253624431 513.990204757581 2840.47375041154 221 224 229
-656.088259690395 517.673496857901 2863.45845168945 234 237 242
-651.296459351591 520.682591155575 2882.49270500113 243 246 251
-646.199346161693 523.524617846731 2900.55872818233 246 249 254
-641.470630048381 526.707983441306 2920.64976591087 246 249 254
-636.87560361488 530.06369469088 2941.77178915042 242 245 250
-998.618364123031 404.65524400829 2175.82756986833 104 110 96
-1002.11611143041 409.273832900436 2203.70423967561 109 115 101
-997.664091708795 410.687157669805 2212.89486551695 119 124 117
-993.564035103924 412.261901872286 2223.03659983687 121 126 119
-985.18273275525 412.069859598804 2222.86742882159 118 123 119
-976.816493190298 411.876573578463 2222.69269108863 118 122 121
-970.747386777731 412.647652134465 2228.1559274962 123 127 126
-965.796027407085 413.901789917421 2236.44941503469 124 128 127
-960.813762848537 415.156599555117 2244.75418228109 130 134 133
-955.800515380133 416.412038224453 2253.06999993837 132 136 135
-949.646146122123 417.184066906959 2258.56428722826 127 131 130
-944.578919370599 418.440350887964 2266.90003567163 129 133 134
-937.290908200497 418.728095431363 2269.56975461228 131 135 136
-931.090076241349 419.500093838794 2275.08092126207 130 134 135
-923.074388246978 419.463412855503 2275.8571873163 141 145 146
-917.212837108567 420.39673082074 2282.32406286334 138 142 141
-912.040141074585 421.654113247166 2290.69796083208 141 145 144
-906.836788856527 422.91208455375 2299.08329608097 141 145 144
-901.253099316732 424.008421501838 2306.52807035431 149 153 152
-894.255441820659 424.456255192534 2310.17092812035 147 151 150
-888.286263474445 425.390577282593 2316.67673013144 150 154 155
-881.61278115965 426.000261330475 2321.2808252905 137 141 142
-875.268513115736 426.772267562055 2326.84410824689 167 171 172
-867.898430426705 427.056311568567 2329.5433676411 152 156 157
-860.194178309936 427.177095561027 2331.28516887176 152 156 157
-852.163386973407 427.134096823189 2332.06644585272 205 209 210
-845.459721203942 427.741863789312 2336.68136314751 202 206 207
-838.74592065711 428.349325906794 2341.29968548095 201 205 206
-833.64239237275 429.772271821098 2350.72775478092 211 215 216
-826.574333599739 430.216530711544 2354.39617655563 198 202 203
-819.820224467661 430.823722041791 2359.02912408052 203 207 210
-811.790681731137 430.777147255637 2359.80993188491 216 220 223
-805.026847600659 431.383408512568 2364.44634269143 223 227 230
-798.564387347928 432.153185410329 2370.05240110913 222 226 229
-792.395571234756 433.086555522608 2376.63066719 219 222 227
-786.818994111661 434.347679065582 2385.15184690441 224 227 232
-779.997677992282 434.953850591704 2389.80939061112 226 229 234
-773.768530132358 435.887732452192 2396.40961609352 226 229 234
-766.922387747522 436.493564085359 2401.07615446934 229 232 237
-761.25002850965 437.756003003207 2409.63198036498 232 235 240
-756.720954373809 439.676035077339 2422.08875786159 234 237 242
-752.722854220913 441.926095807605 2436.51088053902 237 240 245
-750.969878082756 445.493585531386 2458.74962597881 235 238 243
-746.543818988989 447.583172097003 2472.24832363654 230 233 238
-740.646332673116 448.851001174228 2480.88660765553 229 232 237
-734.438076907759 449.954774834574 2488.55887140567 231 234 239
-729.873009156542 452.04776930551 2502.10833326095 231 234 239
-725.252259770674 454.142449792797 2515.67840786306 230 233 238
-720.848797916992 456.403483110157 2530.24838726348 237 240 245
-715.843841316756 458.335979549133 2542.87901118714 238 241 246
-710.788396815091 460.269794061194 2555.52807871216 240 243 248
-704.886699446649 461.709105217138 2565.2473875988 242 245 250
-700.526075571267 464.14143562678 2580.88153753479 242 245 250
-696.359931665784 466.7412805973 2597.52447537793 245 248 253
-693.153255226603 470.005334459318 2618.13514322956 235 239 242
-691.385575402815 474.266337341978 2644.69803700082 215 219 222
-692.02103502314 480.188943104482 2681.17973014948 223 227 230
-691.233799654063 485.287900540486 2712.78290643714 212 216 219
-689.062311123074 489.562005044527 2739.4935076148 213 217 220
-686.524237861023 493.6738186143 2765.25850144455 221 225 228
-683.384931218307 497.457217886112 2789.08379977715 235 238 243
-677.022821889068 499.082967961774 2800.05127127657 236 239 244
-670.383556594851 500.543303094144 2810.0401525822 215 218 223
-665.117055567993 503.002997051928 2826.00550633044 224 227 232
-661.177381460742 506.463501516275 2847.96387851129 199 202 207
-655.994145821782 509.09416319112 2864.97868914707 186 189 194
-650.059333064837 511.226813785214 2879.02882292077 231 234 239
-645.191395083536 514.194815279162 2898.08763937961 243 246 251
-639.577117311421 516.664765974004 2914.18012736716 243 246 251
-633.897474093294 519.13661617888 2930.29650839707 238 241 246
-632.704413559632 525.11813152363 2967.44676210355 244 247 252
-909.854462016226 356.271612985907 1931.36997416657 107 111 94
-919.315957650251 362.833940591882 1971.09269673904 103 107 92
-1000.10390905287 407.478994139425 2239.49882380374 106 110 96
-989.75003169233 406.50675462846 2234.65446074936 117 119 114
-981.350457867953 406.322989518381 2234.49255297258 120 122 117
-975.247051619754 407.0873095106 2239.96774185412 126 128 125
-969.505654078562 408.009871092819 2246.38989519546 125 127 122
-964.868772117068 409.408088609889 2255.64654856463 125 127 124
-959.823396051007 410.648571115654 2263.97316558685 126 128 125
-954.377209349127 411.731018328531 2271.36693191263 129 131 128
-948.537831740881 412.655086597376 2277.82479877383 134 136 135
-940.85364439867 412.785223935927 2279.55976113801 130 131 133
-933.899118137372 413.232370683101 2283.18715018096 135 136 140
-925.140760056668 412.883925469225 2282.07662058421 133 134 136
-920.331471756984 414.28453360088 2291.39609602636 136 140 139
-915.131655269137 415.526777829172 2299.77870567325 133 137 136
-909.901177569377 416.769551582254 2308.17274994864 134 138 137
-902.892618688015 417.215713309132 2311.81969675027 137 141 140
-894.838088736798 417.1828728509 2312.61036531986 139 143 142
-888.51567175922 417.947117093742 2318.16512330881 135 139 140
-882.519728325247 418.871110798254 2324.67987078824 158 162 163
-876.164161909833 419.635399982173 2330.24667660373 137 141 142
-868.44659146965 419.759979827278 2331.99360328459 157 161 162
-860.734162305162 419.88371736434 2333.73834408817 178 182 183
-853.690237588491 420.326913955629 2337.3979169017 176 180 181
-846.970249491259 420.929853742971 2342.01814618754 171 175 176
-839.587327111072 421.211898365828 2344.72191986704 196 200 201
-833.500250583127 422.135033160452 2351.2699689211 204 208 209
-826.750126281931 422.737304608509 2355.90109739432 203 207 208
-819.671247457338 423.178665149934 2359.57297750979 211 215 218
-812.271290592411 423.458933879877 2362.28280646337 208 212 215
-805.498973052461 424.060272426144 2366.92218249001 214 218 221
-798.716710318334 424.66134457516 2371.56515187908 213 217 220
-791.924452633387 425.262106410903 2376.21147509025 211 214 219
-785.734397143416 426.184918493218 2382.79691591938 218 221 226
-779.827553791121 427.269065345943 2390.35793004125 220 223 228
-773.895563423517 428.353645324038 2397.92836800342 222 225 230
-767.34167622975 429.115634610574 2403.56680336933 228 231 236
-761.068713968829 430.039245188576 2410.18242758963 230 233 238
-756.241645085535 431.770796433843 2421.66644604681 232 235 240
-753.403641345179 434.635227418792 2439.97989660256 235 238 243
-752.212856171958 438.472629000173 2464.16810901282 234 237 242
-746.912494001745 440.047607991383 2474.74572283138 228 231 236
-740.156865703006 440.813716166917 2480.45802339901 228 231 236
-734.227686904693 442.065990209179 2489.10664883483 230 233 238
-729.935620712664 444.291689355975 2503.63374229363 229 232 237
-725.032152499805 446.194552622656 2516.22525580465 228 231 236
-720.078088022763 448.098797749266 2528.8352571021 231 234 239
-714.533134079311 449.679405334102 2539.50216498377 231 234 239
-710.286135151874 452.073529203051 2555.09214796453 232 235 240
-704.913005621258 453.819142306067 2566.77588605677 234 237 242
-700.807176811758 456.379364296965 2583.3936652381 234 237 242
-695.850639356884 458.453223328566 2597.08417324395 238 241 246
-692.64046845035 461.668878992016 2617.69245904543 235 239 242
-690.868356542669 465.865084005631 2644.25207405652 215 219 222
-693.263903165122 472.837405280518 2687.63986648244 218 222 225
-692.953024261135 478.185166992167 2721.22184973181 205 209 212
-691.248609161845 482.72182404455 2749.9159223802 205 209 212
-688.188837511507 486.446003423132 2773.70810873292 217 221 224
-685.022636028204 490.173462653939 2797.5389582057 207 210 215
-679.354474730605 492.269072423225 2811.48941270088 225 228 233
-673.156962458488 494.038923701416 2823.47450881138 213 216 221
-667.617716293705 496.301037292874 2838.45749711943 205 208 213
-662.945627905729 499.220115247966 2857.44146270686 179 182 187
-656.58734915941 500.994417106729 2869.48505281309 143 146 151
-649.730323982474 502.441943058108 2879.5520879888 196 199 204
-643.511283066611 504.382404864264 2892.62443533827 229 232 237
-637.242103826971 506.324409288931 2905.71511621672 244 247 252
-631.79954045731 508.9246510657 2922.8218551261 240 243 248
-630.618259458282 514.813936628866 2959.96087000097 242 245 250
-628.444876490913 549.454523397257 3177.75754558675 247 248 253
-623.130726325059 552.907690115382 3200.21501719797 249 250 254
-939.417335897241 372.676140823516 2074.3951510739 104 108 91
-982.819556192067 399.45442965132 2238.7735660624 117 120 113
-978.22248281942 400.833271690463 2248.01454787076 127 130 123
-970.947028217108 401.123562649165 2250.67989666988 126 129 122
-967.420403949609 402.970592008199 2262.76693831144 126 129 122
-961.980623366847 404.039760693714 2270.15712086222 125 127 122
-956.145321222822 404.953545870689 2276.61273107852 132 134 131
-950.289461864245 405.867465692952 2283.07607496733 134 136 135
-942.954227770794 406.156996227774 2285.76308652537 129 131 130
-937.429408067886 407.227165848132 2293.18424250423 141 142 146
-930.44068624922 407.672268244552 2296.82364752258 135 136 138
-925.231798698739 408.899250704542 2305.20865580766 134 138 139
-918.574406341396 409.500623742331 2309.80627780194 134 138 137
-911.906657234865 410.101760158334 2314.4073906334 136 140 139
-904.879442306492 410.545971157957 2318.06096869204 136 140 139
-896.806734287009 410.519260345587 2318.85870452807 136 140 139
-890.121163484802 411.119233461421 2323.46645918325 145 149 150
-883.767017701188 411.87596359027 2329.03217848709 136 140 141
-877.397590595626 412.632695417678 2334.60345019723 144 148 149
-869.330221207168 412.60321523346 2335.39903735458 146 150 151
-861.94116402752 412.887405273149 2338.10520191225 177 181 182
-854.883622756543 413.328408325594 2341.76930232005 161 165 166
-848.150009120115 413.926447708894 2346.39436683792 165 169 170
-840.427453874823 414.051460575173 2348.14313735782 199 203 204
-834.00504899124 414.806465226389 2353.73327326081 206 210 211
-827.246434283602 415.40369513351 2358.36736053048 207 211 212
-820.477828935337 416.000600867636 2363.00505331572 213 217 220
-813.383118094809 416.439304795777 2366.68248535142 202 206 209
-805.970076935371 416.719548912985 2369.3970664635 211 215 218
-798.868259351354 417.157279994308 2373.07700724316 209 213 216
-791.453260563835 417.436409581341 2375.79221554195 208 211 216
-784.956115506707 418.190033766263 2381.40965750368 216 219 224
-778.747196056531 419.102103262562 2388.00088746745 218 221 226
-773.119671534254 420.331511553004 2396.53818531884 216 219 224
-767.759989406886 421.720221313448 2406.05674175722 223 226 231
-761.182510387271 422.474543444809 2411.70342472559 225 228 233
-756.934504515865 424.499809286622 2425.13283016488 228 231 236
-754.083039604773 427.321485841989 2443.44769147424 232 235 240
-753.741681248183 431.577099905056 2470.5587530394 230 233 238
-746.709404596874 432.176211259347 2475.29241392862 228 231 236
-738.818884896795 432.29732099416 2477.10166344 228 231 236
-732.615640632279 433.373862252063 2484.77005159543 229 232 237
-728.608991519888 435.72625622549 2500.26955787493 226 229 234
-723.710971768649 437.601929564502 2512.85704023177 223 226 231
-718.489888564248 439.319208966904 2524.48339636072 228 229 234
-714.573578963545 441.836293143128 2541.02906127921 226 227 232
-710.051374086381 444.035791307381 2555.63779585907 228 229 234
-704.93860160342 445.917118122378 2568.30373251205 235 236 241
-700.562495600189 448.27978239968 2583.93825126558 231 232 237
-695.860853895051 450.484163050866 2598.61229606988 229 230 234
-692.642197519507 453.651423224784 2619.2202677492 240 241 245
-691.369962103138 458.103658229676 2647.75094351023 225 226 230
-693.747919466746 464.965735491525 2691.13655438236 213 214 218
-693.670905461542 470.390621163142 2725.70619539996 198 199 201
-693.184110248684 475.66027744301 2759.34620247122 193 194 196
-690.094912908546 479.328853897452 2783.14488495269 213 214 216
-686.899194842546 483.000594652627 2806.98225486048 200 203 208
-680.485011236023 484.584980253603 2817.96527157953 217 220 225
-676.636126002708 487.940327383333 2839.88297676939 237 240 245
-671.988232572978 490.815701525841 2858.85485389741 199 202 207
-666.100772804099 492.88808111677 2872.88323500879 190 193 198
-657.637178865558 493.18877748161 2875.98106455319 138 141 146
-649.401000786105 493.650341555358 2880.07521364372 138 141 146
-641.384665329172 494.273096694103 2885.16794970886 158 161 166
-635.131369098746 496.187324737608 2898.25076392127 226 229 234
-631.455673625143 500.041683566377 2923.34311701449 233 236 241
-631.564394655252 506.809099036575 2966.47952804573 228 231 236
-626.211127767206 538.479064805963 3169.20807599804 245 246 250
-619.103721761705 540.420598461675 3182.60328061941 248 248 250
-923.030618958486 365.099877830538 2073.37757355556 105 109 95
-968.613577358154 392.679580195744 2245.55732524055 113 117 103
-968.845086343004 396.029387707098 2267.05860823836 116 120 106
-964.135562662242 397.39185456579 2276.3389576279 130 133 122
-959.020432557484 398.60201188143 2284.68863082792 132 135 126
-953.140252538747 399.50605744425 2291.15981199202 139 141 136
-945.78141223135 399.796570097487 2293.85547467651 133 135 132
-940.594196207927 401.007638980294 2302.23140817713 131 132 134
-933.579146671367 401.451090469963 2305.88025448057 131 132 134
-929.056845446429 402.970457533391 2316.17122783456 132 136 135
-921.30499524315 403.106143588888 2317.93144762202 135 139 138
-914.965001882229 403.856676884018 2323.49130295294 135 139 138
-906.514818603315 403.683034581826 2323.34880157888 136 140 139
-900.159457808694 404.432917870409 2328.91419143155 137 141 140
-892.756715227091 404.720203486383 2331.62556197587 138 142 143
-885.695560245943 405.161155421229 2335.29122582864 136 140 141
-877.273575989795 404.983923571631 2335.13795354827 169 173 174
-869.876153712375 405.268976498755 2337.84722256633 180 184 185
-862.478832786631 405.553549050006 2340.55641851441 174 178 179
-855.74409250627 406.146882006557 2345.18128297166 156 160 161
-848.341947502592 406.430332949104 2347.89214706124 185 189 190
-841.592253531151 407.023045590009 2352.52265225749 188 192 193
-834.50890005957 407.460412377058 2356.19585684511 191 195 196
-828.062714578657 408.20763814685 2361.7943005084 207 211 212
-820.646017011446 408.489216199249 2364.51031077828 194 198 201
-813.861415224096 409.0807919122 2369.15341351196 209 213 216
-806.440134782565 409.361298481155 2371.87100806705 211 215 218
-798.708385896678 409.485717819023 2373.62307419917 201 205 208
-790.981998513299 409.609286242051 2375.37287378794 211 214 219
-783.872529555473 410.043491340188 2379.05558286324 214 217 222
-778.27370637389 411.256189042208 2387.58093729385 218 221 226
-772.644660473347 412.469518235776 2396.11757472557 215 218 223
-767.581303221452 413.995261725461 2406.60561516475 221 224 229
-761.591086919468 415.053724714193 2414.19498392172 222 225 230
-756.454408068476 416.581202237514 2424.70979568702 223 226 231
-753.890174657744 419.515911193366 2443.99563402328 227 230 235
-753.541562278013 423.704231082382 2471.10399948932 226 229 234
-746.220671845914 424.1416369433 2474.8637674287 225 228 233
-737.764527332409 423.95240051112 2474.72200108777 225 228 233
-731.564990509265 425.015232743311 2482.38775351738 230 233 238
-727.560797186698 427.332454693959 2497.88371373093 217 220 225
-723.490686097617 429.651478636438 2513.40376030772 219 222 227
-717.99267422173 431.187717933421 2524.05051902044 231 232 237
-714.343401111747 433.823997120524 2541.57470924478 229 230 235
-709.281485789702 435.676954885808 2554.22002709119 232 233 237
-704.169114030022 437.531289046386 2566.88378150748 233 234 238
-700.579580079527 440.330760819274 2585.46538993559 235 236 240
-696.649364655106 442.975147476392 2603.09252308021 226 227 231
-694.185744486901 446.566764377424 2626.65784885546 235 236 240
-692.888288018054 450.94959475816 2655.19245168228 238 239 243
-694.734627998383 457.386490941969 2696.60602604819 205 206 208
-694.137546616402 462.409995442981 2729.20097544421 207 208 210
-694.375615687713 468.070038324435 2765.8069904092 179 180 182
-690.775899036103 471.36657683464 2787.62972609168 225 226 228
-687.563479496064 474.982217384072 2811.4689314221 206 209 214
-680.177950637703 475.91298211194 2818.48933266111 189 192 197
-678.452892390137 480.641223690173 2849.3384735738 218 221 226
-675.415157438604 484.58253480261 2875.27214857718 200 203 208
-668.787465380885 486.151608856324 2886.33183995931 194 197 202
-659.371590938055 485.819643529241 2885.4611998781 137 140 145
-650.429973382252 485.803711650433 2886.5757107731 151 154 159
-641.723359009708 485.945579401451 2888.68304435244 146 149 154
-634.350957229461 487.039525969308 2896.77754459884 198 201 206
-631.767834614757 491.628674355745 2926.86140147937 239 242 247
-625.201129015287 528.501834867595 3166.6888817631 233 235 234
-618.900592274405 531.054213837427 3184.10348898849 240 240 238
-918.473824472103 359.228506742145 2082.0566260684 104 108 93
-953.458521747879 379.153629120408 2208.44442655254 104 108 91
-966.14763325566 387.406279318038 2260.98822091318 105 109 92
-967.776417663336 391.30662457255 2286.29009378808 109 113 98
-962.631527386189 392.501641441797 2294.64918330025 115 119 105
-957.45584109842 393.697252655835 2303.01976130912 124 127 120
-950.427569963665 394.139837481461 2306.67360042978 136 138 135
-947.011936473049 396.09030482054 2319.79467575211 127 128 130
-939.588310971597 396.382098788066 2322.51397400778 134 135 137
-933.234647876659 397.126423265387 2328.07858190647 131 135 134
-924.032550536526 396.661533913081 2326.05368300817 133 137 136
-916.613859844383 396.95134846493 2328.77103891222 134 138 137
-909.195145194936 397.24044933072 2331.4883496721 134 138 137
-902.469349305609 397.831751583526 2336.11006538161 135 139 138
-895.045541851905 398.119800894706 2338.82914720706 142 146 147
-886.939102003322 398.10393667119 2339.63995747583 141 145 146
-878.843041566493 398.087057594666 2340.44717424749 174 178 179
-870.757233065646 398.069136477764 2341.25033317693 173 177 178
-863.682720119024 398.505979108136 2344.92028612137 161 165 166
-855.61002461071 398.486340787132 2345.71880534764 191 195 196
-848.533239426276 398.922081182753 2349.38950071604 205 209 210
-840.799610172391 399.052886505633 2351.14273188924 185 189 190
-834.364935559285 399.79221843053 2356.73639761877 211 215 216
-828.235961119085 400.683893514876 2363.29704176718 197 201 202
-821.131857207392 401.11825994134 2366.97755938696 201 205 208
-813.707175510502 401.39943540326 2369.69644021489 196 200 203
-806.596018104804 401.832813210562 2373.3797003463 198 202 205
-799.16934732168 402.1129349236 2376.09922437692 200 204 207
-792.359086207083 402.698321357834 2380.7509288116 207 210 215
-784.927993350169 402.977365303101 2383.4719782284 209 212 217
-778.70899837599 403.868270792028 2390.06527215027 204 207 212
-772.770371314624 404.91249577218 2397.63507662348 208 211 216
-767.402185938872 406.263662868117 2407.15388995734 215 218 223
-761.703386735988 407.462209878798 2415.71475604404 217 220 225
-756.559672765393 408.96823960683 2426.23025135683 220 223 228
-753.987019618511 411.857303581141 2445.51570491269 226 229 234
