ply
format ascii 1.0
comment KinectMotionCapture
element vertex 781
property float x
property float y
property float z
property uchar red
property uchar green
property uchar blue
end_header
-921.17438180714 -321.720474837238 2649.78027106533 11 14 7
-923.455408392216 -321.538378225755 2656.14505418934 11 14 7
-940.962329519585 -323.112002866177 2658.26104251775 11 14 7
-967.654054784715 -325.738112006529 2657.9183483299 11 14 7
-958.781197419875 -324.269167753436 2667.42039398676 14 17 10
-959.049101983937 -323.853500242522 2674.38302148042 14 17 10
-944.003127225631 -321.684372410431 2685.43244806183 12 15 8
-942.192947568941 -321.036230672868 2692.87260856651 14 17 10
-973.104725890203 -324.128682375943 2691.69142032081 13 16 9
-971.309536994075 -323.480748091339 2699.15959342405 13 16 9
-954.118438218407 -321.08100794099 2710.56269470004 13 16 9
-955.358990104149 -320.785143455567 2717.16286698471 14 17 10
-957.622152866686 -320.606363609665 2723.49430210631 16 19 12
-978.412162013674 -322.529794036639 2725.19839133529 16 19 12
-969.356092094563 -321.067522224377 2734.36146917768 15 18 11
-918.989891020335 -314.937815926546 2753.54981262389 14 17 10
-1043.13502487068 -326.772479872781 2758.36113622036 13 18 11
-1066.25336315761 -328.928181769035 2760.04799941438 17 24 16
-794.125552711172 -327.873571338611 2462.90787202017 13 26 19
-841.187721840703 -333.235095175645 2452.67842416654 13 24 16
-833.801524262349 -331.845120359576 2462.77616096479 17 24 16
-859.558649114661 -334.552260658011 2460.69019853748 19 22 13
-796.796961679036 -325.870696858651 2498.03259390075 18 26 15
-798.092076744604 -325.566178004418 2504.73622461137 17 25 14
-786.631438501919 -323.696545287678 2515.9442673924 17 22 15
-785.934848269707 -323.151669317146 2523.2866682445 19 22 15
-811.778997797868 -325.855823396414 2521.36165807206 19 22 15
-827.835389792232 -327.355661778986 2522.94684742202 17 20 13
-830.12127928166 -327.170525168777 2529.32199274935 16 19 12
-789.952552229671 -321.814041909932 2550.11291726191 15 18 11
-796.131610211998 -322.110867630314 2555.04316681923 15 18 11
-797.368832043108 -321.806388195281 2561.64030946897 15 18 11
-791.662821286737 -320.660716423003 2570.52515026388 16 19 12
-853.714156881899 -327.260403702287 2564.22686360952 15 18 11
-840.073256405292 -325.153163352572 2575.72656338615 13 16 9
-837.347257822759 -324.367760690952 2583.6389468351 12 15 8
-849.569039503747 -325.383371693125 2586.77690802148 13 16 9
-860.814999779786 -326.278536060064 2590.2711760025 14 17 10
-886.083012239907 -328.853438361922 2589.44071708257 12 15 8
-861.33627468506 -325.428111203798 2604.17544062439 10 13 6
-918.739691074466 -331.840670452122 2593.61515988315 10 13 6
-882.909680410511 -327.097019224461 2611.62698203416 10 13 6
-902.270051512304 -328.950137208395 2612.83765015177 9 12 5
-916.638730463527 -330.203280445274 2615.62261276888 9 12 5
-952.200362702893 -333.972752032105 2612.21525812026 8 11 4
-957.569832027242 -334.14591074975 2617.80851521547 8 11 4
-950.818861955587 -332.88150196901 2626.92199146947 10 13 6
-948.088824925473 -332.096797372802 2634.8267375544 11 14 7
-955.473376460501 -332.510212099689 2639.82424931542 11 14 7
-936.496409186544 -329.810702237379 2652.2625587412 12 15 8
-949.961370529512 -330.942926187973 2655.53708655304 12 15 8
-966.502578416374 -332.433859666283 2658.0166185597 11 14 7
-969.841032425458 -332.368933464361 2664.17616845789 14 17 10
-954.829109290415 -330.151006518491 2675.30289710876 14 17 10
-949.978360284624 -329.130258189752 2683.60784942258 12 15 8
-938.974539700514 -327.392779101102 2693.50202665619 14 17 10
-933.051557158404 -326.253973078326 2701.9852478828 13 16 9
-958.867528253359 -328.821227584955 2702.16488458834 14 17 10
-962.170769694305 -328.758788799183 2708.25892413891 13 16 9
-957.256777531212 -327.740861675818 2716.44671236677 14 17 10
-963.635176032871 -328.037736278128 2721.74357076043 16 19 12
-996.794729223463 -331.440025275258 2720.37317256385 15 18 11
-990.849576511899 -330.303819145399 2728.81534121027 14 17 10
-1040.66290205947 -333.82147547256 2751.69466925774 13 16 9
-1037.79468704421 -333.046688719259 2759.34229834508 14 19 12
-1039.0714217813 -332.749774823148 2766.0098373102 14 21 13
-828.039341866138 -338.833138796414 2450.07701208326 0 8 3
-841.091138766801 -340.001540633231 2452.58077574579 13 23 15
-860.016480882081 -341.90850036936 2452.97565917781 17 24 16
-827.25555568697 -337.286812970422 2472.3653087594 19 22 13
-808.080721830216 -334.390735609794 2486.61412105021 19 22 13
-805.481839158583 -333.588456191677 2494.76536901974 17 25 14
-796.988188326832 -332.047753420465 2504.98642389514 17 25 14
-790.425451772627 -330.753567825342 2514.45505040554 17 22 15
-779.906672874084 -328.967650819249 2525.25587398707 19 22 15
-808.700734385369 -332.102570702029 2522.28184688083 19 22 15
-816.876314123378 -332.653491503016 2526.57754909873 18 21 14
-824.078029039274 -333.081019367296 2531.23454688302 16 19 12
-805.612243377388 -330.31199252974 2544.63442190874 15 18 11
-791.045175816292 -328.035616076935 2556.59639377968 15 18 11
-801.185587730405 -328.832118360416 2560.20233021101 14 17 10
-798.454757355894 -328.030996559375 2568.11055419319 15 18 11
-824.497978737451 -330.792282381139 2566.53449270304 16 19 12
-851.594380286467 -333.675130319589 2564.74356158481 14 17 10
-856.854882028968 -333.855526925993 2570.13473509955 13 16 9
-840.194911777996 -331.335302756229 2582.55091061083 13 16 9
-836.455886186727 -330.411519926669 2590.7565659641 13 16 9
-882.65812827097 -335.623236894467 2583.22070853724 12 15 8
-879.947337041488 -334.821521934536 2591.16596653386 12 15 8
-899.25984732674 -336.718580935118 2592.27539589243 11 14 7
-938.674412439004 -341.067340320115 2587.31987700243 10 13 6
-891.807986483951 -334.870762489203 2608.73495142419 10 13 6
-892.077158357227 -334.437766904977 2615.70512065004 9 12 5
-932.61512612923 -338.907047271485 2610.66470142571 8 11 4
-957.117071211883 -341.414162572141 2610.55998506121 8 11 4
-967.539848248609 -342.205411604333 2614.68682216599 8 11 4
-929.462859594909 -337.11770124978 2632.89961110653 10 13 6
-936.823261474291 -337.542334956713 2637.84933346503 11 14 7
-939.127200994714 -337.354883871044 2644.25786785613 12 15 8
-955.633340753071 -338.881215438198 2646.66225822776 12 15 8
-944.742739123127 -337.10312182188 2656.77637515431 12 15 8
-951.108641176073 -337.405758656579 2662.0485174762 11 14 7
-942.204547937281 -335.873756554428 2671.51258174785 12 15 8
-951.625760058719 -336.5438609985 2675.94858853038 13 16 9
-969.230928391021 -338.192244656824 2678.2227897456 12 15 8
-967.447262041628 -337.517433648261 2685.71973306945 15 18 11
-941.082933894775 -333.909904301353 2699.6495083869 15 18 11
-957.691335722386 -335.436377167804 2702.241934845 15 18 11
-967.149659195039 -336.107457816853 2706.74590259878 14 17 10
-969.430604536036 -335.923502766584 2713.11159941612 15 18 11
-976.853135763561 -336.350587423608 2718.17485191348 15 18 11
-1022.39930151544 -341.295642952158 2713.74213992419 14 17 10
-988.635265246464 -336.839239308329 2729.12238183426 13 16 9
-1006.41151967511 -338.487594682493 2731.71125005928 13 16 9
-978.730321202365 -334.766398001809 2745.36804238454 13 16 9
-1016.42340373383 -338.308456903035 2750.17879960737 15 18 11
-1045.70632046181 -341.298811710284 2750.26213940366 15 18 11
-1023.098708813 -338.19156400715 2762.49105410761 14 19 12
-1031.63863947657 -338.743523174253 2767.45655180594 12 19 11
-804.600966214808 -342.545103825388 2458.72731832807 0 5 0
-858.521306077872 -349.027967825905 2445.9694816802 20 27 20
-863.823369172674 -349.215255602822 2451.43502177325 19 24 18
-845.698718037298 -346.38239644041 2465.48099684182 16 18 13
-822.628783919648 -342.921505997212 2481.19556276594 16 19 12
-810.256783769801 -340.84518917613 2492.90490278535 20 23 16
-810.585779253028 -340.404272391782 2499.98748060325 17 22 16
-795.202897140848 -337.9517455839 2512.61729656289 19 22 15
-800.409168818577 -338.139847173548 2517.90590981136 19 22 15
-788.890958269954 -336.191043570887 2529.03237924246 18 21 14
-806.894669151223 -338.01251041375 2529.87221949077 18 21 14
-791.390670044352 -335.561780403289 2542.27873889373 16 19 12
-806.463256236811 -337.005528051613 2544.18670133537 16 19 12
-819.588201014021 -338.197462464289 2546.81792052556 13 16 9
-777.269922841909 -332.357906034262 2568.03080206804 13 16 9
-789.38196621345 -333.424576469446 2570.95157985247 15 18 11
-826.344270360474 -337.62821875023 2565.75914462106 18 21 14
-838.534071388376 -338.693108345805 2568.82397268376 15 18 11
-845.768900742949 -339.130373703126 2573.5384414395 11 14 7
-852.01642518569 -339.442014964464 2578.59066218874 12 13 5
-883.22780474466 -342.88835762452 2575.73876914 15 16 8
-850.540978268154 -338.309576123399 2593.13699775357 8 11 4
-845.784226834276 -337.24232836494 2601.62881209512 13 16 9
-881.622571438491 -340.306750153203 2611.63220962851 10 13 6
-966.07056487556 -349.377486541486 2607.71294778521 8 11 4
-952.270143702128 -347.183335489301 2618.94539582864 8 11 4
-952.581410949348 -346.742275281343 2625.99541132085 10 13 6
-935.673976373219 -344.17471346181 2637.97069028517 11 14 7
-947.098170273752 -345.110685226958 2641.78099496967 12 15 8
-955.498114307113 -345.671342912173 2646.48641591947 12 15 8
-947.650253959971 -344.231353668021 2655.75061541267 12 15 8
-929.598636594003 -341.541982011902 2667.77296385189 10 13 6
-933.907234825895 -341.603597094276 2673.56393279266 12 15 8
-950.460039069434 -343.165239805627 2676.04352884414 12 15 8
-959.896267442377 -343.851769353692 2680.50221387166 12 15 8
-948.893871848025 -342.040026487412 2690.42084037216 16 19 12
-949.11919713192 -341.603062290493 2697.31156117713 16 19 12
-954.463296047762 -341.790999845528 2702.85371315819 16 19 12
-956.732542770354 -341.604643289731 2709.19861626844 15 18 11
-969.277986008531 -342.666861848427 2712.91783414965 15 18 11
-975.671793160053 -342.980334148064 2718.23804057789 15 18 11
-987.225321594103 -343.917956581631 2722.28571864406 13 16 9
-1009.1168975384 -346.103122162525 2723.82177706446 12 15 8
-995.932633152362 -344.047054685121 2734.03112574609 12 15 8
-956.850051178295 -338.874708984899 2750.41989699076 12 15 8
-982.903437897595 -341.559645806272 2751.00029047287 14 17 10
-1020.4190428942 -345.615387120339 2748.98525682258 15 18 11
-1024.7988668732 -345.681767468299 2754.90578987351 16 19 12
-1030.22100436259 -345.873207388022 2760.59041577501 13 18 11
-1049.17796071564 -347.684918345091 2763.18638193541 14 21 13
-851.187033259013 -355.380226571546 2441.14516348583 0 6 2
-859.403514329372 -355.959081971342 2445.5076901793 17 22 18
-870.558487009247 -356.923076876135 2448.81442083196 19 24 18
-850.480597158311 -353.774568614584 2463.59305923778 16 18 13
-797.089735805907 -346.258952591343 2490.32507808362 16 18 13
-797.407636772283 -345.810604570321 2497.38948579422 20 22 17
-796.73703240724 -345.233865806051 2504.78926120959 18 20 15
-800.964823631085 -345.299102131505 2510.4305223543 19 22 15
-795.363995864299 -344.080530929503 2519.53023199476 19 22 15
-805.489909410833 -344.915731676979 2523.09786583646 18 21 14
-801.833928952855 -343.953911343073 2531.46769500657 18 21 14
-789.27667861598 -341.837670261441 2542.84833225128 16 19 12
-779.642764577537 -340.107072255435 2553.14464439833 16 19 12
-739.29866975194 -334.401276924278 2573.71808118056 13 16 9
-779.099746571419 -339.083483590281 2567.25835376811 13 16 9
-782.286791920287 -339.020596722628 2573.13882228141 15 18 11
-794.41450515897 -340.111188740414 2576.08122607875 18 21 14
-828.448737445042 -344.020390507031 2571.93748407957 15 18 11
-867.542775544639 -348.56860934594 2566.3324759175 12 15 8
-846.891737156382 -345.429466970078 2580.05417321112 15 17 6
-851.143028788649 -345.493241678329 2585.73909542818 10 11 3
-855.396658170643 -345.5569294599 2591.42834333364 13 16 9
-902.864784860898 -349.201364292797 2612.07109768129 7 10 3
-962.923088702252 -355.848795420719 2608.43780703766 15 16 8
-968.304980952614 -356.038677909868 2614.04938720809 8 9 1
-953.462943100977 -353.67245205898 2625.5326582355 10 13 6
-937.5614332435 -351.179480122647 2637.22078598329 11 14 7
-941.891611620004 -351.242847242906 2643.05091786704 11 14 7
-950.285652807593 -351.817342880985 2647.74132104162 11 14 7
-944.459796066192 -350.603846310245 2656.42613959064 11 14 7
-942.682452704596 -349.901897393589 2663.94287298644 13 16 9
-947.007025466213 -349.966394861877 2669.76235520337 13 16 9
-954.395520087191 -350.413915889248 2674.75686252903 14 17 10
-947.489733512557 -349.07500809903 2683.60800645978 16 19 12
-935.443086755168 -347.099021510853 2693.77025567553 16 19 12
-945.892916652991 -347.930483228566 2697.93475511254 17 20 13
-965.591321647327 -349.909748247055 2699.72919405822 16 19 12
-957.60429880939 -348.445771669152 2708.74466187522 15 18 11
-960.899245542362 -348.385027051309 2714.8229364742 15 18 11
-976.548115287879 -349.854438724381 2717.78256741121 14 17 10
-957.181652422041 -346.990368451588 2729.55451452911 13 16 9
-969.752473725384 -348.078047470263 2733.31275079519 13 16 9
-972.013107307346 -347.89170295997 2739.64130490412 13 16 9
-962.890164364066 -346.304636379622 2748.71942375138 13 16 9
-999.316986466821 -350.322404960303 2746.82813848156 14 17 10
-1006.78451106709 -350.773830167402 2751.96682226915 15 18 11
-1028.80125843182 -353.007939274953 2753.71887962487 16 19 12
-1037.34766097983 -353.587120343073 2758.68809409417 16 21 14
-1057.35884300539 -355.566678831841 2761.05769873751 12 17 10
-860.825960052198 -363.478473280821 2437.40288494995 2 8 4
-880.748629266825 -365.645159583602 2437.43862580055 20 25 19
-836.317505630613 -359.152386653102 2461.30693777296 20 25 19
-790.782731425211 -352.53064420651 2485.29901842695 19 21 16
-794.033495277981 -352.468180350234 2491.29654967034 18 20 15
-761.039238405493 -347.554182623649 2510.34496370601 19 21 16
-797.591408311235 -351.949283179572 2504.34114555045 17 20 13
-800.837384538075 -351.886344536425 2510.33001425592 18 21 14
-786.380981026523 -349.464533010848 2522.53925289265 19 22 15
-775.816543255912 -347.567541202693 2533.28950404097 19 22 15
-779.020401524032 -347.504985924302 2539.20079486026 18 21 14
-782.223974502756 -347.442315865795 2545.11159549719 17 20 13
-787.404565979402 -347.641359217896 2550.34968775643 16 19 12
-794.569759059983 -348.102175289465 2554.9295047602 16 19 12
-801.74499303452 -348.562694527692 2559.52787806155 13 16 9
-754.344044515967 -341.825494374851 2582.2372440071 14 17 10
-780.350135871891 -344.772760785758 2580.53696532166 17 20 13
-805.420239447466 -347.587997550111 2579.26973798194 15 18 11
-817.594080054378 -348.701884449537 2582.29047739253 7 8 0
-870.694272801511 -355.176721981124 2572.25625308832 21 22 14
-835.018712243944 -350.013297348938 2590.67837190423 6 9 2
-898.567777730463 -357.335120660695 2584.80272247699 8 13 7
-903.878456006142 -357.531492249843 2590.28087151817 7 12 6
-909.193752202135 -357.727781191357 2595.76804285411 11 18 11
-950.039234115965 -362.037867596466 2597.68546906701 1 6 0
-981.614512033511 -365.627984596431 2595.46011965095 14 17 10
-978.948132475868 -364.778765283134 2603.50134437208 11 14 5
-974.245273152617 -363.668863726724 2612.10510302744 11 12 4
-976.604220228472 -363.473016992589 2618.6173310855 10 13 6
-961.737733262136 -361.059488240922 2630.07036496702 11 14 7
-940.738752698005 -357.864514166103 2643.16892297948 11 14 7
-938.975299893845 -357.148722698709 2650.71587063432 11 14 7
-942.283650452865 -357.085277654562 2656.8196093872 11 14 7
-943.555644576539 -356.76144434206 2663.48602049668 13 16 9
-950.939349411261 -357.219953811483 2668.46841407481 14 17 10
-955.270829989585 -357.287677987123 2674.29963068589 15 18 11
-940.185117350925 -354.880096405496 2685.34717592736 16 19 12
-928.12303711377 -352.864676529344 2695.49340283287 16 19 12
-938.565134040032 -353.71543415134 2699.63787723798 15 18 11
-944.921515892372 -354.045365144006 2704.88430224337 14 17 10
-943.067675783114 -353.333986634919 2712.26317986072 14 17 10
-935.029545749227 -351.842196989983 2721.19301621223 14 17 10
-965.066720319415 -355.166760659378 2720.44827061039 14 17 10
-949.802203145727 -352.765149052298 2731.16516643449 14 17 10
-946.880026493503 -351.926066420806 2738.73288537532 15 18 11
-977.020395255381 -355.250051225635 2738.17810677151 15 18 11
-988.598228681858 -356.232409805836 2742.25703303792 15 18 11
-1005.37824257746 -357.865148653462 2745.13312892057 15 18 11
-1024.26705369021 -359.757795331444 2747.57942447743 15 18 11
-1020.34018923379 -358.790573746825 2755.4526728884 16 19 12
-1038.23797392986 -360.553591183247 2758.23057610162 18 24 14
-1032.21966013597 -359.327850583381 2766.5651131038 14 20 10
-854.895324845328 -369.48163653956 2439.4946910987 8 13 7
-856.294036754008 -369.150298653708 2446.39692033217 25 30 24
-814.740813705005 -362.929077816875 2469.13165223652 19 24 18
-790.661024122596 -359.119059219274 2485.20869950739 20 22 17
-791.953052147606 -358.789168994827 2491.91428229778 19 21 16
-804.998834856468 -360.064592952912 2494.37480094107 19 22 15
-801.389463696055 -359.065464437233 2502.84157246449 17 20 13
-781.059187353061 -355.793039126113 2517.19329061341 18 21 14
-762.634174949684 -352.789121980389 2530.73879159471 18 21 14
-750.062686303781 -350.588199109898 2542.1187076071 19 22 15
-746.32710943117 -349.590927988263 2550.35280527246 19 22 15
-778.129114333622 -353.404685961672 2546.36189096047 18 21 14
-816.928261402808 -358.152118069005 2540.15461680193 18 21 14
-824.132157428431 -358.62305013762 2544.80257347841 18 21 14
-783.752787377654 -352.683033731564 2565.38156794553 14 17 10
-755.173471845019 -348.347575244702 2581.80138376539 13 16 9
-800.075480378788 -353.89308257891 2573.88858137456 15 18 11
-795.315466802942 -352.762443859224 2582.39396329491 16 19 12
-815.451820395904 -354.968538561194 2582.81085770938 16 19 12
-771.761619480767 -348.634257514721 2603.76409685106 6 9 2
-865.848126549476 -360.712308057712 2580.71334525469 4 7 0
-820.091877902555 -354.112587581049 2602.1766722845 6 11 5
-865.376504560385 -359.650761517615 2594.9697796477 0 3 0
-928.825205599351 -367.586686056719 2582.37996629529 10 16 12
-968.392638583752 -370.79025881735 2599.19948692713 5 10 3
-1005.07938922322 -375.120646516177 2595.57744709093 12 17 10
-999.395090995224 -373.855888862365 2604.53803283528 7 10 3
-1000.77267516292 -373.524002982195 2611.40106485301 10 13 6
-975.795588615813 -369.730905170296 2625.82323531693 11 14 7
-941.614026232391 -364.741526574245 2642.71064681162 12 15 8
-933.75294314268 -363.214243546077 2651.97677836667 12 15 8
-928.915598174055 -362.087035072974 2660.33839797344 12 15 8
-940.354517075384 -363.088833543706 2664.15598912906 11 14 7
-940.595842662708 -362.627480114625 2671.08296752347 12 15 8
-944.913711218075 -362.698498082547 2676.88815863084 15 18 11
-944.12203130858 -362.105001777755 2684.07029340754 15 18 11
-935.130123513087 -360.44865920332 2693.41024252966 14 17 10
-945.582560441756 -361.318438427324 2697.56801388353 12 15 8
-973.500138685952 -364.44727498761 2697.21390657275 12 15 8
-935.713928865395 -359.072153066539 2713.93261798889 13 16 9
-959.557260952554 -361.669744995564 2714.70468762069 14 17 10
-950.487146079904 -360.016665829363 2723.89931405794 16 19 12
-949.63741753323 -359.426846634961 2730.97408527283 17 20 13
-972.530737513937 -361.891512323419 2732.15368258417 18 21 14
-999.609124314233 -364.886812050971 2732.41110596165 17 20 13
-1023.64083426987 -367.483342543347 2733.52995601378 17 20 13
-1013.51649380015 -365.700264028764 2742.94006659832 16 19 12
-1031.38190904903 -367.500743178988 2745.64666672331 16 19 12
-1035.77404521058 -367.576490189933 2751.58702736682 16 19 12
-1027.68361679755 -366.061242793264 2760.42722747013 13 19 9
-1037.27446911728 -366.801446772443 2765.15465731194 14 20 10
-839.221824457288 -374.081175214915 2445.23919840094 20 25 19
-825.971359479181 -371.696945836812 2457.54027668241 25 30 24
-847.826754681601 -374.228068739626 2456.79146035822 18 23 17
-799.33769571703 -366.93015819943 2481.89831329435 20 22 17
-809.450162358552 -367.823248709841 2485.4238071465 20 22 17
-828.402844806638 -369.943870630423 2485.80421743174 19 22 15
-783.595273912084 -363.195767537302 2509.05695750729 18 21 14
-763.232318160935 -359.860033780678 2523.36761046426 18 21 14
-755.600939928596 -358.298253368563 2533.0660809577 18 21 14
-730.20314881795 -354.282552181337 2548.8962399347 19 22 15
-757.02611591469 -357.493438982926 2546.50426902852 19 22 15
-770.078736650028 -358.794839619794 2548.96955230946 18 21 14
-804.921406772838 -363.093766971051 2544.0801724926 18 21 14
-850.74260368704 -368.889740440882 2535.66780523115 18 21 14
-799.471090097308 -361.333326074306 2559.9650575612 15 18 11
-809.633413041025 -362.224109322533 2563.58294007997 14 17 10
-812.852458781289 -362.161314102523 2569.52223558332 14 17 10
-810.09704474351 -361.281629319043 2577.40836704272 16 19 12
-824.275045194857 -362.716231459967 2579.78857285361 12 15 8
-839.479698026269 -364.286479272961 2581.90088437769 6 11 4
-781.74397969778 -355.922702172175 2607.24188177046 8 15 7
-844.958480441044 -364.023968524943 2594.17160960672 2 9 2
-786.061810622291 -355.527354421344 2619.53215188203 5 12 5
-829.358921699914 -360.905895570781 2612.9474595206 0 2 0
-981.742448430188 -378.938030843434 2602.26730515833 0 2 0
-997.259254225565 -380.503056653948 2604.95579747044 17 20 13
-976.357827049027 -377.178107595729 2618.27286017533 11 14 7
-956.408117782905 -373.99025976132 2631.18427697883 12 15 8
-937.414064790337 -370.939584429908 2643.6972698132 12 15 8
-950.886348527869 -372.234333222292 2646.93639017137 12 15 8
-972.525417788586 -374.614543859413 2647.94938860176 12 15 8
-957.529481463408 -372.108841954612 2659.1920599505 12 15 8
-947.588279506816 -370.282752344971 2668.95192997941 13 16 9
-954.979142740379 -370.763776103551 2673.94021438843 14 17 10
-937.833411702873 -367.98970074647 2685.5393257476 15 18 11
-943.165440231282 -368.200267164479 2691.0529773512 15 18 11
-964.908619419564 -370.580597096536 2692.25741703335 14 17 10
-975.40489283787 -371.469058133895 2696.49019366093 13 16 9
-979.751571265822 -371.54446012696 2702.34705300387 14 17 10
-961.458341900981 -368.638982960595 2713.99002047027 15 18 11
-980.208950979121 -370.612544699471 2716.15830867098 17 20 13
-973.203704386112 -369.199187776956 2724.84891594084 17 20 13
-982.702079911364 -369.953874671122 2729.40140454363 18 21 14
-1014.97188910184 -373.687992687432 2728.41012052278 17 20 13
-1011.06621435092 -372.682406578867 2736.33387769016 17 20 13
-1023.73377371783 -373.843739901503 2740.24788346804 16 19 12
-1023.96578838542 -373.380933384313 2747.15867860299 16 19 12
-1031.46694312788 -373.866170466081 2752.34904640093 17 20 13
-1026.48906216518 -372.728167789762 2760.45544075419 9 15 5
-1040.2483754982 -374.02623473289 2764.22146299869 14 20 10
-843.993973439584 -381.51358446711 2443.32126515504 18 23 17
-854.153445354961 -382.425200879531 2446.9276391383 19 21 16
-852.60999045557 -381.665987051448 2454.89175680707 18 20 15
-814.866254837193 -375.757817420611 2476.07898762698 21 24 17
-803.455323765049 -373.608193870442 2487.46315438536 21 24 17
-819.462503654919 -375.354427165774 2488.88373752544 19 22 15
-778.552914595773 -369.032539895462 2510.71770284765 19 22 15
-743.42637683609 -363.547189784112 2530.24588020866 18 21 14
-716.074467682856 -359.175906023639 2546.81909412402 19 22 15
-751.731340715534 -363.70326874268 2541.2436871469 19 22 15
-768.718979654459 -365.587915494285 2542.31108996022 20 23 16
-780.800901910037 -366.77702181795 2545.13965045229 19 22 15
-824.574010278529 -372.411720258569 2537.23857260295 19 22 15
-836.742851805158 -373.598995734477 2540.22804829053 18 21 14
-818.176497720883 -370.480030123332 2553.54768944013 16 19 12
-779.68298456689 -364.584747810637 2573.35206726752 15 18 11
-794.799633394564 -366.189133237067 2575.29225748848 14 17 10
-797.993971095738 -366.127045861975 2581.18589754199 15 18 11
-858.309146632637 -373.496321592241 2575.69316745029 9 14 8
-871.571834355659 -374.820451608923 2578.53796698993 11 18 11
-978.593971085714 -385.397919872847 2602.99426150994 7 14 7
-962.752701054119 -382.701465918876 2614.85386839366 10 15 9
-953.951873601266 -380.975605039506 2624.56615471262 11 14 7
-944.105975521015 -379.112041012097 2634.51257528837 12 15 8
-943.365090617666 -378.495367964277 2641.79510107537 12 15 8
-951.76379853777 -379.124910108432 2646.47803781195 13 16 9
-981.552848376437 -382.660834216946 2645.21338504622 12 15 8
-993.062255400921 -383.705073880984 2649.14734949157 12 15 8
-971.934452161156 -380.321990611587 2662.0660518049 11 14 7
-969.138215406679 -379.430324235735 2669.88070596941 11 14 7
-943.817527461356 -375.496609872966 2683.71321723874 14 17 10
-944.035001643159 -375.02150879369 2690.60096700688 15 18 11
-962.707377600838 -377.035441939628 2692.61272546103 16 19 12
-972.175321706705 -377.80505845795 2697.10525972772 13 16 9
-954.923916525131 -374.981425210633 2708.5249201915 14 17 10
-971.596434104141 -376.719144754984 2711.17174083644 14 17 10
-993.456889476738 -379.147594468902 2712.5774021497 15 18 11
-985.431646187395 -377.569618255505 2721.55685770395 16 19 12
-976.345039815995 -375.854456005845 2730.7398229718 16 19 12
-991.025721899563 -377.316575475953 2734.0362768509 17 20 13
-992.267183121885 -376.983828828122 2740.64921282073 16 19 12
-1003.87623974692 -378.032113096178 2744.76573898396 16 19 12
-1012.39055718519 -378.666510526481 2749.6593383576 17 20 13
-1021.95754098328 -379.439320238766 2754.33306440272 17 20 13
-1029.45828709035 -379.936525756465 2759.51857723886 18 24 14
-872.051760029475 -391.252735963425 2447.58206659288 20 23 16
-847.03697399077 -387.076066212444 2464.16504834877 19 22 15
-804.313369076564 -380.348089349187 2487.01442634916 19 22 15
-824.248640399246 -382.696382353862 2487.01873178062 19 22 15
-781.364569727711 -375.971084475185 2509.57217838784 18 21 12
-753.111713260644 -371.373875519199 2526.67112583707 20 23 16
-744.472595246438 -369.612495198717 2536.69100248447 19 22 15
-776.232387232605 -373.660687914379 2532.55195142229 17 20 13
-776.470092523107 -373.174119073868 2539.48035848491 16 19 12
-788.563831849999 -374.387283379434 2542.32392222219 19 22 15
-807.610562861386 -376.591282173549 2542.85223175505 21 24 17
-813.811863199404 -376.953608727888 2547.80369156537 20 23 16
-805.132366250363 -375.19250431785 2557.74972526618 20 23 16
-786.483575040899 -372.016613468091 2570.93486815016 19 22 15
-766.782536600775 -368.700122838439 2584.34232153261 17 20 13
-762.964667006788 -367.64870192641 2592.44135188105 15 18 11
-780.080238571247 -369.568282965147 2593.73354062083 7 12 6
-935.80541551187 -390.027286484005 2565.20517403317 7 14 7
-941.164334371019 -390.245360053573 2570.76552005069 0 4 0
-938.051669021248 -386.611620845182 2614.77741743928 8 13 7
-955.542781413627 -388.524957270461 2616.76217207544 11 16 10
-957.872662670992 -388.320534262981 2623.22352186484 12 15 8
-966.286258240968 -388.963075899296 2627.92993047879 11 14 7
-947.288180259769 -385.795657841866 2640.47012339867 10 13 6
-954.675660212231 -386.297788888826 2645.44634217142 11 14 7
-982.439570788461 -389.62132076839 2644.75106300277 12 15 8
-980.697146771206 -388.853899398392 2652.35170839249 12 15 8
-992.213050872033 -389.920133202668 2656.29151228398 13 16 9
-956.729848403378 -384.500486049139 2673.02916068571 12 15 8
-948.781898564081 -382.889327005418 2682.16075175975 12 15 8
-953.102968076666 -382.97049776583 2687.96827260637 14 17 10
-957.426297943649 -383.051850307289 2693.78040023516 19 22 15
-961.752288894249 -383.133525692531 2699.5973249956 13 16 9
-942.422813030112 -379.975403344816 2711.52572565261 12 15 8
-980.711385015691 -384.706809115382 2708.61382894133 13 16 9
-969.590539268591 -382.676903236569 2718.38021027954 15 18 11
-983.212983636694 -384.027711725047 2721.8786450564 16 19 12
-981.354853039277 -383.266603984535 2729.26509056425 17 20 13
-996.044745018135 -384.758630830441 2732.56948933584 17 20 13
-993.145730288584 -383.857965997275 2740.19782210459 16 19 12
-991.268723946038 -383.098855690078 2747.54895100725 17 20 13
-1010.1575060716 -385.154646548444 2749.94613233166 17 20 13
-1017.64279894241 -385.662821654294 2755.10042930653 12 17 10
-1010.55782715594 -384.202197742299 2763.6586216067 14 19 12
-771.965291648784 -383.802550917389 2477.24030083941 26 29 22
-846.545587021236 -394.292189074528 2456.86115394446 23 26 19
-852.804711706444 -394.663103976716 2461.91638056665 19 22 15
-773.811554999922 -382.464194754535 2497.95829478095 18 21 14
-814.318386682069 -387.892354524665 2490.4569516717 18 21 12
-822.498056838669 -388.552481579245 2494.72733627502 15 21 11
-767.722918252654 -379.970368759562 2521.34893459804 16 19 12
-784.711518753029 -381.930578477819 2522.39538250926 16 19 12
-799.763196625964 -383.601326011294 2524.19612281142 16 19 12
-792.127546924251 -381.951881211109 2533.9136040816 17 20 13
-788.419541012799 -380.880066396109 2542.22082663982 18 21 14
-793.606149935578 -381.107223390838 2547.46153170953 18 21 14
-789.873177117223 -380.035764971306 2555.72272840114 19 22 15
-783.143016602731 -378.531889770786 2564.94699410435 17 20 13
-772.410452572759 -376.451802850443 2575.44258677266 15 18 11
-763.632591967863 -374.66063950575 2585.21624690388 13 16 9
-751.833083876146 -372.437705180161 2595.9077958291 12 15 8
-767.939995101412 -374.250998292402 2597.49163675558 13 16 9
-837.044778501642 -383.701450538407 2582.15913451783 13 18 11
-847.282889456392 -384.647938252251 2585.89965348214 12 17 10
-905.630494968956 -392.508775583986 2574.52507705685 10 17 10
-854.771083182722 -384.667495305471 2597.55112562241 0 4 0
-964.523303503066 -396.607464345091 2613.92849986433 12 17 11
-982.065595762693 -398.558008071558 2615.99619457602 12 15 8
-960.067124023245 -394.899536355495 2629.5111933295 11 14 7
-974.583163220608 -396.41883287971 2632.48714034344 10 13 6
-960.640967325792 -393.912522468819 2643.55321603446 11 14 7
-972.121485018777 -395.000772679785 2647.42081282925 12 15 8
-973.422952734215 -394.651684404741 2654.14953019183 13 16 9
-942.040212362647 -389.704944622047 2669.82676079458 12 15 8
-957.605532971607 -391.368984793291 2672.57420072355 11 14 7
-952.725518629432 -390.159828067877 2680.88249140152 12 15 8
-958.076019627547 -390.387692420536 2686.42441114241 14 17 10
-966.510557806419 -391.046470412222 2691.16445441313 18 21 14
-963.653880528682 -390.126247212174 2698.8770393302 18 21 14
-974.158354546895 -391.072899688596 2703.10689470968 17 20 13
-955.833904737016 -388.000722951252 2714.74307643427 17 20 13
-976.653636269632 -390.383332078447 2716.36374575931 17 20 13
-965.500067249951 -388.317594510937 2726.08071838659 18 21 14
-994.64068063141 -391.848178066959 2725.73987814246 18 21 14
-1022.81020254223 -395.234595535734 2725.77168109093 17 20 13
-1007.50143908165 -392.596978843828 2736.47817167252 16 19 12
-1003.56377109709 -391.537916270427 2744.35967320651 17 20 13
-1006.88327186138 -391.483438105396 2750.48122268754 17 20 13
-1010.20304211288 -391.429724884094 2756.60303776983 13 18 11
-1003.10472114945 -389.943083650968 2765.14450246227 19 24 17
-832.972640315559 -400.107809664191 2447.06855413029 19 20 14
-828.473903661991 -398.868231830662 2456.08723222211 24 27 20
-821.021178824128 -397.187269340039 2466.15011944186 23 26 19
-805.707332802861 -394.329340281521 2479.02881841779 18 21 14
-780.540875792655 -390.000786986716 2495.37852422884 17 20 13
-805.362330055673 -393.176530255844 2493.54557353578 18 21 12
-810.581972922692 -393.409143660174 2498.8453931897 16 22 12
-801.043379238865 -391.435442446729 2509.39012313412 16 19 12
-765.848145292135 -385.63907176995 2528.88599042341 16 19 12
-791.732666241231 -388.959926328668 2526.84977571898 18 21 14
-797.914851717777 -389.339616219559 2531.76085829217 19 22 15
-813.008595442745 -391.041683970648 2533.63005095029 19 22 15
-814.264219426747 -390.685960443117 2540.27594445508 17 20 13
-791.707805861506 -386.804215119418 2554.94672894395 18 21 14
-777.029850183238 -384.098847728211 2566.83426829251 15 18 11
-776.22865574477 -383.450453165144 2574.01541318895 13 16 9
-775.416993983503 -382.802360513348 2581.17721598042 12 15 8
-778.583104521515 -382.741731953141 2587.01850244108 11 14 7
-784.744223409803 -383.121554528341 2591.89079981901 13 16 9
-804.908176585463 -385.556111928075 2592.2897513098 13 16 9
-871.159918116262 -394.740329486187 2578.13494979468 13 16 9
-858.396262155455 -392.330275667006 2589.22432521842 15 20 14
-838.566493901667 -388.894186170058 2602.43098693746 7 14 7
-976.873073199336 -404.669853706645 2617.29804196826 12 15 8
-989.373034770066 -405.925597479334 2620.87541363425 11 14 7
-950.05879972242 -399.711673488586 2639.26615667799 11 14 7
-961.521506040795 -400.821970950961 2643.0948692768 12 15 8
-967.909875883082 -401.199914655408 2648.38568758205 13 16 9
-954.920625943082 -398.796860690503 2659.05804956855 14 17 10
-958.235207634557 -398.736473145657 2665.1723290544 13 16 9
-958.481496223837 -398.237657484893 2672.11970100234 13 16 9
-966.912849078612 -398.909709271016 2676.84989416978 13 16 9
-976.382682041213 -399.72831546668 2681.33066590781 14 17 10
-956.093122751109 -396.305087261833 2693.68782047052 15 18 11
-968.640699871583 -397.563336638075 2697.35201232014 17 20 13
-981.211204930959 -398.821521685053 2701.05889641619 18 21 14
-988.652450620582 -399.348802807892 2706.12593277011 18 21 14
-974.434505388706 -396.806541148597 2716.69566649087 17 20 13
-964.305972970664 -394.850233121634 2726.1496568679 16 19 12
-1005.86603989808 -400.201944854895 2722.72369837124 15 18 11
-1012.30671325072 -400.58452461952 2728.1093182003 16 19 12
-1037.42153997927 -403.59720375715 2728.98027331514 14 17 10
-1006.52206770853 -398.721587127831 2743.41013446908 15 18 11
-1011.92385531652 -398.959890340229 2749.04324044346 16 19 12
-1015.24913151759 -398.906702440652 2755.17502399482 14 19 13
-994.60468870712 -395.495795349692 2766.87577788092 14 19 15
-837.747014437269 -407.554491879008 2445.15042113823 30 31 25
-841.065231558561 -407.492820181137 2451.27177301399 34 35 29
-830.689907197261 -405.333022998854 2462.44836509291 19 22 15
-800.690282971089 -400.17680174725 2480.73289807012 16 19 10
-790.216406306193 -398.018473572589 2491.72779274408 16 19 10
-802.291335997821 -399.305691277894 2494.51398846091 17 23 13
-824.221795573536 -402.090029276831 2493.8265777955 17 23 13
-812.726351550651 -399.782168127232 2505.1028952453 17 20 13
-803.163706152256 -397.774304624166 2515.61366303025 15 18 11
-772.837873031659 -392.623709108253 2533.29604239107 16 19 12
-781.960496528496 -393.461044789288 2537.13260030376 18 21 14
-804.954158581701 -396.39309236256 2536.24139401273 16 19 12
-800.25130981503 -395.134791357027 2544.89030319346 13 16 9
-792.551035224861 -393.428236866776 2554.50559737136 16 19 12
-784.821918105267 -391.721998177083 2564.0682541584 15 18 11
-780.049083890934 -390.465030927371 2572.58754201639 13 16 9
-787.209000883715 -391.002606928586 2577.13457199236 12 15 8
-805.350942615975 -393.18446403325 2578.12026695686 12 15 8
-825.528694832389 -395.664532660293 2578.53091120531 11 12 4
-826.749813891559 -395.304406178542 2585.11517217214 12 15 6
-822.959199138499 -394.197294625251 2593.28107649758 17 20 13
-815.323406976012 -391.984430316785 2609.51212586229 23 28 22
-866.762316311565 -399.092710685654 2600.46211179436 31 38 31
-929.081053551804 -404.484169184331 2630.97357907312 12 15 8
-957.769976269812 -408.152017413852 2629.76071899555 11 14 7
-933.651859149566 -404.064210204101 2643.73601257775 11 14 7
-942.041414634804 -404.749286514117 2648.38541601593 12 15 8
-952.482569812691 -405.73270942873 2652.48826310328 13 16 9
-958.859310951225 -406.119832175653 2657.75493377049 14 17 10
-970.353345571336 -407.252178845116 2661.6341299156 14 17 10
-984.93744818245 -408.831734901839 2664.71764087186 14 17 10
-989.305071975946 -408.921186936426 2670.60879741254 14 17 10
-963.928139522321 -404.691013039484 2684.42651221684 14 17 10
-954.911845206877 -402.8455816531 2693.77847310682 14 17 10
-946.89322402002 -401.149967774964 2702.8049798142 15 18 11
-974.883399477489 -404.666861512387 2702.46769497199 17 20 13
-996.750212550177 -407.289873618253 2703.82654021095 18 21 14
-985.63240479833 -405.149171726263 2713.6323319341 18 21 14
-975.512657693498 -403.158546739922 2723.11279994134 18 21 14
-967.428708143567 -401.466460304698 2732.01859935278 19 22 15
-1017.33699460534 -408.107692840426 2726.63884427114 17 20 13
-1026.90419191568 -408.945643388737 2731.29286952741 15 18 11
-1020.90724568724 -407.552663744 2739.7169977082 16 19 12
-1014.88733517957 -406.16066662281 2748.09859492954 17 20 13
-1031.75156421757 -408.041284138091 2751.05503542404 18 21 14
-1052.81956624723 -410.516778684542 2753.10438681145 15 19 18
-841.548422792703 -414.869643871083 2443.59718005078 31 32 26
-832.167576092186 -412.825048627211 2454.45335478055 18 19 13
-844.278520320691 -414.136418359497 2457.29852476535 18 21 12
-789.106862107228 -404.406728572075 2491.99615769082 17 20 11
-822.792977898386 -409.072184050905 2486.98424023264 17 23 13
-853.607795868132 -413.278729137698 2483.17489339513 16 22 12
-836.235570614862 -410.016143156875 2496.61914543998 18 21 14
-811.905465375418 -405.687620101341 2512.3922461544 16 19 12
-790.465568571241 -401.817604983572 2526.99767733922 15 18 11
-775.882003387924 -399.014917222105 2539.08808430869 17 20 13
-773.132597202351 -398.040855369573 2547.0136464919 15 18 11
-778.297842676126 -398.28525664248 2552.21037880967 13 16 9
-790.416494228131 -399.595234644813 2555.07014248946 13 16 9
-812.497263005558 -402.427180889944 2554.64486102261 13 16 9
-815.718001085134 -402.366138177787 2560.58674203 14 17 10
-822.924447497447 -402.913914244146 2565.21628071024 13 16 9
-855.085411227308 -407.265536328274 2561.72380992575 13 16 9
-861.345334616888 -407.660195367326 2566.7733651446 13 16 9
-832.600430789355 -402.730917588695 2583.06720799085 8 10 0
-826.810630356766 -401.30125890109 2591.88334520064 9 10 2
-825.009361018126 -400.480353947067 2599.39184697188 9 12 5
-865.37190044212 -406.045336540969 2593.69928212222 12 17 10
-804.273726546286 -396.255275841877 2619.629926972 5 10 3
-982.708790350388 -419.227037337295 2615.1936334094 15 18 11
-926.145324045907 -410.207691858028 2638.65765635961 13 16 9
-943.678121095074 -412.272831077021 2640.67292210692 12 15 8
-932.731812521256 -410.087838563347 2650.80745119725 12 15 8
-928.887344887782 -408.966064324863 2658.8787196441 12 15 8
-950.548887713821 -411.638200850187 2659.84526274174 13 16 9
-984.523683234309 -416.130366649112 2657.53169533411 13 16 9
-994.010910769303 -416.980969038178 2662.03483692532 14 17 10
-987.116440582294 -415.40527634353 2670.97800000418 13 16 9
-970.961239311321 -412.465660546847 2682.33385831252 12 15 8
-948.592656873446 -408.617548908885 2695.22518480694 10 13 6
-961.135308883135 -409.925255066886 2698.86544577586 9 12 5
-973.701204275177 -411.233038973943 2702.54843217922 10 13 6
-982.165133318735 -411.934483534526 2707.32969986193 10 13 6
-998.902686439868 -413.84863557355 2710.04307572068 11 14 7
-987.760281112081 -411.672091977742 2719.81390213735 13 16 9
-975.546573777887 -409.345071343327 2729.77496414945 14 17 10
-1000.60573684764 -412.472009418818 2730.50867932037 17 20 13
-1028.83204718829 -416.053038724107 2730.5864026263 17 20 13
-1005.17082859241 -412.06237225174 2743.25800426382 19 22 15
-1020.97369426939 -413.826870734231 2746.4121229075 20 23 16
-1037.84922622223 -415.742806859778 2749.37873046567 19 22 15
-1057.88716820939 -418.113095549608 2751.68005068484 19 23 24
-832.661413224801 -420.182423548288 2446.80419022222 22 27 21
-853.56509627081 -422.915259628553 2446.35914169621 17 22 15
-844.173032360342 -420.836231083982 2457.20504075781 19 22 15
-823.966567936305 -417.050741657032 2471.93876086058 18 21 12
-835.10108499756 -418.230771993807 2475.14290346111 18 21 12
-818.742134369288 -415.067091996546 2488.30620973862 16 22 12
-837.752961834216 -417.48766470916 2488.70335773102 15 21 11
-827.248154691855 -415.255194034908 2499.66366184538 21 24 17
-805.855228390222 -411.317762640619 2514.37625809277 18 21 14
-791.312407893552 -408.466637342156 2526.55566391696 16 19 12
-783.646562095266 -406.701293260496 2536.25195819493 18 21 14
-790.807719604318 -407.261071831881 2540.79459292198 16 19 12
-771.203962931236 -403.636988892403 2554.47346473928 13 16 9
-775.371648124861 -403.732130768625 2559.99518670849 11 14 7
-812.35183850597 -408.938976302792 2554.53446724125 13 16 9
-835.482023300686 -411.97587595319 2553.86281990085 13 16 9
-878.197212274316 -416.901320168872 2561.14872620549 12 15 8
-904.499957737279 -420.399514493326 2559.82887699552 8 9 1
-823.650463645877 -407.337826242276 2592.71560025526 11 12 4
-844.917321248671 -410.062910484132 2592.94082705435 7 10 3
-851.162230925352 -410.466552519762 2597.96006794174 12 15 8
-880.549184870713 -414.428035263861 2595.82791304448 11 16 9
-1060.72876971648 -437.956086513699 2592.31802409923 16 19 12
-978.839752406867 -424.915581153858 2623.28650460764 13 16 9
-962.867535617367 -421.919838410197 2634.99578328328 12 15 8
-947.865257783816 -419.079856858517 2646.32681218756 11 14 7
-947.096451198047 -418.402863663916 2653.57662870623 12 15 8
-972.87143885136 -421.740854755352 2653.44860829199 11 14 7
-979.273891412034 -422.144984311922 2658.75745264047 12 15 8
-994.898994489251 -423.938544033983 2661.57589414178 13 16 9
-1001.32855872744 -424.342941630521 2666.93452119983 12 15 8
-991.342601526004 -422.278666715719 2676.68370555837 11 14 7
-972.073528624464 -418.826804341773 2688.81153213343 9 12 5
-987.734933841599 -420.621468082279 2691.69640788274 12 15 8
-1003.42720618298 -422.416032042104 2694.6385881479 11 14 7
-984.075990714075 -418.967038662332 2706.61447680719 11 14 7
-980.161671344483 -417.832387647842 2714.56114750389 13 16 9
-981.400595781129 -417.469595071916 2721.17845331131 14 17 10
-1004.37932033238 -420.344796390072 2722.39166840677 15 18 11
-1010.81876387554 -420.753480336946 2727.76768055412 15 18 11
-997.543654262989 -418.234439841432 2737.94866988631 15 18 11
-1015.40734788443 -420.339573050467 2740.56099192334 18 21 14
-1017.69819384328 -420.133605861678 2746.95101305441 18 21 14
-1023.11222143319 -420.390525861725 2752.60153636633 14 19 13
-873.999232724535 -432.959386707123 2438.62174811949 17 22 16
-847.004574733966 -428.004039264408 2456.02714812544 17 22 15
-834.635648111567 -425.41751421267 2467.89557137208 19 22 15
-834.00557307918 -424.725306259667 2475.40461165218 19 22 15
-846.143783141283 -426.084390403277 2478.28557973618 19 22 15
-833.698050079185 -423.498839053955 2490.01244913259 19 22 13
-785.730560073197 -415.235475640657 2514.25409530087 19 22 15
-765.260691231941 -411.390429757087 2528.5212765777 19 22 15
-791.171281407439 -414.957905460722 2526.45884371484 18 21 14
-806.257122724156 -416.789885135745 2528.27443512986 17 20 13
-799.577978045365 -415.153071459305 2537.63200142927 15 18 11
-800.809084354122 -414.777786093869 2544.2386851221 15 18 11
-800.047903554293 -414.08728896163 2551.50658777141 12 15 8
-798.281951773267 -413.23943262926 2559.08814981803 10 13 6
-844.568742603536 -419.420517784508 2557.76118547838 10 13 6
-843.826404075056 -418.729764846452 2565.06331518013 11 14 7
-840.074344527213 -417.566828086771 2573.31691737809 11 12 6
-922.392634961141 -429.94481467253 2553.9116825615 11 12 6
-819.676520932318 -412.663987554653 2600.72450858199 14 15 7
-869.099540501089 -419.843863906805 2592.17547833249 16 17 9
-899.523421559205 -424.032016141318 2589.76745770269 18 20 9
-894.755172916205 -422.712568987035 2598.31447254007 22 25 16
-1003.10734782748 -435.495530178693 2616.09350537498 10 12 7
-1004.4606667514 -435.120416326864 2622.92541300123 8 10 5
-983.389568620483 -431.289206922894 2636.08266314327 12 14 9
-980.622871327609 -430.287138017602 2643.98535038915 13 15 10
-986.014011779754 -430.54223102341 2649.59382525652 11 14 7
-1008.79981139822 -433.467445691493 2650.43768041596 11 14 7
-1009.10223780337 -432.937649048745 2657.49761667519 12 15 8
-1015.54960540268 -433.350374843024 2662.88698713627 12 15 8
-1006.60321809888 -431.408651357941 2672.39597259322 11 14 7
-998.653738679925 -429.624912505099 2681.57664890524 10 13 6
-1003.02879210068 -429.725294218494 2687.47767885367 14 17 10
-995.038292653328 -427.943166518418 2696.58242735149 15 18 11
-976.700424606358 -424.59310591262 2708.27699182985 14 17 10
-959.34174094419 -421.401268648393 2719.61007438841 15 18 11
-964.691273652942 -421.661584214752 2725.14045449961 14 17 10
-992.833892553841 -425.372777966944 2725.02511078525 14 17 10
-991.999826183047 -424.692807870118 2732.15529364223 15 18 11
-985.96360936964 -423.22956671536 2740.52832519011 16 19 12
-998.618793672702 -424.589230820921 2744.35992869238 16 19 12
-1018.58418491504 -427.046475648867 2746.50166531519 16 19 12
-1005.23887113471 -424.488299544568 2756.56580954385 13 18 12
-1050.29111412553 -430.707425765324 2752.95684702866 16 20 23
-819.12860697005 -430.747909586234 2458.92183985343 18 23 17
-873.344417512445 -439.034895896383 2446.16488972891 17 22 16
-843.711128471779 -432.9741447419 2471.73958910653 19 22 15
-850.947233217049 -433.555070915254 2476.41370592384 20 23 16
-811.916704943951 -426.595493024215 2497.66527068054 20 23 16
-730.38130087902 -412.740636298972 2533.75910596669 20 23 16
-750.304555064631 -415.408919408825 2533.64508187323 19 22 15
-794.98327512257 -422.085119931476 2524.98209208048 17 20 13
-787.312579421501 -420.261749433845 2534.68691627913 16 19 12
-766.729525420878 -416.354826479451 2548.7645371741 14 17 10
-795.701825564841 -420.46335520181 2545.82553853501 14 17 10
-787.976149253384 -418.640848112615 2555.42948797207 11 14 7
-784.201845148687 -417.459858752241 2563.64760717729 10 13 6
-818.265588303229 -422.367276300121 2559.2574521138 9 12 5
-826.47372187591 -423.108342772636 2563.55635016762 10 13 6
-820.711508879639 -421.606917363265 2572.44480747675 10 13 6
-816.926255169626 -420.426353834551 2580.64266030607 11 12 6
-834.151685705758 -422.608544354391 2582.05742321978 12 13 7
-842.388860086029 -423.349383185318 2586.40980106684 14 15 7
-839.595426519171 -422.329315166855 2594.26872814892 18 19 11
-852.870198573787 -423.870333990868 2597.07052990578 19 20 12
-893.346977688032 -429.731672622956 2591.49844786331 21 23 12
-914.770237213297 -432.551386233671 2591.9828692344 25 28 19
-986.012375747046 -439.105941524743 2627.98132450813 9 11 6
-981.219344512295 -437.768204206672 2636.48775564041 7 9 4
-961.095230299509 -434.034740251978 2649.24248832391 13 15 10
-999.16479239987 -439.408006731208 2645.73527562643 15 17 12
-1017.88003270094 -441.745471747772 2647.7285765139 11 14 7
-1026.38816022078 -442.48562487242 2652.57949276047 12 15 8
-1006.18561437505 -438.755103899317 2665.18909036317 13 16 9
-1000.30393948947 -437.261037571164 2673.85511821513 13 16 9
-1000.56954922252 -436.72580190639 2680.84948177957 12 15 8
-998.768033215218 -435.871841662387 2688.36797455388 15 18 11
-980.457924699267 -432.465257163992 2700.13059180264 16 19 12
-978.610250697779 -431.613028344506 2707.56367093924 16 19 12
-965.380849220633 -429.006642289481 2717.85499252545 15 18 11
-968.668051931576 -428.953848681665 2723.91663341934 14 17 10
-985.42519309422 -430.975163021808 2726.63431351973 14 17 10
-978.35516641423 -429.328409078719 2735.27596584702 17 20 13
-973.337136282258 -428.001623469978 2743.36528959949 17 20 13
-990.139069251231 -430.02420474531 2746.16446475478 17 20 13
-996.561729049567 -430.452556385373 2751.50318980029 17 20 13
-1019.67399292833 -433.431995331811 2752.93066158224 14 19 13
-807.601377838469 -434.864485172305 2470.32253343301 21 26 20
-828.524329840432 -437.741886711337 2469.86894588037 22 25 18
-790.550870959005 -430.829699766635 2490.93560309105 22 25 18
-831.161885519138 -436.968964347381 2483.41253120292 20 23 16
-805.87914972992 -432.178922671616 2499.68665426541 19 22 15
-750.933986134677 -422.498130653913 2526.32594178428 18 21 14
