ply
format ascii 1.0
comment KinectMotionCapture
element vertex 771
property float x
property float y
property float z
property uchar red
property uchar green
property uchar blue
end_header
-802.159297660814 62.9576449994123 2352.62272362838 204 206 205
-799.952626338659 63.8560742863433 2371.62525998235 195 197 196
-1026.40138619855 43.7849234709728 2212.10243341262 215 220 214
-1013.18724019559 43.6277299163555 2200.89215331299 204 208 207
-1000.04963953764 43.4671738514089 2189.65406201338 199 203 204
-987.764733597895 43.3635474039837 2180.24356260558 197 201 204
-978.245178885866 43.4691086931111 2177.31049306683 196 200 203
-968.75598574231 43.5730963191064 2174.36627329465 188 191 196
-959.677700420315 43.7060193593503 2172.34174904537 189 193 196
-950.624577800386 43.8375856072991 2170.30772556407 188 192 195
-942.347461102815 44.0292137753121 2170.12964853659 176 180 183
-934.458222794544 44.2506773826266 2170.87970239796 167 171 174
-926.208699082891 44.4404827767295 2170.69146227126 178 182 185
-917.606707086355 44.5983107615309 2169.56231812518 173 177 180
-909.390025098212 44.7860584771869 2169.36199011186 181 185 188
-900.101026722767 44.879214819743 2166.34421482458 181 185 188
-891.202539903257 45.0020876088066 2164.25335041436 188 192 195
-881.97230441479 45.0922190952222 2161.21425043847 200 204 207
-874.54658542854 45.3383859434008 2162.86405615408 197 201 204
-869.239369897522 45.7737306381805 2170.15850411616 184 187 192
-862.857324653588 46.1145363238384 2174.63616763557 195 198 203
-856.812114337925 46.4872020804065 2180.0606608118 212 215 220
-849.37337671622 46.7324050046588 2181.71537826223 224 227 232
-843.307608587133 47.1051595693307 2187.14734756483 225 228 233
-836.887017463287 47.4459828897361 2191.63901758055 223 226 231
-831.466792264905 47.8835407543834 2198.974693186 215 218 223
-826.689466040933 48.3863762512638 2208.21481722679 219 222 227
-821.544643673958 48.8578216502729 2216.51954174701 227 230 235
-815.381766357598 49.2325252811683 2221.98694152438 223 226 231
-810.836439037318 49.7705277405339 2232.21198129178 214 217 222
-808.194320742458 50.5061220785246 2248.16052270942 213 214 219
-806.444788436068 51.3425714425706 2266.99203250195 214 215 220
-802.695058947146 51.98446128235 2280.13576318528 215 216 220
-800.470680393098 52.7932693140525 2298.07116063207 225 226 228
-799.419423140169 53.7372904761823 2319.85700035584 227 228 230
-800.444020179142 54.9174757341487 2348.3728254885 221 223 222
-797.935842612261 55.7360649196496 2366.41207577824 232 234 233
-798.712334874248 56.9249341059882 2395.01870191008 177 179 176
-1028.08827174881 35.3788366634858 2196.9890235613 181 187 177
-1023.97250848316 35.8879025298578 2207.05580326347 198 203 196
-1011.16643713825 35.7981660648818 2196.76915460337 212 217 213
-997.650480572207 35.6504881799165 2184.60269535068 199 203 202
-985.768194052034 35.6091425775825 2176.11741891951 187 191 194
-976.259495889513 35.7304479069003 2173.18159270158 183 187 190
-967.164027476985 35.8779615393987 2171.16415829263 175 179 182
-958.474144606891 36.0518494272765 2170.06815994694 183 187 188
-949.804421215078 36.2246516929343 2168.96475499379 179 183 184
-940.404471332398 36.3402479543345 2165.98898568352 187 191 192
-931.780250957909 36.5104977190286 2164.86885518506 184 188 189
-923.546253618734 36.7077655963252 2164.67553680043 179 183 184
-917.164772725443 37.0455877178577 2169.15302446063 183 187 188
-910.042955887592 37.3267180316012 2171.76185970485 179 183 184
-901.109175761422 37.4649350481528 2169.68497642483 176 180 181
-891.841139887872 37.5732022675429 2166.66072481317 189 193 194
-882.960991014411 37.7085949799845 2164.56439649195 183 187 188
-875.170214384232 37.9290529606861 2165.2783453466 171 175 176
-869.149986131767 38.2932983976637 2170.69312627452 167 171 174
-861.716278713829 38.5417289660155 2172.34625959392 171 175 178
-855.328389757448 38.8769865021694 2176.82562773677 187 191 194
-847.897170344273 39.1246052131857 2178.47779581468 196 200 203
-842.180059692034 39.5182010414276 2184.85121350635 201 205 208
-835.764021355407 39.8534432972249 2189.34106252851 208 212 215
-831.357722609988 40.3657349004995 2199.51364806837 176 180 183
-826.242285783556 40.8200719690765 2207.8064048673 177 181 184
-820.764647126528 41.245551415702 2215.16202960248 183 187 190
-814.932457827919 41.641798583814 2221.57745973592 189 193 196
-810.059118751975 42.1282578788005 2230.85123324096 197 201 204
-808.064600798743 42.8857114605713 2248.69923892393 217 218 223
-804.703034019624 43.5255790730074 2262.76833917471 223 224 229
-802.236321410818 44.2580568557941 2279.71947020771 229 230 234
-799.060602738868 44.9325290838355 2294.79046637792 237 238 240
-797.699918625127 45.7915867834675 2315.61576563422 237 238 240
-798.108034604538 46.8369910069407 2342.21204526302 235 237 236
-795.920812269256 47.6421761561467 2361.20047965057 240 242 241
-795.176003967487 48.6037916992443 2385.00941496087 0 1 0
-1022.46480711418 27.3356583899037 2184.55912049676 162 168 158
-1019.56740373166 27.8948397663675 2197.38692861136 192 197 190
-1009.53961058437 28.0139049361282 2193.57298383468 184 189 185
-997.985619372061 28.0326073328096 2186.03951234407 187 191 190
-986.487570994967 28.0487363117541 2178.48552055203 189 193 194
-976.586565518226 28.1617744940213 2174.62505430737 183 187 188
-967.103718541832 28.2979698670663 2171.68095886028 182 186 189
-958.031386801402 28.4577104690176 2169.65604057384 168 172 173
-948.606756573924 28.5909160210965 2166.6905672088 183 187 186
-938.837603964644 28.6973123972771 2162.78169273085 177 181 180
-930.593785960419 28.9034502213752 2162.59261181429 183 187 186
-922.735011105519 29.1341150707879 2163.33229140742 188 192 191
-916.722721213247 29.4918866469086 2168.74369956782 196 200 199
-910.694802194597 29.8499712736221 2174.16080999695 190 194 193
-903.202475388223 30.1051430813579 2175.83549627361 195 199 198
-894.276764697481 30.2563111061484 2173.75691254416 191 195 194
-884.662433167258 30.3541854380607 2169.79114275212 190 194 193
-876.501787370255 30.5545715882643 2169.57140827622 202 206 205
-868.708319318859 30.7801966620601 2170.28672489069 193 197 198
-861.27444074318 31.0313733051736 2171.94012759386 202 206 207
-853.845562976731 31.2820406651281 2173.59142058374 211 215 216
-847.798690552716 31.6380075302142 2179.01525770832 210 214 215
-842.419739584612 32.0474517568511 2186.333815617 200 204 205
-836.676014602163 32.4308621873685 2192.7161347898 204 208 209
-831.921348975663 32.8950264172934 2201.94510757568 207 211 212
-825.795079259329 33.2527265558501 2207.39792349654 204 208 209
-819.984871946577 33.6376632828949 2213.80451335816 201 205 206
-815.140713785073 34.1042828588887 2223.06618740263 203 207 208
-811.565810958875 34.6806679327281 2236.14170885994 206 210 211
-808.905601671589 35.3406970499502 2252.09086759269 210 211 216
-804.568251315859 35.866227050681 2263.30621099418 216 217 222
-800.821986692729 36.4481914086804 2276.44416128835 219 220 224
-798.915417759152 37.1974006818621 2295.32614598079 226 227 229
-796.608530403862 37.9218920450027 2313.28516014636 228 229 231
-797.017475941027 38.8991823784113 2339.87625336915 235 237 236
-793.29080118142 39.5186895552454 2354.07647483329 225 227 226
-791.643008708139 40.3359667266189 2375.00293893123 68 70 67
-1018.7236364184 20.1507127888254 2196.04263797912 95 101 91
-1011.44886873798 20.4414830924086 2198.70777336106 191 196 190
-999.10036948147 20.4467313697126 2189.3285945653 195 200 196
-987.593469751005 20.493071531798 2181.78009828436 177 181 182
-976.527637227205 20.559023519896 2175.13938170424 186 190 191
-967.042850927685 20.7115523429854 2172.19722327096 193 197 198
-956.828545597825 20.8178509164115 2167.38352587705 187 191 190
-947.787077695447 20.9895462744113 2165.3482956046 206 211 207
-939.145817001618 21.1824366376921 2164.23606476342 214 219 215
-932.013869769947 21.4647965886217 2166.84867353824 162 167 163
-923.772486863646 21.6786107634175 2166.65928705208 112 117 113
-919.217720054599 22.1199853518138 2175.81390957564 98 103 99
-913.533008509346 22.4935561373675 2182.17404453356 116 121 117
-907.10356480828 22.8215507770787 2186.66821738385 144 149 145
-898.147434680999 22.9874991553084 2184.60154707409 131 136 132
-889.216890113726 23.1520766087005 2182.52573143633 121 126 122
-879.603218403399 23.2686542144943 2178.56113309882 155 160 156
-870.377091790456 23.40687581944 2175.52391438512 150 154 153
-861.530849532194 23.5671301447451 2173.41688806039 169 173 172
-854.443344805984 23.844358759185 2176.01296203644 174 178 177
-848.387968467267 24.1925291409415 2181.43930069548 176 180 179
-842.658650798817 24.5648060563031 2187.81554510854 168 172 171
-837.247796428767 24.9614726526201 2195.14473062865 161 165 164
-831.811331938645 25.3588423718631 2202.4832743189 158 162 161
-825.681614295475 25.7085025708459 2207.93648206953 171 175 174
-819.867950072408 26.0827222689944 2214.3437736448 198 202 201
-815.019776236957 26.530412411787 2223.60547847846 194 198 197
-811.440131057186 27.0770419285976 2236.68022360137 178 182 181
-808.451283771324 27.6745948133284 2251.67751869188 174 175 179
-803.149309707985 28.1017712870806 2260.03600216403 183 184 189
-799.090291768514 28.6287972202882 2272.216886054 185 186 190
-796.875123343247 29.3066182966328 2290.13905394016 188 189 191
-795.51791600713 30.0620389821458 2310.95527037437 188 189 191
-794.995494447562 30.8960680221704 2334.67377762422 204 206 205
-791.89572358013 31.532856241202 2350.78114632891 209 211 210
-789.029955210905 32.197273051789 2367.8718796917 186 188 185
-853.957258722673 2.39314812306754 1745.78441457792 165 172 156
-1013.35600517331 12.8354080387498 2203.84079459893 105 110 103
-1000.21363809535 12.8380751665736 2192.616496264 188 193 187
-987.922822441167 12.8760260245054 2183.21882631117 193 197 196
-977.623071918588 13.0080852014219 2178.4381180433 192 196 195
-967.363940990933 13.1381995919448 2173.6425044139 192 196 195
-956.765567325069 13.2467611567686 2167.90171367357 206 211 207
-947.344764643311 13.4123622152268 2164.93729391011 157 162 156
-940.577245586424 13.715185294441 2168.48559245628 54 59 53
-935.292817570315 14.0976208670897 2175.76776878067 0 2 0
-928.873665820569 14.4206712555928 2180.25757482163 0 5 0
-923.911990634644 14.8243054141093 2188.49063862659 4 9 3
-919.64816429296 15.2693195598636 2198.60663670536 0 2 0
-912.086212863573 15.5326613985832 2200.30723666416 15 20 14
-903.45140558243 15.7341132283291 2199.1933070321 113 118 112
-894.123484303864 15.8933747313083 2196.19466163717 120 125 119
-883.763838901533 15.989168511089 2190.36642290887 148 153 149
-873.098647212357 16.0621223328049 2183.58066676721 157 162 158
-864.578779095034 16.2577261645874 2182.42427987442 153 157 156
-856.772424923869 16.4940840764528 2183.14534261517 148 153 149
-850.351767039116 16.8138286467799 2187.63544646228 153 157 156
-843.579631697243 17.1125604879797 2191.18536789295 165 169 168
-837.479851379618 17.4535930169502 2196.6273016227 160 164 163
-832.037053032742 17.8375568118101 2203.96688083732 164 168 167
-826.90234578624 18.24363581502 2212.26299815546 154 158 157
-821.074816430231 18.6075130840417 2218.67429279617 174 178 177
-816.869365683473 19.0800085513541 2229.83771057607 192 196 195
-814.89929896391 19.706117739779 2247.66692206337 201 205 204
-813.170632254452 20.3568728887342 2266.47683967587 211 212 214
-808.788662677777 20.835224821378 2277.7048352554 227 228 230
-804.042489575041 21.2929696577426 2287.99679427241 244 245 247
-800.833827983215 21.8625781506757 2303.0718477063 244 246 245
-797.871839611551 22.4566562950437 2319.12567800734 234 236 235
-794.527818897215 23.0308402049162 2334.25025771629 225 227 226
-789.885675723822 23.5174842316646 2345.57340978592 235 237 234
-785.808468450414 24.0505972721372 2358.8279180634 0 1 0
-1031.25846635363 5.26230382279175 2226.63036441875 22 28 18
-1010.1586062781 4.98262181707521 2196.94362216115 25 30 23
-997.426258677323 5.04174226136495 2186.64141838767 16 21 15
-987.089354724176 5.19733110674894 2181.8757304022 13 15 10
-977.947523219083 5.40101383790081 2179.87963379936 0 2 0
-967.684126922369 5.55303015848577 2175.08696816908 8 11 4
-958.220749590661 5.73688029227717 2172.13939429669 16 19 10
-949.164923600137 5.93621919208154 2170.11172091151 25 28 19
-943.130626504745 6.27107476203659 2175.52939606602 20 23 14
-939.312410496777 6.70943946591038 2186.54954170232 6 9 0
-928.798458203217 6.83780783829627 2180.77957196229 10 13 4
-928.601775177122 7.45145901328551 2201.16342959585 19 22 13
-918.107842518371 7.57838991757304 2195.38607751141 19 22 13
-909.830082708919 7.80884125755188 2195.21116342095 19 22 13
-901.92664451907 8.05604905871071 2195.96806476784 20 23 14
-896.172797218137 8.40946994378672 2202.35205330525 6 9 0
-886.150196042792 8.54838341129069 2197.47090913325 17 20 11
-876.168646120975 8.68539597108467 2192.57496037792 65 68 61
-865.181410904039 8.76607938259094 2184.83998741126 88 90 85
-858.40625739339 9.06281508728679 2188.39085484431 89 91 86
-850.938377785971 9.32283776806073 2190.05702454161 88 90 85
-843.816853119939 9.60072597476674 2192.66550900668 91 93 90
-837.372577528127 9.91529069163954 2197.16405753075 89 91 88
-832.598185784144 10.3230411724637 2206.39594104846 210 212 209
-828.454893798853 10.7692568605566 2217.53479136467 213 215 212
-824.596368026996 11.2357587465171 2229.63826228475 201 203 202
-821.67163662995 11.7606835676522 2244.60678176164 224 226 225
-820.309085930976 12.3829140269761 2264.3480796823 240 242 241
-819.177574782558 13.0275018241945 2285.07392969722 240 242 239
-816.666270754621 13.5986693085767 2302.02909134778 245 247 242
-815.668468558899 14.2690150989377 2323.77485959797 211 213 208
-812.990794561499 14.8459836423455 2340.79065310028 233 235 232
-807.733119298162 15.269420661649 2350.1993152444 244 246 243
-797.474195350342 15.3802155867704 2344.33561248951 249 251 248
-787.26175765862 15.48893946657 2338.45460896308 249 251 246
-1035.93790331171 -2.37644209999152 2238.22004196779 41 47 37
-1039.52707498708 -1.69867980579536 2266.83296275161 27 32 25
-1003.99495029969 -2.39236446271607 2202.893134614 18 23 17
-992.451286552972 -2.25491729084834 2195.3648702502 22 24 19
-980.578927616694 -2.13400105141812 2186.8879753648 19 21 16
-976.027073553248 -1.7484212886221 2196.03732976981 15 18 11
-964.60783615768 -1.61687904438249 2188.46341110365 8 11 2
-953.621564380294 -1.47359673283931 2181.79962181289 17 20 11
-944.183751579007 -1.27508355983055 2178.84386573626 10 13 4
-939.981656683693 -0.875390285751149 2188.93376062488 13 16 7
-937.584441344296 -0.401438151921535 2203.7067677368 8 11 2
-922.653359086451 -0.424457374355786 2186.73084699493 20 23 14
-916.932437024927 -0.08235894290895 2193.1017639539 17 20 11
-904.321583993329 -0.0226287076126597 2181.68890641305 13 16 7
-898.248998411312 0.303539865899205 2187.11983776489 18 21 12
-891.091623620535 0.584749697269765 2189.7415985485 21 24 15
-886.057060524402 0.956750700716796 2197.99850419119 9 12 3
-877.478981859345 1.17679886614047 2196.86536604572 3 6 0
-867.526567562054 1.3341114320187 2191.96036289171 14 17 10
-858.653507293182 1.53599843979446 2189.86622180974 11 14 7
-852.898228746042 1.87690862053444 2196.24953211477 6 8 3
-845.417455874303 2.13981846076161 2197.92085856524 0 1 0
-840.987767679234 2.54434320741076 2208.09406549436 0 1 0
-836.516984505218 2.95014527607293 2218.28204584338 0 1 0
-832.671844102167 3.38920659988565 2230.37858292206 0 1 0
-830.759869464242 3.9264868302635 2248.17998508776 102 104 101
-828.437684255624 4.45042187261874 2265.06261470058 108 110 107
-828.64346797909 5.10735298234591 2289.56998584479 93 95 92
-827.762367656544 5.71936375213689 2311.26920475658 112 114 109
-827.4196156317 6.36796854394331 2334.90844076144 120 123 116
-827.917963893305 7.0703870478821 2361.4463110985 130 133 126
-1026.68023353483 -11.4460323864375 2177.96799049102 19 25 13
-1059.96170170108 -10.0612891063278 2274.77693831716 34 40 30
-1011.33696629532 -9.90334819047381 2220.99143934119 32 34 29
-988.519113153149 -10.0573299901637 2186.60510296658 22 25 18
-984.361031191412 -9.67978309682521 2196.67733532375 24 27 20
-970.995636379545 -9.57334053614889 2184.47559943018 27 30 23
-966.436855609186 -9.20697841405121 2193.62602056626 13 16 7
-954.682885812544 -9.05906696250894 2185.10814729225 20 23 14
-946.73228997429 -8.79730184654257 2185.88328115643 21 24 15
-939.163337107778 -8.5244844216755 2187.58739425364 18 21 12
-936.028119059415 -8.10984623615246 2200.49070335277 19 22 13
-925.139401120724 -7.94448630414632 2193.79313488054 8 11 2
-913.937867993239 -7.7934628968529 2186.14158596289 14 17 8
-907.490507969165 -7.48686180098573 2190.64065430912 18 21 12
-898.520934348819 -7.26598740464934 2188.58301278104 10 13 4
-889.220651234528 -7.0588097483712 2185.57794075337 22 25 16
-882.073112349771 -6.77835651822645 2188.19607069617 19 22 13
-876.329975567679 -6.44790948421345 2194.5744342861 20 23 16
-867.080713367353 -6.24367863223388 2191.55060210325 21 24 17
-857.51626504576 -6.05366186940803 2187.57366016173 17 20 13
-851.078338900427 -5.7495894154892 2192.06885573019 17 19 14
-853.492065293644 -5.10827894266397 2221.1061095801 15 17 12
-849.673107897499 -4.69687546071154 2233.19104656075 12 14 9
-847.481345756593 -4.21796707271341 2250.02289124213 17 19 14
-836.55116159597 -4.08130016086816 2242.27166783395 23 25 20
-836.255749848283 -3.51940858727248 2264.82060445006 13 15 12
-833.884727348072 -3.03446095430665 2281.71829112794 76 78 75
-832.413083695251 -2.50615310999985 2301.49214000437 123 125 122
-829.557866707582 -2.029216438623 2317.49859204592 116 119 112
-828.552743813575 -1.46725180472759 2339.23884264939 114 117 110
-828.716133068324 -0.846209619082994 2364.82546565699 121 124 117
-828.441466239889 -0.234698682321538 2389.50397550518 134 136 131
-1059.40980606313 -18.480610548389 2254.0761171383 106 112 100
-1044.00952780401 -18.3431111254076 2238.34934054966 36 42 32
-1015.29534726298 -18.4859848361709 2191.17314062509 35 41 31
-989.993872936108 -18.5744332891673 2151.29429565845 17 22 15
-983.621735113911 -18.2731094013378 2155.76563478003 17 19 14
-990.779811615521 -17.6768191226344 2192.67520596597 22 25 18
-988.908141886175 -17.2693486829315 2208.31880270863 28 31 24
-981.237909339517 -16.9887022239052 2210.06030523026 14 17 10
-965.988639800378 -16.8831005229943 2193.2096985311 33 36 27
-960.262251296772 -16.5613040712264 2199.58106983698 22 25 16
-946.65985135147 -16.4265601651784 2186.400771648 20 23 14
-934.258766067352 -16.2684445372178 2175.98542287394 24 27 18
-932.259165395563 -15.8576703941227 2191.67600530731 30 33 24
-922.860255584127 -15.6290853459491 2188.7083832845 11 14 5
-915.674650727664 -15.3459236268685 2191.34054838418 19 22 13
-906.321478151482 -15.1197215776633 2188.35612850508 16 19 10
-903.095987475114 -14.7328647927866 2201.29014088907 17 20 11
-892.692250688403 -14.5368788509617 2195.48548187516 15 18 9
-888.344283068567 -14.1773991358309 2205.62534362552 18 21 12
-877.989008445623 -13.9839038839958 2199.80263425576 16 19 10
-870.815321966985 -13.7030540608773 2202.43029452495 16 19 10
-856.033735205654 -13.6434234113665 2184.33973628236 18 21 12
-842.394761300813 -13.5580971086779 2169.03563136918 20 23 14
-837.370367592053 -13.2207793282052 2177.28647949223 18 21 14
-869.507413043529 -11.7448177562871 2289.45067187444 15 18 11
-854.743797271495 -11.6871114500918 2271.35318459652 14 17 10
-822.112559902933 -12.203428029888 2202.10625860442 18 21 14
-829.851189738027 -11.4474617816543 2247.35015358407 8 10 5
-836.703191912387 -10.7042972959968 2290.78186099612 13 15 10
-834.552194482902 -10.2456189057275 2308.664178484 25 27 22
-830.382997295923 -9.84970793533688 2320.87520179899 147 150 143
-829.684211146987 -9.33071046410014 2343.56746305506 155 158 151
-828.877948123257 -8.80782408458411 2366.29932242557 140 143 136
-828.279090196031 -8.26987724731407 2390.02326200331 161 163 158
-1042.9672922001 -26.6063315178323 2216.77190013091 25 31 19
-1043.15510331637 -26.2123283505932 2236.9992295049 28 33 26
-1032.59545540233 -25.9602983566581 2232.32200370937 26 31 24
-993.078586788239 -26.1168141799974 2159.20418764138 16 18 13
-993.689999042344 -25.7194132305401 2180.34467372467 20 22 17
-1004.25323339945 -25.1700113725411 2225.61325442933 19 22 15
-993.066818687861 -24.9363534034603 2219.0290035705 17 20 13
-983.839207078624 -24.6754994573553 2217.06813345513 15 18 11
-974.257932775447 -24.4219503495534 2214.16890918418 15 18 9
-960.18939338143 -24.2431761581302 2200.09448857518 21 24 15
-942.474040195614 -24.1303743916093 2176.67404366117 25 28 19
-927.501293481419 -23.9794085237677 2159.72613432862 16 19 10
-925.542830586664 -23.6085488425521 2175.3987582528 19 22 13
-919.850171163453 -23.3002787060104 2181.75685393502 25 28 19
-916.318512924902 -22.9517794381428 2193.73265811895 23 26 17
-905.875130443312 -22.7291292814218 2187.94416142721 20 23 14
-898.34575478682 -22.4540621625854 2189.63406438071 25 28 19
-890.465368016056 -22.1863761272514 2190.38413539684 19 22 13
-883.301861811451 -21.9053435339875 2193.00811058045 10 13 4
-886.311141815364 -21.4182163931657 2222.88390029672 10 13 2
-874.546105727896 -21.2286791386243 2213.30663231763 11 14 3
-855.934714643342 -21.1883905610215 2184.87299058886 15 18 7
-845.726804229613 -20.9769975481887 2178.99808868235 20 23 12
-834.680823800507 -19.00904119897 2262.09100423812 16 19 12
-837.552358342683 -18.4775953572067 2294.15329844522 15 18 11
-832.787360291928 -18.1269769269924 2304.44426871964 5 8 1
-833.46469091896 -17.6353707695147 2330.90094760832 13 16 9
-831.454093184825 -17.205641160404 2349.79662461992 120 123 116
-829.356559970246 -16.7728105438157 2368.7243768376 149 152 145
-827.171978653904 -16.3369513515513 2387.68373110531 105 107 102
-1021.32828318088 -34.8776761744814 2148.27899101253 19 25 13
-1051.42804527301 -34.0178914927708 2256.87043416293 37 40 33
-1017.15681951855 -33.9021379747167 2196.80002674849 23 26 19
-1022.01252396367 -33.5262184612726 2228.12991711087 23 25 20
-998.301628939144 -33.3539310264402 2191.95930714445 22 24 19
-994.134234038554 -33.0417207612621 2202.02999348912 21 22 16
-997.221473202394 -32.6696459170985 2229.7356643605 20 21 15
-975.757591950408 -32.4958228769216 2198.08178126145 20 21 15
-962.439651706577 -32.2608461104122 2185.87250145227 19 22 13
-954.095299763712 -31.9854210992074 2185.72517612003 13 16 7
-943.523547255226 -31.7317894357409 2179.98565868408 14 17 8
-922.976126726352 -31.5770610000791 2149.06416081143 18 21 12
-918.831690379848 -31.2676685374813 2159.1262928435 16 19 10
-918.306312567119 -30.9190570346705 2178.54302373306 13 16 7
-918.05170106478 -30.5632049091338 2198.92847760757 17 20 11
-909.759501721022 -30.2915302164372 2198.76192030999 16 19 10
-896.107495599759 -30.0820781321702 2184.53847221632 17 20 11
-884.682439889822 -29.8514243173481 2175.90758945112 18 21 12
-877.910349342822 -29.5676280529227 2179.45611338776 17 20 11
-871.133018781873 -29.2839247601354 2183.0065342034 15 18 7
-870.267579222729 -28.9238990134714 2202.54768351919 16 19 8
-861.708690241969 -28.6616055621729 2201.41050620979 15 18 7
-851.112838494045 -28.4285617471518 2194.61163530908 14 17 6
-852.821231239095 -28.0252172003196 2221.75384167254 13 16 5
-845.95143413096 -27.7393133350138 2225.33827939926 12 15 4
-840.365366063272 -26.2418314581547 2303.21172837707 17 20 11
-835.573134013512 -25.9119148876688 2313.51103179772 15 18 9
-834.608600274993 -25.5147979694163 2335.2240968133 7 10 3
-829.70378341445 -25.1811079054468 2345.56433693462 14 17 10
-826.027225851767 -24.8233829622877 2359.72685135668 2 5 0
-822.918676203171 -24.4519881487092 2375.81713106075 43 45 40
-818.802253113465 -24.095759873763 2389.07254167899 16 18 13
-1024.90344816606 -42.4985812711303 2157.07131514091 24 27 18
-1037.26784872485 -42.2242005476849 2204.86463675647 37 40 33
-1031.92647546824 -41.9331264169252 2212.16035575334 26 29 22
-1037.59395455646 -41.642793573884 2245.32195272604 25 28 21
-1025.47214753111 -41.3480619488835 2236.94906065294 22 24 19
-1008.3545766133 -41.057972251193 2216.52446436139 21 23 18
-997.933877222209 -40.7689567619374 2211.79954396403 20 21 15
-979.109173008599 -40.489546979054 2186.66137200024 20 21 15
-978.739260014001 -40.1947284027577 2206.01730361553 20 21 15
-960.098480988009 -39.9231468769746 2180.81171406937 19 22 13
-958.913906270783 -39.6277135218646 2198.33057679383 15 18 9
-946.065918103661 -39.3528014321211 2187.01986086248 15 18 9
-921.051397885191 -39.1095384577288 2144.92867037389 18 21 12
-911.757519365542 -38.8358981291423 2141.92628603123 17 20 11
-918.958552563873 -38.5159203966002 2180.93276799331 16 19 10
-917.23965084542 -38.216237473142 2197.57928187771 16 19 10
-898.849572900455 -37.9719487693985 2171.21398768943 15 18 9
-895.661642348824 -37.6768405140149 2184.12743049649 15 18 9
-881.748945974375 -37.4237635747006 2168.93543628943 16 19 10
-869.345901443849 -37.168502329474 2157.46182724294 17 20 11
-864.379591590653 -36.8815129066911 2165.687773965 16 19 8
-861.469726128703 -36.5829628357841 2179.5670012103 16 19 8
-859.879576716116 -36.2748352567012 2197.23418225219 16 19 8
-860.949405243206 -35.9479548454368 2222.46952116095 15 18 7
-853.050768047601 -35.6703696811557 2223.22697014689 15 18 7
-847.525836325729 -35.378285425609 2230.58945904316 15 18 7
-846.331175389267 -35.0559378524453 2250.24738397071 14 17 8
-836.717535919327 -33.4140245790038 2342.39479054193 13 16 9
-820.922372502194 -33.1987243745641 2320.41751471897 5 8 1
-817.310358202082 -32.8761414122343 2334.55392663128 14 17 10
-813.322464018462 -32.5545632927939 2347.76002346154 32 34 29
-810.838244043806 -32.2152309629048 2365.75440836324 37 39 34
-1056.18885655264 -50.3877379460577 2229.37294798195 19 22 13
-1028.83349205523 -49.9435245920745 2186.01406937594 27 30 23
-1030.28324193284 -49.7172811060867 2208.97040859348 29 31 26
-1035.16498547331 -49.5118203723126 2240.27772228225 26 28 23
-1015.28825509562 -48.8893332455688 2233.68040422825 22 23 18
-997.094687750823 -48.5272436447943 2210.45226733719 21 22 16
-982.113899367799 -48.19008436497 2194.58813897788 21 22 16
-977.906681448324 -47.9208018002895 2204.67030986254 22 23 17
-969.493856349532 -47.6262793285783 2204.54930433321 18 21 12
-963.351951249142 -47.3450133571952 2210.0020340963 18 21 12
-938.523446580563 -46.965081616107 2168.92012528686 16 19 10
-929.140718689914 -46.6713688381166 2165.95153775573 14 17 8
-926.785887767767 -46.4126410170136 2180.69290599906 16 19 10
-914.855424529707 -46.1082988939736 2171.18440612696 17 20 11
-921.511933373811 -45.8865042430415 2209.31451562326 16 19 10
-908.501814005733 -45.5783847279167 2196.9986573618 15 18 9
-895.931746882216 -45.2751181151003 2185.58935597743 13 16 7
-884.149389621013 -44.9776063552845 2176.02652828009 14 17 8
-870.316383713453 -44.6760570394016 2160.80923685189 17 20 11
-857.982154122431 -44.3828261522449 2149.31348962369 18 21 10
-857.200223113425 -44.1244598069601 2168.81637247767 15 18 7
-860.122749013059 -43.8721645210006 2198.70596477958 13 16 5
-854.331173851515 -43.5953726379375 2205.09762517977 14 17 6
-847.158935849014 -43.3154131495277 2207.724691986 16 19 10
-846.736099048072 -43.0468534624927 2229.23123831265 17 20 11
-847.550197682227 -42.7763951510711 2254.55498205252 16 19 10
-827.165664920702 -41.068785174322 2339.95474458789 14 17 10
-815.257375549249 -40.7829845363352 2329.36997858998 24 27 20
-813.795215073509 -40.4890088055836 2350.18951168256 13 15 10
-824.668586579037 -55.634628774738 1622.98508663312 162 166 151
-824.282389516514 -55.4860085303145 1637.00286847179 164 168 154
-1016.35351835317 -57.3120289910047 2177.19285500668 30 32 27
-981.1507394985 -56.6331080270481 2114.30373898832 24 25 20
-1000.83941410071 -56.5334573973263 2199.95462750052 23 24 19
-983.128610768352 -56.1040754062495 2177.6229721748 22 23 17
-978.979253847876 -55.8588513151786 2187.68205043008 22 23 17
-967.931177292019 -55.522289861251 2181.05530035631 23 24 16
-969.042592937112 -55.3446385945048 2204.13090274595 19 22 13
-942.981266528298 -54.8176020355213 2160.30810064853 20 23 14
-941.811270681069 -54.6106518811823 2177.81499012323 17 20 11
-929.808771384762 -54.2675102673119 2168.3355911399 14 17 8
-932.229516236915 -54.102372471493 2195.2010001511 17 20 11
-927.570893782406 -53.8488300351171 2204.37918509509 19 22 13
-906.541621100293 -53.4011872095977 2171.52149628375 18 21 12
-900.484525577126 -53.1330915579794 2176.9424178208 18 21 12
-892.980441555122 -52.8482935392969 2178.62386558562 14 17 8
-883.704870438311 -52.5439997483303 2175.61714232867 14 17 8
-870.227354701181 -52.1945865600563 2161.34085561436 17 20 11
-864.545547972736 -51.9322518771879 2167.69179650692 21 24 15
-861.276086032362 -51.695146790131 2180.6304862977 18 21 12
-865.540363425166 -51.5349130098655 2214.29210296077 17 20 11
-858.334489611913 -51.2534007756372 2216.93150807738 16 19 10
-845.690602846537 -50.9180120969435 2204.48464125963 16 19 10
-843.922800285439 -50.6910932079797 2222.21024303668 16 19 10
-855.462468549836 -50.5885358538252 2277.75665879212 18 21 14
-845.787811692602 -50.2808550051254 2273.82863769359 17 20 13
-835.489988778743 -49.9688636525193 2267.99399468038 9 12 5
-809.867878502361 -49.5234697187197 2217.60560276597 7 10 3
-823.342640268552 -48.7428705673978 2354.63101932573 11 14 7
-808.925703608655 -48.4001199686345 2336.42907755409 37 39 34
-1038.30157567933 -65.6141135140852 2209.12408468366 29 32 25
-1044.82763898261 -65.6138219412466 2244.08495416524 30 32 27
-986.947390592503 -64.1292700179396 2147.89745568841 23 24 19
-989.121313888913 -64.0382652111089 2172.71358400754 23 24 19
-989.241937271163 -63.902963507898 2192.94606007517 21 22 16
-968.9461156595 -63.3493589419908 2164.09660948835 20 21 15
-962.533105838855 -63.0808747756009 2168.58006682722 20 21 13
-953.083595745497 -62.751247669199 2165.63845357174 19 22 13
-939.156567129919 -62.3328277199808 2151.53095274293 20 23 14
-932.037322225908 -62.0518128092682 2154.13884479966 20 23 14
-923.806144772746 -61.7490547978532 2153.95246124362 17 20 11
-923.317345875513 -61.5986470948557 2173.34094684628 16 19 10
-924.197304663614 -61.4733046466368 2196.49644511515 16 19 10
-901.743124043824 -60.8948873018684 2159.89986676052 21 24 15
-893.914871100786 -60.6016650265313 2160.63317665452 20 23 14
-890.031281721888 -60.3840202515292 2171.66042122044 16 19 10
-884.325642868503 -60.1312364975923 2178.0190462809 13 16 7
-883.535082545114 -59.9704361669955 2197.51770297726 14 17 8
-866.552630704801 -59.5067830523711 2173.8574397752 16 19 10
-864.652851327785 -59.3246285399271 2190.56080559942 19 22 13
-868.193701332036 -59.2406092350377 2222.34640762193 20 23 14
-859.253025341981 -58.9271295708113 2220.28525371487 19 22 15
-848.979280403788 -58.5904558365444 2214.44397889923 13 16 9
-841.11173528147 -58.2979025789898 2215.19126033384 11 14 7
-846.303124173806 -58.2363785732752 2252.77505401684 18 21 14
-842.008310923138 -58.0050892856286 2263.95274115893 17 20 13
-831.407966139262 -57.6638279100879 2257.16366793468 8 11 4
-826.089150250718 -57.4144999390754 2265.51485172087 5 8 1
-822.036916359367 -57.1862875095767 2277.67072475536 5 8 1
-823.08138688169 -57.0428745920457 2305.03454673906 2 5 0
-815.694108227438 -56.7565059770239 2307.74022946864 18 21 14
-814.005939084782 -56.5641541836593 2327.5674017665 22 25 18
-805.002883881166 -56.2509599463966 2325.52914533968 8 10 5
-1061.4095459603 -74.2457448167809 2223.54258396302 39 42 33
-1049.60046578686 -73.8274997634708 2216.13194200318 28 31 22
-1016.32244049891 -72.8090110541783 2158.96870338946 28 31 24
-1023.77348557087 -72.9319282272292 2195.71781704604 31 33 28
-1002.3104299211 -72.2476857848383 2165.16895647638 23 24 19
-993.931509588669 -71.9291937092477 2165.03744061704 23 24 19
-998.77099070803 -71.9771121457109 2196.34099196753 22 23 18
-997.278545194166 -71.8485124370479 2212.89257161185 20 21 15
-978.46427355843 -71.2423324445244 2187.77526443487 19 20 14
-967.035642155506 -70.8409818647313 2180.22486212889 19 20 12
-954.528955883931 -70.4110077095395 2169.86864862462 16 19 10
-942.469217597472 -69.994360418331 2160.41559283674 17 20 11
-930.47587681011 -69.5805313613194 2150.93819970364 18 21 12
-919.66007390114 -69.1997188203646 2144.23039470623 15 18 9
-912.94112209437 -68.9304754134152 2147.75851330661 14 17 8
-909.503903667834 -68.7498217042473 2159.68733974477 19 22 13
-908.191097026661 -68.6258141310932 2177.23985959389 21 24 15
-895.272699590314 -68.1903247029878 2164.90028557339 21 24 15
-885.654086266774 -67.8441453105666 2160.95480653099 16 19 10
-883.88048177588 -67.707222429562 2177.60916978709 12 15 6
-881.677248598814 -67.5581867124303 2193.35373666948 12 15 6
-872.405470055569 -67.2218235835615 2190.34805511088 18 21 12
-866.98433509898 -66.9873913418586 2197.66873511304 24 27 18
-866.01837235313 -66.8696255917386 2217.2278750688 26 29 20
-860.854518856092 -66.6412715268847 2225.52117268392 25 28 21
-840.37988065092 -66.0144081339089 2191.40893057869 18 21 14
-835.944012427435 -65.8061183435467 2201.56957670342 15 18 11
-832.470301197063 -65.6223544152722 2214.57845325611 16 19 12
-827.280985787611 -65.3939432021899 2222.88100645214 21 23 18
-813.170294573415 -64.9368350661742 2205.64297890543 19 21 16
-819.423986599388 -65.0009204578572 2247.0980540964 13 15 10
-817.687718898605 -64.8594237590148 2265.87230907121 8 11 4
-812.970145617864 -64.6415549502231 2276.1357776695 12 15 8
-808.849849782856 -64.4384027521301 2288.31474363493 10 13 6
-803.096153911599 -64.1938481008098 2295.75676495324 32 35 28
-799.200357803591 -63.9955685563846 2308.92009601956 46 48 43
-801.47463139888 -63.9500820695001 2341.16298545438 37 39 34
-1063.77699840198 -82.2021806651793 2229.54873037011 24 27 18
-1051.14941931187 -81.725466311992 2220.30652462689 26 29 20
-1020.15425925819 -80.5737650711821 2187.92301627525 33 35 30
-1006.5835128947 -80.0660475362919 2175.82591484459 24 25 20
-1004.03532560795 -79.9420341396007 2189.56081606068 24 25 20
-999.095902414986 -79.7348826017786 2197.77096995346 24 25 20
-997.210013516826 -79.6337569769566 2213.39661884866 24 25 19
-985.675655390062 -79.1980804460529 2205.88747528504 24 25 19
-968.109527099074 -78.5540416571901 2183.51919597652 25 26 20
-958.995821731903 -78.2032931050683 2181.52397644255 29 30 22
-947.279896057994 -77.7629651477985 2173.01434360233 24 25 17
-939.353072955027 -77.4539802290632 2173.78465705379 19 20 12
-931.065931568509 -77.1328220680018 2173.61999561711 17 18 10
-921.323332369986 -76.7618323582343 2169.72143727738 18 19 11
-907.235471880264 -76.2416383268408 2154.61324118274 18 19 11
-901.945096065415 -76.0246894462665 2161.88483802534 22 23 15
-893.749340022677 -75.7080258165548 2161.68663374177 23 24 16
-885.211462314942 -75.3798988992062 2160.5470437932 25 26 18
-877.048742895185 -75.0649581417004 2160.33670607036 17 18 10
-869.253588248609 -74.7629204692644 2161.05865524605 15 16 8
-865.314828871906 -74.5930698883424 2172.10208469054 13 14 8
-866.883436783735 -74.6114295308648 2198.19670564151 23 24 18
-862.466585389176 -74.4250238580043 2208.34879104651 27 28 22
-849.459457538259 -73.9457083182129 2194.97795232527 27 28 22
-841.630684605011 -73.643458501724 2195.71213229363 23 24 18
-831.454376242539 -73.2616125263299 2189.83860912332 22 23 17
-830.015063017937 -73.177159328471 2208.50066536174 18 19 13
-821.191424134645 -72.8417965399898 2206.39889290045 16 17 11
-815.684718163495 -72.6192665269814 2213.74951171835 22 23 17
-815.703952119014 -72.5839885590884 2237.21120243934 24 25 19
-813.666461578108 -72.4788094296437 2255.02560652819 15 18 11
-810.261286779016 -72.3271856075601 2269.07371243665 12 15 8
-806.794797967765 -72.1734323278096 2283.14451100457 16 22 12
-802.00176711049 -71.9748720312442 2293.4339393161 27 33 23
-794.344607302039 -71.6798782850015 2295.17177454674 31 36 29
-792.604707217289 -71.5841661190573 2315.01070532963 26 31 24
-1059.28376726366 -89.9115482529465 2219.93328059792 21 24 15
-1054.29986369526 -89.718187699505 2228.15830102447 24 27 18
-1041.31885452174 -89.1915442446082 2217.98172069645 29 32 25
-1017.72463208151 -88.2221413890777 2182.89567337267 24 26 21
-1017.14316759842 -88.2130047370815 2201.24035819359 23 25 20
-1010.61500461828 -87.9559503341305 2205.76479260591 21 22 17
-997.867770528631 -87.4394108809366 2195.50251064756 21 22 17
-988.275517353769 -87.0547175615278 2192.61691614793 21 22 16
-976.033354255693 -86.5594190462776 2183.23607650542 22 23 17
-970.703317748803 -86.3531866527648 2190.52152929607 23 24 18
-955.147777326629 -85.7195269788948 2172.75523458517 26 27 19
-949.459640654691 -85.4986770763419 2179.10509098574 22 23 15
-949.712522938363 -85.5267718637574 2200.34374013887 17 18 10
-946.161947118254 -85.396042741627 2212.31024099063 17 18 10
-926.390285479295 -84.5861570578486 2183.28942591553 18 19 11
-913.726466517971 -84.0739065487049 2171.92995626333 14 15 7
-900.777033481938 -83.5496927410053 2159.60835303785 18 19 11
-895.464890383852 -83.3458134098455 2166.88687263353 34 35 27
-887.269218612273 -83.0212326759144 2166.68923508924 60 61 53
-877.670241354108 -82.6379010424203 2162.73942472278 78 79 71
-868.459138606775 -82.2709472597574 2159.71400548257 32 33 25
-863.123376082887 -82.0670220389785 2167.00136467036 31 32 26
-864.353613633414 -82.1394541418036 2192.14803788474 35 36 30
-867.526760333168 -82.294192507211 2222.98241513649 35 36 30
-851.404910859799 -81.637440837894 2201.15714484425 34 35 29
-839.826742722128 -81.1718428208391 2191.5330642519 35 36 30
-834.375237035583 -80.9644375364422 2198.86248554846 35 36 30
-837.25056112276 -81.108429821523 2229.80588374884 31 32 26
-829.031461313104 -80.7850475755267 2229.61666806278 25 26 20
-820.827904960675 -80.4625109988021 2229.42174104788 23 24 18
-814.598277512208 -80.223492983603 2234.90315595864 26 27 21
-814.506093070834 -80.2441568766119 2258.40110826474 30 33 26
-810.124813669477 -80.0840324044133 2269.60484230759 33 36 27
-808.247015239393 -80.0302180227617 2288.42390494062 35 41 31
-800.90816988274 -79.7456678144545 2291.11185283261 20 26 16
-792.942494304336 -79.4347488158592 2291.89617447164 10 15 8
-784.365514435694 -79.0980666071749 2290.77143731698 49 54 47
-1066.48793448042 -98.1337201926924 2236.96120013434 22 25 16
-1067.06389923277 -98.2271747056773 2258.07752979774 25 28 19
-1044.04710959052 -97.1757611608177 2224.92123407088 29 32 25
-1024.54966954429 -96.3601404864418 2219.26723406743 20 22 17
-1003.9142845407 -95.4215127700978 2190.57021022456 21 22 17
-985.779989527462 -94.6035624824139 2167.35493288628 19 20 15
-978.577282185864 -94.3186902147533 2169.99344102471 19 20 14
-972.522280441144 -94.0901890516905 2175.41061434603 19 20 14
-961.12919014668 -93.600511395186 2167.85421734486 19 20 12
-953.568006976093 -93.2984759828296 2169.55745765831 16 17 9
-944.51158544727 -92.9231231679149 2167.54328118552 19 20 12
-947.399076245635 -93.1353225534387 2195.27718941062 18 19 11
-940.900350719593 -92.8866976291815 2199.79054637798 19 20 12
-923.00398630131 -92.076097390635 2175.42170910883 18 19 11
-910.362818615023 -91.5238360829595 2164.05677397114 17 18 10
-900.333837288007 -91.1002226032984 2159.19968332365 19 20 12
-894.301506583975 -90.8744237905985 2164.60841550785 32 33 25
-886.825305542089 -90.5773323966396 2166.2804055884 58 59 51
-879.354167027263 -90.2806312007563 2167.95078112693 72 73 65
-871.536056056307 -89.9668442302528 2168.68170339543 19 20 12
-865.824295012739 -89.7581117126314 2175.03948344663 29 30 24
-866.333782378559 -89.8604732160992 2198.3124072693 32 33 27
-860.19030436924 -89.6315365237683 2203.76176020161 31 32 26
-851.298308682494 -89.2652895533087 2201.68715459497 27 28 22
-837.345888643979 -88.6450134046213 2185.47074301615 29 30 24
-832.245356416487 -88.4687407319345 2193.73710401184 34 35 29
-835.796327072812 -88.7286116099036 2226.55938369011 32 33 27
-832.887110340191 -88.6647183474174 2241.48748053945 29 30 24
-824.650449570337 -88.332625179107 2241.30530266272 23 24 18
-818.386764358833 -88.1004198521512 2246.7985780096 24 25 19
-814.049834166003 -87.9663108859006 2257.98423540802 28 31 24
-815.125508390464 -88.1079862950845 2285.31520954539 29 32 23
-807.786185891237 -87.8230899040819 2288.00335692123 28 34 24
-799.18333952774 -87.4739479481514 2286.88895814339 19 25 15
-788.720968478775 -87.0297241817503 2280.05752255652 16 21 14
-1057.23772397096 -105.437507667575 2197.10576541028 34 38 24
-1069.25182330087 -106.215148676 2243.8804316606 17 20 9
-1063.79581937798 -106.030048421677 2251.20980438522 30 33 24
-1053.13998282972 -105.55722246885 2246.5841869405 26 29 22
-1033.82570003341 -104.603013212199 2221.67481195954 18 20 15
-1022.12861874094 -104.070444692087 2214.23184818306 22 24 19
-1002.2918805683 -103.083299679961 2187.38167344132 20 21 16
-982.618766592116 -102.102833417008 2160.47128965665 20 21 16
-977.359461858303 -101.926641277743 2167.72852204744 20 21 15
-970.926384675935 -101.685227035319 2172.2174824487 21 22 16
-963.722547334958 -101.400861460298 2174.85636292757 22 23 15
-956.140897992245 -101.095419608312 2176.56755069651 23 24 16
-954.936706474275 -101.149920515061 2194.06713784252 20 21 13
-930.567410930185 -99.8962636445117 2153.95086130648 17 18 10
-921.223261341658 -99.4900465248749 2150.97674546165 19 20 12
-911.175263839262 -99.0435228803247 2146.12803840809 21 22 14
-909.553856298647 -99.0759583960841 2162.71432443499 15 16 8
-906.40698839998 -99.0229849024605 2175.5945781837 15 16 8
-899.249374146367 -98.7419741440375 2178.21641095278 24 25 17
-890.30716002087 -98.3589361473473 2176.1613185006 23 24 16
-883.870635200849 -98.1194577899298 2180.65113118723 21 22 14
-876.016783889369 -97.7988387287366 2181.39580906105 33 34 26
-871.664875725829 -97.6802113972543 2191.51892986197 27 28 22
-861.032728702815 -97.1993979422892 2184.75194101275 28 29 23
-856.988846773133 -97.0996989883515 2195.82852668152 28 29 23
-847.093486460013 -96.6610611836284 2190.92376580568 26 27 21
-838.594945188907 -96.3032068661125 2189.77212643225 24 25 19
-830.789711514859 -95.9856044531561 2190.49891208166 17 18 12
-829.002650330199 -96.0203493852361 2208.2115139815 19 20 14
-832.432895777878 -96.3631612837818 2241.07165393465 21 22 16
-828.797527930213 -96.2935964546439 2254.13090420819 21 22 16
-816.627920081748 -95.7217703307854 2242.59610986887 21 22 16
-817.799151912288 -95.9379278879943 2269.88674454233 21 22 16
-815.306742864992 -95.9396445601897 2286.79156160714 21 24 15
-807.962105213386 -95.6544511171979 2289.4816625905 19 25 15
-793.986029681216 -94.9737598507787 2272.21184812057 12 18 8
-783.250409356687 -94.4849291008733 2264.41650368794 14 19 12
-1084.35756386785 -114.938609680794 2259.06640034187 117 121 106
-1091.35404771667 -115.540501765305 2294.87772319699 13 17 3
-1067.33609603227 -114.218474080579 2259.97198442174 27 30 19
-1042.73230324483 -112.855361115416 2223.14909119532 24 27 18
-1025.06772446421 -111.920863626279 2201.90530876239 16 19 12
-1020.88708888626 -111.827776854223 2211.96452703017 19 22 15
-1014.71420910233 -111.610807393695 2217.42365978461 21 22 17
-980.376895007913 -109.79133747267 2175.63854043189 21 22 16
-969.713647269054 -109.288612597568 2169.95106112978 21 22 16
-970.871334267024 -109.534367093274 2192.97790475832 22 23 15
-967.765556518019 -109.512060773583 2205.84091502529 24 25 17
-959.731755769244 -109.17729256862 2206.65204286308 21 22 14
-940.915733321918 -108.153514040053 2180.50006975541 18 19 11
-924.476100134989 -107.278260801825 2159.87355905548 20 21 13
-914.03654947318 -106.785424720259 2154.1040560792 22 23 15
-909.473919435733 -106.67014658136 2163.23693111108 21 22 14
-904.875095288177 -106.553632577468 2172.38305007041 16 17 9
-896.287831165684 -106.179894273441 2171.26484551297 23 24 16
-880.586320085053 -105.343699423126 2151.43375655174 27 28 20
-873.861937052396 -105.089280600842 2154.96272998187 18 19 11
-869.241861856909 -104.972665584158 2164.11657786656 16 17 9
-868.774052245855 -105.129277276328 2184.54082840711 28 29 23
-862.318819161333 -104.895140864876 2189.0372897557 26 27 21
-856.197130266522 -104.683462262122 2194.47742373402 27 28 22
-844.598891105553 -104.110259883101 2184.86850031387 31 32 26
-843.907419344602 -104.258846339126 2205.37436692461 29 30 24
-832.024449633095 -103.665659604964 2194.80384842045 21 22 16
-822.21516749354 -103.20906510215 2189.86942127834 20 21 15
-829.992408795843 -103.92917270347 2234.98766082759 18 19 13
-819.800967043472 -103.448786170366 2229.12732553385 16 17 11
-803.137673010145 -102.531020267564 2204.31855330707 17 18 12
-800.203845163342 -102.537716727857 2219.25026619115 17 18 12
-817.732852742047 -103.935172510662 2294.90655847846 19 22 13
-804.63729808799 -103.258947381811 2280.51640374638 19 22 13
-792.896906875505 -102.672763272475 2269.89329845458 16 19 10
-789.994760665748 -102.690729506131 2285.87946043043 17 20 13
-1085.24333740254 -123.231299074021 2281.58463194987 19 23 9
-1062.06821631505 -121.854380611986 2248.5104238489 29 32 21
-1035.11597438084 -120.210347602728 2206.16216022303 18 21 12
-1031.7245956333 -120.193972633397 2218.06193629107 17 20 13
-1013.36558925856 -119.137727409086 2194.94628476284 23 24 18
-1005.28853783969 -118.79488196529 2195.7737366339 22 23 17
-997.608484154804 -118.479699885083 2197.52115900639 22 23 17
-978.388650132823 -117.354532790764 2171.52381004316 21 22 14
-972.323966833018 -117.150739479805 2176.94263679014 21 22 14
-967.762151296515 -117.053701154683 2186.07383966017 22 23 15
-968.066458410038 -117.302599243728 2207.27714427967 18 19 11
-957.40577762247 -116.776034840388 2201.59053103823 18 19 11
-941.583257220917 -115.880380916423 2182.87445182723 19 20 12
-940.654961559948 -116.045694806052 2201.33199086819 22 23 15
-938.538609198099 -116.128821804313 2217.02772794529 21 22 14
-915.586310556689 -114.715778161843 2179.608552224 22 23 15
-914.918704395578 -114.903724845676 2199.03622153658 19 20 12
-892.969322879628 -113.554199090676 2163.38122261369 20 21 13
-878.718305398977 -112.756996884796 2147.2866520528 21 22 14
-864.569862043572 -111.963967198529 2131.15449763684 20 21 13
-856.146888107756 -111.586311108173 2129.97664158273 22 23 15
-864.489979802783 -112.438324789039 2173.81303197758 20 21 15
-867.758758553225 -112.924693152576 2204.58764050097 24 25 19
-862.280160223791 -112.770272361595 2211.92290780751 24 25 19
-848.588153406041 -112.007926338281 2196.68940826751 23 24 18
-832.284917338032 -111.04798194165 2173.88610836972 27 28 22
-821.496867614326 -110.495168234887 2166.11464112304 35 36 30
-820.768980737686 -110.694601983396 2186.6301565087 33 34 28
-815.642089736251 -110.566771879415 2194.90243956769 24 25 19
-820.662276419043 -111.206569121265 2232.49552163477 20 21 15
-802.03871265335 -110.06107767711 2202.01632523923 15 16 10
-821.083996965628 -111.775835821684 2281.36448983665 11 12 6
-812.782065437358 -111.416969053467 2281.20804738853 13 16 7
-804.495789231784 -111.0588629986 2281.0458593767 13 16 7
-799.064502777043 -110.92023836925 2289.42955519946 15 18 9
-797.98339689705 -111.119354596496 2311.1399885089 19 22 15
-793.075824573572 -111.025491297406 2321.463134481 25 28 21
-1079.13690669956 -130.846289151604 2268.2959598412 12 16 2
-1041.01983333855 -128.495994051023 2220.45807261699 23 26 17
-1036.79576036823 -128.445160150907 2230.52963096877 22 25 18
-1021.93632779228 -127.581740331892 2215.72767292279 23 26 19
-1006.00459867904 -126.632484210751 2198.12212825208 22 23 17
-1016.1291863015 -127.687025827579 2242.3622551494 21 22 16
-1005.63546506347 -127.15650244657 2237.68208848741 21 22 14
-958.962160416355 -124.092325114493 2165.27411404778 24 25 17
-956.303984022016 -124.162663301196 2179.03431429992 22 23 15
-947.219152800829 -123.732031526623 2177.03437671581 20 21 13
-940.762430557246 -123.50719400292 2181.53067751589 21 22 14
-939.83382507163 -123.719065340322 2199.984816294 24 25 17
-942.117765191383 -124.188934738145 2226.85201929531 24 25 17
