ply
format ascii 1.0
comment KinectMotionCapture
element vertex 751
property float x
property float y
property float z
property uchar red
property uchar green
property uchar blue
end_header
-811.034414707765 458.648193246668 2633.24232095709 163 166 171
-820.141981830245 459.795858372473 2637.64811935199 173 176 181
-831.191441668366 461.315802880527 2641.50776599634 175 178 183
-840.331298066527 462.463675242116 2645.97301257274 161 164 169
-846.587484832171 463.05325610449 2651.31167729996 165 168 173
-851.883408259773 463.45676170779 2656.94308529844 178 181 186
-862.027563985758 464.791012128006 2661.19666987069 189 192 197
-874.129317144053 466.497730829838 2664.93253908991 190 193 198
-886.25350259077 468.204603977811 2668.71021606406 180 183 188
-894.510040638646 469.166962811844 2673.60989068865 196 199 204
-905.700412748825 470.687987035261 2677.72902536978 193 197 200
-914.960561180593 471.836767426544 2682.41578397777 203 207 208
-927.165099963311 473.544362957175 2686.34095836953 213 217 218
-929.614454123474 473.389789885072 2692.91408285079 165 167 166
-700.703877659178 441.739695422647 2533.10194387664 80 82 79
-677.716194165534 436.643392077342 2548.50975732593 136 138 135
-684.716009188739 437.407930187036 2553.15390397436 109 111 110
-687.9629269197 437.439725537079 2559.13513882782 114 116 115
-691.209214518521 437.471439522641 2565.11519028544 105 107 106
-698.228248147305 438.235964634424 2569.79417529854 110 112 111
-697.700083154468 437.534632975519 2577.07208399815 115 116 118
-702.836475574772 437.932627082729 2582.40842798271 115 116 118
-707.977415670661 438.330571938632 2587.75312116038 117 118 120
-723.555790604449 440.744385823818 2589.63606838921 117 121 122
-730.619477425901 441.508968070895 2594.39770018551 121 125 126
-736.741925987166 442.090301511939 2599.48791581218 126 130 131
-743.823812864907 442.85494537814 2604.28303935835 131 135 138
-754.729810808549 444.352847646268 2607.87220486942 138 143 146
-766.610951785334 446.034249238921 2611.19471469749 142 147 150
-777.558642984319 447.532502157144 2614.86016290585 154 159 162
-789.483541548426 449.214171802727 2618.26373576312 156 159 164
-796.637295158656 449.979235681477 2623.19116163161 161 164 169
-807.641225821181 451.477877629965 2626.96016145027 162 165 170
-817.703683415054 452.793229158832 2631.05780497366 162 165 170
-826.821001374202 453.925337126555 2635.47685856604 175 178 183
-834.025226297657 454.690699189983 2640.49720004621 180 183 188
-843.169712581944 455.82298295737 2644.96627400545 161 164 169
-849.429457434905 456.405064997261 2650.30922764839 167 170 175
-856.664122824617 457.170619666871 2655.38561261322 178 181 186
-864.877727415273 458.119711479818 2660.20233511225 184 187 192
-876.014631393659 459.619299788822 2664.21668592207 188 191 196
-888.143385908144 461.302542059367 2667.99515569368 178 181 186
-896.402632880644 462.251968685951 2672.89642777881 194 197 202
-905.648663442541 463.385040639291 2677.55249719085 189 193 196
-912.95833687148 464.151163519506 2682.76700647976 200 204 205
-929.069383084986 466.569185894287 2685.63089883031 206 210 211
-938.366494220167 467.702688850831 2690.38104433565 202 204 203
-746.158160563883 442.885437262258 2523.98747681408 198 200 197
-726.939966548626 438.587154934825 2538.10784442642 166 168 167
-714.246263967548 435.551605672801 2549.80306766493 108 110 109
-709.046483141441 433.959574668212 2558.79567217441 109 111 110
-713.259026360606 434.172405345585 2564.49251011328 115 117 116
-713.693945641459 433.663078520071 2571.48414266123 108 109 111
-718.851677026787 434.056333739269 2576.8583078063 107 108 110
-724.013978809615 434.449584294241 2582.2408773425 123 124 126
-732.975795777255 435.565036950312 2586.36943191629 125 129 130
-738.152418065029 435.958295540493 2591.77834188673 123 127 128
-744.284945322824 436.532126559764 2596.88483793516 127 131 132
-755.187877226259 438.008986292962 2600.46203650251 132 136 139
-764.203049881079 439.124765981909 2604.68831600851 136 141 144
-775.14372346593 440.601929309723 2608.33451545811 141 146 149
-785.147779257993 441.898555955564 2612.3191164568 156 161 164
-794.211291258593 443.014621326757 2616.63489098214 162 165 170
-802.330832465683 443.950177021576 2621.27454318165 160 163 168
-810.462692763114 444.885805551704 2625.93687433603 153 156 161
-820.530128350223 446.182869324701 2630.03817377944 155 158 163
-830.615000173765 447.48006686816 2634.17158186626 160 163 168
-837.824411529284 448.235238806467 2639.19839775296 158 161 166
-844.078043993602 448.809743797935 2644.52783102009 155 158 163
-849.371971568041 449.203557249891 2650.1526536452 170 173 178
-857.574746416973 450.139607339074 2654.94604059664 180 183 188
-866.759447677212 451.256563766882 2659.48446796757 179 182 187
-874.988106809196 452.192811295734 2664.32552020612 184 187 192
-887.11738044533 453.85237996098 2668.09782558116 178 181 186
-895.375994626176 454.788926993973 2672.99355643583 186 189 194
-906.570526756423 456.267981320134 2677.10772091243 181 185 188
-912.905684064731 456.843080421954 2682.58727188361 200 204 205
-930.974374660972 459.588390958339 2684.91994860993 197 201 202
-945.166996990188 461.610576636674 2688.36657622738 227 229 228
-810.895053568361 448.027784995794 2500.77989030139 153 155 152
-787.055949571381 442.906618611919 2516.72910876518 181 183 182
-751.844477880617 435.651043216407 2536.50021735706 148 150 149
-729.723917092677 430.883699613369 2551.48644909595 117 119 118
-728.300342459731 430.02767479684 2559.18531185445 114 116 115
-725.917763112307 428.993601723631 2567.18215085634 111 112 114
-731.091695444483 429.38210857371 2572.58468455915 112 113 115
-734.374408312014 429.41485458548 2578.63203907504 126 127 129
-742.4021350242 430.336891668871 2583.09926659967 124 128 129
-749.491781238069 431.081109390678 2587.90251840336 127 131 132
-757.543074175398 432.003310811199 2592.41263368562 128 132 133
-767.512594969967 433.281378603393 2596.32813749 129 133 136
-774.636611453218 434.025784025021 2601.1946589269 133 138 141
-784.637197191899 435.304059245784 2605.1673592019 141 146 149
-792.741605301269 436.226590334146 2609.77526210159 160 165 168
-801.816440041818 437.327148696932 2614.10669367803 157 160 165
-808.987058696797 438.071828387621 2619.05900747848 154 157 162
-816.16743406462 438.816579945076 2624.02928726344 150 153 158
-824.319709417948 439.739400367022 2628.72531375524 153 156 161
-833.447334480744 440.840282642267 2633.15443800437 154 157 162
-838.731527516084 441.22921615047 2638.75988953567 149 152 157
-843.05418283915 441.440093397221 2644.65865625867 159 162 167
-848.346175770226 441.829038539922 2650.27845671815 175 178 183
-857.516734536454 442.930256692223 2654.78614063207 182 185 190
-866.702170014957 444.031585522167 2659.3212188136 177 180 185
-874.931238931122 444.954941827146 2664.15914805514 180 183 188
-886.089946496998 446.412727909658 2668.20052457386 178 181 186
-895.32105088371 447.514406641284 2672.82020566561 183 186 191
-905.542107410206 448.79436920308 2677.19889930988 182 186 189
-913.828267467331 449.71822997237 2682.14147702116 197 201 202
-927.991813466893 451.711101185221 2685.52581248816 196 200 201
-952.950266538709 455.66405862496 2686.08857926172 219 221 220
-967.183428551852 457.65758156168 2689.60114724939 225 227 224
-830.600257372147 444.39953442597 2493.6312470852 184 186 183
-816.181278791575 441.108176797514 2506.30654923614 171 175 174
-788.528293875531 435.364842366705 2523.51394806803 178 182 181
-759.846342800894 429.445472105525 2540.89075223549 113 117 116
-750.9063695308 427.202776080718 2551.26849400019 116 118 117
-743.823259717974 425.309927261659 2560.93695388345 122 123 125
-745.233562232328 424.993165346709 2567.66509873487 120 121 123
-748.534341258871 425.026569655997 2573.745878173 120 121 123
-755.632443192586 425.760636183474 2578.56162890646 121 125 126
-763.691218978577 426.669964131658 2583.0816351843 118 122 123
-769.857842375013 427.228902700797 2588.2468660122 123 127 128
-778.891948131383 428.313561303007 2592.49860816999 129 133 136
-784.122343107975 428.697415145259 2598.00358770546 136 140 143
-793.181057665323 429.782226454316 2602.30063585432 134 139 142
-800.340091734447 430.51661232912 2607.22854792154 130 134 137
-808.467294570365 431.426332215104 2611.87502612006 141 144 149
-812.767748830084 431.635041368074 2617.73180480656 148 151 156
-818.992284096905 432.194302136601 2623.00313876422 158 161 166
-826.186271221493 432.928882651063 2627.9953944014 159 162 167
-834.353575540898 433.83883632611 2632.71569684014 154 157 162
-837.70833696863 433.872248256429 2638.8957620418 149 152 157
-841.062477722958 433.905615865325 2645.07467238358 163 166 171
-848.286486264711 434.640422813397 2650.12170672643 174 177 182
-860.364182656178 436.252097080863 2653.78525353227 177 180 185
-869.554188310291 437.337858763826 2658.32405572777 171 174 179
-875.844780415123 437.897551607408 2663.71701018065 177 180 185
-883.115115527091 438.632686744286 2668.84985046445 178 181 186
-894.291429392827 440.069639528386 2672.91734316133 180 183 188
-905.48753168817 441.506715275463 2677.0217716074 185 189 192
-914.750655779036 442.593126072764 2681.6952471332 184 188 189
-926.962278284533 444.206057264198 2685.60498220468 194 198 199
-954.863046067722 448.626754975379 2685.37546337969 210 212 211
-978.906106488449 452.346184086514 2686.29922864776 226 228 227
-829.017569645524 437.352078737593 2486.48627708984 97 102 98
-834.34790457047 437.73271317574 2492.17409625685 181 186 182
-816.163072411763 433.803554342118 2506.19120858407 169 175 171
-798.860079256559 430.046101600112 2519.7670198856 169 175 171
-782.443027152596 426.460435228447 2532.90859447216 126 132 130
-778.251519616566 425.115698327217 2541.71516456648 122 126 127
-769.308974760642 422.908506132574 2552.09885347201 119 120 122
-764.121393412073 421.39075641732 2561.13572876073 117 118 120
-764.601039634035 420.907503282089 2568.2174632153 108 109 111
-771.72118335239 421.631491765551 2573.07072212501 112 113 117
-779.802126533736 422.528015813245 2577.62815212115 120 121 125
-785.038272995951 422.907122417271 2583.1422820913 124 125 129
-790.279002167736 423.286239275853 2588.6648435831 127 128 132
-794.569101984181 423.492792067448 2594.5024343421 133 134 139
-799.817618739631 423.871905641747 2600.03931763156 133 136 141
-804.112918186992 424.078431717713 2605.88646342527 137 140 145
-810.328067972937 424.63010600606 2611.1382543578 146 149 154
-815.589971071091 425.009199832304 2616.7002558759 144 147 152
-823.741112029011 425.906155449959 2621.38641791191 157 160 165
-830.941594251889 426.630554036856 2626.38755729644 159 162 167
-836.223791434067 427.009795393714 2631.98642345436 153 156 161
-836.683770037276 426.525827960304 2639.03177076986 157 160 165
-843.901749158217 427.250331495686 2644.06512169821 157 162 166
-850.161598302624 427.802242622158 2649.39919411771 174 179 183
-862.243862810748 429.390293386955 2653.06353418949 182 187 191
-869.496116453066 430.115064728917 2658.16000274282 169 174 178
-875.786370026243 430.667227121111 2663.55007000765 180 185 189
-882.083736453446 431.21942989691 2668.95323125125 173 177 180
-893.259989378593 432.635344499513 2673.01478948331 182 183 187
-902.505075307586 433.705978017644 2677.65034497985 181 182 186
-911.765034144404 434.776751712452 2682.31329661793 186 190 193
-922.018020054763 436.020415194656 2686.73979831275 184 188 191
-950.899405912387 440.547167856234 2686.2304042353 202 206 207
-984.751098058505 445.938551094701 2684.54782108606 225 229 228
-817.745820229141 427.959000328434 2490.4251858215 127 132 128
-830.578620226763 429.69196275329 2493.39867612638 170 176 172
-818.026096413355 426.843411513892 2505.40978711899 167 176 171
-806.371299739125 424.164022711302 2517.0080533313 164 173 168
-797.50565161463 421.993310202632 2527.54413955329 143 149 147
-796.16601726499 421.180082802283 2535.41025387918 115 119 118
-790.08115022621 419.517910017059 2544.86872975026 109 111 110
-785.864872865389 418.194910846065 2553.6362806207 112 114 113
-782.576340204069 417.04144083517 2562.04580051117 112 113 115
-786.870510056272 417.246018305729 2567.89028278653 114 115 117
-791.166895259466 417.450624043823 2573.73834375267 118 119 121
-794.51229068814 417.485349957817 2579.90157831832 122 123 125
-795.948822815536 417.180361702145 2586.6820090407 125 126 130
-799.290389895762 417.214968167188 2592.83816665516 133 134 138
-803.587897358665 417.419385957848 2598.6887393856 138 139 143
-807.887593646194 417.623816927998 2604.5428374827 147 148 152
-812.189020502376 417.828200143999 2610.40060829419 148 151 156
-818.413565747592 418.372371260645 2615.66742282515 149 152 157
-828.492465261024 419.596220340959 2619.76778930492 158 161 166
-833.773406281535 419.970631012283 2625.36289246293 155 158 163
-837.129930709022 420.00516446306 2631.54653740739 154 157 162
-838.554388399597 419.699751753365 2638.30463339808 157 160 165
-845.775022857032 420.414042409336 2643.33979674433 162 167 171
-853.973742440424 421.298402592267 2648.10967682701 178 183 187
-866.062984115554 422.86281972397 2651.77974204482 183 188 192
-874.291216608358 423.747403897152 2656.60447334796 166 171 175
-880.587642747966 424.292105986255 2662.00364961556 174 179 183
-883.970856970132 424.326772607917 2668.2364220028 176 180 183
-891.252270905402 425.041572831561 2673.38352312103 183 184 188
-899.519530971541 425.926535000481 2678.27964266996 182 183 187
-909.753629021933 427.151737322678 2682.66585448593 188 192 195
-920.983603968843 428.547160061121 2686.82005496577 186 190 193
-946.93177615861 432.494224651264 2687.08652412726 201 205 206
-984.712515112195 438.483179749882 2684.34967082296 213 217 218
-844.020526878969 425.314566313094 2480.85030630108 151 156 152
-834.327271573958 423.013823206823 2491.93996845873 167 173 169
-824.597146290701 420.712626279406 2502.96168353479 169 178 173
-812.944499006287 418.076951761847 2514.57704868048 164 173 168
-806.914296610931 416.44294308998 2524.14453233807 153 159 157
-801.802868328292 414.975622017817 2533.33713619853 143 147 146
-796.667767361532 413.508050481909 2542.48562211582 110 112 111
-794.352407209235 412.541341251028 2550.62634720331 109 111 110
-792.970092321541 411.741489561222 2558.41849084726 115 116 118
-795.376557505651 411.609841811937 2564.91962881835 113 114 116
-797.779812161384 411.478141059399 2571.41484610356 112 113 115
-800.179626235833 411.346308816228 2577.90420023486 116 117 119
-801.622127263405 411.04734670962 2584.69691679925 120 121 125
-804.01424384791 410.91537110188 2591.17207073124 131 132 136
-807.360268300439 410.950518127046 2597.33658882344 139 140 144
-811.664139882853 411.152819921813 2603.19772576035 152 153 157
-815.969756248215 411.355074131697 2609.06256160522 147 150 155
-822.199170149199 411.8917398739 2614.33607345576 150 153 158
-830.359893567956 412.762867783886 2619.03259668702 157 160 165
-835.64274065801 413.132433723044 2624.62974854038 152 155 160
-837.070949995546 412.833033644394 2631.39655261925 154 157 162
-840.425529656045 412.868075734905 2637.57677374163 163 166 171
-848.616215732563 413.739444150962 2642.3279718412 157 162 166
-856.819008812871 414.610888375818 2647.10196396803 170 175 179
-866.974223988245 415.817094268382 2651.33687893007 175 180 184
-874.233006928447 416.521483907288 2656.43922684093 171 176 180
-880.529068010034 417.058640456957 2661.83546259637 178 183 187
-885.858330760521 417.428506101473 2667.51857567825 176 180 183
-893.142602607711 418.1331642198 2672.66737882678 177 181 184
-900.436366028465 418.837867002295 2677.83415638397 181 185 188
-910.672765029125 420.044786620726 2682.21910206944 185 189 192
-919.947775461536 421.084511185042 2686.90039920138 183 187 190
-943.940779762805 424.635412321135 2687.68192644809 190 194 195
-978.783932792497 430.028466530379 2685.70801946856 203 207 208
-849.650688201894 418.910285869953 2478.70429071005 184 189 185
-843.721063097422 417.304984347795 2488.46538718097 171 177 173
-832.113918801682 414.713540371423 2500.17774167683 170 176 172
-819.521658169125 411.957299938535 2512.14352923863 162 168 164
-812.551343115537 410.186506949981 2522.0556397724 152 158 156
-805.551710806515 408.415326033055 2531.91421811732 156 161 157
-799.470112645264 406.80816680093 2541.39524979352 121 123 120
-796.207001906031 405.693802310266 2549.86328509116 114 116 113
-796.723474669802 405.236728211372 2557.02062285835 110 112 111
-799.133407098064 405.108331003881 2563.52911523013 108 110 109
-800.587812824677 404.815428718537 2570.3460532661 107 109 108
-802.990062452845 404.686884628362 2576.84037139791 112 114 113
-804.434155259288 404.393807833815 2583.63828961599 115 116 118
-807.784657903812 404.429554755701 2589.8112243209 125 126 128
-812.09204521688 404.629763837481 2595.67819800383 132 133 135
-815.442569209041 404.665455617941 2601.85115538875 144 145 149
-820.712204190114 405.030076157012 2607.42302482351 145 148 153
-825.986627309521 405.394755600457 2613.0032139869 149 152 157
-832.228020818075 405.923971101341 2618.29651807274 153 156 161
-837.512536315873 406.28867281902 2623.89577990122 149 152 157
-840.871564313109 406.324325529861 2630.08436595188 154 157 162
-846.162774566954 406.689094083816 2635.69545651166 161 164 169
-852.426187021513 407.218453609718 2641.02930076257 163 168 172
-859.665667013833 407.912457522216 2646.09302382666 171 176 180
-869.825566139018 409.100351805162 2650.33155097995 170 175 179
-875.145304059175 409.465352969329 2655.99517906683 169 174 178
-883.387897640025 410.324242086804 2660.83859597863 174 179 183
-886.772246104086 410.360048592949 2667.07379723085 177 181 184
-894.057862243763 411.054504071204 2672.22200462766 179 183 186
-899.39943592752 411.41964888503 2677.9263401049 182 186 189
-909.635631309243 412.608278133452 2682.30541099536 186 190 193
-917.930868806646 413.467714776635 2687.24531007038 184 188 191
-940.946745610932 416.797946532029 2688.27816114024 190 194 195
-977.759400012298 422.43486574187 2685.77026282738 208 212 213
-1020.55786860351 429.061148042276 2681.87908567904 216 220 219
-853.677739858878 412.763768416558 2469.45778055536 86 91 87
-849.646508613205 411.509375568132 2478.58579208234 184 189 185
-844.652907577204 410.093092074971 2488.01044980214 172 178 174
-833.040163502884 407.545288571477 2499.72562890185 171 177 173
-820.441913768422 404.835376203203 2511.6943332469 167 173 169
-814.412434465174 403.256361848261 2521.27968476165 151 157 155
-810.248413983051 402.000286141813 2530.16347086059 150 155 151
-804.168476786931 400.420648774284 2539.65583376348 149 154 150
-799.959450342113 399.164050101461 2548.45618418556 148 153 149
-797.628847581862 398.230533384048 2556.57885703343 131 136 132
-799.087008759885 397.943614230715 2563.40450128367 128 133 129
-800.539608167469 397.656645506855 2570.21939727379 132 137 133
-802.940136346663 397.531293864379 2576.7115093841 123 127 126
-806.292514540582 397.567620769754 2582.88806797944 126 130 129
-811.556923291759 397.927396584962 2588.44886851382 134 138 137
-817.783724132014 398.44900052872 2593.7130450669 140 144 143
-820.181763435356 398.323519536482 2600.20054078281 150 154 155
-823.536757587447 398.359763108468 2606.38188554175 155 159 162
-825.929435477497 398.234142524432 2612.85998290751 155 158 163
-830.244906117772 398.43216556263 2618.74116591228 154 157 162
-836.490544279796 398.953857179303 2624.04001409748 155 158 163
-840.812295014144 399.151879253175 2629.93325129352 157 160 165
-846.102906292772 399.5117990961 2635.54178211836 157 160 165
-852.365981642343 400.033617108476 2640.8727384785 167 172 176
-861.543939404419 401.041162524132 2645.36636535667 172 177 181
-870.737005358341 402.048886042676 2649.8873282678 170 175 179
-874.113487348804 402.085197147428 2656.10821338527 174 179 183
-881.382041872751 402.769232613403 2661.22241208702 175 180 184
-885.737136364776 402.967550227769 2667.17655916019 173 177 180
-896.924205814812 404.299595387553 2671.23278962976 176 180 183
-902.269250813605 404.659997242199 2676.94157893531 180 184 187
-911.532099072641 405.668407702198 2681.59109079821 183 187 190
-917.870725582345 406.190901910807 2687.0617070983 180 184 187
-940.892424463985 409.467917975883 2688.08875869702 187 191 192
-973.786801724071 414.36579313853 2686.61188998257 212 216 217
-858.3699162288 406.140320561305 2467.63603497572 51 56 52
-849.641237469363 404.113631719276 2478.46734379194 176 181 177
-843.701986023785 402.563212351761 2488.22723989702 167 173 169
-828.310948091413 399.423400949624 2501.27512025132 169 175 171
-818.530476878248 397.236506125197 2512.23861305873 169 175 171
-814.383871515538 396.002790553173 2521.16064865871 152 158 156
-814.947900465431 395.563540341504 2528.41081093863 154 159 155
-810.764888718677 394.329322879179 2537.2662418798 145 150 146
-806.560791764995 393.094882071836 2546.08232187499 151 156 152
-802.335153250638 391.860142236319 2554.85919733495 149 154 150
-801.894674575453 391.261186329909 2562.32865946867 142 147 143
-803.348865286351 390.980106605491 2569.14875734671 140 145 141
-803.843393767266 390.539956806047 2576.27032083161 129 133 132
-809.106507518342 390.894871928894 2581.82727791143 130 134 133
-814.374380028049 391.249852992346 2587.39250280119 132 136 135
-818.68855929079 391.445761117709 2593.27117897217 134 138 137
-819.167426701424 391.005304761287 2600.36435095107 140 144 145
-821.55922393452 390.882966078077 2606.84131132151 155 159 162
-823.94785328212 390.760574899407 2613.31242958681 153 156 161
-828.259527552489 390.956368255262 2619.18646410676 150 153 158
-833.537586286367 391.311306235706 2624.77091460678 153 156 161
-839.786132007046 391.825465432082 2630.07284516338 153 156 161
-845.074779262609 392.180524001983 2635.6763019039 149 152 157
-853.273133344006 393.013188319887 2640.42996371733 170 175 179
-863.422934411221 394.164360612898 2644.63887561985 176 181 185
-872.619055494652 395.156467511841 2649.16126546563 173 178 182
-875.996772440136 395.193358357948 2655.38459623093 176 181 185
-883.268185827114 395.867244343848 2660.50049649451 173 178 182
-888.599312757754 396.222655461397 2666.18269136012 173 177 180
-894.911302634775 396.737415045206 2671.60148782942 177 181 184
-899.275744047177 396.933683533297 2677.57220937644 183 187 190
-908.53524767421 397.92642701641 2682.21136270299 184 188 191
-919.769896914878 399.238016155418 2686.34844527302 181 185 188
-942.799534307468 402.46177148386 2687.37458484922 190 194 195
-971.775389224974 406.642152274122 2686.93477520816 191 195 196
-860.24788182212 399.026667898129 2466.83542590884 190 195 191
-852.456129406424 397.191714829405 2477.33277270597 173 178 174
-843.691196836986 395.20019520321 2488.10798029 169 174 170
-827.349040562234 391.958600339409 2501.49077156244 171 176 172
-818.505162751104 389.96613324446 2512.1204995387 167 172 168
-815.299810793765 388.910692130883 2520.7124832711 154 158 157
-816.809460951319 388.636270320116 2527.63658335264 154 159 155
-813.573096731822 387.580434060153 2536.17141105539 152 157 153
-811.267314802609 386.680638635617 2544.34987464296 150 155 151
-807.994778531975 385.624345786321 2552.81803804679 134 139 135
-806.607243738579 384.880422151513 2560.61740008693 145 150 146
-806.159553072184 384.292681073801 2568.0769705919 154 159 155
-806.655338012485 383.861126979489 2575.20393408962 142 146 145
-811.921902258907 384.211239806558 2580.76528886276 137 141 140
-816.235732866367 384.404994429522 2586.64267618924 146 150 149
-820.551499471243 384.598749948157 2592.52362443707 150 154 153
-821.030534318096 384.166929918393 2599.61970148852 155 159 160
-823.423236893402 384.047837121055 2606.09930305506 155 159 162
-826.77491055886 384.085101055702 2612.27484767879 150 153 158
-830.125988650609 384.122346819109 2618.44929146948 151 154 159
-833.476385882881 384.159573395692 2624.62247726565 151 154 159
-837.79226435228 384.353234227315 2630.50360277832 147 150 155
-844.045052348648 384.859887976377 2635.81107860548 151 154 159
-854.179989451207 385.992623061829 2639.98660426483 172 177 181
-866.272063428011 387.438506911624 2643.62673737031 173 178 182
-875.473018399661 388.415084928324 2648.15284350862 169 174 178
-880.798517118945 388.765663194429 2653.822729483 168 173 177
-885.154520692468 388.95970581808 2659.77776718618 167 172 176
-890.487811223031 389.310358404132 2665.4620060708 173 178 181
-898.754814394589 390.130764941092 2670.33874413828 172 177 180
-905.078747841693 390.638132943122 2675.77728420354 180 185 188
-912.388774204362 391.302173258687 2680.96174420677 184 189 192
-921.669258682846 392.279583831195 2685.63436996615 185 190 193
-939.799148917576 394.666929018688 2687.97195619611 187 191 192
-970.744477253723 399.091170783639 2686.99810260033 198 202 203
-863.065382635181 392.060914231733 2465.69297461552 203 208 204
-857.15338975437 390.565825478202 2475.51964327857 171 176 172
-846.505300060399 388.302938443656 2486.97937444082 168 173 169
-826.38528151094 384.504417295439 2501.70671475867 170 175 171
-815.645088357365 382.240407597876 2512.99721751225 166 171 167
-814.323821807652 381.511378703084 2520.92243384768 156 160 159
-814.88309173375 381.089270318635 2528.1689983272 153 158 154
-815.433906056722 380.667046472402 2535.39997669009 158 163 159
-813.12726668781 379.78394446762 2543.58188335566 158 163 159
-813.657445659316 379.36144535057 2550.77482676754 126 130 129
-811.322601148497 378.47802413721 2558.9042588012 134 138 137
-810.878421001422 377.90160152691 2566.37419373835 147 151 150
-809.46866647732 377.171439513848 2574.13632381307 145 149 148
-814.738209699936 377.516681567479 2579.7021969652 139 143 144
-819.055156672148 377.708335069287 2585.58417975854 148 152 153
-820.497539922858 377.438890006494 2592.38606035574 151 155 156
-821.934125405774 377.169362978033 2599.17725315275 148 152 153
-825.287674858405 377.207205052479 2605.35642154979 149 153 156
-829.603377868247 377.398790192028 2611.23609591169 146 149 154
-832.956944626288 377.436608467773 2617.41528897976 148 151 156
-833.414276340922 377.013123705716 2624.47395660863 146 149 154
-838.695547122396 377.358389080691 2630.06140589155 146 149 154
-844.949305966667 377.857515044856 2635.36840352012 152 155 160
-857.024623764729 379.279543619789 2638.97004092805 171 176 180
-866.21143980904 380.240355705636 2643.46540185255 173 178 182
-873.469752016336 380.893644652747 2648.55151693659 169 174 178
-881.710843911355 381.700913049031 2653.37614428341 168 173 177
-885.09296509985 381.738977179344 2659.60792808557 168 173 177
-891.401033249915 382.238666767149 2665.01497991659 172 180 182
-896.739287526813 382.584512837939 2670.70740685793 175 183 185
-907.950880878579 383.853883699072 2674.78938951459 181 186 189
-916.244139702101 384.661673548266 2679.71062240403 182 187 190
-924.549888196128 385.469634323679 2684.65437323038 183 188 191
-941.705371091087 387.663249987623 2687.25689177939 181 185 186
-971.678478735292 391.858800425798 2686.54097414574 200 204 205
-864.004834953509 384.782746737248 2465.23209907133 194 199 195
-858.089287105004 383.31511219724 2475.06048556611 168 173 169
-845.551280975871 380.791557214078 2487.19603050149 168 173 169
-826.363637645739 377.211767372844 2501.58865233951 170 175 171
-816.561693240868 375.139505502788 2512.54762884264 166 171 167
-814.292535960382 374.273621828006 2520.80314557181 161 165 164
-813.901773918862 373.709198813411 2528.37493467147 158 164 162
-815.397804090699 373.446432591176 2535.27698595663 155 161 159
-814.987906102851 372.881794671255 2542.81301169371 148 154 152
-816.469573883953 372.618807524567 2549.68908573271 148 154 154
-816.040275999389 372.053918278272 2557.18935594576 153 159 159
-814.645963135899 371.337934888175 2564.98465410495 149 155 155
-813.238283903064 370.621816376201 2572.75482419746 139 145 145
-814.68636853689 370.358388696768 2579.569000232 144 149 152
-818.044321781149 370.396855633269 2585.75645591354 155 160 163
-820.44264161852 370.284322094788 2592.24836115695 153 158 161
-824.758342048475 370.473733807703 2598.12788142241 150 155 158
-829.076019692063 370.66315798622 2604.01104189267 149 152 157
-834.358743120947 371.003658210172 2609.59922563277 147 150 155
-835.788810924649 370.73996243659 2616.38018481233 147 150 155
-837.213343722054 370.476230336836 2623.15044893875 145 148 153
-842.499104483593 370.816705753716 2628.744715671 151 154 159
-848.757700701706 371.308348129186 2634.05835963741 162 165 170
-856.962328598211 372.102300979484 2638.81191877953 173 178 182
-863.237757632371 372.594119795935 2644.15657442125 166 171 175
-872.436308807937 373.539442669256 2648.66886045519 163 168 172
-880.676241674972 374.333745724025 2653.48796142882 170 175 179
-885.030234278368 374.523511862803 2659.4380145617 169 174 178
-889.386424451788 374.713333755198 2665.39162194858 169 177 179
-896.675793583072 375.356736950858 2670.53188351919 174 182 184
-910.823921860367 377.058745212071 2673.80039431913 171 179 181
-918.141750625214 377.7024669943 2678.99309414714 174 179 182
-926.45049566728 378.497569195634 2683.93848932502 179 184 187
-938.700621002349 379.897835257365 2687.85508519468 185 189 190
-969.66142180763 384.17252317724 2686.86471427153 197 201 202
-1005.61817459928 389.204483843176 2684.71553236413 200 204 203
-860.243966468609 376.764151420093 2466.4783155053 181 186 182
-851.494389788321 374.8796322069 2477.31394266398 168 173 169
-844.595638401018 373.29088770949 2487.41292191084 169 174 170
-823.509063855504 369.480038635931 2502.47368166841 169 174 170
-813.697247906208 367.4460013438 2513.42549330105 165 170 166
-812.367201448629 366.744870390554 2521.34295128964 163 167 166
-813.866811498369 366.488027926902 2528.25387226655 159 165 163
-816.309852809637 366.379312817636 2534.82917673175 161 167 165
-815.898470240234 365.82596531469 2542.36586732101 157 163 161
-818.330972568264 365.717076656761 2548.92224072999 161 167 167
-815.995496970097 364.867042222556 2557.06105643654 156 162 162
-814.598292844477 364.165073699792 2564.85474736211 139 145 145
-812.23180272526 363.314661634253 2572.93640815165 140 146 146
-814.633556622632 363.20541517283 2579.43561775099 146 151 154
-817.990176671241 363.244395261896 2585.62077575868 152 157 160
-822.305514707176 363.431649615769 2591.49898075183 148 153 156
-827.583715658836 363.767257177276 2597.07737550479 147 152 155
-834.790325545106 364.399547627825 2602.06208590609 150 153 158
-837.190165149364 364.290242363772 2608.5577570884 147 150 155
-837.657523507645 363.884164130188 2615.64010005463 146 149 154
-838.116524098417 363.477984525498 2622.70704107912 145 148 153
-844.370290662191 363.962038352832 2628.00952039362 154 157 162
-851.599534342307 364.59456232022 2633.03592868931 165 168 173
-857.868796151758 365.078787739828 2638.36695818538 168 173 177
-865.116179293034 365.711512017117 2643.42678849271 161 166 170
-871.400965133419 366.195906601993 2648.78642038184 163 168 172
-878.66643040312 366.828834199505 2653.87956816073 175 180 184
-882.041979307997 366.86796490994 2660.0995850791 173 178 182
-888.34555822932 367.352569434566 2665.49384400164 178 186 188
-894.656216820521 367.837250878061 2670.90114685818 172 180 182
-906.846844482757 369.213160043286 2674.70099103059 169 177 179
-918.079784778099 370.440765629106 2678.81017914478 181 186 189
-928.351463559586 371.520060198892 2683.2216312129 190 195 198
-942.571320426473 373.193851941701 2686.6130744082 186 190 191
-969.609968008111 376.799509439453 2686.66765884569 191 192 194
-998.680260986721 380.703080133412 2686.31829533166 202 204 203
-860.240689157463 369.3539412009 2466.35918389173 179 184 180
-853.368674117977 367.795751904948 2476.51602050775 169 174 170
-846.46754832182 366.237215033837 2486.61921261485 171 176 172
-829.150209437926 363.078674932492 2500.34874525756 172 174 171
-818.394202748318 360.937501397328 2511.64710347975 167 169 166
-816.120744478465 360.104966842112 2519.90473869429 165 169 168
-815.727071498238 359.563114737308 2527.47796159918 167 171 172
-815.322632591819 359.021164477987 2535.03085024305 159 165 165
-815.857913173626 358.624566327834 2542.24096541662 160 166 166
-819.240915642373 358.664407149927 2548.47490434269 158 164 164
-818.810011026988 358.122131580163 2555.97901989779 163 168 171
-817.413588751261 357.434190694511 2563.77836719615 163 168 171
-814.09145883016 356.454921602955 2572.17898576418 151 156 159
-815.536959425245 356.203347403253 2578.99146962975 148 153 156
-817.934850328573 356.097244765885 2585.48502413783 150 155 158
-824.168832432754 356.573542580243 2590.74878382847 148 153 156
-831.371184219301 357.195564641038 2595.72207064167 146 151 155
-836.658162152726 357.526381551084 2601.31567145667 149 152 157
-840.022490842677 357.565970460835 2607.51519014567 145 148 153
-840.491323282289 357.168552422828 2614.60284852077 145 148 153
-843.850535480036 357.20807532728 2620.79293719915 146 149 154
-849.144232436982 357.5389916767 2626.3984211822 159 162 167
-856.379967945938 358.161359067257 2631.43371483562 170 173 178
-861.685321456767 358.492407760499 2637.06067714376 167 172 176
-867.966555740447 358.969238249477 2642.41150238872 163 168 172
-875.227537144583 359.591896113161 2647.49331519478 166 171 175
-881.524294151418 360.068905907699 2652.87274347695 175 180 184
-886.852724653768 360.400187815293 2658.54272295377 172 177 181
-891.20943388263 360.585764273707 2664.49600828602 178 186 188
-894.5901405312 360.625524207981 2670.72570045579 173 181 183
-900.907623228052 361.102771110517 2676.14331836166 178 186 188
-911.153938197303 362.163482626296 2680.50253343864 187 192 195
-925.344437531127 363.80783649063 2683.83163443027 188 193 196
-941.52878135107 365.744284194788 2686.68551470371 182 186 187
-967.588827823188 369.140036139283 2686.9919496339 192 193 195
-991.736308632436 372.244650574233 2687.92337943658 202 204 203
-878.358099586037 365.188795717532 2451.89874080962 189 194 190
-872.46621263971 363.803945900546 2461.79553913898 176 181 177
-859.953658577199 361.419933293416 2474.01985841835 170 174 173
-849.282972936647 359.32078555604 2485.48777564568 171 175 174
-831.960726715816 356.222137944735 2499.22578950132 171 175 174
-820.256160093402 353.979212683019 2510.86377356643 170 174 173
-818.928768595377 353.306079040267 2518.79503813923 168 172 171
-816.639377759241 352.490024188498 2527.02883050216 164 168 169
-815.283736470171 351.816586385506 2534.90754285051 162 166 167
-814.865588993401 351.285778613623 2542.43856971831 161 165 166
-819.198257910232 351.468905963051 2548.34740828134 162 166 167
-818.764602496755 350.937914618494 2555.8498580237 161 165 166
-815.455047235373 349.978247426137 2564.27899414552 161 165 166
-813.082971564564 349.16121015324 2572.36041859688 152 156 157
-817.397588059617 349.344124611141 2578.23599144599 146 150 151
-821.71412342501 349.527062380647 2584.11510045758 146 150 151
-828.913261760798 350.138788346735 2589.07938089499 142 146 147
-834.198917595602 350.464733912753 2594.66908521313 152 156 159
-838.526704568623 350.647838887005 2600.5684340193 148 151 156
-840.928088306217 350.545009139005 2607.06939671335 142 145 150
-841.395807766078 350.156220951393 2614.15760329518 153 156 161
-844.754892063014 350.19629403869 2620.34762219233 157 160 165
-848.113407758439 350.236360585876 2626.53659336095 164 167 172
-857.286322554331 351.134526976614 2630.98754846579 175 178 183
-864.533098302962 351.746793222456 2636.04010950285 178 181 186
-870.81783209289 352.216137578644 2641.39511973831 176 179 184
-876.136771409757 352.542514898475 2647.04566403798 172 175 180
-881.460023467048 352.868912720209 2652.70465066245 168 171 176
-887.763576849418 353.338482219423 2658.09434126276 172 175 180
-890.166645781106 353.235707259284 2664.59791556768 171 176 179
-893.544691575653 353.27600902594 2670.82287688258 178 184 184
-897.901523634318 353.459433112687 2676.77624510134 186 191 194
-912.068312517925 355.074467089201 2680.0524168979 184 188 191
-926.262554969155 356.689797475611 2683.37967418828 181 185 188
-943.434613412105 358.735020042865 2685.96805323462 182 186 189
-964.580822844271 361.353497801893 2687.57780439581 192 196 197
-987.74450373854 364.258934287533 2688.75474915903 195 199 198
-893.39915464361 359.96630884057 2446.26695823163 180 185 181
-879.994385667367 357.489291242669 2458.93766668361 171 176 172
-866.542604135093 355.011745249021 2471.52124733525 166 170 169
-849.268694372592 351.973565217776 2485.36684887444 170 174 173
-835.717256776794 349.494829746495 2497.76678616609 171 175 174
-824.010970447283 347.295594508502 2509.41474589449 169 173 172
-822.68565640282 346.636487600784 2517.35404942002 165 169 168
-818.500435936082 345.557031281296 2526.25145384102 162 166 167
-817.144062825459 344.897560983968 2534.13352480575 160 164 165
-813.871438784202 343.957741949568 2542.6365529331 161 165 166
-816.296468403914 343.858432731563 2549.18155916694 165 169 170
-817.764074407183 343.618930225938 2556.03883336467 165 169 170
-818.270669146085 343.239221295735 2563.20126899351 164 168 169
-817.812301284472 342.719257041783 2570.6615841213 148 152 153
-820.216703822562 342.619718814467 2577.16858452569 143 147 148
-824.536105363351 342.800522725566 2583.05232325953 147 151 152
-831.738916340867 343.401999356928 2588.02078040564 145 149 150
-835.104398837015 343.44268683741 2594.22275151801 148 152 153
-837.506226566649 343.343133644615 2600.72501188006 144 147 152
-839.904812961534 343.243545546936 2607.22130034028 150 153 158
-841.334434089339 343.003623953481 2614.00858740233 158 161 166
-845.659049304059 343.184513030704 2619.90194064376 160 163 168
-849.017493703213 343.225132396712 2626.0909469299 162 165 170
-858.192364032129 344.107694388612 2630.54080604216 169 172 177
-863.498990858688 344.429090783148 2636.16720755872 163 166 171
-868.809901714721 344.750509530439 2641.801999152 166 169 174
-874.125568000491 345.072020029991 2647.4450601949 164 167 172
-881.394980861886 345.6743386917 2652.53626355716 164 167 172
-891.602029624317 346.69798411363 2656.81211436365 168 171 176
-893.031400372342 346.458113128294 2663.59845190661 178 183 186
-894.45476423825 346.218140104662 2670.37421525778 181 187 187
-897.83211043936 346.259009482017 2676.59806058547 182 187 190
-912.982373782257 347.985450478594 2679.60172426677 181 185 188
-924.233143104393 349.150315851331 2683.72483589531 180 184 187
-939.438897270491 350.877431483459 2686.8307601885 186 190 193
-961.569728705389 353.588483813512 2688.16445045855 192 196 197
-987.693971274052 356.862219015972 2688.55226068163 202 204 203
-886.827096707215 351.505749893178 2448.55538358034 181 186 182
-878.112881571192 349.76407578804 2459.49900361961 168 173 169
-862.765367563846 347.060913420135 2472.75824204007 168 172 171
-850.197463984577 344.769067653623 2484.9084799994 171 175 174
-835.694240298608 342.202019409592 2497.64665526556 173 177 176
-825.874334199321 340.321116566173 2508.62963841913 170 174 173
-822.652843071036 339.401302282257 2517.23272514349 162 166 165
-820.361722962873 338.618635483499 2525.47337755667 164 168 169
-819.955488979343 338.110583518304 2533.0331586636 164 168 169
-815.730980838559 337.052745558577 2541.86531123744 167 171 172
-816.250653635502 336.681795304303 2549.05443371778 170 174 175
-817.716454746409 336.448215298025 2555.90966516693 165 169 170
-819.17621923883 336.214543055215 2562.75427068128 160 164 165
-819.673302668147 335.843345964223 2569.90177296959 153 157 158
-823.036729179618 335.884521371583 2576.1001094815 152 156 157
-829.278153900459 336.338212683253 2581.37075924481 150 154 155
-833.605162334238 336.516978179168 2587.26737120216 151 155 156
-836.971854685709 336.558219250819 2593.47173393553 145 149 150
-837.44764070266 336.186802710145 2600.58000040879 151 154 159
-839.844351132535 336.090405179645 2607.07430234285 169 172 177
-840.305950094478 335.718828931635 2614.15642820959 167 170 175
-844.628490484157 335.897578152349 2620.04481772543 163 166 171
-847.984248238549 335.938718558778 2626.22903947025 164 167 172
-856.188578314425 336.667991572852 2630.9631045096 164 167 172
-861.491933402807 336.984511122045 2636.58202213256 173 176 181
-866.799600117027 337.301059815437 2642.20938262931 170 173 178
-871.138369307923 337.480032756876 2648.12768714516 168 171 176
-877.428992028136 337.934402246082 2653.4890249359 170 173 178
-887.631944832661 338.939692482684 2657.75182273546 175 178 183
-892.96419906672 339.256558893148 2663.42449970547 181 186 189
-898.301237159107 339.573517394401 2669.10549851225 179 185 185
-903.642823350243 339.890533747614 2674.79487949865 174 179 182
-916.840595945661 341.309775320469 2678.34527838855 176 180 183
-924.166954545989 341.902591299737 2683.53835768216 179 183 186
-938.391311274621 343.460152841384 2686.90362829724 186 190 193
-963.482063466166 346.53409731691 2687.44537939181 193 197 198
-993.561876361405 350.297891657103 2686.79587392933 194 198 197
-868.694939063543 340.978434856254 2462.79996754128 159 164 160
-861.813863682479 339.54094354483 2472.97643698548 171 175 174
-851.12601301102 337.564624704884 2484.44972185138 172 176 175
-839.453087868256 335.453209352871 2496.18544818556 172 176 175
-826.791264133356 333.20665564407 2508.17657014945 170 174 173
-823.567246004409 332.306214512616 2516.78083517752 166 170 169
-823.173146635877 331.80960037009 2524.36637364862 165 169 170
-821.817060791854 331.178147988922 2532.25739853138 167 171 172
-816.638943975784 330.007701226753 2541.41662643751 169 173 174
-813.34385080663 329.106441429079 2549.889925326 165 169 170
-815.758358215187 329.013437422067 2556.41747540716 157 161 162
-820.081506935373 329.189912469403 2562.30680410541 150 154 155
-823.449387133588 329.231657014075 2568.51350291041 162 166 167
-826.816626024094 329.27340684768 2574.71902382417 162 166 167
-831.143303464669 329.44999227696 2580.61437143237 150 154 155
-834.510496383398 329.491767414428 2586.81981540507 148 152 153
-835.952122271153 329.263848979312 2593.63279101264 146 150 151
-837.387890442819 329.035871869436 2600.43497556826 165 168 173
-839.783082950259 328.942730185971 2606.92696062474 174 177 182
-841.208558070333 328.71464527825 2613.71018196592 167 170 175
-845.531403781176 328.891247860878 2619.59848748335 163 166 171
-850.824771555641 329.202764391856 2625.19803634643 170 173 178
-856.122922950654 329.514374857313 2630.8059071634 169 172 177
-862.397034600726 329.960995460687 2636.1345478332 165 168 173
-866.732574091281 330.137760239873 2642.04675254435 163 166 171
-871.070102869759 330.314554247131 2647.96262470796 171 174 179
-875.409828029372 330.491413226453 2653.88205171116 176 179 184
-884.634685123599 331.343369794888 2658.41464189193 179 182 187
-893.874115613332 332.195485091114 2662.97458717921 175 180 183
-898.232628741654 332.372593649513 2668.92864373389 176 182 182
-904.554009051469 332.819839911442 2674.34440823042 178 183 186
-913.827749281953 333.672391467065 2678.96758657486 181 185 188
-921.150483481368 334.254992765713 2684.15042391942 183 187 190
-937.342254825403 336.0537096576 2686.97654618277 185 189 192
-965.394859641326 339.474366943121 2686.72554993283 194 198 199
-1000.42013199076 343.841866028582 2684.77818736021 193 197 196
-986.114726718361 341.452289302281 2695.81875688892 195 197 192
-873.400877428016 334.230507009741 2460.96609900019 175 180 176
-861.803842582673 332.163706210292 2472.85481796247 172 176 175
-852.998938079269 330.492166953593 2483.65273476931 172 176 175
-837.537699735258 327.896677269432 2496.73519287599 171 175 174
-828.655156516386 326.224215334744 2507.39004046995 169 173 172
-824.481397308093 325.211201300448 2516.32850483973 167 171 170
-824.085828047857 324.725874056781 2523.91473412234 165 169 170
-821.776815171805 323.976417146104 2532.13246539383 169 173 174
-820.404099320549 323.358779983118 2539.99705919269 167 171 172
-818.064053785815 322.608975692722 2548.15761128605 158 162 163
-820.483320512672 322.519248692694 2554.69490008634 154 158 159
-820.986572025261 322.165352170368 2561.85894925206 152 156 157
-825.312154110721 322.33972350293 2567.75161647672 144 148 149
-829.63947360801 322.514104404988 2573.64798624004 146 150 151
-834.928929815645 322.820627526776 2579.23883939482 148 152 153
-835.41560818257 322.466624170931 2586.37187115483 149 153 154
-835.893691833518 322.112494423599 2593.48956190153 169 173 174
-836.363358481996 321.758281065 2600.59174710337 176 179 184
-838.755310927691 321.668310011961 2607.07923081584 163 166 171
-842.110929581906 321.710528976843 2613.26352107552 159 162 167
-847.40191832644 322.017186719502 2618.85672908425 161 164 169
-853.666627242617 322.456133850754 2624.16576883715 165 168 173
-857.026789715578 322.49844385401 2630.35844338459 163 166 171
-863.30187150022 322.937542203555 2635.68660620715 163 166 171
-867.637685624457 323.112177521178 2641.59867564537 169 172 177
-872.950043870441 323.419158053882 2647.23128313075 175 178 183
-878.266741933077 323.726169913002 2652.87238599421 172 175 180
-884.565128741031 324.165595635641 2658.24350944901 167 170 175
-893.805554308299 325.002143723017 2662.8000992309 167 172 175
-899.142526006043 325.309461670063 2668.47807680645 171 177 177
-907.426473755685 326.013936729983 2673.35111598327 179 184 187
-913.758542973199 326.453806013907 2678.78432091469 179 183 186
-923.048086009633 327.290994389439 2683.43143922014 179 183 186
-937.27603375105 328.79046651466 2686.78584564088 182 186 189
-968.294210386435 332.541774698966 2685.74310367806 199 203 204
-1001.35835538712 336.55887740554 2684.31360178886 194 198 197
-959.36624156856 330.509144781929 2702.55099729582 194 196 191
-884.958959078262 328.837853090251 2448.87732086252 182 187 183
-870.56964572375 326.427606059725 2461.87215143831 171 176 172
-862.736817132682 324.921195455296 2472.39275136085 170 174 173
-848.256916078001 322.509869703303 2485.22065025591 171 175 174
-837.512757722624 320.614919477495 2496.61434005776 170 174 173
-828.62433640376 318.977990320168 2507.26906221558 168 172 171
-825.395293177638 318.116292144787 2515.87573600402 165 169 168
-822.147557202863 317.254378761592 2524.44796570419 166 170 171
-819.832484455249 316.521553319931 2532.65955320366 169 173 174
-820.359806669028 316.176507597365 2539.87053439815 167 171 172
-818.016344645991 315.443369946526 2548.02981495948 160 164 165
-821.389212639025 315.486178393527 2554.24600716598 160 164 165
-821.891325774944 315.140887876025 2561.410550658 161 165 166
-827.175126108359 315.442461486126 2566.98900896228 154 158 159
-830.544802014924 315.485294703371 2573.19933778909 151 155 156
-834.874360096345 315.657551065445 2579.09918582222 153 157 158
-835.358369399536 315.312115134679 2586.23038933836 152 156 157
-834.870936501823 314.837147946231 2593.65078014213 173 177 178
-837.265921739392 314.7504703116 2600.14432786831 181 184 189
-839.657485313145 314.663735272449 2606.63206951251 164 167 172
-845.914100874986 315.095011598067 2611.92391733797 164 167 172
-849.272859675269 315.137829298342 2618.11416295087 168 171 176
-856.509604520711 315.698819768669 2623.13235137064 167 170 175
-859.872253757738 315.741717033781 2629.32977613242 164 167 172
-864.206412462694 315.91417590193 2635.23814644837 168 171 176
-868.542501933948 316.086676226922 2641.1500802623 175 178 183
-874.830205057036 316.518426149478 2646.49924619789 174 177 182
-880.149011764641 316.820664050527 2652.14228736909 171 174 179
-887.426956418299 317.382217103382 2657.23692316755 170 173 178
-893.736003705364 317.814265509489 2662.62543467008 173 178 181
-899.07208048224 318.116725641272 2668.30080971888 177 183 183
-906.375471823169 318.678653769021 2673.44185516077 182 187 190
-911.723229896959 318.981275160346 2679.13876273716 180 184 187
-921.010944060825 319.802840500542 2683.77781923422 180 184 187
-935.238768616628 321.273243223177 2687.12325730746 188 192 195
-968.235541293446 325.209253266389 2685.54495490896 200 204 205
