ply
format ascii 1.0
comment KinectMotionCapture
element vertex 752
property float x
property float y
property float z
property uchar red
property uchar green
property uchar blue
end_header
-461.310437470432 442.599568959192 2346.18218122037 172 176 177
-454.891016088373 443.373142604093 2351.77288847069 168 172 173
-447.459858582724 443.268119662328 2352.33161613674 173 177 180
-438.661537081707 441.931623588568 2345.82802124378 165 169 172
-429.909721072814 440.593264149231 2339.30713425988 159 163 164
-421.779828299314 439.781162226165 2335.79990919611 190 194 197
-414.059687657018 439.320143702814 2334.30366237833 199 200 204
-406.733990808899 439.210582335973 2334.82372979556 192 193 197
-400.524102068702 440.158347587738 2341.4182595458 198 199 203
-394.476004099234 441.282971827671 2349.03365085834 138 139 143
-388.582371624143 442.584833059832 2357.67310241267 161 162 166
-381.24671910332 442.475184360845 2358.19678051033 223 224 228
-373.921938908221 442.365037511784 2358.71672500279 235 236 240
-366.436561819024 442.077774191149 2358.21484611469 222 223 227
-359.642659467558 442.497099430107 2361.78152097658 203 204 208
-352.677950202941 442.739693529209 2364.33036552042 181 182 186
-345.550152450558 442.805254840711 2365.85855259261 184 185 189
-338.266791559764 442.693502953851 2366.36307248841 175 178 183
-331.470312901351 443.11286932692 2369.930686523 172 175 180
-324.825541667143 443.70975913736 2374.52338452261 167 170 175
-317.863908586556 443.952233014535 2377.07110230233 171 174 179
-311.054062510267 444.372121806518 2380.64361263918 176 179 184
-303.794067464083 444.259740815139 2381.13984968446 182 185 190
-296.690759530954 444.32465647804 2382.65883566514 193 197 200
-289.44968302784 444.211774328825 2383.14816108008 187 191 194
-282.219162622946 444.098671978182 2383.63338014832 179 183 186
-275.552879091437 444.696759832917 2388.23398476777 194 198 201
-268.741064993178 445.117499712384 2391.80727437682 189 193 194
-262.324445350777 446.072643389486 2398.47721963622 174 178 179
-255.757171310393 446.850566095261 2404.12197545342 134 139 142
-249.046905366793 447.450968367821 2408.73873516145 132 136 139
-241.824386584003 447.338565683337 2409.2210997308 159 163 166
-234.612369603515 447.226036640569 2409.69989337231 170 175 178
-227.89305609884 447.827461267259 2414.31976323204 171 176 179
-221.400091207013 448.786541462002 2421.0177446042 172 176 179
-214.771538244551 449.568169181724 2426.68504490431 180 184 187
-207.676404108929 449.635312439051 2428.2014834182 170 175 178
-200.476079376601 449.523769381501 2428.67584891576 182 186 189
-193.178388971921 449.233206816646 2428.10578177872 177 181 184
-186.106671523482 449.300520539203 2429.61347068738 201 205 206
-178.834788828651 449.009796787347 2429.03376017309 133 132 130
-171.578252114262 448.718830602531 2428.44845559583 87 84 79
-164.33710065843 448.427844965885 2427.85781381395 160 150 141
-157.301615845754 448.495469666224 2429.3523615091 201 187 176
-150.178567212944 448.383929995494 2429.79890425844 218 200 186
-142.615406691979 447.37450463444 2425.00406517282 217 194 176
-135.525416598465 447.262685367638 2425.43857541737 225 202 184
-128.530513855795 447.330735131327 2426.91866449942 238 213 193
-121.540651071 447.39913758387 2428.39669468118 232 209 191
-114.39594433341 447.108029096591 2427.77074733669 229 206 188
-107.343669059625 446.996939296477 2428.1916094103 231 208 192
-100.226606086768 446.705941486294 2427.55562639871 233 205 191
-93.3413048033547 446.955675121645 2430.07615773026 231 203 189
-86.1070523832673 446.304363538356 2427.32220101615 229 201 187
-79.0322206163176 446.013680480208 2426.67089757002 223 196 185
-71.8430421630184 445.361963339662 2423.90078749636 219 192 181
-64.4925249165873 444.168265008083 2417.94822719607 218 194 184
-57.4204740215377 443.696567915036 2416.21569931933 216 193 185
-50.3113009326988 443.044046566435 2413.41645961341 218 195 187
-43.2814008235433 442.572250505323 2411.6686093059 209 189 182
-1499.28411348926 486.825031428927 2515.300788126 215 220 213
-1480.71321745553 483.782384094539 2499.41925835182 227 234 227
-1465.64611268351 481.868623287764 2489.81650249832 230 236 232
-1450.64947347155 479.951513061678 2480.18789114151 229 235 233
-1431.88118950939 476.73341162117 2463.2982852846 225 231 231
-1415.61290582449 474.321569809503 2450.89445881501 220 224 225
-1399.43046861979 471.905777468895 2438.45914302153 212 216 217
-1389.95046890968 471.76125944384 2438.69275579907 201 205 206
-1377.66455814629 470.639923991372 2433.47231296684 207 211 214
-1361.21619703689 468.051475138006 2420.05403386752 203 207 210
-1345.32382638097 465.621666724051 2407.51226846846 200 204 207
-1333.21663832096 464.491381306505 2402.2262136771 199 203 206
-1324.37353958843 464.500078644412 2403.30653299226 195 199 202
-1312.79616724711 463.529026060202 2398.9068011676 188 192 195
-1297.62080420872 461.249540527979 2387.18241831317 190 194 197
-1280.71757597229 458.312605163257 2371.76974887949 182 186 189
-1267.96262044221 456.842430313834 2364.56029466129 204 208 211
-1257.94554250222 456.350852155831 2362.82949510806 201 205 208
-1251.06520071077 457.003756183666 2367.51201109998 197 201 204
-1239.75400468456 456.018503398474 2363.01424169085 184 187 192
-1229.36187172984 455.358831495902 2360.34047453056 211 214 219
-1217.6891742084 454.205298893995 2354.89505327756 212 215 220
-1207.79900270688 453.705902551004 2353.11755395478 208 211 216
-1197.07023906121 452.876397015711 2349.48672691027 203 207 210
-1186.37668021898 452.044979656681 2345.84296438842 176 180 183
-1177.42488877561 451.869337325729 2345.8823108875 170 174 177
-1168.91191663796 451.856974211766 2346.84109376829 187 191 194
-1160.83025245061 452.0084083861 2348.72233558286 192 196 199
-1149.40109679098 450.840905101405 2343.1871180098 186 190 193
-1138.43392002906 449.835881334258 2338.56311603558 184 188 191
-1127.92098893945 448.993593450217 2334.85290446935 181 185 188
-1118.67733917515 448.644462055003 2333.91864779263 181 185 188
-1109.45356141044 448.293853100908 2332.97680508275 182 186 189
-1099.03122385024 447.446119025096 2329.23326656123 182 186 189
-1089.45161106393 446.927068351786 2327.34170094901 180 184 187
-1080.69927839771 446.737377924549 2327.30751663249 180 184 185
-1072.36037603479 446.712018506787 2328.20207283515 179 183 184
-1062.05145516107 445.857291205214 2324.41679812208 182 186 187
-1051.38452766102 444.834578056469 2319.68236962324 182 186 187
-1039.9763754097 443.477785486093 2313.05868230686 187 191 192
-1026.28910156687 441.12227761822 2300.78788475668 192 196 197
-1014.61213370504 439.593431653494 2293.18207600078 188 192 195
-1003.75767951276 438.394223936118 2287.43590995721 188 192 195
-994.090868110346 437.691555611898 2284.49536208925 193 197 200
-981.807867543691 435.821963331739 2274.95092544573 195 199 202
-970.342244707759 434.282342814186 2267.26776845301 196 200 203
-959.305551127668 432.906342171143 2260.50741266643 198 202 205
-947.208730335181 431.027613904749 2250.89489489958 202 206 209
-937.017442683269 429.979775017608 2245.98549849918 203 207 210
-926.501647352804 428.7627006456 2240.11468260009 206 210 213
-918.571082596567 428.712495857687 2240.85925409775 213 217 220
-909.569990324294 428.159832324255 2238.75469980753 209 213 216
-900.952085567327 427.772787146657 2237.59022581471 210 213 218
-894.129913244225 428.221027938492 2241.16935394359 211 214 219
-886.597605453586 428.334020153044 2242.84809344121 214 217 222
-880.120271982654 428.948722954 2247.38129903196 213 216 221
-871.895670292488 428.725127936588 2247.15281207772 211 214 219
-864.376066914368 428.835731675163 2248.82650106558 207 210 215
-856.519442204747 428.777753945673 2249.54362088667 221 224 229
-849.352510043791 429.054573144558 2252.16852294155 228 231 236
-841.848520777347 429.162766412891 2253.83661116768 220 223 228
-833.680480529318 428.933923743783 2253.58717737368 210 213 218
-823.867601559152 427.862720604738 2248.53852801816 206 209 214
-815.413827511434 427.462650694021 2247.31343643792 204 207 214
-806.326757331106 426.724342899839 2244.15955775718 203 206 213
-798.568142094161 426.658366181535 2244.84046351968 203 206 213
-790.17620544043 426.254166259181 2243.59233817071 204 207 214
-782.124245529456 426.017273435023 2243.30012063387 206 209 216
-773.771167434013 425.610409684772 2242.03792982654 208 211 216
-765.124675596832 425.033273907149 2239.80294371677 209 212 217
-756.815509160286 424.623576228728 2238.52433002503 214 217 222
-749.454282499095 424.719877621083 2240.13964997427 208 211 216
-742.71140363324 425.153645098983 2243.68887577767 211 214 219
-735.65982798972 425.4178569374 2246.27091323214 223 227 230
-728.307218063303 425.512213674447 2247.88295567068 230 231 233
-720.661281783917 425.436235416975 2248.5221663042 224 225 227
-713.618441722093 425.698378851641 2251.10087372941 227 228 230
-706.282201089477 425.790322987331 2252.7065322489 225 226 228
-699.825025168092 426.390898383638 2257.23134790967 216 217 219
-693.357917223477 426.991280111089 2261.75950332958 205 206 208
-687.167126487691 427.761397295767 2267.26687968457 193 194 196
-680.6780176025 428.361612780331 2271.80327063439 210 211 213
-673.898157853936 428.791406307619 2275.36563314035 236 237 239
-667.39207746802 429.391153578726 2279.90815514629 227 228 230
-660.324645211962 429.650029931337 2282.49555133265 207 208 210
-653.530977518546 430.078814745583 2286.06285467452 217 218 222
-646.462010623817 430.336857796262 2288.65074557878 203 204 208
-639.661711608456 430.764889390946 2292.22040149733 194 195 199
-633.388090921683 431.534015513206 2297.7577983069 202 203 207
-626.573659713133 431.961751998037 2301.33282102071 206 207 211
-619.494146308008 432.218242010847 2303.92442668908 191 192 196
-612.157325062311 432.303181718043 2305.5297676718 188 189 193
-605.336965140465 432.729720661267 2309.10685415336 187 188 192
-597.753641953847 432.642435853221 2309.72220769633 187 188 192
-589.680607862632 432.211883461124 2308.35647903951 183 184 188
-582.12405792739 432.122778139702 2308.96196749415 195 196 200
-575.068720408075 432.375703040387 2311.5445201619 194 195 199
-568.013980633141 432.628306821006 2314.12683141764 217 218 222
-560.239795930642 432.36549150035 2313.7317318221 219 220 224
-552.956626801606 432.445283565418 2315.3174448834 204 205 209
-545.679169570081 432.524495089716 2316.90103879509 192 193 195
-539.104684836412 433.118770792379 2321.46774752562 183 184 186
-531.831184662306 433.197113046542 2323.04983810192 184 185 187
-524.563476783153 433.27481206602 2324.62977558686 177 178 180
-517.751040496259 433.69640998763 2328.20335600106 155 157 156
-510.934217131709 434.117762499836 2331.77851188879 154 156 155
-504.552356365198 434.883734377258 2337.35499839142 147 148 150
-497.504593765673 435.132492367579 2339.93448440629 141 145 148
-490.457544270252 435.380984281264 2342.51369124775 148 151 156
-483.19927110553 435.456587573827 2344.09004262068 160 163 168
-475.527851759987 435.18630201955 2343.65704087061 165 168 173
-468.286301827694 435.260775327993 2345.22723080606 154 157 162
-461.459267536459 435.680561687211 2348.80597853818 156 159 164
-454.829642846481 436.273345987922 2353.39286346218 177 180 185
-447.194302203363 436.00075714544 2352.94657917784 174 177 182
-439.18148864129 435.381183050388 2350.47789760921 156 159 164
-430.806664295207 434.414005727867 2345.98140846007 150 153 158
-422.851421627013 433.792048880189 2343.49188374642 151 154 159
-414.544209584655 432.822064202237 2338.97036238349 157 161 162
-407.206044772668 432.718336078605 2339.49565431299 144 148 149
-400.614577873542 433.30839221729 2344.06821492915 168 172 173
-395.283748818761 435.114524297785 2355.74114992344 174 178 179
-389.728919446783 436.748326639748 2366.41591385378 128 132 133
-383.252252602478 437.514132811079 2372.02683446207 133 137 138
-375.544472283547 437.062590079841 2370.52655733302 157 161 162
-367.686541872403 436.436234603318 2368.0013435383 169 173 174
-360.192174308655 436.15718348983 2367.50335085139 175 179 180
-353.046013956326 436.22602316959 2369.03845710385 189 193 194
-345.905585675066 436.294592970752 2370.57120601161 186 190 191
-338.770995963844 436.362861348629 2372.10206510999 190 191 195
-331.959024388621 436.779974718943 2375.67513831042 191 192 197
-325.142715509312 437.197243906391 2379.25005347823 178 179 184
-318.168435111923 437.440092956116 2381.80239481048 166 167 172
-311.194769951339 437.682917961456 2384.3545107899 160 161 166
-304.073312645284 437.750925003793 2385.88032436886 168 169 173
-296.95754011135 437.818874840948 2387.40432244566 170 171 175
-289.847475999011 437.886661136214 2388.92623409902 165 166 170
-282.883675618234 438.129457922209 2391.47476370428 155 156 160
-276.196787562499 438.722707297292 2396.0822353449 128 129 133
-269.500206857219 439.316559991959 2400.69352851579 130 131 135
-262.927063194089 440.086196175186 2406.33979175601 132 133 135
-256.078055098952 440.505531162937 2409.9264893396 129 130 132
-249.096346469867 440.749802004575 2412.48163690386 133 134 136
-241.738673428577 440.46731432194 2411.93371866882 157 158 160
-234.519574476123 440.360183513495 2412.4154927621 169 170 172
-227.792545773704 440.956252234882 2417.03776173131 185 186 188
-221.409357157351 442.08049991212 2424.775129953 187 188 190
-215.000939538685 443.206104579382 2432.5215129005 142 143 145
-208.00381509488 443.452288035348 2435.08240591898 138 139 141
-200.78636616339 443.346521986278 2435.56368347096 151 152 154
-193.47165842302 443.064439469859 2435.00018489899 155 156 158
-186.382686491554 443.134809598201 2436.51437362001 138 138 138
-179.299021811819 443.20537548288 2438.02690309255 126 121 115
-171.820364194099 442.570033534298 2435.36320720493 80 73 67
-164.269794833239 441.757563172278 2431.64546438987 151 137 126
-156.84463757861 441.121096869636 2428.9619906716 189 173 160
-149.629975856631 440.837724685398 2428.36204431648 195 174 157
-142.340529778968 440.377501318079 2426.70936998466 200 177 159
-134.984234496512 439.739997546254 2424.00105215238 210 185 165
-127.992575025229 439.810256771887 2425.47987523431 220 195 175
-120.676724622226 439.172244286505 2422.75682387519 225 202 184
-113.784980731922 439.420145393505 2425.27955778059 228 207 190
-106.738567108572 439.313842558916 2425.6983969754 220 199 182
-100.00086381085 439.917639647406 2430.32538184885 221 195 180
-93.1084383479485 440.167294395296 2432.84849571018 224 198 185
-86.0070573455106 439.884616489306 2432.20744259986 217 194 180
-78.5855441009525 438.713344903244 2426.28236994567 212 190 177
-71.2040990102357 437.541386979772 2420.34294154645 214 192 181
-63.6153773371533 435.656853745633 2410.15832600843 205 185 176
-56.9783300078955 436.440838201373 2415.8288904505 197 177 170
-49.8135984943233 435.623293425407 2411.97057538295 170 151 145
-42.7876594601889 435.16164503164 2410.22205152583 123 104 100
-1548.63440672971 487.939420527388 2568.9184097188 251 252 238
-1505.64022036121 477.177369848562 2509.06352130932 239 241 230
-1490.94969285114 475.466123822808 2500.40577709545 234 237 228
-1480.22664225505 475.025182714878 2498.93530456688 212 217 213
-1464.67606297264 472.989966287287 2488.43249290165 203 208 204
-1451.13172896226 471.588695182985 2481.51504842762 198 204 204
-1434.76183123311 469.227646056803 2469.15172024034 196 201 204
-1421.82086425075 467.979888491287 2463.09318894499 191 196 199
-1406.07990944846 465.771206872802 2451.57990339248 189 194 197
-1391.83710983668 464.038234781229 2442.75784355263 195 200 204
-1376.24999481463 461.822125317979 2431.18784748259 189 192 197
-1360.74371698393 459.602201544513 2419.58819242935 184 187 192
-1346.71274750334 457.858926047635 2410.68838933929 183 186 191
-1336.44524802748 457.394404782121 2409.05061882022 191 195 198
-1326.66229881704 457.088681973438 2408.31558513255 190 194 197
-1314.15601038381 455.818934156202 2402.09745959658 186 190 193
-1298.97239613457 453.583065297553 2390.37936566459 190 194 197
-1283.41768413116 451.182521150335 2377.71712423214 180 184 187
-1271.09554367134 449.90361134026 2371.43139953487 198 202 205
-1260.16450801512 449.104640608756 2367.87636940771 196 200 203
-1250.60171903187 448.786800045461 2367.06042893757 203 207 210
-1238.84942914294 447.661999025676 2361.64584011922 179 182 187
-1228.02100511347 446.8572315207 2358.05308995873 206 209 214
-1216.79089546099 445.889057390477 2353.52714743665 217 220 225
-1207.77195278685 445.725925040328 2353.59183639772 200 203 208
-1197.47288638895 445.077132919008 2350.8853298644 190 194 197
-1188.06187463717 444.749682147712 2350.01326361537 167 171 174
-1177.81779146825 444.097371505793 2347.28651413209 176 180 183
-1168.45155212034 443.766979923977 2346.39795849848 194 198 201
-1159.10530176643 443.435257484003 2345.50229400254 187 191 194
-1148.94117400785 442.777930095373 2342.74586088921 178 182 185
-1140.05609058233 442.605338141068 2342.76120001601 186 190 193
-1129.11720172392 441.620171095327 2338.12841820545 180 184 187
-1119.45216881634 441.11989639315 2336.26905130294 176 180 183
-1110.22088020404 440.780524825701 2335.33103975007 176 180 183
-1101.41562712846 440.602252250478 2335.31694490084 177 181 184
-1091.41483139601 439.934776140583 2332.5006556966 177 181 184
-1081.44418841282 439.265480236421 2329.67301925454 180 184 185
-1072.69901871412 439.082953852344 2329.63677290141 177 181 182
-1062.78128952703 438.41022030415 2326.78965151435 177 181 182
-1052.10736473526 437.409457497968 2322.05942158278 178 182 183
-1039.52035861717 435.590395373198 2312.62925415377 185 189 190
-1025.83500943761 433.278046938482 2300.3610137493 191 195 196
-1015.31601504493 432.269218145878 2295.5736288886 187 191 194
-1004.07160086489 430.931038226063 2288.89185373603 188 192 195
-994.400036127279 430.244753775874 2285.95426912272 192 196 199
-980.979655448686 427.919415998078 2273.58902994968 193 197 200
-969.893087868589 426.573101982889 2266.84928946902 194 198 201
-957.366117167462 424.568360293906 2256.31648855612 197 201 204
-945.651239311382 422.88836399813 2247.64674745879 200 204 207
-936.203742964223 422.190047263845 2244.6268425294 200 204 207
-926.056484192156 421.161509468804 2239.7029050817 203 207 210
-918.488215329033 421.280969004753 2241.39519855717 211 215 218
-909.484869814296 420.742017216601 2239.29275183288 208 212 215
-901.579362229306 420.694955926288 2240.02820199588 208 211 216
-894.393890881753 420.976191880085 2242.66017328469 209 212 217
-887.560708586628 421.421468502141 2246.24307809855 212 215 220
-880.372622972421 421.701615588191 2248.8759170918 212 215 220
-871.448374566769 421.156475868524 2246.74426452802 210 213 218
-862.894384020028 420.774734120837 2245.55696825462 206 209 214
-855.729383244284 421.05213290875 2248.18121229564 219 222 227
-848.903978984659 421.494068408443 2251.76103896408 226 229 234
-842.073540941136 421.935605117405 2255.34266450585 218 221 226
-833.565878312171 421.54967073012 2254.13821921875 210 213 218
-824.74684751964 420.996740422774 2251.9674950272 207 210 215
-816.282915586769 420.607905936485 2250.74694191882 205 208 215
-807.1860268574 419.886239524416 2247.59788630454 205 208 215
-798.120079033497 419.162754685058 2244.43770579934 205 208 215
-789.406589211302 418.603436706163 2242.22815264972 205 208 215
-781.357122095041 418.37460506493 2241.93563761607 205 208 213
-773.006718692959 417.978415670661 2240.6732803894 205 208 213
-764.36296029067 417.414705030244 2238.43805976288 205 208 213
-756.367973010899 417.182017230579 2238.12545920536 209 212 217
-749.006372440653 417.281013069662 2239.7411183101 207 210 215
-742.262794317927 417.712187593644 2243.29040253727 202 206 209
-734.603193802415 417.643353611889 2243.93511694794 204 208 211
-727.556529535319 417.906718435802 2246.51530600631 201 202 204
-720.211596187888 418.002919027565 2248.1246983772 191 192 194
-713.76036187426 418.598928622189 2252.64675642645 195 196 198
-706.418756342218 418.693808120649 2254.25483999844 234 235 237
-699.664579209251 419.122061965707 2257.80775487418 225 226 228
-693.194175414408 419.717199141106 2262.33696639568 187 188 190
-686.428102484366 420.14478640653 2265.89415316674 195 196 198
-680.223999855057 420.906848371998 2271.40575845341 181 182 184
-673.443503765926 421.33392738278 2274.96814735119 195 196 198
-667.214812587575 422.095878372425 2280.48867820784 240 241 243
-660.144346095451 422.354873307571 2283.07718579336 234 235 237
-653.347486734146 422.781103023231 2286.64545600176 214 215 219
-646.546108271674 423.207019246032 2290.21559882105 207 208 212
-640.27605979769 423.968502226183 2295.75112102429 194 195 199
-633.991280568785 424.7299653879 2301.29199396866 186 187 191
-627.428796428749 425.323355226174 2305.85427559297 197 198 202
-620.075801714127 425.412129126285 2307.46603660556 200 201 205
-612.47075327403 425.331946319535 2308.08981960633 191 192 196
-605.386905200813 425.587652907938 2310.68294111179 185 186 190
-598.051060150091 425.674446432273 2312.28832158493 186 187 191
-590.720979429012 425.760597814849 2313.89155921 183 184 188
-583.149055818863 425.677452987492 2314.50308322689 180 181 185
-576.568041833531 426.268456612049 2319.07217170149 174 175 179
-569.492520335254 426.521813021994 2321.66209052485 198 199 203
-561.698005236541 426.26789129723 2321.27504876177 212 213 217
-553.444809684666 425.674981734018 2318.89571887896 218 219 223
-545.452627207575 425.249904558535 2317.50102690823 204 205 209
-538.642690238388 425.669677799026 2321.07356155134 191 192 196
-532.0581280444 426.258497570322 2325.64377444818 180 181 183
-525.236826641586 426.678059879588 2329.22042230171 168 169 171
-518.860366317143 427.436257613073 2334.79436004935 150 151 153
-511.359157138282 427.346881459485 2335.37997499945 149 150 152
-504.966269841867 428.105020252813 2340.95962253053 138 139 141
-498.124973992496 428.523980591197 2344.54374400296 144 148 151
-491.493645896648 429.112557420785 2349.13067607262 144 148 151
-484.217405144795 429.191483195769 2350.71380643132 151 155 158
-476.737675936949 429.099852019 2351.29119245092 155 159 162
-469.682408093919 429.34777184021 2353.87334216141 159 163 166
-462.015380480422 429.084983149344 2353.43956468574 177 181 184
-454.364302748796 428.821227493064 2352.99966475465 177 181 184
-446.928269302979 428.727173997464 2353.56099169511 175 179 182
-439.110177693094 428.291600872066 2352.10225403826 152 156 159
-431.507231734801 428.025547290233 2351.6446926442 149 153 156
-423.345900491382 427.24695113941 2348.15141842123 149 153 156
-415.782574379489 426.979230050317 2347.67933583299 150 154 155
-408.421698486086 426.881570522111 2348.21333743649 142 146 147
-402.358277739065 427.9796975021 2355.83229682897 145 149 150
-396.813986774571 429.591589764926 2366.50157860965 162 166 167
-391.408313563954 431.375708329297 2378.19979203629 139 143 144
-384.900562883309 432.134392043277 2383.82146916888 128 132 133
-377.336464193068 431.865926973507 2383.34961115284 120 124 125
-369.275178810048 431.08270625676 2379.81963758073 150 154 155
-360.908047750521 429.955582929525 2374.24172875276 160 164 165
-353.744140035051 430.027676933158 2375.78352883268 185 189 190
-346.259190167284 429.75623771139 2375.28268867252 179 183 184
-339.594716024876 430.342655930618 2379.88150107508 191 192 196
-332.762298991951 430.757696159695 2383.46210076156 195 196 200
-325.769599928575 431.000967279441 2386.02116613272 192 193 197
-318.624232395863 431.072290844094 2387.55591743187 180 181 185
-311.635396043664 431.315470555105 2390.11357243806 168 169 173
-304.647073562488 431.558808838846 2392.67105270017 160 161 165
-297.513770390919 431.629885426189 2394.20165623427 166 167 171
-290.386123208811 431.700860072632 2395.73019704339 151 152 154
-283.404690689194 431.944107741838 2398.28516708671 137 138 140
-276.975691849396 432.877522372127 2404.95797068213 109 110 112
-269.985212563485 433.121361810094 2407.51627240529 123 124 126
-263.393905036942 433.883370603883 2413.16855976051 135 136 138
-256.396675638589 434.127771605768 2415.72935642392 135 137 136
-249.399900682155 434.372273951099 2418.28999561803 137 139 138
-242.152930220071 434.271129347383 2418.78209384091 159 161 160
-234.793834830183 433.996855857396 2418.23531217248 161 163 162
-228.171755013024 434.760841453063 2423.89892940938 168 170 169
-221.770147098716 435.872171607902 2431.64201540605 157 159 158
-215.343348620289 436.984559491231 2439.39407958273 125 127 126
-208.441207186999 437.404587626118 2443.00038910778 128 130 129
-201.204063111668 437.304666892619 2443.48900937829 138 140 139
-193.977395554464 437.204634480253 2443.97381470998 141 143 142
-186.971084540388 437.451891583629 2446.53812656284 129 129 127
-180.067401584309 437.873349656387 2450.14510407211 119 114 108
-172.459451629366 437.078426643361 2446.44953375728 78 71 65
-164.492895621524 435.587190837052 2438.56524132154 121 108 99
-156.577212032473 434.094502826415 2430.66235545443 121 107 94
-149.635071020787 434.341455487917 2433.20332896494 133 114 99
-142.423751548256 434.066289944213 2432.60278744921 128 109 92
-135.140650616451 433.616716589766 2430.94861124809 129 108 91
-127.454469468431 432.295071352817 2424.04180021317 129 110 95
-119.81396618863 430.972296026159 2417.11830742624 123 106 90
-112.776296254709 430.870282828933 2417.53454767556 98 82 69
-105.90262844971 431.117656150759 2420.05067403809 91 75 62
-99.7738238678577 433.113011761223 2433.09437696384 97 81 66
-92.874326657601 433.362526020663 2435.62004965648 96 80 65
-85.6275225534586 432.737967347377 2432.87267199033 82 66 53
-77.6701811927372 430.187943669502 2418.50529825646 89 75 64
-68.7645191232598 424.833849813796 2387.20499645708 150 137 128
-61.9368171459944 424.905740833908 2388.6243707456 162 149 141
-1551.48505604182 470.992090637632 2519.6721782506 250 255 235
-1529.09571469143 466.986841356326 2497.63900093297 255 255 239
-1536.71658578799 472.337238660438 2529.40609093697 250 248 233
-1513.46748306209 468.013426847602 2505.52814868835 237 235 222
-1501.20993740549 467.120349722571 2501.38143274558 216 216 206
-1490.46265203618 466.694350433843 2499.92089300437 215 216 208
-1480.7152174995 466.579757625316 2500.25393280314 201 203 200
-1467.10175119038 465.211619317385 2493.36410661187 192 196 195
-1452.09574986959 463.370638636583 2483.7443866513 189 195 195
-1435.72050327756 461.055878002074 2471.38674875264 195 200 203
-1423.72782390494 460.149233701409 2467.14277327693 180 185 189
-1408.92588617366 458.298418107813 2457.44842159617 171 176 180
-1394.19431529521 456.443972884495 2447.72797482858 185 190 194
-1378.59403498218 454.271837108819 2436.16633439337 187 190 195
-1364.94327098594 452.725098514051 2428.20977363299 181 184 189
-1350.88827747632 451.017957063093 2419.32142574635 179 182 187
-1340.13357259282 450.410508659917 2416.78333493041 170 173 178
-1328.48959245953 449.485948931377 2412.41131217819 168 171 176
-1317.79964469192 448.874838236763 2409.84941634439 171 174 179
-1302.59502705076 446.683084426218 2398.14228228428 166 169 174
-1287.47130253157 444.487514119603 2386.40546875435 160 163 168
-1274.22593742813 442.920405981277 2378.30007443708 193 196 201
-1262.38157728146 441.824796815898 2372.9213950783 193 196 201
-1251.47086628842 441.043492843071 2369.36031322289 170 173 178
-1239.7117819804 439.943254519215 2363.95004636678 187 190 195
-1228.43712814939 438.999272294902 2359.44211373553 198 201 206
-1217.63925009239 438.211533876923 2355.83954994791 210 213 218
-1209.04668663512 438.215607237986 2356.82874580767 182 185 190
-1199.16914622191 437.742217831604 2355.04861940105 170 173 178
-1190.17440435181 437.584988141567 2355.1049606663 180 183 188
-1179.06265960267 436.631528795775 2350.53737628895 187 190 195
-1169.26252357702 436.153149097377 2348.72874943596 183 186 191
-1158.64490623642 435.354733154304 2345.05988452415 184 187 192
-1149.73725172531 435.191777435904 2345.08415164338 189 192 197
-1141.26061825488 435.187032343623 2346.03056041885 176 179 184
-1129.89855711665 434.064369737649 2340.47434818728 175 179 182
-1120.22606859889 433.577904684701 2338.61873214802 171 175 178
-1110.57875314154 433.089846620575 2336.75410390058 170 174 177
-1102.58011803669 433.239703344895 2338.60505911024 172 176 179
-1092.56936660415 432.588768564732 2335.79338095021 173 177 180
-1083.39049239612 432.256281342391 2334.83684471071 176 180 183
-1073.43515066917 431.601930478003 2332.00477637474 170 174 177
-1064.30141858237 431.266323031714 2331.03134857618 168 172 175
-1053.61539282992 430.2877100272 2326.30718661597 173 177 180
-1041.79820711479 428.825311403861 2318.75759213524 184 188 191
-1026.54485601616 425.914355623169 2302.74742057827 189 193 196
-1015.24801169427 424.606035472232 2296.08694823247 187 191 194
-1004.3849002307 423.455774104889 2290.3473664757 189 193 196
-993.947876617496 422.464048955203 2285.53148904961 191 195 198
-981.662673619002 420.664873498593 2275.99316569408 191 195 198
-968.693366344447 418.540270565263 2264.54573661554 193 197 200
-956.173242770117 416.573301228838 2254.0135521739 195 199 202
-944.834776636428 415.086787991847 2246.28794709983 198 202 205
-935.757813167036 414.565958581442 2244.21361590549 198 202 205
-927.071260810218 414.205178793304 2243.0760659293 202 206 209
-918.767457062743 414.004569434065 2242.87809036149 211 215 218
-911.198591473179 414.126150297434 2244.57050640237 208 212 215
-902.920186284772 413.923297734978 2244.36313333095 208 211 216
-896.076164548792 414.367019076058 2247.95011347756 208 211 216
-887.818128973126 414.162179401078 2247.73518943005 211 214 219
-880.27472999226 414.280309673232 2249.41834644825 211 214 219
-870.653869736614 413.424312913766 2245.38272338501 209 212 217
-862.447081754387 413.215610606305 2245.1491420257 204 207 212
-854.939480963183 413.330509414596 2246.81879409285 217 220 225
-848.794748900074 414.094777030041 2252.308994243 223 226 231
-840.950556972525 414.045901258423 2253.02228352472 216 219 224
-833.450873777718 414.158763631067 2254.68890517943 209 212 217
-824.297817545483 413.456621921863 2251.56173049829 206 209 214
-815.833970022013 413.078622575635 2250.34196424943 203 206 213
-806.73748755702 412.37313839264 2247.19398199907 202 205 212
-797.671949501619 411.666014300996 2244.03488705413 202 205 210
-789.280199136546 411.28330532043 2242.78831554536 203 206 211
-780.909192834476 410.899355076192 2241.53436758941 203 206 211
-772.875246826037 410.677539484937 2241.23674252657 208 211 216
-764.543091273577 410.290879857387 2239.96847420697 206 209 214
-756.23166149127 409.902993372349 2238.69258286837 208 211 216
-748.249685432806 409.677419712824 2238.37579161875 208 212 215
-741.201846679142 409.942021474692 2240.95650074114 203 207 210
-733.850743663073 410.042214953754 2242.56843605408 203 207 210
-726.806113877876 410.305619370761 2245.14788889613 212 213 215
-719.16485099412 410.240191496374 2245.78594324751 194 195 197
-713.309756605523 411.159037918283 2252.24912660856 183 184 186
-706.261159165885 411.42098949695 2254.8299114295 224 225 227
-699.50376239972 411.846689336347 2258.38380341509 234 235 237
-692.453434552961 412.107577056562 2260.9651366881 217 218 220
-685.689316389303 412.532453953551 2264.52166302275 215 216 218
-680.053065821831 413.615553928821 2271.98428163536 186 187 189
-673.83055811421 414.369700172585 2277.50197692433 180 181 183
-667.03714889113 414.794068047622 2281.0688530891 225 226 228
-659.412704245405 414.723443258254 2281.70065893272 247 248 250
-652.617795334649 415.146857361698 2285.26800802675 227 228 232
-646.35904098604 415.900216760128 2290.79881371289 206 207 211
-640.353300680965 416.818816810557 2297.31671380369 206 207 211
-634.32775124747 417.737820029247 2303.84209601972 185 186 190
-628.282279178332 418.656900923605 2310.37446843296 179 180 184
-620.916189020028 418.748880138535 2311.99097505291 201 202 206
-613.040733157025 418.508946448926 2311.63465183402 194 195 199
-605.181143279966 418.268049072683 2311.27223688966 186 187 191
-598.095002028811 418.523368867052 2313.86616240855 178 179 183
-591.259392905626 418.944145414159 2317.4481004104 175 176 180
-583.924610626941 419.032803063343 2319.05323538974 174 175 179
-576.8404338767 419.286735941077 2321.6463424866 169 170 175
-569.75688283615 419.540346605819 2324.23919792814 164 165 170
-562.19454803176 419.461055215638 2324.84752871978 169 170 175
-554.405996902037 419.214642152021 2324.45888656327 185 186 191
-545.929567472013 418.468131733253 2321.08252026455 190 191 195
-538.876858601497 418.719048242778 2323.66396630914 192 193 197
-532.054435792322 419.136258612543 2327.24109845938 178 179 183
-525.908466603366 420.053252348304 2333.80982777092 165 166 170
-519.293983916079 420.637061755354 2338.39027956138 162 163 165
-511.782606108336 420.55350222662 2338.98002802986 162 163 165
-505.37880927644 421.303954636577 2344.56331376024 156 157 159
-498.743593754317 421.887442828797 2349.15127433204 148 152 153
-492.313104000776 422.638223816167 2354.74428339498 150 154 155
-485.021520902387 422.720309923336 2356.33322665645 141 145 146
-477.944817661014 422.969305679791 2358.92324583319 160 164 165
-470.249212566174 422.715746584651 2358.50029371218 179 183 184
-462.569649063454 422.461381904237 2358.07145229563 172 176 177
-454.704663647366 422.038658554223 2356.63072245571 174 178 179
-447.656432544271 422.285648298508 2359.21024527853 161 165 166
-440.21625348397 422.196878279937 2359.7734771232 140 144 145
-432.593249785587 421.939588534458 2359.32386470483 144 148 149
-424.986266710984 421.681613126902 2358.86837965789 143 147 148
-417.772720729383 421.758981973349 2360.42861317934 133 137 138
-410.937425860447 422.172242704296 2364.00986992049 137 141 140
-404.465043938055 422.921802411619 2369.61800783408 109 113 112
-398.340368830883 424.008374477659 2377.25860570452 122 126 125
-392.190933112116 425.095689709684 2384.90800180283 142 146 145
-385.664686482832 425.846818564482 2390.53582918198 132 136 135
-378.430222404685 425.924052091994 2392.10365282344 124 128 127
-370.346845194656 425.157892863769 2388.58299335829 136 140 139
-361.95815389727 424.053050813615 2383.01459933235 138 142 141
-354.274034063075 423.622067925797 2381.50753103891 151 155 154
-347.264153804294 423.865831857065 2384.072876167 145 149 148
-340.415655765712 424.278596206199 2387.65889266272 131 132 134
-333.562627347013 424.691537609443 2391.24656857468 126 127 129
-326.394000604082 424.766317218017 2392.79028588768 128 130 129
-319.077949011458 424.671564624843 2393.30796616699 138 139 141
-311.923360853828 424.745795584266 2394.84654133828 146 148 147
-305.070342930584 425.158915232917 2398.43422688575 146 148 147
-298.503857697038 425.91119981021 2404.07676166207 139 141 140
-291.922774572003 426.664054895186 2409.7246434463 131 133 132
-284.905812115552 426.908452920626 2412.2926096462 130 132 129
-278.027188464384 427.322751935449 2415.8896877013 112 114 111
-271.00883823792 427.567382852627 2418.45817570221 114 116 115
-263.990942453376 427.812115113252 2421.02650623383 126 128 127
-256.713018935363 427.717049763211 2421.53056385901 141 143 142
-249.44586474259 427.621577222919 2422.03042355548 145 147 146
-242.06411781324 427.355811627716 2421.49251397626 152 154 153
-234.698104880178 427.089728883446 2420.94886371589 152 154 153
-227.347763015816 426.823212345689 2420.39948683734 135 137 136
-221.188134900364 428.261573039667 2430.2126942422 130 132 131
-214.763380733468 429.360124548056 2437.96297166714 119 121 120
-207.86389155331 429.777085127044 2441.56783177178 126 128 127
-200.629877159766 429.682268953441 2442.05595436382 124 126 125
-193.513761611494 429.758166285052 2443.5804224165 125 127 126
-186.507719755057 430.005234213754 2446.14462220076 125 125 123
-179.706443522219 430.594722203603 2450.79362586464 104 101 96
-171.897903356483 429.473579018794 2445.01321119868 69 64 58
-163.838648397397 427.837768337106 2436.08488082528 92 82 72
-155.740741327951 426.028980793985 2426.09124090253 91 79 67
-149.085550358801 426.789496274593 2431.76662683869 92 76 61
-142.235989909307 427.208019123119 2435.35346383617 95 78 62
-134.424163836485 425.739737993727 2427.41468417127 82 65 49
-126.6631018197 424.270068446848 2419.45735526008 81 65 50
-118.706906890565 422.283843247132 2408.33202749761 89 75 62
-111.451968898999 421.670619552966 2405.5884604205 93 80 71
-104.914237257343 422.604412754608 2412.30079929006 93 80 71
-1566.44650725437 463.894900551719 2528.63343137572 118 115 98
-1556.52389154198 463.797992527469 2529.03145541968 151 148 131
-1538.61222636725 461.248535835134 2515.080981119 175 169 153
-1525.77322927622 460.228065670311 2510.06936007274 186 180 166
-1515.45453872082 459.972593651325 2509.53251853223 182 176 164
-1503.18514728417 459.101596803254 2505.39177259837 189 185 176
-1492.91559254954 458.843297512853 2504.83711915203 195 192 185
-1481.203236372 458.122503459046 2501.5718706675 187 187 185
-1468.0707725888 456.938089524894 2495.58769672959 184 186 185
-1452.57652193497 454.98119949816 2485.07007430498 185 190 193
-1438.11760284612 453.328969643337 2476.33263091809 185 193 196
-1426.58769923099 452.598782096608 2473.00038181169 172 179 185
-1413.66842538368 451.403832958339 2466.93795306587 163 170 176
-1398.91061867106 449.588453019742 2457.23024060548 166 171 177
-1383.28422349411 447.460705299362 2445.68118352546 176 179 186
-1371.00793972631 446.41146822556 2440.462682782 172 175 180
-1358.77681991055 445.359989661288 2435.22760315462 171 174 179
-1347.97670794635 444.770678906333 2432.7076332561 161 164 169
-1333.99051769722 443.094793081283 2423.79664484795 158 161 166
-1320.06987111371 441.415750192002 2414.86160375908 169 172 177
-1305.76044165854 439.578215637886 2404.98905309612 155 158 163
-1293.32879514131 438.358432755226 2398.74757728303 141 144 149
-1277.80311196402 436.048166225943 2386.08160017833 180 184 187
-1265.48996139183 434.822442201518 2379.79662206972 185 189 192
-1252.33901645419 433.282775912893 2371.65924619696 156 160 163
-1241.0146553353 432.362889617304 2367.17119216643 177 181 184
-1229.29153204516 431.285007075457 2361.74954610149 188 192 195
-1221.10515230986 431.452205856801 2363.67002447193 183 187 190
-1212.92321203921 431.61863561853 2365.58883179439 167 171 174
-1202.15781303693 430.847433876735 2361.97571486508 168 172 175
-1192.28501685155 430.386781812837 2360.19482575516 179 183 186
-1180.7323664421 429.29908068422 2354.7104996626 178 182 185
-1171.34339314197 428.991300318056 2353.83216448516 176 179 184
-1160.71102150501 428.212458039228 2350.17013722754 183 186 191
-1152.20645715227 428.214832957431 2351.12697725239 188 191 196
-1143.29564640952 428.059444572104 2351.15296211646 170 173 178
-1133.57283231354 427.589225074527 2349.31711130808 169 173 176
-1123.87500437026 427.117268597368 2347.47179672893 167 171 174
-1112.97738730898 426.172532202025 2342.82706988167 167 171 174
-1102.93165207567 425.539877370568 2340.02948190158 169 173 176
-1092.51300160262 424.748097051942 2336.28882552316 169 173 176
-1084.13283372849 424.741203529771 2337.19976831706 172 175 180
-1074.96638708725 424.418413987743 2336.2394483813 165 168 173
-1066.21551321026 424.251832223186 2336.20647761737 164 167 172
-1055.12186832432 423.137722408611 2330.55363930814 170 173 178
-1042.5121716868 421.389818260985 2321.13708517998 180 183 188
-1026.86578259375 418.375324825257 2304.19509646261 184 187 192
-1014.79426291308 416.778108584157 2295.66118262096 188 192 195
-1004.31470162664 415.810377819394 2290.8625711437 188 192 195
-992.35517595658 414.207474541962 2282.28753657614 187 191 194
-979.701424680525 412.284747739249 2271.80698796142 191 195 198
-965.993971558454 409.883353051169 2258.47350382993 193 197 200
-954.980815448955 408.587647576846 2251.7109087003 193 197 200
-944.758567129012 407.606571588387 2246.81805314588 197 201 204
-936.046538096876 407.258116012341 2245.69043537882 196 200 203
-927.354924532536 406.908372462759 2244.55555703121 201 205 208
-919.408229803681 406.874996165078 2245.30725889014 211 215 218
-911.831270131846 406.999573191223 2247.00284188035 209 213 216
-903.902305352702 406.964312943043 2247.74795963563 207 210 215
-896.338003971611 407.087263778655 2249.43882069476 207 210 215
-887.722737627861 406.731380215497 2248.27573926091 209 212 217
-880.176366588738 406.852366025842 2249.9601915944 209 212 217
-870.900464938266 406.174915623382 2246.87951426562 208 211 216
-862.344045929401 405.814886109624 2245.69473856643 205 208 213
-854.491698117141 405.772953030288 2246.41126071931 217 220 225
-848.345920464078 406.529102903858 2251.90122827498 223 226 231
-841.174800472653 406.805549802734 2254.52762383531 216 219 224
-833.335569120377 406.761303865162 2255.23946008211 212 215 220
-824.180353341025 406.075563764552 2252.11430757309 210 213 218
-814.397910665763 405.067487140163 2247.05936256495 205 208 215
-805.309507449723 404.377944866258 2243.90964766253 204 207 212
-796.252059121803 403.686583618602 2240.74880274754 204 207 212
-788.510775312805 403.635605392888 2241.42428870636 206 209 214
-779.50483472376 402.941172902628 2238.24424306008 208 211 216
-772.11097300923 403.048516227629 2239.87225368123 208 211 216
-764.408774133917 402.994283499575 2240.53329305843 208 211 216
-757.028237838517 403.100034113519 2242.15634188179 208 212 215
-748.110324944817 402.399898396992 2238.94388215044 208 212 215
-740.753429769216 402.503593594829 2240.55818618272 200 204 207
-732.79506025761 402.284064923609 2240.23327389212 195 199 202
-726.65766130128 403.031252325026 2245.71952091977 224 225 227
-718.715361301963 402.809964147575 2245.38863721432 214 215 217
-713.450666445178 404.041033301112 2253.79423073714 194 195 197
-706.396430497218 404.303145689353 2256.37707637325 203 204 206
-700.21459804994 405.049747096193 2261.87942354261 222 223 225
-692.865416803327 405.149224090387 2263.49035223935 226 227 229
-686.663998098898 405.895459472407 2268.99978821433 216 217 219
-681.013712618708 406.965635541184 2276.46678541367 198 199 201
-674.496989870408 407.550031179721 2281.01176157908 188 189 191
-667.41484089851 407.810078202471 2283.60459322992 203 204 206
-659.507280584692 407.582787300309 2283.26063437693 226 227 229
-652.433839263035 407.841481633259 2285.85020014882 233 234 238
-646.441830256948 408.749347984052 2292.36255557351 209 210 214
-640.697499964505 409.819878253361 2299.86349520469 209 210 214
-634.398038180795 410.565717125032 2305.40852399498 196 197 201
-628.346339824006 411.474262465084 2311.94236372795 186 187 191
-621.494983505374 411.894687915345 2315.53025109172 196 197 201
-613.351799209471 411.500418489029 2314.19249394117 195 196 200
-605.484712332062 411.267899468879 2313.83368940419 191 192 196
-598.390492604985 411.52359453417 2316.43057845155 174 175 179
-591.546640577086 411.941953840806 2320.01532902558 169 170 174
-584.698397973047 412.360008322902 2323.60165186132 171 172 176
-577.601028593756 412.614575892262 2326.19960022425 168 169 174
-570.746469283144 413.031983962875 2329.78816938392 162 163 168
-563.408415130974 413.122198726515 2331.39461064454 160 161 166
-555.602106413499 412.884578709542 2331.01308393595 164 165 170
-547.342952833529 412.318567538046 2328.63820266036 171 172 176
-539.341835627123 411.914994147632 2327.248125202 177 178 182
-532.508740429804 412.329941776675 2330.82896430425 170 171 175
-526.351563629647 413.236535083929 2337.40098103289 163 164 168
-519.950514033913 413.979376593111 2342.98269433458 165 166 168
-512.426362507683 413.901630087623 2343.57726827133 164 165 167
-505.789871645862 414.480152074356 2348.16557181905 168 169 171
-498.710644574817 414.730080191962 2350.75657834603 174 178 179
-492.274306189438 415.472931147601 2356.351114103 167 171 172
-485.18902459506 415.722381262793 2358.94428439963 157 161 162
-478.731257763168 416.465474155917 2364.54662417052 165 169 170
-471.226999977071 416.385223168968 2365.13378099725 158 162 163
-463.937601761579 416.469189099058 2366.72207224436 161 165 166
-456.050118761937 416.058064323829 2365.29039175243 158 162 163
-449.177539048366 416.470757439598 2368.88515265037 141 145 146
-442.300614216389 416.883441713581 2372.48149162588 125 129 130
-434.83852539054 416.800576178802 2373.05338391916 128 132 133
-427.960621750165 417.212822291201 2376.65004547253 126 130 131
-420.889770165138 417.459802800209 2379.23778646913 124 128 127
-414.377820444784 418.202869375548 2384.85981093249 127 131 130
-407.48441700348 418.615125724995 2388.46210491802 119 123 122
-400.405703645467 418.861877517226 2391.05268513494 119 123 122
-393.506105876853 419.274137742906 2394.65723004468 124 128 127
-385.723108202259 418.857619382138 2393.18717915562 135 139 138
-378.481027199931 418.937830424366 2394.75799496993 124 128 127
-370.390988016693 418.188010558908 2391.24098888084 133 137 136
-362.164116791814 417.271029754986 2386.69453021395 126 130 129
-354.3047717239 416.684881211741 2384.17260978923 113 117 116
-347.450268822703 417.095186714922 2387.76087685845 114 118 117
-340.430876860252 417.339262826098 2390.32970150017 132 134 133
-333.254090539457 417.41681664094 2391.87633850727 123 125 124
-326.083041422917 417.494251649611 2393.42113631374 118 120 119
-318.91781258921 417.571518744686 2394.96380672354 127 129 128
-311.607840212447 417.481947786014 2395.47966915803 134 136 135
-305.195766320982 418.392428567278 2402.14459288858 128 130 127
-299.054592263007 419.637444668986 2410.8696965404 125 127 126
-292.597994100549 420.549605974257 2417.55092440891 131 133 130
-285.140158196236 420.293589272317 2417.04165068659 131 133 130
-278.248726297957 420.705530363431 2420.64320454976 118 120 115
-271.08263056223 420.783307753246 2422.18622844017 120 122 119
-264.452393717741 421.530117581687 2427.8512591871 118 120 115
-257.157261287286 421.44078669026 2428.3620021305 125 127 122
-249.872796816289 421.351231225697 2428.86859775395 137 139 136
-242.099125792265 420.591369736585 2425.23588557504 148 150 147
-234.111447709375 419.495450402399 2419.52246162162 131 133 128
-227.723426127858 420.578557966906 2427.25848175385 119 121 116
-210.280127264565 416.032267084913 2401.25403222187 124 126 123
-206.051738321665 420.306885630427 2428.71227565544 128 130 125
-197.312682758448 417.86310294297 2414.63694410056 133 135 132
-190.584517228981 418.443673057261 2419.25845672708 131 133 130
-185.206928959551 421.212216598334 2437.42084261674 129 131 126
-164.267305680636 409.915299055689 2369.51234663081 140 137 132
-158.818823320923 412.515428535645 2386.62097335333 136 129 121
-146.053546300627 414.687846855483 2402.08931560921 132 123 114
-1598.0868918247 458.7545003423 2548.74841588994 102 99 84
-1580.96687078874 456.567345399758 2536.67101056959 142 136 122
-1566.45826742915 455.127857670409 2529.03422731466 170 163 147
-1554.02031970601 454.287090346281 2524.95700507557 173 166 150
-1540.12199123951 452.992792993241 2518.17625142187 184 175 160
-1529.2637303814 452.599537032742 2516.75850377977 180 170 158
-1517.44017810737 451.903455427459 2513.53552160671 163 155 144
-1506.14359477354 451.356310027321 2511.19886553959 165 161 152
-1495.85655874119 451.109591923252 2510.65143752421 199 196 189
-1485.58895857628 450.861637821183 2510.09685447026 173 173 171
-1475.82551815458 450.76368999777 2510.43696569886 177 179 178
-1461.25430257155 449.151758632694 2501.74336443095 161 167 167
-1445.30945461224 447.082430566386 2490.31442106228 156 161 164
-1428.49118825268 444.706329007679 2477.04656437441 158 166 169
-1414.13662332951 443.08408449933 2468.27346764245 159 167 170
-1400.79141960618 441.761930940283 2461.28938689678 158 166 169
-1389.37936611573 441.04434812055 2457.91526946107 149 152 157
-1378.9360585404 440.62878717679 2456.34532506663 152 155 160
-1369.44605921206 440.51580557584 2456.58495055457 154 157 162
-1355.35244542955 438.880146901581 2447.71602835308 147 151 154
-1338.56887830882 436.327633663669 2433.35544304304 146 150 153
