ply
format ascii 1.0
comment KinectMotionCapture
element vertex 784
property float x
property float y
property float z
property uchar red
property uchar green
property uchar blue
end_header
-772.043347358704 -440.65722823143 2378.99994850159 9 12 5
-737.607955932617 -424.56066608429 2292.00005531311 11 14 7
-728.853404521942 -423.097312450409 2283.99991989136 15 18 11
-725.204944610596 -424.59836602211 2292.00005531311 16 19 12
-724.650204181671 -427.952498197556 2309.99994277954 15 18 11
-719.955325126648 -428.898900747299 2315.00005722046 15 18 9
-713.383615016937 -428.734064102173 2313.99989128113 14 17 8
-702.539205551147 -425.975650548935 2299.00002479553 14 17 8
-693.593204021454 -424.328982830048 2289.99996185303 15 18 9
-689.498543739319 -425.647407770157 2296.99993133545 16 19 10
-685.663521289825 -427.151679992676 2305.0000667572 16 19 10
-679.426848888397 -427.173763513565 2305.0000667572 15 18 9
-673.482000827789 -427.381455898285 2305.99999427795 16 19 10
-667.531669139862 -427.589505910873 2306.99992179871 16 19 10
-658.422648906708 -425.758957862854 2296.99993133545 14 17 8
-652.490735054016 -425.967514514923 2298.00009727478 15 18 9
-654.146313667297 -431.181401014328 2325.99997520447 15 18 9
-648.129880428314 -431.390702724457 2326.99990272522 18 21 12
-640.728652477264 -430.673331022263 2322.99995422363 20 23 14
-633.34858417511 -429.95610833168 2319.00000572205 21 24 15
-628.693819046021 -431.093126535416 2325.00004768372 20 23 14
-625.076949596405 -432.972192764282 2335.00003814697 22 23 17
-619.020581245422 -433.182686567307 2335.99996566772 22 23 17
-617.154836654663 -436.360567808151 2352.9999256134 22 23 17
-615.196466445923 -439.539015293121 2369.99988555908 21 22 16
-614.943563938141 -444.016247987747 2394.00005340576 22 23 17
-614.560127258301 -448.494136333466 2417.99998283386 24 25 19
-606.50247335434 -447.407871484756 2411.99994087219 31 32 27
-599.471807479858 -447.063684463501 2410.00008583069 13 14 9
-600.570321083069 -452.841490507126 2440.99998474121 62 62 62
-922.996699810028 -454.554796218872 2420.00007629395 10 12 9
-913.780093193054 -453.245759010315 2413.00010681152 12 14 9
-898.587107658386 -448.93205165863 2390.00010490417 12 15 8
-902.556896209717 -454.198926687241 2417.99998283386 11 14 7
-898.965001106262 -455.70981502533 2426.00011825562 9 10 2
-895.69878578186 -457.40932226181 2434.99994277954 14 15 9
-888.733565807343 -457.231193780899 2434.00001525879 16 17 11
-878.150701522827 -455.175161361694 2423.00009727478 15 16 10
-870.865881443024 -454.810410737991 2421.0000038147 16 17 12
-865.020930767059 -455.197900533676 2423.00009727478 15 18 11
-863.771796226501 -458.028346300125 2437.99996376038 14 17 10
-857.871770858765 -458.417236804962 2440.00005722046 13 16 9
-855.450391769409 -460.685551166534 2451.99990272522 9 11 6
-850.541532039642 -461.639434099197 2457.00001716614 8 10 5
-840.454518795013 -459.775596857071 2447.00002670288 7 9 4
-827.696144580841 -456.409066915512 2428.99990081787 8 10 5
-829.572021961212 -461.122810840607 2453.9999961853 8 10 7
-828.965485095978 -464.52209353447 2471.99988365173 8 10 7
-809.967160224915 -457.586497068405 2434.99994277954 7 9 6
-790.839731693268 -450.463056564331 2397.0000743866 7 9 6
-790.197610855103 -457.641363143921 2434.99994277954 8 11 4
-746.922075748444 -436.234265565872 2321.00009918213 10 13 6
-729.79199886322 -429.862439632416 2286.99994087219 12 15 8
-720.439732074738 -428.001701831818 2276.99995040894 13 16 9
-717.101752758026 -429.712802171707 2286.00001335144 13 16 9
-715.892195701599 -432.740330696106 2302.00004577637 15 18 9
-712.129950523376 -434.264540672302 2309.99994277954 16 19 10
-700.379371643066 -430.901288986206 2292.00005531311 17 20 11
-689.029037952423 -427.726060152054 2275.00009536743 17 20 11
-683.773934841156 -428.311288356781 2278.00011634827 17 20 11
-683.559358119965 -432.093411684036 2298.00009727478 17 20 11
-680.878341197968 -434.37185883522 2309.99994277954 15 18 9
-674.919724464417 -434.582382440567 2311.00010871887 17 20 11
-666.930198669434 -433.476805686951 2305.0000667572 17 20 11
-659.259498119354 -432.55940079689 2299.99995231628 16 19 10
-653.319358825684 -432.770758867264 2301.00011825562 18 21 12
-651.87281370163 -435.991734266281 2318.00007820129 21 24 15
-648.662865161896 -438.084691762924 2328.9999961853 18 21 12
-644.28985118866 -439.425736665726 2335.99996566772 17 20 11
-637.147605419159 -438.885927200317 2332.99994468689 19 22 13
-632.454633712769 -440.039426088333 2338.99998664856 21 24 15
-626.122713088989 -440.064430236816 2338.99998664856 23 24 18
-623.765110969543 -442.911893129349 2354.00009155273 22 23 17
-618.440687656403 -443.690091371536 2358.00004005432 22 23 17
-624.514937400818 -452.74817943573 2405.99989891052 18 19 13
-617.742717266083 -452.586442232132 2404.99997138977 18 19 13
-612.246096134186 -453.365743160248 2408.99991989136 20 21 15
-606.47577047348 -453.957110643387 2411.99994087219 25 26 21
-599.942326545715 -453.983932733536 2411.99994087219 21 22 17
-595.130503177643 -455.328524112701 2418.99991035461 10 10 10
-928.712368011475 -463.987857103348 2434.99994277954 16 18 15
-912.259221076965 -459.039062261581 2408.99991989136 5 7 2
-906.851708889008 -459.616988897324 2411.99994087219 12 15 8
-898.443341255188 -458.671241998672 2407.00006484985 12 15 8
-894.509971141815 -460.013002157211 2414.00003433228 15 16 8
-892.746865749359 -462.498903274536 2427.00004577637 16 17 11
-888.358592987061 -463.651716709137 2433.00008773804 17 18 12
-878.864943981171 -462.137222290039 2424.99995231628 16 17 11
-871.5740442276 -461.76689863205 2423.00009727478 15 16 11
-865.722954273224 -462.159484624863 2424.99995231628 14 17 10
-862.341940402985 -463.886946439743 2434.00001525879 14 17 10
-858.561515808105 -465.424567461014 2441.99991226196 12 15 8
-854.389667510986 -466.772317886353 2448.99988174438 10 12 7
-849.834561347961 -467.930167913437 2454.99992370605 9 11 6
-843.530476093292 -468.135744333267 2456.00008964539 8 10 5
-833.132445812225 -466.054469347 2444.9999332428 9 11 6
-832.935929298401 -469.692319631577 2463.99998664856 9 11 8
-821.906328201294 -467.230916023254 2450.99997520447 9 11 8
-801.634132862091 -459.432035684586 2410.00008583069 8 10 7
-806.988120079041 -466.312617063522 2446.00009918213 8 10 7
-795.459747314453 -463.471084833145 2430.99999427795 8 10 7
-752.052307128906 -445.586293935776 2336.99989318848 10 13 6
-736.155211925507 -439.884960651398 2306.99992179871 10 13 6
-721.369802951813 -434.755563735962 2279.99997138977 11 14 7
-713.004291057587 -433.439940214157 2273.00000190735 12 15 8
-713.073372840881 -437.273591756821 2292.99998283386 17 20 13
-713.034152984619 -441.107898950577 2312.99996376038 18 21 12
-703.108668327332 -438.84003162384 2301.00011825562 20 23 14
-690.219521522522 -434.66505408287 2279.00004386902 19 22 13
-685.853660106659 -435.830652713776 2285.00008583069 18 21 12
-682.942569255829 -437.950372695923 2296.0000038147 19 22 13
-680.856108665466 -440.642923116684 2309.99994277954 16 19 10
-674.605071544647 -440.66533446312 2309.99994277954 17 20 11
-667.19663143158 -439.925014972687 2305.99999427795 17 20 11
-662.389397621155 -440.901935100555 2311.00010871887 18 21 12
-656.418979167938 -441.116064786911 2312.00003623962 21 24 15
-651.286602020264 -441.902905702591 2315.99998474121 23 26 17
-650.588274002075 -445.743083953857 2335.99996566772 19 22 13
-648.953974246979 -449.011415243149 2352.9999256134 17 20 11
-640.946209430695 -447.891145944595 2346.99988365173 17 20 11
-633.240878582001 -446.961879730225 2342.00000762939 19 22 13
-626.900672912598 -446.986943483353 2342.00000762939 20 21 15
-621.619820594788 -447.775691747665 2345.99995613098 20 21 15
-615.267813205719 -447.801142930985 2345.99995613098 19 20 14
-619.25733089447 -460.261166095734 2411.00001335144 15 16 8
-612.473607063293 -460.096955299377 2410.00008583069 17 18 12
-604.437470436096 -458.978235721588 2404.00004386902 17 18 13
-600.661516189575 -461.105316877365 2414.99996185303 29 30 25
-596.579432487488 -463.041871786118 2424.99995231628 15 15 15
-920.720875263214 -463.255345821381 2397.0000743866 0 1 0
-930.614590644836 -471.570074558258 2440.00005722046 13 15 12
-916.419088840485 -467.709839344025 2420.00007629395 6 8 3
-898.949921131134 -462.110936641693 2391.00003242493 13 16 9
-893.956959247589 -462.890684604645 2394.99998092651 11 14 7
-893.390238285065 -465.990573167801 2411.00001335144 16 17 9
-887.220501899719 -466.192096471787 2411.99994087219 16 17 11
-882.872045040131 -467.360824346542 2417.99998283386 16 17 11
-874.505698680878 -466.404169797897 2413.00010681152 15 16 10
-861.851036548615 -463.128656148911 2395.99990844727 15 16 11
-856.429398059845 -463.719666004181 2398.9999294281 12 15 8
-859.495222568512 -468.950659036636 2426.00011825562 12 15 8
-856.087386608124 -470.70300579071 2434.99994277954 11 14 7
-852.282762527466 -472.26282954216 2443.00007820129 10 12 7
-844.973862171173 -471.890211105347 2440.99998474121 10 12 7
-844.202160835266 -475.191295146942 2457.99994468689 10 12 7
-839.590907096863 -476.366639137268 2463.99998664856 10 12 7
-833.933711051941 -476.9626557827 2467.00000762939 9 11 8
-818.87149810791 -472.145617008209 2441.99991226196 9 11 8
-803.279995918274 -466.942131519318 2414.99996185303 9 11 8
-802.351474761963 -470.246583223343 2431.99992179871 9 11 8
-808.202683925629 -477.612495422363 2470.00002861023 9 11 8
-755.251705646515 -453.864753246307 2346.99988365173 11 13 8
-748.899936676025 -453.883618116379 2346.99988365173 10 13 6
-727.678418159485 -444.813191890717 2299.99995231628 9 12 5
-719.885885715485 -443.865567445755 2295.00007629395 11 14 7
-717.406868934631 -446.20618224144 2306.99992179871 12 15 8
-711.472392082214 -446.419894695282 2308.00008773804 12 15 8
-699.726700782776 -442.95871257782 2289.99996185303 12 15 6
-690.198481082916 -440.851718187332 2279.00004386902 13 16 7
-685.53215265274 -441.840052604675 2283.99991989136 15 18 9
-681.43355846405 -443.215757608414 2290.99988937378 17 20 11
-679.065406322479 -445.752769708633 2303.99990081787 14 17 8
-673.998475074768 -446.54905796051 2308.00008773804 12 15 6
-672.092258930206 -449.474096298218 2322.99995422363 11 14 5
-666.378736495972 -449.884235858917 2325.00004768372 12 15 6
-661.789774894714 -451.068788766861 2331.00008964539 14 17 8
-658.573985099792 -453.221291303635 2342.00000762939 10 13 4
-655.019998550415 -455.180764198303 2351.99999809265 12 15 6
-650.032520294189 -456.172972917557 2357.00011253357 13 16 7
-640.921413898468 -454.262286424637 2346.99988365173 13 16 7
-634.838163852692 -454.480826854706 2348.00004959106 12 15 6
-627.678453922272 -453.925251960754 2345.00002861023 16 17 11
-623.184144496918 -455.30566573143 2351.99999809265 16 17 11
-619.700491428375 -457.460761070251 2362.99991607666 16 17 9
-615.637600421906 -459.229081869125 2371.99997901917 15 16 8
-610.159695148468 -464.896708726883 2401.00002288818 19 20 12
-604.410648345947 -465.504378080368 2404.00004386902 22 23 17
-599.888324737549 -467.080473899841 2411.99994087219 26 27 22
-599.750161170959 -472.142785787582 2437.99996376038 27 27 25
-929.167687892914 -474.079966545105 2418.99991035461 7 9 8
-926.033139228821 -475.847721099854 2427.99997329712 3 5 2
-917.549908161163 -474.872589111328 2423.00009727478 17 19 14
-902.327477931976 -470.370441675186 2400.00009536743 15 18 11
-898.802399635315 -471.944659948349 2407.99999237061 12 15 8
-890.418231487274 -470.971882343292 2403.00011634827 16 17 9
-883.165776729584 -470.58779001236 2401.00002288818 15 16 10
-883.227825164795 -474.12446141243 2418.99991035461 15 16 10
-875.582814216614 -473.545908927917 2415.99988937378 15 16 10
-863.998591899872 -470.812052488327 2401.99995040894 14 15 10
-855.704128742218 -469.842851161957 2397.0000743866 11 14 7
-856.648862361908 -473.970741033554 2417.99998283386 11 14 7
-851.855754852295 -474.963217973709 2423.00009727478 10 13 6
-847.733914852142 -476.348400115967 2430.0000667572 10 12 7
-842.190504074097 -476.950228214264 2433.00008773804 11 13 8
-840.409278869629 -479.709088802338 2447.00002670288 11 13 8
-837.190210819244 -481.684654951096 2457.00001716614 9 11 6
-832.903444766998 -483.072757720947 2463.99998664856 9 11 8
-821.537435054779 -480.344265699387 2450.00004768372 9 11 8
-812.243640422821 -478.792667388916 2441.99991226196 9 11 8
-808.602035045624 -480.574697256088 2450.99997520447 8 10 7
-818.981766700745 -490.788847208023 2503.00002098084 8 10 7
-753.94594669342 -459.451884031296 2342.99993515015 10 12 7
-741.541981697083 -455.744624137878 2323.99988174438 10 13 6
-735.568761825562 -455.959767103195 2325.00004768372 9 12 5
-727.708041667938 -454.998552799225 2319.9999332428 9 12 5
-722.051382064819 -455.410689115524 2322.00002670288 9 12 5
-712.068378925323 -453.077286481857 2309.99994277954 8 11 4
-701.539397239685 -450.35183429718 2296.0000038147 7 10 1
-691.388964653015 -447.822600603104 2282.99999237061 9 12 3
-689.712762832642 -450.786173343658 2298.00009727478 11 14 5
-686.468183994293 -452.76951789856 2308.00008773804 15 18 9
-680.516839027405 -452.98770070076 2309.00001525879 12 15 6
-674.267947673798 -453.010112047195 2309.00001525879 10 13 4
-672.937214374542 -456.368237733841 2325.99997520447 9 12 3
-672.947347164154 -460.70808172226 2348.00004959106 7 10 1
-663.469433784485 -458.573251962662 2336.99989318848 10 13 4
-659.393608570099 -460.167020559311 2345.00002861023 9 12 3
-654.16008234024 -460.976153612137 2348.99997711182 7 10 1
-646.422743797302 -460.019409656525 2344.00010108948 7 10 1
-639.804363250732 -459.847837686539 2342.99993515015 11 14 5
-632.920563220978 -459.480166435242 2341.00008010864 14 17 8
-627.117931842804 -459.897816181183 2342.99993515015 18 19 13
-622.363805770874 -461.100935935974 2348.99997711182 18 19 13
-623.870551586151 -467.015773057938 2378.99994850159 18 19 11
-616.390109062195 -466.256588697433 2375 16 17 9
-609.444618225098 -465.890109539032 2372.99990653992 17 18 10
-609.370589256287 -470.825016498566 2398.00000190735 19 20 12
-604.383707046509 -472.029894590378 2404.00004386902 30 31 25
-601.10479593277 -474.609613418579 2417.00005531311 22 23 17
-597.508668899536 -476.993292570114 2428.99990081787 22 22 20
-932.621419429779 -482.441276311874 2427.99997329712 8 10 7
-929.461598396301 -484.233051538467 2437.00003623962 17 19 14
-916.408777236938 -480.859518051147 2420.00007629395 15 17 12
-912.47284412384 -482.255637645721 2427.00004577637 10 13 6
-913.35266828537 -486.235827207565 2447.00002670288 16 19 12
-893.004655838013 -478.890478610992 2410.00008583069 18 19 11
-891.24995470047 -481.481373310089 2423.00009727478 14 15 9
-884.314179420471 -481.291025876999 2421.99993133545 14 15 9
-875.210821628571 -479.909211397171 2414.99996185303 16 17 11
-869.02391910553 -480.11776804924 2415.99988937378 16 17 12
-861.404836177826 -479.532331228256 2413.00010681152 12 15 8
-856.282830238342 -480.338573455811 2417.00005531311 12 15 8
-851.491510868073 -481.344282627106 2421.99993133545 10 13 6
-847.022950649261 -482.549488544464 2427.99997329712 10 12 7
-840.445756912231 -482.562929391861 2427.99997329712 10 12 7
-837.990641593933 -484.96213555336 2440.00005722046 10 12 7
-840.582132339478 -490.343451499939 2467.00000762939 9 11 6
-830.183207988739 -488.172620534897 2456.00008964539 9 11 8
-821.520984172821 -486.996114253998 2450.00004768372 8 10 7
-818.213522434235 -489.000558853149 2460.00003814697 8 10 7
-820.460796356201 -494.385153055191 2486.99998855591 8 10 7
-810.783267021179 -492.614060640335 2477.9999256134 8 10 7
-750.06628036499 -463.426679372787 2331.00008964539 12 14 9
-738.970816135406 -460.462868213654 2315.99998474121 15 17 12
-735.233128070831 -462.072223424912 2323.99988174438 13 16 9
-728.629469871521 -461.89272403717 2322.99995422363 10 13 6
-718.921840190887 -459.725201129913 2312.00003623962 11 14 7
-706.807971000671 -455.967128276825 2292.99998283386 13 16 9
-699.380099773407 -455.192029476166 2289.00003433228 14 17 8
-690.459609031677 -453.422844409943 2279.99997138977 14 17 8
-687.29031085968 -455.432593822479 2289.99996185303 12 15 6
-688.528299331665 -460.426300764084 2315.00005722046 10 13 4
-688.157260417938 -464.426279067993 2335.00003814697 8 11 2
-678.625464439392 -462.260782718658 2323.99988174438 10 13 4
-677.253723144531 -465.665251016617 2341.00008010864 10 13 4
-671.777427196503 -466.28525853157 2344.00010108948 8 11 2
-660.323023796082 -462.727963924408 2325.99997520447 9 12 3
-653.745830059052 -462.552756071091 2325.00004768372 8 11 2
-649.123191833496 -463.770478963852 2331.00008964539 12 15 6
-643.364667892456 -464.192688465118 2332.99994468689 14 17 8
-641.417860984802 -467.400908470154 2348.99997711182 17 20 11
-635.058343410492 -467.425853013992 2348.99997711182 17 20 11
-631.374955177307 -469.441115856171 2358.99996757507 14 15 7
-625.517547130585 -469.864636659622 2361.00006103516 15 16 8
-621.484458446503 -471.681535243988 2369.99988555908 16 17 9
-616.883099079132 -473.10084104538 2377.00009346008 18 19 11
-610.188841819763 -472.928017377853 2375.99992752075 20 21 13
-611.122608184814 -478.726983070374 2404.99997138977 23 24 16
-603.854060173035 -478.156685829163 2401.99995040894 22 23 17
-598.093271255493 -478.780895471573 2404.99997138977 23 24 18
-594.529569149017 -481.197118759155 2417.00005531311 23 23 21
-934.539139270782 -490.045934915543 2433.00008773804 15 20 14
-918.016016483307 -484.812170267105 2407.00006484985 12 17 10
-919.054985046387 -488.844484090805 2427.00004577637 20 25 18
-920.738577842712 -493.280529975891 2448.99988174438 16 21 14
-905.134856700897 -488.452076911926 2424.99995231628 21 24 17
-895.961880683899 -487.0485663414 2417.99998283386 16 19 12
-887.931704521179 -486.250162124634 2414.00003433228 16 19 12
-885.401010513306 -488.473981618881 2424.99995231628 15 18 11
-880.637526512146 -489.490002393723 2430.0000667572 13 16 9
-875.488340854645 -490.305423736572 2434.00001525879 13 14 8
-872.10339307785 -492.128789424896 2443.00007820129 13 15 10
-863.710880279541 -491.132736206055 2437.99996376038 13 15 10
-855.346441268921 -490.137338638306 2433.00008773804 12 14 9
-848.754227161407 -490.149885416031 2433.00008773804 13 15 12
-841.47047996521 -489.760130643845 2430.99999427795 12 14 11
-836.259126663208 -490.579873323441 2434.99994277954 8 10 7
-841.248512268066 -497.444689273834 2469.00010108948 8 10 7
-826.449334621429 -492.624431848526 2444.9999332428 8 10 7
-820.163488388062 -492.841750383377 2446.00009918213 8 10 7
-826.511561870575 -500.7164478302 2484.99989509583 8 10 9
-817.804038524628 -499.524861574173 2479.00009155273 7 9 8
-798.986494541168 -492.08676815033 2441.99991226196 7 9 6
-781.992077827454 -485.656380653381 2410.00008583069 8 10 5
-754.874765872955 -472.777187824249 2345.99995613098 14 16 11
-747.886121273041 -472.392559051514 2344.00010108948 17 20 13
-743.439376354218 -473.620623350143 2349.99990463257 16 19 12
-726.728081703186 -466.988921165466 2316.99991226196 14 17 10
-720.14582157135 -466.806977987289 2315.99998474121 13 16 9
-713.569104671478 -466.625422239304 2315.00005722046 13 16 7
-701.498329639435 -462.815910577774 2296.0000038147 15 18 9
-696.798264980316 -463.844478130341 2301.00011825562 14 17 8
-688.169479370117 -462.252795696259 2292.99998283386 7 10 1
-687.019467353821 -465.701460838318 2309.99994277954 8 11 4
-686.66136264801 -469.755560159683 2329.99992370605 8 11 4
-683.85899066925 -472.197502851486 2342.00000762939 9 12 5
-679.255783557892 -473.430186510086 2348.00004959106 10 13 6
-670.321106910706 -471.638709306717 2338.99998664856 11 14 7
-661.151170730591 -469.64567899704 2328.9999961853 11 14 7
-648.379743099213 -465.031147003174 2305.99999427795 13 16 9
-645.757496356964 -467.676639556885 2319.00000572205 13 16 9
-644.994795322418 -471.734404563904 2338.99998664856 16 19 12
-642.212212085724 -474.381029605865 2351.99999809265 21 24 17
-638.277471065521 -476.221352815628 2361.00006103516 17 20 13
-629.476130008698 -474.431216716766 2351.99999809265 14 17 10
-621.518015861511 -473.246306180954 2345.99995613098 16 19 12
-614.903092384338 -473.070114850998 2345.00002861023 18 21 14
-612.185657024384 -475.92031955719 2358.99996757507 18 21 12
-615.812122821808 -483.81495475769 2398.00000190735 18 21 12
-611.349880695343 -485.45578122139 2405.99989891052 21 24 15
-600.307703018188 -481.850653886795 2388.00001144409 22 23 17
-593.838751316071 -481.877535581589 2388.00001144409 25 26 20
-587.123215198517 -481.702715158463 2387.00008392334 22 22 20
-916.868627071381 -490.740090608597 2404.00004386902 23 28 21
-903.146326541901 -486.86495423317 2384.99999046326 17 22 15
-916.597902774811 -497.688621282578 2437.99996376038 16 21 14
-902.889490127563 -493.815213441849 2418.99991035461 15 18 11
-891.138195991516 -490.963310003281 2404.99997138977 15 18 11
-887.188494205475 -492.399156093597 2411.99994087219 16 19 12
-883.567094802856 -494.040071964264 2420.00007629395 16 19 12
-880.990743637085 -496.294230222702 2430.99999427795 16 19 12
-875.838041305542 -497.120141983032 2434.99994277954 16 17 11
-874.591588973999 -500.192642211914 2450.00004768372 12 14 9
-866.179287433624 -499.182671308517 2444.9999332428 11 13 8
-857.443690299988 -497.969269752502 2438.99989128113 10 12 7
-849.090337753296 -496.960669755936 2434.00001525879 11 13 8
-839.380323886871 -495.136022567749 2424.99995231628 10 12 7
-834.184348583221 -495.966285467148 2428.99990081787 7 9 6
-833.532154560089 -503.55076789856 2466.00008010864 8 10 7
-824.506402015686 -502.137064933777 2459.00011062622 8 10 7
-824.499189853668 -506.2375664711 2479.00009155273 8 10 9
-818.446218967438 -506.663024425507 2480.99994659424 7 9 8
-812.710225582123 -507.293403148651 2483.99996757507 7 9 6
-791.383624076843 -498.12114238739 2438.99989128113 7 9 4
-755.500197410584 -479.553878307343 2348.00004959106 11 13 8
-747.867584228516 -478.755116462708 2344.00010108948 15 18 11
-738.358795642853 -476.731330156326 2334.00011062622 16 19 12
-727.022469043732 -473.482221364975 2318.00007820129 15 18 11
-714.840233325958 -469.620525836945 2299.00002479553 17 20 13
-710.466682910919 -470.865935087204 2305.0000667572 16 19 10
-708.199441432953 -473.541885614395 2318.00007820129 12 15 6
-701.016783714294 -472.949713468552 2315.00005722046 10 13 4
-694.750845432281 -472.970873117447 2315.00005722046 9 12 3
-689.377009868622 -473.605304956436 2318.00007820129 9 12 5
-684.576213359833 -474.648743867874 2322.99995422363 10 13 6
-678.872466087341 -475.07980465889 2325.00004768372 13 16 9
-676.62912607193 -477.963268756866 2338.99998664856 14 17 10
-670.297801494598 -477.986395359039 2338.99998664856 14 17 10
-660.275936126709 -475.353062152863 2325.99997520447 14 17 10
-648.075044155121 -471.084803342819 2305.0000667572 18 21 14
-645.455121994019 -473.765522241592 2318.00007820129 21 24 17
-641.937077045441 -475.833505392075 2328.00006866455 19 22 15
-644.098579883575 -482.194572687149 2358.99996757507 12 15 8
-636.90048456192 -481.606304645538 2355.99994659424 12 15 8
-630.253732204437 -481.427133083344 2355.00001907349 15 18 11
-619.638204574585 -478.181600570679 2338.99998664856 16 19 12
-615.401804447174 -479.842662811279 2346.99988365173 18 21 14
-614.495158195496 -484.16206240654 2368.00003051758 18 21 12
-613.731205463409 -488.68665099144 2390.00010490417 19 22 13
-608.528137207031 -489.735633134842 2394.99998092651 22 25 16
-601.537764072418 -489.35341835022 2392.99988746643 20 21 15
-590.827763080597 -485.903799533844 2375.99992752075 19 20 15
-583.898782730103 -485.521614551544 2374.00007247925 19 20 15
-915.721535682678 -496.651887893677 2401.00002288818 17 22 15
-916.017651557922 -500.378251075745 2418.99991035461 12 17 10
-908.322155475616 -499.761641025543 2415.99988937378 20 23 16
-902.137577533722 -499.973326921463 2417.00005531311 18 21 14
-890.761494636536 -497.289806604385 2404.00004386902 15 18 11
-887.917101383209 -499.364912509918 2414.00003433228 15 18 11
-883.92436504364 -500.820279121399 2421.0000038147 14 17 10
-882.794082164764 -503.93146276474 2436.00010871887 13 16 9
-880.864083766937 -506.629645824432 2448.99988174438 13 14 8
-869.583606719971 -503.950119018555 2436.00010871887 11 13 8
-861.562848091125 -503.133058547974 2431.99992179871 10 12 7
-855.3227186203 -503.351211547852 2433.00008773804 9 11 6
-846.63599729538 -502.12174654007 2427.00004577637 10 12 7
-835.905909538269 -499.65164065361 2414.99996185303 9 11 6
-835.544347763062 -503.389120101929 2433.00008773804 7 9 6
-845.648109912872 -513.541519641876 2482.00011253357 8 10 7
-846.022963523865 -517.901599407196 2503.00002098084 8 10 7
-841.925859451294 -519.572615623474 2510.99991798401 9 11 8
-826.810717582703 -514.415919780731 2486.00006103516 9 11 10
-828.32533121109 -519.606053829193 2510.99991798401 7 9 8
-818.908631801605 -517.96817779541 2503.00002098084 7 9 6
-738.915741443634 -479.322552680969 2315.99998474121 16 19 12
-738.656342029572 -483.273327350616 2335.00003814697 17 20 13
-731.080651283264 -482.46443271637 2331.00008964539 14 17 10
-722.593903541565 -481.034874916077 2323.99988174438 17 20 13
-709.830284118652 -476.707816123962 2302.99997329712 16 19 10
-706.651389598846 -478.797882795334 2312.99996376038 10 13 4
-698.876321315765 -477.783441543579 2308.00008773804 8 11 2
-696.229994297028 -480.288565158844 2319.9999332428 9 12 3
-692.923963069916 -482.380270957947 2329.99992370605 10 13 6
-682.196795940399 -479.29659485817 2315.00005722046 12 15 8
-673.88641834259 -477.869391441345 2308.00008773804 15 18 11
-671.399354934692 -480.583548545837 2321.00009918213 16 19 12
-666.262626647949 -481.434673070908 2325.00004768372 16 19 12
-659.684777259827 -481.250762939453 2323.99988174438 16 19 12
-649.738490581512 -478.582173585892 2311.00010871887 19 22 15
-644.595801830292 -479.434251785278 2315.00005722046 20 23 16
-639.155507087708 -480.079621076584 2318.00007820129 17 20 13
-638.067066669464 -484.039098024368 2336.99989318848 10 13 6
-635.794162750244 -487.170845270157 2351.99999809265 12 15 8
-624.340951442719 -483.260303735733 2332.99994468689 15 18 11
-622.261881828308 -486.599922180176 2348.99997711182 16 19 12
-621.144592761993 -490.768760442734 2368.99995803833 17 20 13
-618.101954460144 -493.487983942032 2381.99996948242 19 22 13
-609.852969646454 -492.063999176025 2375 19 22 13
-607.231080532074 -495.198369026184 2390.00010490417 20 23 14
-597.237706184387 -492.324143648148 2375.99992752075 22 23 17
-591.298282146454 -492.765307426453 2378.00002098084 21 22 17
-583.625793457031 -491.756021976471 2372.99990653992 22 23 18
-578.655481338501 -493.026465177536 2378.99994850159 17 17 15
-931.844711303711 -508.413910865784 2426.00011825562 7 12 5
-917.626261711121 -504.224181175232 2405.99989891052 9 14 7
-912.606358528137 -505.065083503723 2410.00008583069 16 21 14
-909.445881843567 -506.954610347748 2418.99991035461 7 10 3
-902.132630348206 -506.539881229401 2417.00005531311 12 15 8
-894.090414047241 -505.706787109375 2413.00010681152 8 11 4
-886.806964874268 -505.293667316437 2411.00001335144 9 12 5
-882.821440696716 -506.767630577087 2417.99998283386 10 13 6
-892.5701379776 -516.206681728363 2463.00005912781 11 14 7
-881.933927536011 -513.909935951233 2451.99990272522 12 13 7
-866.717875003815 -508.889138698578 2427.99997329712 10 12 7
-858.009576797485 -507.641673088074 2421.99993133545 9 11 6
-850.38959980011 -507.023692131042 2418.99991035461 8 10 5
-843.135535717011 -506.616055965424 2417.00005531311 8 10 5
-837.623834609985 -507.257103919983 2420.00007629395 9 11 6
-833.813786506653 -508.947014808655 2427.99997329712 8 10 5
-845.974326133728 -520.489811897278 2483.00004005432 9 11 8
-851.415634155273 -528.05107831955 2519.00005340576 9 11 8
-838.556885719299 -524.293184280396 2500.99992752075 9 11 8
-826.129078865051 -520.745396614075 2483.99996757507 9 11 8
-824.679613113403 -524.116337299347 2500 8 10 7
-824.452638626099 -528.326749801636 2519.99998092651 8 10 7
-809.841692447662 -523.312866687775 2496.00005149841 6 8 3
-741.769134998322 -487.495839595795 2325.00004768372 19 22 15
-737.37233877182 -488.772183656693 2331.00008964539 18 21 14
-732.629597187042 -489.839404821396 2335.99996566772 14 17 10
-723.818182945251 -488.181114196777 2328.00006866455 15 18 11
-714.741885662079 -486.313343048096 2319.00000572205 14 17 8
-704.798102378845 -483.816772699356 2306.99992179871 11 14 5
-697.341680526733 -482.998251914978 2302.99997329712 12 15 6
-695.008456707001 -485.745549201965 2315.99998474121 14 17 8
-690.523386001587 -487.025290727615 2322.00002670288 18 21 14
-681.585550308228 -485.15921831131 2312.99996376038 18 21 14
-672.40434885025 -483.083546161652 2302.99997329712 19 22 15
-668.484032154083 -484.783977270126 2311.00010871887 19 22 15
-660.795032978058 -483.757704496384 2305.99999427795 20 23 16
-655.971586704254 -484.829664230347 2311.00010871887 21 24 17
-649.433791637421 -484.643131494522 2309.99994277954 15 18 11
-644.015073776245 -485.296159982681 2312.99996376038 11 14 7
-634.719729423523 -483.011990785599 2302.00004577637 11 14 7
-635.585427284241 -488.491773605347 2328.00006866455 12 15 8
-631.17390871048 -489.985257387161 2335.00003814697 15 18 11
-632.076323032379 -495.676249265671 2361.99998855591 16 19 12
-626.474678516388 -496.331214904785 2365.00000953674 16 19 12
-622.953951358795 -498.665571212769 2375.99992752075 17 20 13
-619.373202323914 -501.00040435791 2387.00008392334 19 22 13
-615.989148616791 -503.545463085175 2398.9999294281 20 23 14
-602.377235889435 -497.694700956345 2371.00005149841 19 22 13
-598.467886447906 -499.820381402969 2381.00004196167 21 22 16
-593.509256839752 -501.106739044189 2387.00008392334 19 20 14
-590.23916721344 -503.862977027893 2400.00009536743 21 22 17
-916.863560676575 -506.727874279022 2387.00008392334 0 5 0
-914.573311805725 -509.064078330994 2398.00000190735 10 15 8
-916.768968105316 -513.948798179626 2421.0000038147 13 18 11
-912.82594203949 -515.437841415405 2427.99997329712 13 16 9
-909.219622612 -517.140090465546 2436.00010871887 12 15 8
-899.642884731293 -515.446543693542 2427.99997329712 10 13 6
-892.317891120911 -515.027642250061 2426.00011825562 12 15 8
-889.386177062988 -517.157137393951 2436.00010871887 12 15 8
-888.938248157501 -520.773649215698 2453.00006866455 13 16 9
-876.170337200165 -517.172753810883 2436.00010871887 14 15 9
-870.278000831604 -517.606317996979 2437.99996376038 10 13 6
-862.60461807251 -516.979157924652 2434.99994277954 9 12 5
-851.433157920837 -514.229536056519 2421.99993133545 7 9 4
-848.356306552887 -516.363978385925 2431.99992179871 8 10 5
-848.687171936035 -520.622491836548 2451.99990272522 9 11 6
-845.476448535919 -522.758543491364 2461.99989318848 8 10 5
-845.960140228271 -527.231216430664 2483.00004005432 9 11 6
-848.696649074554 -533.1911444664 2510.99991798401 9 11 6
-841.223657131195 -532.781660556793 2509.0000629425 9 11 8
-824.450016021729 -526.42685174942 2479.00009155273 9 11 8
-821.034252643585 -528.566777706146 2489.00008201599 8 10 7
-819.527685642242 -531.981647014618 2505.00011444092 8 10 7
-812.094807624817 -531.574547290802 2503.00002098084 6 8 3
-743.665456771851 -495.080590248108 2331.00008964539 17 20 13
-735.455989837646 -493.824303150177 2325.00004768372 19 22 15
-728.847146034241 -493.630349636078 2323.99988174438 15 18 11
-726.285994052887 -496.198326349258 2335.99996566772 16 19 12
-716.571390628815 -493.881285190582 2325.00004768372 15 18 9
-709.665894508362 -493.476301431656 2322.99995422363 15 18 9
-697.62396812439 -489.460319280624 2303.99990081787 16 19 10
-692.286789417267 -490.118265151978 2306.99992179871 17 20 11
-687.528073787689 -491.201549768448 2312.00003623962 18 21 14
-679.501056671143 -489.948242902756 2305.99999427795 18 21 14
-672.090351581573 -489.120125770569 2302.00004577637 16 19 12
-668.750822544098 -491.267114877701 2312.00003623962 16 19 12
-659.912705421448 -489.37726020813 2302.99997329712 18 21 14
-652.542412281036 -488.550037145615 2299.00002479553 19 22 15
-646.880269050598 -488.998115062714 2301.00011825562 14 17 10
-644.548237323761 -491.996914148331 2315.00005722046 12 15 8
-639.658689498901 -493.083387613297 2319.9999332428 13 16 9
-632.284820079803 -492.257416248322 2315.99998474121 16 19 12
-631.149113178253 -496.320366859436 2335.00003814697 16 19 12
-628.304779529572 -499.108612537384 2348.00004959106 17 20 13
-623.270571231842 -500.196695327759 2352.9999256134 16 19 12
-619.257688522339 -502.135574817657 2361.99998855591 17 20 13
-615.714430809021 -504.499912261963 2372.99990653992 20 23 14
-613.394975662231 -507.92783498764 2388.99993896484 21 24 15
-608.448028564453 -509.230017662048 2394.99998092651 17 20 11
-596.179127693176 -504.366219043732 2371.99997901917 22 23 17
-591.493308544159 -505.881369113922 2378.99994850159 22 23 18
-926.081657409668 -518.375337123871 2411.00001335144 14 19 12
-915.716052055359 -516.225874423981 2401.00002288818 15 20 13
-911.84389591217 -517.732501029968 2407.99999237061 14 19 12
-910.942912101746 -520.960092544556 2423.00009727478 15 18 11
-907.349169254303 -522.683560848236 2430.99999427795 16 19 12
-903.343141078949 -524.192988872528 2437.99996376038 15 18 11
-900.403797626495 -526.348292827606 2447.99995422363 19 22 15
-892.300248146057 -525.494396686554 2444.00000572205 18 21 14
-884.944319725037 -525.071322917938 2441.99991226196 11 14 7
-879.758715629578 -525.939285755157 2446.00009918213 11 12 6
-873.481512069702 -526.162922382355 2447.00002670288 9 12 5
-862.594604492188 -523.591935634613 2434.99994277954 9 12 5
-863.023221492767 -527.902722358704 2454.99992370605 10 13 6
-860.204994678497 -530.279219150543 2466.00008010864 9 12 5
-859.058499336243 -533.731639385223 2482.00011253357 9 12 5
-852.331638336182 -533.744275569916 2482.00011253357 7 9 4
-842.198669910431 -531.607031822205 2471.99988365173 9 11 6
-842.260241508484 -535.922169685364 2492.00010299683 9 11 6
-831.820487976074 -533.571183681488 2480.99994659424 10 12 9
-826.762199401855 -534.661948680878 2486.00006103516 9 11 8
-827.28499174118 -539.409637451172 2507.99989700317 8 10 7
-811.331689357758 -533.404171466827 2480.00001907349 8 10 7
-807.53481388092 -535.357236862183 2489.00008201599 6 8 3
-748.752176761627 -504.848837852478 2346.99988365173 14 17 10
-731.641948223114 -497.553020715714 2312.99996376038 19 22 15
-723.497211933136 -496.280521154404 2306.99992179871 17 20 13
-722.535848617554 -499.956279993057 2323.99988174438 18 21 14
-719.325542449951 -502.126932144165 2334.00011062622 16 19 10
-712.395310401917 -501.716434955597 2332.00001716614 17 20 11
-700.328588485718 -497.648805379868 2312.99996376038 19 22 13
-692.866146564484 -496.808707714081 2309.00001525879 17 20 11
-683.938562870026 -494.893044233322 2299.99995231628 16 19 12
-676.827609539032 -494.268715381622 2296.99993133545 15 18 11
-670.024871826172 -493.85991692543 2295.00007629395 12 15 8
-667.282283306122 -496.464163064957 2306.99992179871 12 15 8
-663.328528404236 -498.208254575729 2315.00005722046 15 18 11
-653.370976448059 -495.433211326599 2302.00004577637 16 19 12
-647.700369358063 -495.88668346405 2303.99990081787 13 16 9
-647.308707237244 -500.430047512054 2325.00004768372 15 18 11
-640.461802482605 -500.023365020752 2322.99995422363 16 19 12
-635.263562202454 -500.908493995667 2326.99990272522 16 19 12
-626.25926733017 -498.780220746994 2316.99991226196 15 18 11
-623.730838298798 -501.818716526031 2331.00008964539 17 20 13
-619.537055492401 -503.566026687622 2338.99998664856 16 19 12
-613.464295864105 -503.806591033936 2339.99991416931 19 22 15
-606.347978115082 -503.186166286469 2336.99989318848 21 24 15
-603.868961334229 -506.441712379456 2351.99999809265 21 24 15
-600.800216197968 -509.267151355743 2365.00000953674 17 20 11
-595.147252082825 -509.939551353455 2368.00003051758 20 21 15
-590.223431587219 -511.258244514465 2374.00007247925 22 23 18
-585.266590118408 -512.5772356987 2380.00011444092 21 22 17
-923.008978366852 -523.186445236206 2403.00011634827 14 19 12
-915.333807468414 -522.533357143402 2400.00009536743 15 20 13
-911.842107772827 -524.27613735199 2407.99999237061 14 19 12
-906.052708625793 -524.713575839996 2410.00008583069 15 18 11
-901.746928691864 -526.022791862488 2415.99988937378 16 19 12
-903.709053993225 -531.034350395203 2438.99989128113 17 20 13
-906.651139259338 -536.700069904327 2464.99991416931 16 19 12
-898.135423660278 -535.617172718048 2460.00003814697 14 17 10
-884.937226772308 -531.704545021057 2441.99991226196 9 12 5
-873.636245727539 -528.881311416626 2428.99990081787 10 11 5
-864.905714988709 -527.583003044128 2423.00009727478 10 13 6
-859.042584896088 -528.027415275574 2424.99995231628 10 13 6
-859.145998954773 -532.174348831177 2444.00000572205 10 13 6
-863.681972026825 -539.152979850769 2476.0000705719 10 13 6
-859.392464160919 -540.688693523407 2483.00004005432 10 13 6
-850.258409976959 -539.17670249939 2476.0000705719 9 11 6
-840.822398662567 -537.447452545166 2467.99993515015 10 12 7
-832.782566547394 -536.589980125427 2463.99998664856 9 11 6
-828.452944755554 -538.128674030304 2470.99995613098 9 11 6
-822.090804576874 -538.361489772797 2471.99988365173 9 11 8
-816.053748130798 -538.812756538391 2473.99997711182 8 10 7
-815.894782543182 -543.184876441956 2493.99995803833 8 10 7
-807.192862033844 -541.895151138306 2487.99991607666 7 9 4
-814.931929111481 -551.714241504669 2532.99999237061 6 8 3
-732.256829738617 -504.266023635864 2315.00005722046 13 16 9
-722.851753234863 -502.105712890625 2305.0000667572 12 15 8
-712.257504463196 -499.074250459671 2290.99988937378 9 12 5
-721.155107021332 -509.767651557922 2339.99991416931 9 12 3
-712.680876255035 -508.26233625412 2332.99994468689 9 12 3
-699.702918529511 -503.489375114441 2311.00010871887 10 13 4
-689.24480676651 -500.459432601929 2296.99993133545 11 14 5
-680.646777153015 -498.736977577209 2289.00003433228 15 18 11
-675.922393798828 -499.84735250473 2293.99991035461 18 21 14
-673.506498336792 -502.701461315155 2306.99992179871 18 21 14
-670.152485370636 -504.902482032776 2316.99991226196 17 20 13
-660.727322101593 -502.527713775635 2305.99999427795 14 17 10
-658.456921577454 -505.601346492767 2319.9999332428 13 16 9
-654.142796993256 -507.149934768677 2326.99990272522 15 18 11
-650.347471237183 -509.134948253632 2335.99996566772 15 18 11
-645.124733448029 -510.030627250671 2339.99991416931 16 19 12
-633.328378200531 -505.695343017578 2319.9999332428 17 20 13
-626.775443553925 -505.501687526703 2319.00000572205 17 20 13
-623.973548412323 -508.360028266907 2332.00001716614 19 22 15
-619.511842727661 -509.911000728607 2338.99998664856 19 22 15
-612.914681434631 -509.718179702759 2338.00005912781 19 22 15
-606.063008308411 -509.307503700256 2335.99996566772 18 21 12
-603.843092918396 -512.821733951569 2351.99999809265 18 21 12
-599.75790977478 -514.810144901276 2361.00006103516 16 19 10
-596.377313137054 -517.453014850616 2372.99990653992 21 22 16
-585.970461368561 -513.990461826324 2357.00011253357 19 20 15
-584.747910499573 -518.596708774567 2378.00002098084 17 18 13
-582.924723625183 -522.767424583435 2397.0000743866 18 18 16
-914.943397045136 -525.088727474213 2381.99996948242 12 17 10
-916.477799415588 -529.71750497818 2403.00011634827 16 21 14
-910.326242446899 -529.938399791718 2404.00004386902 15 20 13
-903.794825077057 -529.939830303192 2404.00004386902 17 20 13
-897.638261318207 -530.162692070007 2404.99997138977 18 21 14
-891.107261180878 -530.16597032547 2404.99997138977 15 18 11
-892.301619052887 -534.799575805664 2426.00011825562 12 15 8
-894.843637943268 -540.315806865692 2450.99997520447 9 12 5
-887.46702671051 -539.880990982056 2448.99988174438 9 12 5
-873.269081115723 -535.25847196579 2427.99997329712 10 11 5
-865.968286991119 -534.825265407562 2426.00011825562 11 14 7
-860.450446605682 -535.495042800903 2428.99990081787 11 14 7
-860.190629959106 -539.472818374634 2447.00002670288 10 13 6
-860.182881355286 -543.671846389771 2466.00008010864 10 13 6
-853.843033313751 -543.903350830078 2467.00000762939 11 14 7
-847.498834133148 -544.135570526123 2467.99993515015 11 14 7
-838.424563407898 -542.604744434357 2460.99996566772 10 12 7
-834.458649158478 -544.381856918335 2469.00010108948 9 11 6
-831.791043281555 -547.041714191437 2480.99994659424 9 11 6
-827.729105949402 -548.820436000824 2489.00008201599 9 11 6
-809.111058712006 -540.89766740799 2453.00006866455 8 10 5
-815.878212451935 -549.954473972321 2493.99995803833 8 10 5
-812.69097328186 -552.396953105927 2505.00011444092 8 10 5
-806.54913187027 -552.855432033539 2506.99996948242 7 9 4
-804.225027561188 -555.960953235626 2520.99990844727 8 10 5
-722.833633422852 -508.360922336578 2305.0000667572 9 12 5
-710.684716701508 -504.188537597656 2286.00001335144 9 12 5
-708.808720111847 -507.294952869415 2299.99995231628 9 12 3
-707.162618637085 -510.622620582581 2315.00005722046 11 14 5
-699.380159378052 -509.539425373077 2309.99994277954 12 15 6
-689.224481582642 -506.691873073578 2296.99993133545 14 17 8
-680.923402309418 -505.168080329895 2289.99996185303 17 20 13
-679.142355918884 -508.498013019562 2305.0000667572 19 22 15
-677.571892738342 -512.04913854599 2321.00009918213 18 21 14
-673.890292644501 -514.056622982025 2329.99992370605 14 17 10
-662.99706697464 -510.548770427704 2313.99989128113 12 15 8
-655.312240123749 -509.468078613281 2309.00001525879 13 16 9
-649.340867996216 -509.711503982544 2309.99994277954 16 19 12
-649.210333824158 -514.589309692383 2332.00001716614 16 19 12
-642.343997955322 -514.171600341797 2329.99992370605 17 20 13
-635.761141777039 -513.974845409393 2328.9999961853 18 21 14
-629.99439239502 -514.440536499023 2331.00008964539 18 21 14
-629.567623138428 -519.320547580719 2352.9999256134 19 22 15
-622.929811477661 -519.124746322632 2351.99999809265 19 22 15
-616.821527481079 -519.37073469162 2352.9999256134 17 20 13
-613.56109380722 -522.045135498047 2365.00000953674 17 20 11
-608.43825340271 -523.174643516541 2369.99988555908 16 19 10
-600.493848323822 -521.876275539398 2364.00008201599 16 19 10
-598.361432552338 -525.655567646027 2381.00004196167 21 22 16
-596.882283687592 -530.097782611847 2401.00002288818 24 25 19
-588.163554668427 -528.137564659119 2391.99995994568 22 23 18
-928.004264831543 -539.150834083557 2415.99988937378 13 18 11
-924.105763435364 -540.711879730225 2423.00009727478 17 22 15
-919.034957885742 -541.604459285736 2427.00004577637 16 21 14
-910.936236381531 -540.712714195251 2423.00009727478 17 20 13
-896.142780780792 -535.805106163025 2401.00002288818 18 21 14
-887.028098106384 -534.245789051056 2394.00005340576 11 14 7
-881.998598575592 -535.142064094543 2398.00000190735 9 12 5
-884.980797767639 -540.948927402496 2424.00002479553 9 12 5
-883.474707603455 -544.078767299652 2437.99996376038 12 15 8
-878.297328948975 -544.977903366089 2441.99991226196 12 13 7
-870.957672595978 -544.538855552673 2440.00005722046 10 13 6
-857.607901096344 -540.306627750397 2421.0000038147 10 13 6
-855.259716510773 -542.993664741516 2433.00008773804 10 13 6
-851.103365421295 -544.565618038177 2440.00005722046 10 13 6
-846.909880638123 -546.138405799866 2447.00002670288 11 14 7
-849.890530109406 -552.399039268494 2474.99990463257 12 15 8
-852.039039134979 -558.21430683136 2500.99992752075 10 12 7
-825.320065021515 -545.05842924118 2441.99991226196 9 11 6
-839.487910270691 -558.910727500916 2503.99994850159 9 11 6
-843.011379241943 -565.844893455505 2535.00008583069 9 11 6
-829.545795917511 -561.395883560181 2515.00010490417 8 10 5
-825.021684169769 -562.974333763123 2522.0000743866 8 10 5
-821.433365345001 -565.223276615143 2532.00006484985 8 10 5
-808.783531188965 -561.222314834595 2513.99993896484 8 10 5
-737.282574176788 -520.403265953064 2331.00008964539 13 16 9
-727.20605134964 -517.741680145264 2319.00000572205 14 17 10
-716.884076595306 -514.857232570648 2305.99999427795 13 16 9
-709.40637588501 -513.982594013214 2302.00004577637 13 16 7
-707.754194736481 -517.350733280182 2316.99991226196 16 19 10
-700.874209403992 -516.923725605011 2315.00005722046 17 20 11
-689.204394817352 -512.924134731293 2296.99993133545 20 23 14
-681.794941425323 -512.051105499268 2292.99998283386 18 21 14
-680.299818515778 -515.64484834671 2309.00001525879 16 19 12
-679.593801498413 -519.909262657166 2328.00006866455 14 17 10
-675.314366817474 -521.494388580322 2335.00003814697 15 18 11
-665.553331375122 -518.836319446564 2322.99995422363 16 19 12
-655.85732460022 -516.178488731384 2311.00010871887 15 18 11
-649.880230426788 -516.424536705017 2312.00003623962 18 21 14
-645.011067390442 -517.564356327057 2316.99991226196 17 20 13
-641.493141651154 -519.821584224701 2326.99990272522 17 20 13
-637.92085647583 -522.079408168793 2336.99989318848 19 22 15
-634.023785591125 -524.114191532135 2345.99995613098 20 23 16
-629.810392856598 -525.926113128662 2354.00009155273 19 22 15
-622.375130653381 -525.057256221771 2349.99990463257 19 22 15
-617.844820022583 -526.646554470062 2357.00011253357 18 21 14
-615.870237350464 -530.470550060272 2374.00007247925 17 20 11
-611.492931842804 -532.284080982208 2381.99996948242 17 20 11
-604.277849197388 -531.639814376831 2378.99994850159 18 21 12
-600.345313549042 -533.900856971741 2388.99993896484 19 20 14
-595.115303993225 -535.044968128204 2394.00005340576 21 22 17
-593.791782855988 -539.765357971191 2414.99996185303 24 25 20
-937.608897686005 -551.365256309509 2440.99998474121 17 22 15
-930.971622467041 -551.363587379456 2440.99998474121 18 23 16
-918.656170368195 -547.974824905396 2426.00011825562 16 21 14
-909.055411815643 -546.168088912964 2417.99998283386 13 16 9
-894.274413585663 -541.20010137558 2395.99990844727 12 15 8
-891.100704669952 -543.235242366791 2404.99997138977 10 13 6
-886.408448219299 -544.367849826813 2410.00008583069 10 13 6
-883.150458335876 -546.404838562012 2418.99991035461 11 14 7
-883.106648921967 -550.475776195526 2437.00003623962 12 15 8
-879.009962081909 -552.06286907196 2444.00000572205 12 13 7
-870.593190193176 -550.940215587616 2438.99989128113 10 13 6
-859.370946884155 -548.011362552643 2426.00011825562 10 13 6
-854.899108409882 -549.375116825104 2431.99992179871 11 14 7
-852.48863697052 -552.095115184784 2444.00000572205 11 14 7
-848.283529281616 -553.686559200287 2450.99997520447 11 14 7
-844.384908676147 -555.504679679871 2459.00011062622 11 14 7
-834.094226360321 -557.562053203583 2467.99993515015 9 11 6
-822.040677070618 -553.960502147675 2451.99990272522 9 11 6
-833.020269870758 -565.948486328125 2505.00011444092 9 11 6
-832.498848438263 -570.256054401398 2523.9999294281 8 10 5
-827.295303344727 -571.401357650757 2529.00004386902 8 10 5
-819.145619869232 -570.513904094696 2525.00009536743 8 10 5
-823.56458902359 -578.439176082611 2559.99994277954 8 10 5
-742.325782775879 -530.344426631927 2346.99988365173 16 19 12
-731.578528881073 -527.198314666748 2332.99994468689 18 21 14
-725.25954246521 -527.216136455536 2332.99994468689 16 19 12
-722.022354602814 -529.49446439743 2342.99993515015 16 19 10
-713.538646697998 -527.931451797485 2335.99996566772 17 20 11
-700.551807880402 -522.978663444519 2313.99989128113 18 21 12
-692.184865474701 -521.416306495667 2306.99992179871 19 22 13
-688.018560409546 -523.018538951874 2313.99989128113 18 21 14
-679.100513458252 -521.004855632782 2305.0000667572 14 17 10
-676.945209503174 -524.190366268158 2319.00000572205 11 14 7
-672.111213207245 -525.342047214508 2323.99988174438 13 16 9
-665.817677974701 -525.363922119141 2323.99988174438 13 16 9
-658.67280960083 -524.708032608032 2321.00009918213 12 15 8
-652.387201786041 -524.730622768402 2321.00009918213 17 20 13
-647.493302822113 -525.883913040161 2325.99997520447 17 20 13
-636.232078075409 -521.837472915649 2308.00008773804 18 21 14
-637.896835803986 -528.418004512787 2336.99989318848 18 21 14
-637.782990932465 -533.642828464508 2359.99989509583 19 22 15
-632.996141910553 -535.024166107178 2365.9999370575 18 21 14
-623.409628868103 -532.33540058136 2354.00009155273 18 21 14
-615.984678268433 -531.455755233765 2349.99990463257 17 20 13
-610.656321048737 -532.385647296906 2354.00009155273 18 21 12
