ply
format ascii 1.0
comment KinectMotionCapture
element vertex 776
property float x
property float y
property float z
property uchar red
property uchar green
property uchar blue
end_header
-865.652757801618 13.8124152409349 2654.91265601081 24 25 19
-874.904743465228 13.9590578851977 2659.28303769795 29 30 24
-887.155867244722 14.1481712339898 2662.83725054683 30 31 25
-897.437590896285 14.3095541994398 2666.99114144818 31 32 26
-906.739582239115 14.4572354781327 2671.45380503018 32 33 27
-911.063483332087 14.5346019233354 2677.31471341764 33 36 29
-920.388966096115 14.682710660375 2681.82071054933 33 36 29
-923.722468557429 14.7460711378493 2687.97068280237 62 67 61
-965.148477006359 15.3489294730339 2683.97352847196 46 51 45
-892.380143228097 6.57253240846309 2448.09742838749 69 70 65
-911.184501017099 6.80562567952661 2448.91285474288 3 4 0
-870.494327651687 6.37520047919557 2471.23460104434 14 15 10
-848.915446680769 6.15763936447575 2486.47049758398 25 26 21
-844.599613886199 6.13288853613717 2495.44535871962 30 31 26
-837.370383936622 6.07561228677392 2505.39656845709 32 33 27
-833.973793196289 6.06124481045181 2513.94990217461 28 31 24
-825.72485255048 5.9926251797128 2524.13757049032 24 27 20
-825.188546469692 6.01041844508401 2531.6162581386 25 28 21
-813.978985258947 5.90853190223387 2542.69370386275 25 28 21
-819.230154178933 5.99156154351613 2548.14642623944 20 23 16
-821.570345456496 6.04197451100216 2554.58042394481 25 28 21
-824.880464234254 6.10352022918056 2560.68684360647 19 22 15
-830.138777205001 6.18713530875617 2566.15338549193 26 29 22
-835.40192275441 6.27101663227134 2571.62839119129 30 33 26
-835.7843847106 6.3000129594544 2578.68543036549 19 22 15
-824.418893408882 6.19636011575983 2589.4750568327 11 14 7
-818.891624219024 6.1585460592721 2598.33273661393 18 19 13
-814.321459438091 6.13150524529535 2606.83914623841 22 23 17
-817.58773250901 6.19314927838086 2612.86495522161 18 19 13
-822.820561559195 6.27720139006091 2618.28425471466 17 18 12
-823.134053750461 6.30561277760253 2625.21427002066 19 20 14
-830.341595056105 6.41231592772848 2630.04263820879 19 20 14
-840.521021043929 6.55292237721181 2634.00213712764 19 20 14
-850.718168171264 6.6939780924011 2637.99385931071 16 17 11
-852.02328447834 6.73395786071326 2644.63633160561 20 21 15
-861.252546227946 6.86428733221231 2648.96001415696 25 26 20
-868.511622545184 6.97231322715444 2653.88356239888 26 27 21
-875.780523741011 7.08054475010503 2658.82524221938 16 19 12
-884.054441647231 7.20035829867369 2663.50351030974 25 28 21
-889.351483928365 7.28623677284371 2669.04196310455 28 31 24
-891.660417133625 7.33805017841174 2675.418892661 30 35 28
-889.970468044802 7.34393924363999 2682.88754431269 34 39 32
-894.268760762488 7.41840272872632 2688.69997700623 37 42 35
-920.601959871545 7.74576702628829 2688.58606007722 27 32 26
-931.95202417404 7.90140305903111 2692.5882965713 43 50 43
-881.801680623814 -0.716160015605399 2451.82945214628 9 10 4
-838.241535065299 -1.04656177092752 2475.24777796976 19 20 14
-855.07137997725 -0.872988498102439 2476.64341504411 22 23 17
-854.622695467467 -0.843576846037336 2484.28725286629 29 30 24
-846.458041423161 -0.878721674336475 2494.63950193973 37 38 32
-838.261581670733 -0.914276677504849 2504.93363541642 23 24 18
-835.828103033193 -0.901313630808004 2513.15172734675 21 24 15
-844.016273853185 -0.79891826917558 2517.66705290315 25 28 19
-838.659831944637 -0.810412662537757 2526.84683006217 20 23 14
-817.765502472926 -0.953380456648084 2541.24937403605 32 35 26
-819.137508079808 -0.908288807813101 2548.01590094799 26 29 20
-823.420186263146 -0.838356165907023 2553.79875739103 16 19 10
-827.704898888072 -0.768192487433234 2559.58542502044 22 25 16
-822.243982635389 -0.780840444826375 2568.57220367952 19 22 13
-824.567583432582 -0.727170236850899 2574.97717223397 25 28 19
-824.933443918856 -0.690099185866905 2582.00610652103 26 29 20
-818.440424652044 -0.711608646691592 2591.20729838117 24 27 18
-811.921106139077 -0.733519912863717 2600.36000030435 24 27 20
-815.187832060421 -0.671634132514504 2606.38671486053 23 26 19
-818.453998816321 -0.609607289036168 2612.41244343025 22 25 18
-821.719678481751 -0.547556701509772 2618.43728329219 21 24 17
-819.074401554023 -0.536316171990764 2626.26481733437 19 22 15
-828.249428586803 -0.423120157116014 2630.48410420928 19 22 15
-833.488978495597 -0.343715107321368 2635.9143671157 21 24 17
-841.699904422089 -0.238480306734096 2640.47290158267 25 28 21
-842.001409699728 -0.201582825979402 2647.38291847487 25 28 21
-845.269156833726 -0.139005365217465 2653.41171923018 24 27 20
-864.421539662044 0.0618021440693395 2654.85802227504 25 28 21
-872.679593093288 0.16819091443479 2659.50307558941 25 28 21
-876.968243243109 0.240055964027014 2665.29749668297 26 31 24
-873.285497906749 0.242312010134832 2673.32953900543 28 33 26
-869.584289205068 0.244230016497232 2681.32752217918 29 34 27
-868.862396428392 0.272103753739678 2688.46791349062 29 34 27
-889.141378273371 0.484227523341291 2689.87433689837 28 33 26
-917.478451901297 0.767614997087912 2689.20258272324 36 43 36
-909.766628079445 0.734223087294122 2698.27390117003 39 46 39
-863.956292293644 -8.02221159888225 2450.65075658336 22 23 17
-849.172965968067 -8.06119668233382 2463.63351009559 17 18 12
-836.258884550828 -8.09016309339974 2475.82806405795 13 14 8
-815.613176402636 -8.16251187479192 2490.70860033904 20 21 15
-845.899866316524 -7.95116992542558 2487.2564822328 24 25 19
-842.535485164536 -7.92707119699412 2495.88062285676 26 27 21
-830.469140004038 -7.95185327475692 2507.52027303402 19 20 14
-830.920177594069 -7.90641139167822 2514.70838082168 20 23 14
-842.004365629755 -7.80088548896254 2518.20604899247 24 27 18
-838.578318853318 -7.77704836751 2526.71669662642 22 25 16
-806.034247366234 -7.91872546108582 2545.07323907085 22 25 16
-803.50364583103 -7.8904017851357 2553.1168193194 28 31 22
-814.572460467657 -7.784322227993 2556.58688374782 25 28 19
-821.766032994234 -7.70000276085195 2561.38282955721 16 19 10
-811.417111304234 -7.71639302101676 2571.95355517981 21 24 15
-811.772049433078 -7.67123870784028 2578.96483207003 27 30 21
-817.00743267942 -7.59793986412474 2584.38559545917 23 26 17
-810.499297439538 -7.59253716840611 2593.56707934762 21 24 15
-802.004126795105 -7.59888456021349 2603.32061241589 20 23 16
-801.330309342574 -7.55986146729423 2610.55277585609 19 22 15
-815.388583651194 -7.43461876230581 2613.18186194719 20 23 16
-820.617433714303 -7.36077728486131 2618.59077280345 20 23 16
-820.923541726819 -7.31573173298897 2625.51220950576 19 22 15
-828.128517293519 -7.22997652717364 2630.32955934075 17 20 13
-829.415142169565 -7.17907873998344 2636.94130580487 19 22 15
-837.621462064451 -7.08704413159325 2641.48689511834 22 25 18
-835.933931630774 -7.05376820781897 2648.96823092751 22 25 18
-843.160325851053 -6.96731289580518 2653.82467986186 21 24 17
-848.409853770931 -6.89251800867022 2659.27241201889 21 24 17
-856.647672333328 -6.79966514798555 2663.87617918702 17 22 15
-861.910408133935 -6.7246243479355 2669.34827699452 19 24 17
-862.192736425348 -6.67953697808513 2676.22599103245 20 25 18
-866.46036080467 -6.61034305276412 2681.98043439525 22 27 20
-865.731967859801 -6.57158577029979 2689.11214362619 22 27 20
-889.014246671581 -6.38654823308379 2689.68912983218 22 27 20
-916.356206844898 -6.17607707997211 2689.28055675395 29 36 29
-914.658853330075 -6.14279995243541 2696.74382648906 38 45 38
-890.843801079241 -6.24567534399409 2710.01628433085 41 48 41
-851.46044734216 -15.174278367735 2455.12704967858 26 27 21
-837.610974132632 -15.1596323521923 2467.72865793755 19 20 14
-805.474520044008 -15.1957388749704 2486.86663036089 14 15 9
-811.692977944926 -15.1269274003596 2491.97929841698 14 15 9
-839.095174445661 -14.998701124212 2489.54147459707 19 20 14
-824.151531288634 -14.9881900047348 2502.24476504887 23 24 18
-821.705193232654 -14.9428517721463 2510.44894207156 25 26 20
-812.477757838209 -14.9168783534542 2520.98022569347 23 26 19
-800.312945942642 -14.899639154145 2532.45141429409 23 26 19
-803.610686870657 -14.8381521988152 2538.53505116351 28 31 24
-786.531379049911 -14.8358411813002 2551.53759781838 25 28 21
-788.829398135322 -14.7773329993387 2557.89646758124 74 77 70
-792.097119266857 -14.7158785330643 2563.92488280499 73 76 69
-808.028724197435 -14.6165201882692 2565.76147842567 31 34 27
-798.630907654229 -14.5923984081617 2575.97884324342 19 22 15
-794.082762243439 -14.5540612934585 2584.54541103325 15 18 11
-798.316209735431 -14.4892037446665 2590.23569283249 24 27 20
-803.53074599909 -14.421148027746 2595.61704234643 22 25 18
-800.904937839016 -14.3770606012213 2603.49076500314 20 23 16
-787.462064799403 -14.3667055360735 2614.72409538171 18 21 14
-816.252963999459 -14.2249596214318 2612.72961520067 20 23 16
-821.482379337629 -14.1561634944941 2618.13804845672 22 25 18
-821.787410690995 -14.1027697158228 2625.06001547577 23 26 19
-818.135897961096 -14.0620886432336 2633.16105547378 23 26 19
-831.268043843346 -13.9676949996767 2636.19234497245 25 28 21
-843.435622916291 -13.8759815665467 2639.56411790448 26 29 22
-845.716733761657 -13.8159611568805 2645.8923450921 25 28 21
-846.010185063228 -13.7624098304852 2652.79306166388 25 28 21
-844.308555883686 -13.715532246433 2660.25205337463 25 28 21
-839.608902103056 -13.6787924882719 2668.53948930749 21 26 19
-850.825948120442 -13.5893224779833 2672.27667916637 20 25 18
-865.05498693618 -13.4893748161156 2675.21222554379 20 25 18
-862.334647904849 -13.4461471674327 2682.91183015068 22 27 20
-863.598381959644 -13.3896407545855 2689.48265861251 24 29 22
-893.892218962809 -13.2340784820553 2688.14171047041 25 30 23
-933.277845652385 -13.0461766361188 2684.49723892541 24 29 23
-931.599350811209 -12.9988481885949 2691.99941872786 23 28 22
-910.810964699833 -13.0181538843351 2704.51869612202 28 33 27
-879.89669631046 -13.0739553677094 2719.55316166109 16 21 15
-843.74334407656 -22.2506063344833 2457.84059498316 29 30 24
-846.179369914542 -22.1888002804023 2464.4542760499 19 20 14
-830.366117028026 -22.1259183149983 2477.68874408439 16 17 11
-847.195445665039 -22.064562473304 2479.05018971434 10 11 5
-813.026334478367 -22.0021987375703 2498.70894606542 15 16 10
-824.073446542746 -21.9404558808536 2502.12525827774 23 24 18
-811.00330816718 -21.8792481232158 2514.05940810272 20 21 15
-804.65614807867 -21.8181578344127 2523.55370106712 27 30 23
-788.601628640731 -21.7582984881986 2536.34403123144 26 29 22
-784.127641281833 -21.6978044863293 2545.0531479933 24 27 20
-796.133557670986 -21.6350473203689 2548.11838178538 22 25 18
-787.7511884986 -21.5752311904679 2558.09927408999 51 54 47
-783.230383851328 -21.5149992471067 2566.72220652156 43 46 39
-791.35704050634 -21.4522186343285 2571.112987568 18 21 14
-794.617141562849 -21.3902935657465 2577.12752960546 21 24 17
-787.12856547678 -21.3310626370875 2586.63679072608 19 22 15
-786.459822668839 -21.2702344822545 2593.88484460751 26 29 22
-792.638035810771 -21.2072793131672 2598.92173410353 17 20 13
-801.766189926462 -21.1430350884824 2603.04009230047 22 25 18
-812.874117889075 -21.0776431444699 2606.56935338874 20 23 16
-812.199479743719 -21.0164715707849 2613.80666794383 21 24 17
-815.453243606615 -20.9536470025651 2619.80982522621 23 26 19
-813.775790531982 -20.8929816531483 2627.31793171678 24 27 20
-816.03476185773 -20.8306249798914 2633.60614285793 22 25 18
-836.08731470928 -20.7594354927293 2634.55374015821 23 26 19
-845.293300794175 -20.6930216930023 2638.8153937213 24 27 20
-839.644875696088 -20.6343094529671 2647.47927321919 23 26 19
-848.861435209241 -20.5675333897856 2651.76048218371 23 26 19
-853.123578258458 -20.5033996165372 2657.50382693052 23 26 19
-844.451133094052 -20.4471244675394 2666.94964753995 21 26 19
-846.707800772534 -20.3844425811947 2673.23422389651 19 24 17
-870.911551374798 -20.3072020370806 2673.35824423605 19 24 17
-873.190452007647 -20.2440485895793 2679.68385285513 21 26 19
-854.460527773862 -20.1958898129573 2691.77920186648 23 28 21
-865.720640818245 -20.1267376044681 2695.5899940846 24 26 21
-913.104060133819 -20.0297517938224 2689.70817717234 27 29 24
-918.426078680099 -19.9636937086372 2695.2861012137 31 33 28
-916.714577561691 -19.9032860828129 2702.73150964504 30 32 27
-885.795163864991 -19.8675318441153 2717.78404477642 27 29 24
-881.049716479559 -29.4083201872256 2443.93291047221 33 34 28
-857.631128908531 -29.2681681604922 2460.12292614653 21 22 16
-863.920398346951 -29.2139356041518 2465.36144533207 12 13 7
-863.99826103475 -29.0693427030666 2480.35273473295 32 33 27
-817.24244594808 -28.8677613522841 2504.39852277876 33 34 28
-811.882787073015 -28.7819140278297 2513.60115182801 30 31 25
-797.794947372202 -28.6727893259395 2525.79327666902 19 21 16
-812.712763695732 -28.6420770596848 2527.85948628702 26 28 23
-801.478725186394 -28.5412559316995 2538.95287230064 26 28 23
-795.060542296727 -28.4536828720909 2548.3245053245 26 28 23
-793.47754165958 -28.3789800169558 2556.01004418954 23 25 20
-777.277328491118 -28.2670239255765 2568.54757939075 29 31 26
-769.798602363058 -28.1780741635201 2578.08439770721 16 18 13
-782.790468941769 -28.1407761491112 2580.84051813867 12 14 9
-789.942877535378 -28.0884115836263 2585.55114645744 16 18 13
-782.424127476332 -27.999759274837 2595.01375977769 23 25 20
-784.676732551195 -27.935173952741 2601.29093242553 23 25 20
-800.664676379879 -27.9034216878379 2603.21081496115 17 20 13
-805.876770597734 -27.8453514928361 2608.5846702494 17 20 13
-826.836107038043 -27.8238133829034 2609.0697730255 20 23 16
-815.32998991277 -27.7263208095031 2619.6617559229 21 24 17
-817.595553406893 -27.6609902913395 2625.96298556115 20 23 16
-820.845653576643 -27.5977957297704 2631.95951590914 21 24 17
-841.898068676002 -27.5740579824933 2632.6169730204 22 25 18
-848.141420461584 -27.5167973502365 2637.77195188261 23 26 19
-847.450675876201 -27.4443248250603 2644.98304219591 22 25 18
-864.621434334026 -27.4101611349999 2646.96426221957 23 26 19
-868.903409097628 -27.3480346876505 2652.74297321308 25 28 21
-874.182672838193 -27.2878942291089 2658.24098806452 20 25 18
-879.466798589509 -27.2276053535019 2663.74748542779 19 24 17
-899.726404183903 -27.1974986295325 2665.06353598913 18 23 16
-891.048251470279 -27.1087650169957 2674.50912456889 20 25 18
-871.331851230851 -26.9989338787584 2686.92401419459 21 26 19
-865.582943301574 -26.917574023816 2695.40939383209 27 29 24
-883.887067283382 -26.8827104351024 2697.36049073708 23 25 20
-905.243032918763 -26.8527562087268 2698.57759777624 30 32 27
-912.563909079379 -26.7958447125461 2703.59943600523 34 36 31
-911.838223960162 -26.7239950708226 2710.74607699614 24 26 21
-890.203959469831 -36.5253403627015 2448.05449144775 32 33 27
-864.823487455521 -36.299229355074 2464.89169245027 14 15 9
-863.422527811824 -36.2092115190197 2472.91664341131 24 25 19
-840.808988009342 -36.0010063821722 2488.49245009019 35 36 30
-777.979717336169 -35.4919713821182 2525.36769389391 21 24 17
-796.733078636882 -35.5152802586098 2526.01222284448 19 21 16
-800.99577099372 -35.4584964843838 2531.75436756729 25 27 22
-802.350385199296 -35.3857239648125 2538.49773699308 22 24 19
-797.871413504106 -35.28150460747 2547.2108357953 23 25 20
-799.206850619117 -35.2087240946515 2553.9189374611 26 28 23
-789.823542439232 -35.0788676282805 2564.19478246816 23 25 20
-776.50537149378 -34.9289373698194 2575.69943594419 16 18 13
-790.484714926378 -34.9231960053854 2578.14741718162 16 18 13
-801.558779348288 -34.9015488536371 2581.60124206034 25 27 22
-804.820141253456 -34.8386928963433 2587.61838296622 16 18 13
-799.25760430092 -34.7302097393702 2596.45519358486 19 21 16
-794.653152406945 -34.6270709838417 2604.93718647831 16 19 12
-804.771662499133 -34.5992811418507 2608.75072361607 16 19 12
-812.939170565233 -34.5610676677981 2613.20924999054 20 23 16
-819.148099310684 -34.5126370826636 2618.29826322716 21 24 17
-820.430334420892 -34.4393064405744 2624.90817790394 20 23 16
-823.682955119196 -34.3757864210827 2630.90944183531 20 23 16
-837.818312599194 -34.3658532332624 2633.64562190298 21 24 17
-842.074698363274 -34.3067514667719 2639.3768647221 22 25 18
-841.373566501848 -34.2235007728649 2646.57209216636 21 24 17
-858.540015815274 -34.2267915283291 2648.53412354113 24 27 20
-876.7367870234 -34.2341233214223 2650.27458584355 25 28 21
-883.021666924741 -34.1836065337705 2655.50391446004 20 25 18
-896.293555596485 -34.1660481346779 2658.76911042087 22 25 18
-901.603403195527 -34.1103592096081 2664.32203588998 22 25 18
-894.921834450928 -33.99847586774 2673.21656495418 23 26 19
-883.209389318901 -33.8638784995548 2683.43972700867 23 26 19
-876.469058889543 -33.7531380589336 2692.22583893316 26 28 23
-877.730924987415 -33.6798155041015 2698.79879309687 26 28 23
-877.982375527032 -33.6019470801956 2705.62957528226 32 34 29
-902.372785787348 -33.6335114091431 2706.06417680752 24 25 20
-909.690759652399 -33.5872113466521 2711.07748610269 38 39 34
-952.197037879872 -44.3975604411213 2409.54187088584 26 29 22
-818.620135385638 -42.9863424901878 2481.53708178096 26 29 22
-819.079134520828 -42.8999755254457 2488.752139342 31 34 27
-870.618555653853 -43.2404653742145 2477.69210028005 37 40 33
-877.885992993809 -43.2088597517049 2482.60804476732 23 26 19
-754.68331871226 -42.0957886767453 2533.4094803708 21 26 19
-757.92478984592 -42.0346763406918 2539.38951417972 21 26 19
-795.084332169968 -42.2519490075172 2533.64382259713 21 26 19
-808.073841121505 -42.2688929282997 2536.37929522079 21 26 19
-801.655023248225 -42.1270544809364 2545.76607914862 21 26 19
-800.0745882891 -42.024876270546 2553.46510342984 21 26 19
-802.377959501979 -41.9542207209666 2559.83746970172 15 20 13
-810.53134626858 -41.9304748634963 2564.26567371387 14 19 12
-792.322632581693 -41.6954163215928 2577.37582861747 19 24 17
-800.465935601891 -41.6715246426802 2581.78553063426 22 27 20
-814.498404588309 -41.6938067782499 2584.32228793941 17 22 15
-805.021493730732 -41.5297299073885 2594.43627136955 13 18 11
-801.402373646083 -41.4124701410571 2602.62042042782 16 19 12
-818.414154768456 -41.4568947733572 2604.28511474339 19 22 15
-826.600010159936 -41.4314623275006 2608.77354166563 20 23 16
-821.982212982054 -41.306531044837 2617.23754362609 19 22 15
-824.253307710924 -41.2350780712202 2623.55078736524 20 23 16
-833.440196476509 -41.2167258535381 2627.76336858406 23 26 19
-830.765690075808 -41.1073325662386 2635.56666091837 23 26 19
-839.967043181951 -41.0885422076454 2639.80597645324 21 24 17
-833.306654164065 -40.9492554101092 2648.74769969504 20 23 16
-842.517669908124 -40.9302299240784 2653.00435304546 22 25 18
-852.738397354957 -40.9182404130605 2657.00113502799 23 26 19
-845.045769778132 -40.7720972580794 2666.16124462983 22 25 18
-857.273466035429 -40.7746511074971 2669.61473159981 23 26 19
-879.511087524033 -40.8506082308477 2670.30721955016 25 28 21
-881.796803744643 -40.7783902572387 2676.6475849285 27 30 23
-909.112261245818 -40.889618009141 2676.0935269146 28 31 24
-890.369609655312 -40.6635175200205 2688.21897884982 26 28 23
-878.596927377042 -40.4895772223984 2698.34368931517 29 31 26
-873.821662654511 -40.3671710441429 2706.51732041691 26 28 23
-889.154366120834 -40.3898997866612 2709.33101648333 27 29 24
-883.355215242757 -40.2607150562813 2717.7383721391 27 29 24
-913.857433479617 -40.3905514036392 2716.69484962815 6 8 3
-945.765772610044 -51.7739173453697 2403.95507650075 21 24 17
-951.21894404666 -51.7308802634197 2409.76779594376 9 12 5
-807.003942973752 -49.797750361925 2485.61886024164 20 23 16
-811.297083998659 -49.7464814401375 2491.41484293573 19 22 15
-829.091841222387 -49.8451967718081 2492.38895154455 28 31 24
-744.905848491221 -48.7141854050641 2536.70094367697 24 27 20
-758.78255458739 -48.7704094087968 2538.94152184937 24 27 20
-785.289895741424 -48.9642938419959 2536.87633400965 23 26 19
-818.654025642585 -49.231093080818 2532.59499517739 23 26 19
-808.356487228859 -49.0194686964948 2543.32879285336 22 25 18
-807.755226638027 -48.9140541390225 2550.71487114988 22 25 18
-812.016484161664 -48.8613922267826 2556.45263317757 23 26 19
-819.207261605639 -48.8400650281565 2561.22449520787 14 17 10
-793.18362320994 -48.461571188348 2576.92462079975 18 21 14
-805.242346975476 -48.4926698707503 2580.05925677602 22 25 18
-807.526400288866 -48.4188172161622 2586.39705534827 17 20 13
-810.788338959102 -48.3552453266146 2592.41547232624 20 23 16
-825.837975418181 -48.4163234501454 2594.69651987243 18 21 14
-829.114399248665 -48.352254083089 2600.74172730144 20 23 16
-817.616366484167 -48.1328834790315 2611.38523012347 21 24 17
-808.051694230083 -47.9348416332208 2621.34801834403 20 23 16
-815.240457423479 -47.9123566468347 2626.11652397186 19 22 15
-823.42793444188 -47.8998434236348 2630.60354403287 16 19 12
-837.568074767198 -47.9484101597186 2633.33092845507 17 20 13
-822.986831735655 -47.7001554231137 2644.65692978177 20 23 16
-822.255735278863 -47.5953987384218 2651.80351418356 20 23 16
-836.422780253555 -47.6432905609525 2654.58058411899 19 22 15
-828.722999255782 -47.4675109849877 2663.73644957749 19 22 15
-807.043116689305 -47.1506986272139 2676.83248393329 17 20 13
-802.261124942308 -47.00659837739 2685.00026667936 18 21 14
-847.412037915458 -47.3661213075607 2679.10528479342 20 23 16
-870.662617225128 -47.5026672933609 2679.52726284435 22 25 18
-896.969214574527 -47.6682125202666 2679.2161920704 24 27 20
-886.225759146724 -47.4631094490361 2689.1279060112 20 22 17
-892.517744123694 -47.4281665531117 2694.36561875638 21 23 18
-897.811609193552 -47.3831247571951 2699.88544338035 20 22 17
-890.021540490402 -47.2091903701994 2708.87520265414 23 25 20
-890.26763489702 -47.1149590753051 2715.70105459782 21 23 18
-875.365280792059 -46.8730984978886 2726.43455129254 23 25 20
-940.297149556921 -59.1412668116651 2398.02666598153 5 8 1
-946.701929826585 -59.1172711901593 2403.46853774409 24 27 20
-952.155621094431 -59.0793686328772 2409.28066919084 16 19 12
-944.181917185941 -58.8518062796572 2420.06311198497 7 10 3
-864.120707379795 -57.6122566713496 2457.1898719018 24 27 20
-845.404427208837 -57.2388573964707 2471.52342509778 31 34 27
-824.701616667102 -56.8394130996198 2486.44081787081 8 11 4
-837.695194859677 -56.9107587789296 2489.16741480607 19 22 15
-769.577539362767 -55.8558726417258 2520.71060721072 21 24 17
-799.922956730209 -56.1685664664413 2517.20840666189 26 29 22
-762.545519070997 -55.5451805378531 2537.48007947848 26 27 21
-794.883551111732 -55.8830787796642 2533.40548228127 24 27 20
-820.501045723587 -56.1261999717572 2531.80369727383 22 25 18
-817.006436179736 -55.9696684340602 2540.22814951492 21 24 17
-811.545834195493 -55.7868196507259 2549.2748004366 20 23 16
-819.710932622232 -55.7894337146538 2553.71611309352 26 29 22
-812.26832148841 -55.580369780195 2563.35547434727 17 20 13
-819.460055034541 -55.5693402832232 2568.12549384206 17 20 13
-811.979004643382 -55.3607045404324 2577.69402953136 20 23 16
-829.952071678552 -55.4937819232433 2578.9852447301 17 20 13
-814.595740607733 -55.1805103683389 2591.02057340669 19 22 15
-823.757075884027 -55.1949593273856 2595.17578884826 17 20 13
-819.157613703612 -55.0262927879177 2603.68716857434 19 22 15
-811.581446782187 -54.8188468976774 2613.07990557571 20 23 16
-802.003242979501 -54.5858675123063 2623.02831327297 20 23 16
-813.135799340072 -54.6258919343407 2626.57116953254 20 23 16
-827.255615851167 -54.7043041139228 2629.25219959857 21 24 17
-822.585388306303 -54.536539339539 2637.6331577456 21 24 17
-821.861120885306 -54.4207108406649 2644.79563151817 17 20 13
-831.055918993166 -54.4337863599973 2649.01280422662 17 20 13
-834.299999282177 -54.3693930768362 2654.99862339811 21 24 17
-830.5747455819 -54.2152535256748 2662.99815968954 23 26 19
-828.824549309567 -54.0870592619806 2670.3927855639 19 22 15
-834.048232518342 -54.0484370740018 2675.78160244531 20 23 16
-839.27660644437 -54.0097590287997 2681.17906320789 21 24 17
-862.522427498943 -54.1999255611124 2681.57616512364 23 26 19
-874.797105682517 -54.249399586575 2685.10245476706 23 26 19
-879.068623335546 -54.1971472944459 2690.8589638607 30 32 27
-897.405999132551 -54.32187033299 2692.82322582458 29 31 26
-904.717489864733 -54.3071103049291 2697.81462245497 28 30 25
-913.045698938799 -54.3047999505326 2702.55791043329 34 36 31
-904.24318223935 -54.0887044100165 2711.81307141973 36 38 33
-887.331837437107 -53.7729108848647 2723.1040042189 55 57 52
-951.747156945947 -66.6546618771911 2393.5615733654 12 15 8
-954.338252356764 -66.573282646389 2400.46634170117 4 7 0
-959.801474315181 -66.5402891347977 2406.29452557014 5 8 1
-886.166838629367 -65.0494638017369 2448.97108382168 30 33 26
-865.546099870084 -64.5812398222908 2464.06060931187 29 32 25
-858.351767122725 -64.3398504210485 2474.1658164666 7 10 3
-830.864168001765 -63.7604811311505 2491.46396189577 12 15 8
-851.606087563793 -63.986513680775 2491.47474566297 27 30 23
-778.542230474599 -62.6539125318822 2524.57898764622 28 31 24
-779.87393698038 -62.5594908990933 2531.28673598627 26 27 21
-783.140312936691 -62.4969888550389 2537.31299221657 24 25 19
-793.206053971955 -62.5461699585547 2541.00633064585 21 22 16
-797.453266482698 -62.4989637313411 2546.71662069538 19 20 14
-802.676291859526 -62.4675896267506 2552.10255229538 17 18 12
-808.879377816032 -62.4517864783783 2557.17100781539 17 18 12
-833.644711652526 -62.737432266265 2556.10395512198 18 19 13
-812.506375991903 -62.2764945334745 2570.23933447201 14 15 9
-824.594510664494 -62.3549552088143 2573.41331546412 15 16 10
-843.568432114796 -62.5435085767212 2574.41380218939 22 23 17
-832.149155434674 -62.2418054909133 2585.22691092621 22 23 17
-817.741845253021 -61.8935105306456 2596.90289067534 26 29 22
-809.193344690525 -61.6404437126617 2606.6363516693 24 27 20
-796.671044303186 -61.3250161091489 2617.53972538262 22 25 18
-801.871174348971 -61.2925241720013 2622.88338020915 21 24 17
-819.922093570814 -61.4634090026391 2624.30691450586 18 21 14
-824.158893774194 -61.4146131939299 2629.99853244588 26 29 22
-822.453031996072 -61.2720937876339 2637.47900540772 28 31 24
-827.67831352503 -61.2388000920062 2642.86915950037 30 33 26
-832.908063222456 -61.205366443318 2648.26807769981 28 31 24
-831.180412656014 -61.0631341559467 2655.70788652312 24 27 20
-838.402439329911 -61.0605795715237 2660.53157625729 23 26 19
-848.625874875119 -61.1042488897689 2664.51660113418 26 29 22
-847.883724436816 -60.9775837600195 2671.64944358456 25 28 21
-858.128202740084 -61.0208252343448 2675.67329858941 25 28 21
-867.389290232724 -61.0482971671936 2680.00806024754 23 26 19
-876.665372802777 -61.0754723607892 2684.37048982103 23 26 19
-874.91651378667 -60.9335831444432 2691.77169351634 26 28 23
-904.306746085396 -61.2669821263128 2690.73660994507 28 30 25
-899.552830654152 -61.0789696439944 2698.96923549237 28 30 25
-910.897466979 -61.1357924946794 2702.89759804833 30 32 27
-926.297580775924 -61.2532630151323 2705.80627888667 26 28 23
-916.476806524311 -60.9896984319465 2715.31775294898 24 26 21
-987.110885475936 -74.6999413594488 2380.04420581605 11 14 7
-982.08746852459 -74.4632861253804 2389.91110041357 15 18 11
-960.740015587405 -73.905329678702 2405.80584987528 14 17 10
-896.690588695342 -72.3772380980552 2444.97305462389 32 35 28
-873.185873749242 -71.7849606207057 2461.14063008727 28 31 24
-865.996649709316 -71.5136410589399 2471.2642337207 17 20 13
-861.674399932572 -71.2990095532481 2480.29877596452 10 13 6
-831.232743154795 -70.5778379093263 2498.55141623223 32 35 28
-801.668257959191 -69.8769486592649 2516.29593197715 29 32 25
-804.967278338989 -69.8137919852432 2522.3824241114 28 27 22
-788.856463835883 -69.3766108534019 2535.18218182368 27 26 21
-786.298048502298 -69.2014894682507 2543.21925686183 25 24 19
-790.534973200021 -69.1570666261618 2548.91029296969 24 23 18
-790.876630407034 -69.0378550852563 2555.91941440594 23 22 17
-799.990774724142 -69.0859851989315 2559.97770843659 26 25 20
-799.350667692099 -68.9479416804506 2567.30164902718 26 25 20
-806.525348613572 -68.9583299685656 2572.03436909929 27 26 21
-806.85336929445 -68.8386899251224 2579.01853933912 25 24 19
-823.846480484 -69.0333944600956 2580.60420813222 24 23 18
-827.126179998102 -68.968783832337 2586.65560290884 29 30 24
-809.754797690722 -68.5168293338729 2599.25618870872 25 28 21
-808.08306374927 -68.360431313926 2606.80360257438 23 26 19
-805.41231415096 -68.1857889362206 2614.63342613997 22 25 18
-815.559394123771 -68.2500440284638 2618.47182862733 21 24 17
-832.643610704814 -68.442275093391 2620.22580066034 18 21 14
-835.90621301377 -68.3773362616563 2626.24584925938 23 26 19
-828.26634737729 -68.1111170565679 2635.5391071014 25 28 21
-827.544134636987 -67.9733440786445 2642.71246322101 30 33 26
-832.773421300324 -67.9450547715599 2648.10847855963 28 31 24
-839.002306125064 -67.9347941883237 2653.222716132 22 25 18
-836.27224895932 -67.7608008455654 2660.94377134027 21 24 17
-846.494186590832 -67.8231009340462 2664.92043861268 22 25 18
-843.74903384411 -67.6492873499883 2672.61367623976 22 25 18
-850.989326830169 -67.6569129696546 2677.46739540267 21 24 17
-862.244775923249 -67.7366015865274 2681.22485016742 20 23 16
-876.528462834789 -67.8700829643206 2684.1907072807 20 23 16
-902.887715627643 -68.2193873827104 2683.92121917006 19 22 15
-916.237430563381 -68.3334972153421 2687.2899563773 19 21 16
-894.383908662922 -67.8179968960503 2700.12588180527 18 20 15
-900.684575466372 -67.8064383654565 2705.37252983597 22 24 19
-935.247495231871 -68.2967075491685 2703.22928607716 22 24 19
-941.598941097909 -68.284367073712 2708.56956120365 11 13 8
-992.844586118182 -82.2663488696132 2377.73914160967 12 15 8
-952.086496807839 -81.0532822151561 2408.89041669769 3 6 0
-876.015031382261 -78.9176098919821 2459.96892451307 20 23 16
-868.824459959025 -78.6165256820591 2470.0990009249 32 35 28
-851.948295530598 -78.1009759066343 2483.6300113304 38 41 34
-804.075669872955 -76.8999987375716 2508.03712009097 32 35 28
-806.413373524523 -76.8152848719043 2514.4768576074 31 34 27
-809.717419953194 -76.7518024484755 2520.57269152107 32 31 26
-796.517285897445 -76.3248474721487 2532.37774356017 32 31 26
-788.133108023414 -76.0051808820577 2542.43345188471 33 32 27
-791.398186255336 -75.941778416868 2548.45759213917 32 31 26
-788.814649310211 -75.7504704400546 2556.45333160825 27 26 21
-794.02300066691 -75.7294028951264 2561.80867136617 27 26 21
-795.326814865786 -75.6231411375797 2568.46868124862 41 40 35
-800.539342214622 -75.601669332735 2573.83182298651 47 46 41
-800.857197700139 -75.4739665551252 2580.7997222153 44 43 38
-802.147881485593 -75.3674475342618 2587.43566023957 28 27 22
-801.468216434261 -75.2186186812119 2594.69008980412 25 26 20
-798.810262638832 -75.0276059760634 2602.5488743318 27 30 23
-805.001355845156 -75.0266587181685 2607.59080551732 26 29 22
-805.281959259133 -74.8989859187813 2614.49018238389 22 25 18
-824.318234196487 -75.1712049532709 2615.58018849031 21 24 17
-836.473358219747 -75.2954297940129 2618.86361284776 20 23 16
-843.700231617199 -75.3141189624364 2623.68982814201 19 22 15
-828.13396739744 -74.8503371715094 2635.38431313089 20 23 16
-828.401932296418 -74.7225785172909 2642.26047128393 20 23 16
-818.721831327327 -74.3857805177591 2652.05218774394 19 22 15
-828.913527943799 -74.4672604606878 2655.96746849002 20 23 16
-840.119330168537 -74.5693144513948 2659.62688787503 21 24 17
-836.377327822483 -74.3583833154164 2667.6126987908 21 24 17
-843.607538568683 -74.3766782105179 2672.44517064385 20 23 16
-853.089149326584 -74.3090120326446 2683.55902695626 17 20 13
-873.381808467175 -74.5963496956043 2684.84040674291 17 20 13
-898.739485751122 -74.986471713703 2684.83136335695 24 26 21
-914.097470336221 -75.1687028457202 2687.64308600732 25 27 22
-909.348188325847 -74.937236442798 2695.89780502059 20 22 17
-908.61082824624 -74.7887696364212 2703.04601404061 23 25 20
-943.193293016345 -75.3617074903607 2700.91385688173 29 31 26
-924.286573205623 -74.8425605149631 2712.82568276754 17 19 14
-894.27501206296 -87.2071848602387 2414.9211834156 6 9 2
-938.945129902327 -88.1877251733198 2405.839875017 12 15 8
-1044.1758795882 -90.6952948822705 2374.43945653305 14 17 10
-895.22303824186 -86.4712697745603 2452.84019087801 22 25 18
-887.088266894026 -86.1158685719313 2463.36534940458 31 34 27
-818.06499761621 -84.239114874385 2495.604905385 33 36 29
-796.244248102811 -83.5481409937634 2510.66867312867 26 29 22
-789.852451859523 -83.2438137869084 2520.1545228223 26 29 22
-798.952313107138 -83.3250263765561 2524.17659908259 30 29 24
-797.384619965283 -83.1411817201805 2531.92311247807 29 28 23
-806.500243652665 -83.2216452677255 2535.97440398997 30 29 24
-808.814575601785 -83.1336367352433 2542.3726517074 30 29 24
-804.300889784129 -82.8775887804412 2551.06756299691 28 27 22
-792.931681099015 -82.4541281525082 2562.00937097793 25 24 19
-789.344257011755 -82.2226842715728 2570.28564809481 30 29 24
-795.527136539944 -82.2304617691778 2575.30984911038 33 32 27
-798.776709358166 -82.1662689798322 2581.30570975111 31 30 25
-798.09992657665 -82.0065630325167 2588.56871130826 27 26 21
-791.515793419634 -81.7039629508005 2597.69979474534 27 28 22
-780.969230789919 -81.3065156347467 2608.03147241618 26 29 22
-786.151292676945 -81.2901060504978 2613.33756454555 24 27 20
-792.324791355009 -81.2972271027991 2618.34470987554 21 24 17
-809.372532640132 -81.5650533130379 2620.00886412771 21 24 17
-825.466743366157 -81.8083342685221 2622.04148251981 20 23 16
-823.765261852891 -81.6248419064995 2629.54182878077 18 21 14
-825.025598989748 -81.5125094879063 2636.12370200107 19 22 15
-811.38447930558 -81.045868845388 2647.12963544173 19 22 15
-804.659569780789 -80.7451814882343 2656.00123029121 18 21 14
-815.829859748017 -80.8692552713119 2659.5887143449 19 22 15
-827.020582984097 -80.9929361255678 2663.21339282113 20 23 16
-837.233075302867 -81.092604099553 2667.16145112566 21 24 17
-832.470778669836 -80.8396052439549 2675.39820489832 19 22 15
-852.707013636938 -81.1735857980689 2676.56178384116 19 22 15
-856.953406312299 -81.1317092014071 2682.26946757495 21 24 17
-861.201955756006 -81.0897773775352 2687.98113460669 21 24 17
-875.4993756386 -81.2817388467816 2690.95415870655 23 25 20
-900.889662830492 -81.730090398895 2690.98808426953 20 22 17
-902.16323699863 -81.6174212001879 2697.59389983517 18 20 15
-921.584243274066 -81.9244118989959 2699.38104039494 28 30 25
-939.02640594019 -82.1841437268995 2701.77304158554 30 32 27
-904.939538917839 -81.2571066741916 2717.61298272943 15 17 12
-920.080543959347 -95.0995865558012 2405.02003000269 13 16 9
-956.171616698229 -95.9518733178925 2399.23356948886 26 29 22
-952.035849485839 -95.6699349944528 2408.63132773633 19 22 15
-820.877331761446 -91.2027936001514 2494.45307138288 26 29 22
-786.47087032968 -90.0932800062207 2513.99019758714 24 27 20
-783.937174433132 -89.8694115466102 2522.08739545457 26 29 22
-783.327925760835 -89.6990926805237 2529.47779607378 21 22 16
-792.422736061157 -89.7961125492547 2533.48582913717 21 22 16
-806.39634890483 -90.0262032432221 2535.85235106909 23 24 18
-819.423826967182 -90.2288243567959 2538.60181873066 25 26 20
-811.018824500062 -89.8442881383625 2548.63823026503 25 26 20
-794.769014404243 -89.2470955525503 2561.23046859878 25 26 20
-790.202248025118 -88.9699960257748 2569.83458996289 25 26 20
-790.510630040123 -88.826127128265 2576.78992724885 28 29 23
-793.752351759715 -88.7618801083828 2582.77136459695 28 29 23
-800.920760033772 -88.8036600898277 2587.48310797871 26 27 21
-798.268273572193 -88.5799929874525 2595.36126355626 28 29 23
-782.802527872947 -88.0123180991343 2607.27186328025 21 24 17
-782.072618232151 -87.8422542945091 2614.44026969079 18 21 14
-793.175327908628 -87.9894978899981 2617.89649362158 16 19 12
-797.380459960383 -87.9514511364793 2623.52713983544 17 20 13
-806.5355376129 -88.045094349063 2627.64703097282 21 24 17
-816.696333150082 -88.1646999272546 2631.49401381552 19 22 15
-817.94585421685 -88.0469991728456 2638.05710444076 20 23 16
-815.215986210367 -87.8241372422901 2645.79320336955 20 23 16
-811.47558447426 -87.5752816603606 2653.79336278495 19 22 15
-812.696490440318 -87.4578939982812 2660.30423511662 20 23 16
-812.914688147739 -87.3144785875249 2667.09357065568 21 24 17
-826.105881979096 -87.5116934804957 2670.14576721186 20 23 16
-842.321947754497 -87.786938028272 2672.39288711152 19 22 15
-867.581323883184 -88.2968215932185 2672.16703514943 20 23 16
-875.855584101926 -88.3614511584417 2676.79097109755 22 25 18
-874.105691820414 -88.1650925996686 2684.20615027356 22 25 18
-878.372203578539 -88.1253399713245 2689.950197944 29 31 26
-888.678545255942 -88.241823797151 2694.06580543524 23 25 20
-905.047980845107 -88.5141193270302 2696.59588719969 17 19 14
-910.353324914634 -88.5000214825107 2702.12751829226 28 30 25
-934.855644463053 -88.9790631195141 2702.63387970333 23 25 20
-907.244326080549 -101.759203433742 2417.47861108728 9 12 5
-821.390797545425 -98.6038883508543 2472.02225643476 25 28 21
-791.956950396508 -97.5350345768125 2490.11769409745 30 33 26
-816.49554458556 -98.1218982678807 2488.54354750252 28 31 24
-808.224120580638 -97.7039225959846 2498.83569012153 23 26 19
-800.888820011451 -97.3156943436744 2508.7262935716 23 26 19
-788.67876980739 -96.7805774553221 2520.26951325544 25 28 21
-793.896239558774 -96.7758889559748 2525.63720211976 21 24 17
-781.625527624833 -96.2414076836445 2537.06916693015 22 25 18
-796.560541994865 -96.530485348842 2539.07083926551 25 28 21
-808.602769656349 -96.7306244728285 2542.12379760605 26 29 22
-797.250722921757 -96.2259784489556 2553.12158371379 23 26 19
-787.813551302963 -95.7805798835137 2563.39325425278 25 28 21
-783.233856590451 -95.4820650538793 2571.97953384853 24 27 20
-786.469526824947 -95.4179196396291 2577.94981085796 26 29 22
-795.589906944544 -95.5290822034176 2582.00061846922 26 29 22
-802.760892031894 -95.5813492844582 2586.71394738657 21 24 17
-809.941697189882 -95.6332630730528 2591.44544344564 21 24 17
-796.453147991443 -95.072479559228 2602.76029256959 18 21 14
-788.836206180871 -94.6872801128434 2612.13199563364 16 19 12
-809.822639025358 -95.1467261506167 2612.52229148629 14 17 10
-817.014444834385 -95.1979476006537 2617.27422794793 15 18 11
-811.347615166631 -94.8711328438912 2625.98488220924 18 21 14
-813.586627745044 -94.7769877775451 2632.24594502232 18 21 14
-829.716992486309 -95.0888833279963 2634.32442337007 19 22 15
-825.011871631243 -94.7915370894868 2642.67967001605 21 24 17
-821.280611085375 -94.5234870115098 2650.70241393848 21 24 17
-813.545433977487 -94.1400205028553 2659.85613961637 21 24 17
-801.791413147174 -93.6415478972537 2670.11226139785 22 25 18
-800.985870892163 -93.461455210362 2677.14508579198 19 22 15
-826.174580808987 -94.0316234793398 2676.77113689966 19 22 15
-855.425352228003 -94.7160154203463 2675.3740083231 20 23 16
-879.728723517531 -95.255008055132 2675.49643909821 22 25 18
-890.029493308571 -95.3902283658193 2679.5956601723 22 25 18
-872.198411862951 -94.7202469496319 2691.41684506522 18 20 15
-882.4981783225 -94.8555106394221 2695.51471202886 23 25 20
-882.736599993142 -94.703552441995 2702.34381211859 20 22 17
-907.187612663688 -95.2398987409054 2702.73807386001 19 21 16
-981.077239100026 -112.178822165971 2357.67653536522 9 11 6
-985.862490028483 -111.588356736129 2387.80455493373 157 160 153
-886.664141232233 -108.062851089679 2432.72057204824 12 15 8
-920.884283559862 -109.031274087558 2427.68830782036 12 15 8
-905.103869020606 -108.31973921453 2441.17823526356 31 34 27
-783.57490667059 -103.90225678713 2500.2812373358 24 27 20
-801.362958724197 -104.322080742418 2501.14644973255 21 24 17
-806.601596003146 -104.322692627932 2506.55097135463 23 26 19
-804.088032860116 -104.065731122786 2514.69514880569 22 25 18
-798.645826186803 -103.712576532786 2523.82684662876 24 29 22
-788.663812260312 -103.03892385374 2541.62479518602 25 30 23
-790.949865916626 -102.942830036719 2547.97296114326 24 29 22
-788.352513101185 -102.686452681156 2555.96285845356 23 26 19
-774.988624299729 -102.078272805543 2567.52123385402 28 31 24
-780.174259649483 -102.078215888985 2572.82847639401 22 25 18
-783.404665786986 -102.013985438093 2578.78909734224 22 25 18
-791.540489595767 -102.109157871575 2583.14923861932 21 24 17
-801.653755545416 -102.267766617658 2586.89707680946 20 23 16
-808.833296856179 -102.330301873581 2591.62305432241 22 25 18
-810.112416461418 -102.201464975332 2598.2439309279 18 21 14
-805.467499169249 -101.881688629239 2606.71715234921 16 19 12
-817.591679707239 -102.102655577084 2609.91457359303 14 17 10
-820.838160789432 -102.037229197698 2615.90511893459 15 18 11
-821.113421930304 -101.876412178215 2622.80463755839 17 20 13
-825.346538422048 -101.842641101767 2628.48546646944 16 19 12
-830.574741945262 -101.840393254652 2633.87165849596 18 21 14
-839.783960503816 -101.964620120867 2638.08192747021 20 23 16
-841.045049640388 -101.83537938602 2644.67026844479 20 23 16
-827.350823056064 -101.232255869002 2655.61957191849 20 23 16
-813.612388217757 -100.629865595769 2666.48734785611 21 24 17
-800.828984016031 -100.060009229952 2676.9870162121 20 23 16
-808.014369783744 -100.121499926721 2681.7240568674 20 23 16
-847.267534953489 -101.190809808057 2677.45789418634 21 24 17
-873.572765724288 -101.849111779712 2676.99612760753 22 25 18
-867.796801527819 -101.499900154447 2685.51229455554 21 24 17
-873.059309818034 -101.496832071305 2690.9623302055 23 25 20
-872.285081945164 -101.305344566483 2698.05566987382 23 25 20
-880.57417744597 -101.396476009994 2702.69892093112 24 26 21
-900.990428224542 -101.863594566878 2704.15304008242 18 20 15
-880.006487819132 -101.045787537429 2716.5648993168 22 24 19
-976.300568490935 -119.42089792592 2359.40332607104 17 19 14
-970.209688516644 -118.211128299563 2401.43840358049 24 27 20
-932.388249958305 -116.639866553198 2423.29332353031 12 15 8
-912.76095436402 -115.73440725211 2438.22665866129 31 34 27
-787.911963568879 -111.023022438046 2491.31190618174 30 33 26
-755.460348241059 -109.668505441891 2510.28792544259 25 28 21
-774.182133339468 -110.163924775959 2510.73240636294 26 29 22
-803.599713509844 -111.041710619496 2507.46911252204 28 31 24
-790.409659959661 -110.385607894906 2519.36161404192 27 30 23
-785.91603357546 -110.043230757398 2528.11988354711 24 29 22
-785.29149182982 -109.840211153409 2535.4919912243 22 27 20
-785.629849882437 -109.671906664623 2542.50980820649 21 26 19
-781.084653755499 -109.329934923969 2551.17260540302 21 26 19
-781.400150414275 -109.161754947761 2558.14833867287 20 25 18
-774.86370734202 -108.750750136658 2567.39973246957 15 20 13
-774.174598530346 -108.547999032835 2574.65351304808 14 19 12
-777.395878087144 -108.48375908423 2580.59735140763 17 22 15
-787.487675970557 -108.661589050815 2584.29942143914 19 24 17
-799.562326900469 -108.908024018718 2587.39859417859 17 22 15
-802.802822970648 -108.842993896782 2593.37801282953 17 22 15
-812.940684437673 -109.01944998221 2597.16571958361 21 24 17
-819.149373565983 -109.05746898384 2602.22829489398 20 23 16
-817.46155284513 -108.819511455129 2609.77014467358 18 21 14
-807.846050608363 -108.306157286789 2619.7342684061 18 21 14
-819.989084805949 -108.550564739453 2622.95931590756 18 21 14
-815.293189592447 -108.209828073369 2631.3450828564 18 21 14
-820.507827584337 -108.21300065726 2636.70469536037 20 23 16
-831.693588909344 -108.422155166743 2640.29504847871 24 27 20
-845.886873964396 -108.733681751366 2643.04059388728 23 26 19
-843.15891404333 -108.461812586628 2650.7949396489 23 26 19
-792.497171905782 -106.545865822317 2672.40266509121 23 26 19
-826.660132753677 -107.542410983509 2669.37107182566 21 24 17
-841.885810362284 -107.887472516201 2671.89099552357 20 23 16
-864.157267922565 -108.471187447373 2672.49251637484 21 24 17
-880.456509728019 -108.848935348608 2674.86178721374 22 25 18
-873.680328570795 -108.441228511986 2683.6712672194 20 23 16
-856.817995146769 -107.693031311406 2695.18237384144 22 24 19
-875.159145231761 -108.13855903073 2697.05660038421 18 20 15
-889.504053821311 -108.447159279268 2700.0823933549 26 28 23
-908.92636542346 -108.925432506731 2701.82042635444 20 22 17
-958.405016256426 -126.317235094629 2358.25557977341 9 14 7
-964.836206603978 -126.364894988709 2363.72447614601 20 25 18
-974.142883762839 -126.525423535301 2368.10307255758 17 22 15
-929.814908016958 -123.958418697198 2416.35963476718 13 15 10
-756.932892231992 -116.613135512064 2502.44810296736 28 30 25
-750.518574628191 -116.174706953434 2511.93235465587 26 28 23
-776.011733745115 -116.975953611781 2509.93405383793 25 27 22
-777.339199656319 -116.837502323635 2516.64724360431 26 28 23
-771.869110123283 -116.436374770836 2525.74208625663 27 30 23
-774.147960428909 -116.335314649742 2532.07849741256 24 27 20
-778.369284416019 -116.309010994705 2537.73539214671 22 25 18
-782.592945871319 -116.282411718914 2543.39617056621 22 25 18
-772.187090362342 -115.694530081228 2554.0439019146 21 24 17
-773.465196214305 -115.555721155555 2560.66641708752 19 22 15
-768.869528350727 -115.192725865628 2569.24321403582 17 20 13
-774.04604214923 -115.203295353195 2574.53048479566 21 24 17
-774.324117994735 -115.026993127266 2581.43983690457 22 25 18
-792.268014716512 -115.521686037943 2582.56865711312 20 23 16
-806.317241641696 -115.866512856288 2585.03974352907 20 23 16
-806.611975427535 -115.689450924604 2591.97996108509 20 23 16
-800.984007304066 -115.289317065377 2600.78413741835 21 24 17
-799.280675301819 -115.038160660365 2608.30142830762 22 25 18
-817.330319214118 -115.530089455652 2609.62607233954 20 23 16
-807.709268982445 -114.981789425274 2619.58999701741 22 25 18
-814.899382157461 -115.06470256174 2624.32929005354 20 23 16
-815.154040035066 -114.887851956315 2631.19573716195 18 21 14
-810.433026506752 -114.525876577489 2639.54169388509 21 24 17
-827.576134946681 -114.978605962553 2641.32513715601 23 26 19
-835.790142506345 -115.097723713938 2645.82187173092 23 26 19
-832.048690912512 -114.772951684733 2653.84292995461 21 24 17
-813.309243858688 -113.894475936826 2666.17096295546 19 22 15
-837.509297547711 -114.60431103937 2666.05149363589 21 22 16
-851.75078957019 -114.944218912192 2668.87766982907 22 25 18
-870.030376798625 -115.430985011731 2670.62626980478 23 26 19
-887.344191755888 -115.880176743494 2672.72524155636 25 28 21
-884.592507238173 -115.592577060803 2680.44068396279 22 25 18
-863.710892512209 -114.643288659709 2693.0797737628 25 27 22
-879.041787795689 -115.018473343792 2695.78415326478 17 19 14
-906.510468802614 -115.833747944649 2695.29967511297 24 29 23
-923.938312419902 -116.280931843745 2697.60897014502 17 22 16
-969.115399309154 -134.341639194305 2345.93110558732 82 87 81
-960.301085125591 -133.749197078932 2357.39254355654 25 30 23
-948.58731764914 -133.035662935356 2369.90267570404 6 11 4
-960.741794292705 -133.333911636757 2373.13257674163 14 19 12
-915.717784545782 -130.791307536298 2413.75726988707 106 108 103
-968.239310189647 -132.783631399696 2401.89246334401 14 16 11
-899.571526367884 -129.690970286222 2435.15096678801 16 18 13
-870.239488950525 -128.254467619494 2453.54471517119 29 31 26
-751.998133742413 -123.113019631929 2504.10733404442 27 29 24
-752.339680085334 -122.929698197435 2511.13553078789 26 28 23
-773.001801364173 -123.59116002445 2510.86860814164 25 27 22
-775.29250541576 -123.487508455532 2517.22810404362 25 27 22
-772.727203018536 -123.182710348666 2525.29150906103 22 25 18
-776.949493759568 -123.159170462216 2530.94884646389 21 24 17
-773.388147709939 -122.814231683696 2539.30721616955 21 24 17
-769.808290844153 -122.469483788276 2547.63148370891 21 24 17
-773.040290989667 -122.405470710587 2553.59497095957 21 24 17
-780.180031770989 -122.501480938293 2558.23768141205 18 21 14
-784.394519520588 -122.477031349697 2563.88144550265 21 24 17
-793.509470733791 -122.652399319191 2567.90296043685 23 26 19
-786.944419949443 -122.187580397904 2577.11792248429 23 26 19
-797.050895253714 -122.402374705353 2580.83637524876 20 23 16
-809.142052518092 -122.696561688996 2583.95104185562 19 22 15
