ply
format ascii 1.0
comment KinectMotionCapture
element vertex 782
property float x
property float y
property float z
property uchar red
property uchar green
property uchar blue
end_header
-641.964801711208 -508.460391698668 2594.90600508067 20 22 19
-650.509755193087 -518.609283147589 2665.69982954399 22 24 21
-850.509273332786 -518.472820180737 2467.18025337933 15 18 11
-822.535981900684 -511.644507619303 2435.19365229932 17 20 13
-816.270119986875 -512.11136640622 2442.7683398003 17 20 13
-795.87521515139 -505.295884267904 2405.89414571681 16 19 12
-787.001834664044 -504.371558224241 2404.92144070384 16 19 12
-769.006039054754 -498.651678580094 2374.55929745605 15 18 11
-759.669443281217 -497.422288413346 2371.64454674747 14 17 10
-764.854955115965 -503.919189234459 2416.20228873777 14 17 10
-758.612427782152 -504.385010845271 2423.76832186086 15 18 11
-754.907076647143 -506.238209957996 2439.90784709859 14 17 10
-747.180758375417 -505.929464838937 2442.73840399662 13 16 9
-737.269873175973 -508.390933551955 2467.48632962256 12 15 8
-716.870670240087 -501.000303257271 2426.39061379221 11 14 7
-693.717652000028 -491.927090030558 2374.68928021621 11 14 7
-700.211035678063 -499.617084872591 2427.21476091031 12 15 8
-694.702294515941 -500.53848892033 2437.67998486072 11 14 7
-684.398275432608 -498.695357377177 2430.89656388357 17 20 13
-695.336363497834 -509.277383842823 2501.85474818865 23 26 19
-690.886894731301 -510.954709254324 2517.21109871576 21 24 17
-690.988323827507 -515.386156012321 2549.90567239461 15 17 12
-673.411375336381 -509.249382225995 2516.22287857042 18 20 15
-669.603408084816 -511.380128779775 2534.51185917422 21 24 17
-665.714362427003 -513.507349355607 2552.83056464853 20 23 16
-663.960369437573 -517.00575781592 2579.86958173959 19 22 15
-662.566725710455 -520.804032893515 2608.88866608118 16 19 12
-660.794721668942 -524.443871176595 2636.99011239531 10 13 6
-654.835283349262 -525.486579218956 2648.67649520608 18 20 17
-635.615400051058 -517.996212582457 2606.09325729148 21 23 20
-828.927332746097 -516.089657617192 2402.67043175758 21 24 17
-813.836794618222 -511.994201690812 2382.86326983072 19 22 15
-821.443717291234 -519.583559717851 2432.85838641787 19 22 15
-812.157577081596 -518.486722091547 2430.98185824468 17 20 13
-789.797993825166 -514.247170739504 2414.89324186543 17 20 13
-778.560068775998 -512.051740583492 2406.34261301604 15 18 11
-769.137475218395 -510.802404299637 2403.46061349839 13 16 9
-764.670367783483 -512.226857683852 2416.70908563428 13 16 9
-759.573220818584 -513.334530104491 2428.07726394689 14 17 10
-752.723284243778 -513.4979138985 2433.75369859952 13 16 9
-747.550351324356 -514.601909867038 2445.1496901897 12 15 8
-744.287590931839 -516.801442848462 2463.23513231559 12 15 8
-733.469053169687 -514.76608505244 2455.58660283723 11 14 7
-710.36553315465 -505.685036904141 2404.93468639723 11 14 7
-718.25238297018 -514.30096283961 2462.21704102555 11 14 7
-699.741165189808 -507.733327335041 2426.77309904992 14 17 10
-693.698331618549 -508.363661123694 2435.32097376585 12 15 8
-702.938225511211 -518.052157218755 2499.49744611461 16 19 12
-692.76499993801 -516.331973846028 2493.72378254499 22 25 18
-689.369817948565 -518.66922340259 2512.91375801725 18 21 14
-693.578070195052 -525.679421292754 2560.98751474518 9 11 6
-681.051936437907 -522.553452196801 2546.57530511124 12 14 9
-671.884540735017 -521.45476413249 2544.65577221786 18 21 14
-669.456894627656 -524.557584055751 2568.76973185987 17 20 13
-657.074493042225 -521.436474140964 2554.30467799193 14 17 10
-653.5519004601 -523.912261404843 2574.59730416878 14 17 10
-652.829540090185 -528.247289422639 2606.53165590286 16 19 12
-642.180496784028 -526.214089336716 2598.82137992069 19 21 18
-849.220887219876 -535.038750660492 2465.33163598751 22 24 19
-806.936861921592 -520.445859491419 2388.9990626802 24 27 20
-806.614774217832 -527.856472997995 2441.88857306637 24 27 20
-776.612843981923 -519.38981308301 2401.16315382486 16 19 12
-771.293329622977 -520.36527128447 2411.55554609915 13 15 10
-759.564209511111 -517.819809875644 2401.07617619421 13 15 10
-748.768325015047 -515.756514302259 2393.42152388346 12 14 9
-740.304398030091 -514.973054002819 2393.35597672836 12 15 8
-736.92891340116 -517.063579193038 2410.42429868238 12 15 8
-734.035554318837 -519.469719913906 2429.42674509844 13 16 9
-731.055663594938 -521.87212153614 2448.46091383049 15 18 11
-719.491868302702 -519.331288854922 2437.92138027026 18 21 14
-716.146984838588 -521.56999718365 2456.0339592549 19 22 15
-708.954943995947 -521.577297869428 2460.77965941264 17 20 13
-704.151320811932 -523.015143754926 2474.14964417749 20 23 16
-702.722105058101 -526.516435516677 2500.00388371489 14 17 10
-693.593202452421 -525.406656601998 2498.07120165608 16 19 12
-696.392394419301 -531.598655366269 2540.31906560084 17 20 13
-687.668294738407 -535.396710448306 2573.06789841288 13 15 10
-683.953222450498 -537.76612210466 2592.37167536209 17 20 13
-666.237069791022 -531.266954635534 2557.70050088989 16 19 12
-662.001300036994 -533.318217239341 2575.08410485698 15 18 11
-656.472942927604 -534.575646852447 2587.66421482707 14 17 10
-653.302361489613 -537.410618450648 2609.93495357895 24 27 20
-638.356802355877 -532.504785286381 2584.80296979791 20 22 17
-832.248749026983 -538.511149195584 2441.37064406763 23 25 20
-816.518887564204 -533.956355718369 2419.69706328938 23 26 19
-802.735891685591 -530.385623431949 2403.64171017776 20 23 16
-798.643175586365 -532.037292170792 2417.80356435743 21 24 17
-779.378957696604 -529.305729248749 2411.1428306507 13 16 9
-762.354052218774 -523.790665216967 2383.6126502147 14 16 11
-756.199372476087 -524.300713070102 2391.14342806826 15 17 12
-744.284154694597 -521.55803850686 2379.68025255073 16 18 13
-739.835838898107 -523.042271968039 2392.9173864764 17 19 14
-738.148141232546 -526.147601826688 2415.69549513982 17 20 13
-735.237115437665 -528.599307817923 2434.70117686886 17 20 13
-724.773538882253 -526.668801115218 2427.98232170872 19 22 15
-724.2241573674 -530.574083392378 2455.61951517076 20 23 16
-720.014169674461 -532.368348525479 2470.88002994152 20 23 16
-710.63063744052 -531.084434304134 2467.98670124392 19 22 15
-698.615970910958 -528.183964227392 2455.5047545721 18 21 14
-691.430657260045 -528.196023987592 2460.24765140869 12 15 8
-702.515368650608 -539.51540223515 2532.1637381266 16 19 12
-696.941832279596 -540.64897165404 2543.70305263112 19 22 15
-685.946847905703 -538.392274683662 2535.06852268463 11 13 8
-687.179754111261 -543.876918857194 2572.60555830324 11 13 8
-671.464049121491 -543.390252761827 2579.41919439743 10 13 6
-668.641919744564 -546.445143247109 2602.61329043581 11 14 7
-655.985169269953 -543.062823027601 2587.20107031951 12 15 6
-652.330498924331 -545.630518027949 2607.53475072247 16 19 12
-654.298655545311 -552.048642146668 2651.13380143056 15 17 12
-647.809636648203 -552.840250594331 2660.89843414374 18 20 15
-833.06775539538 -543.611362192696 2418.28878795867 29 31 26
-841.593457341657 -552.108371185807 2471.08151683435 24 26 21
-823.349397401485 -546.151387328751 2441.89427777559 23 26 19
-795.615858947003 -534.891878272006 2382.42266397662 15 18 9
-770.663647977247 -532.822084641162 2384.17850625064 12 15 8
-772.387784368568 -537.814548042166 2417.30771606513 15 17 12
-762.380934550285 -536.184252695576 2412.53337597792 16 18 13
-748.40311620349 -532.241154666828 2394.44379230046 15 17 12
-746.752884085033 -535.405446058628 2417.20383958179 15 17 12
-744.151048259602 -538.069835620899 2437.14743560058 16 19 12
-733.368813746073 -535.945615987759 2429.49242055615 17 20 13
-727.618085748843 -536.791224931187 2438.98447573041 18 21 14
-727.307981413644 -540.930663920362 2467.58387385201 20 23 16
-716.553450082667 -538.806514587851 2459.91878789669 22 25 18
-701.020011595936 -533.721918537754 2435.01389070728 16 19 12
-697.876743235089 -536.208692152664 2454.10105466882 17 20 13
-693.329492505299 -537.869825882774 2468.42759850611 13 16 9
-699.943525166378 -546.591471704413 2524.03132619748 17 20 13
-703.175516501468 -553.33152461109 2568.21369879287 19 22 15
-679.835192354401 -543.16454695641 2513.46327804746 10 12 7
-678.839520378634 -547.273590037376 2542.31406205881 9 11 6
-684.476114297877 -555.800596214157 2597.2208052816 8 11 4
-664.275757969432 -547.450442500818 2552.92531556782 8 11 4
-649.730683932124 -542.710312137872 2529.7686847504 9 12 3
-658.900359911973 -553.838443468653 2600.26163885628 9 12 3
-654.726400782205 -556.126425645022 2618.67173437524 16 19 12
-645.475145235501 -554.980971267132 2616.78645381072 15 17 12
-627.306635085122 -547.633772726707 2578.0768895413 11 13 8
-629.613471099231 -554.486562022106 2623.65345590538 17 19 16
-850.541004424454 -561.633125002783 2472.44516887121 26 28 25
-825.755565595238 -552.034389268022 2423.50997329246 23 25 20
-821.039907551441 -553.41403966868 2435.78557741795 19 22 15
-803.293698858358 -547.540216511031 2407.47773193446 15 18 9
-786.914383265279 -542.346812335303 2382.88838341107 13 16 7
-800.356319156538 -554.001659964128 2452.85613400565 12 15 6
-791.372820912962 -553.017289809003 2451.92796933302 12 15 8
-775.995355374832 -548.332540078382 2430.13615528815 14 16 11
-770.289594613253 -549.200630457431 2439.61017591676 14 16 11
-756.241139682034 -545.194521444281 2421.55075713728 13 15 10
-751.958556195032 -546.901640560126 2435.77766775505 12 14 9
-739.737784161656 -543.907212007361 2423.37769627 12 15 8
-732.05990536066 -543.599109386995 2426.19060481163 13 16 9
-722.725494898762 -542.285002773852 2423.28145208842 13 16 9
-706.855246293421 -536.951762408954 2397.451135037 14 17 10
-719.331143342931 -549.033919793964 2470.93756563593 14 17 10
-693.031451098433 -537.177169940428 2407.79012141586 14 17 10
-696.074438707852 -543.558278129214 2448.86832609732 18 21 14
-696.743354149119 -562.82600077177 2578.36733005389 10 12 7
-680.38152291491 -557.000742856383 2549.55282392497 11 13 8
-679.22405070136 -561.176175362944 2578.45738685084 13 16 9
-654.616160232829 -549.698082175961 2516.80004404083 15 18 11
-654.652032410123 -554.703322995072 2550.54169956951 16 19 10
-653.31048385183 -558.870281154565 2579.51378374734 17 20 11
-650.63006904146 -562.20059621698 2603.7024188802 13 16 9
-636.425117544623 -557.555744698642 2581.48157606718 19 21 16
-626.3529092707 -555.737050255992 2575.67864193662 13 15 10
-625.633884593888 -560.553563457641 2608.64226340481 28 30 27
-847.57616524327 -568.640149601954 2464.46075658324 25 27 22
-840.923038997487 -569.014190990465 2471.11634443776 18 20 15
-809.30050676296 -555.327897598687 2400.44116081126 16 19 12
-805.231066196769 -557.078720468438 2414.58733108341 14 17 8
-796.61347481369 -556.257990004229 2414.58042806837 14 17 8
-790.680780322529 -556.977876685401 2423.08152821154 12 15 6
-782.659749259919 -556.498762034088 2424.96520944485 10 13 6
-779.890177574989 -559.096568436506 2443.90847207418 12 14 9
-762.012809063217 -552.806730960688 2413.54630404296 13 15 10
-756.340196797166 -553.694756565939 2423.00677643361 13 15 10
-743.822568540513 -550.485760473771 2409.66429718881 12 15 8
-735.329155488564 -549.667292580602 2409.61210480803 12 15 8
-724.901465805639 -547.656185477006 2402.88629202836 12 15 8
-716.458023296897 -546.839015437781 2402.81584554746 10 13 6
-709.124515878824 -546.703030735711 2406.55720069865 9 12 5
-707.746756570126 -550.309136580212 2431.31827954976 9 12 5
-687.89497305969 -546.801630008795 2420.66309743118 11 14 7
-693.434309843124 -554.983864091729 2471.3647121739 11 14 7
-704.262872151269 -571.655413534946 2574.9690134798 16 19 12
-699.320370719719 -573.364463450989 2589.43555138772 10 12 7
-690.775632325866 -572.699105713686 2590.45701126282 11 13 8
-671.47418960797 -564.754486353176 2550.07104782185 15 18 11
-662.814080820326 -563.924650261708 2550.08028001073 17 20 13
-661.038543991313 -567.829402613522 2577.09646549228 19 22 13
-656.708637898662 -570.038891655288 2594.50258859427 19 22 13
-655.185016002538 -574.271417161025 2623.53587969242 16 19 12
-649.484801763629 -575.628936602254 2636.1708798743 20 22 17
-634.097217970951 -570.068954426043 2609.11574436453 18 20 15
-618.636857609208 -564.346621250398 2581.03249041486 22 24 21
-846.778569859059 -576.823088697335 2463.06632657493 24 26 21
-830.927791104256 -571.979775190418 2441.45844888683 17 20 13
-817.643622408919 -568.534758892318 2427.3457344344 15 18 11
-796.913838414507 -560.741167816949 2389.60045816934 13 16 7
-794.044225360761 -563.220281118774 2407.52221462625 17 20 11
-782.793633550581 -560.827404227229 2398.99083145308 14 17 8
-778.951036746549 -562.780798128922 2414.10585279703 11 14 7
-775.624792798106 -565.078522988204 2431.14065021672 9 11 6
-771.644662647756 -567.025589048863 2446.30612003609 10 12 7
-761.303257089482 -565.153585956143 2440.60501761127 10 12 7
-750.441379074069 -562.936286955434 2432.98570872371 13 16 9
-732.892277987899 -556.562907669635 2402.51082647709 16 19 12
-725.268950781833 -556.256609472885 2405.30377822899 18 21 14
-718.19804212816 -556.296008268513 2410.00304465979 20 23 16
-706.471122640365 -553.394662095823 2398.48342532704 21 24 17
-708.630488578451 -559.310908305933 2435.65127826925 21 24 17
-705.778442029294 -562.110081399921 2455.6756156078 15 18 11
-691.678364906797 -557.654664246987 2435.53574165083 17 20 13
-686.120255274847 -558.724761644234 2446.00742956441 19 22 15
-688.337206745868 -564.965682486918 2485.26322908054 22 25 18
-689.844371110803 -570.853730063143 2522.67017897931 19 22 15
-699.084727625764 -582.072707152013 2589.93067471733 6 8 3
-692.30786723239 -582.606392184348 2597.68598500927 7 9 4
-678.999498567031 -578.66638042702 2580.41923418981 11 14 7
-672.487558228009 -579.371966564848 2589.13187510159 12 15 8
-661.288239999065 -576.811744599501 2579.52793252642 13 16 7
-661.800210646146 -582.495331119979 2616.24534435256 12 15 6
-657.333584690483 -584.739452326812 2633.69827555781 22 25 18
-647.80467291105 -583.378959961022 2630.86354665202 17 19 14
-641.830975698493 -584.590075461812 2642.54214933713 23 25 20
-638.368040887836 -587.683123400014 2664.89963877649 11 13 10
-835.473065703533 -578.978097270415 2429.67943060575 22 25 18
-831.36384229068 -580.793364914236 2443.83493871375 15 18 11
-808.653011062936 -571.815175798672 2400.49898508438 17 20 11
-802.166973866382 -572.21672322675 2407.09204214303 16 19 10
-788.788064475269 -568.553114306132 2391.96343316306 11 14 5
-784.098197127785 -570.014108108238 2404.2235290705 11 14 5
-777.008019997907 -570.060733812192 2408.92925118054 12 15 6
-777.477113078006 -574.692595703957 2438.27519406718 12 15 8
-767.992333666722 -573.324762523562 2435.4247297856 12 15 8
-762.542713324337 -574.42433375126 2445.85502992371 10 12 7
-755.635515126598 -574.641458424822 2451.5482150392 9 12 5
-742.253756806183 -570.810132329472 2435.3664851682 11 14 7
-738.715493785838 -573.138130993405 2452.47603287207 13 16 9
-721.590280708583 -566.85005394412 2422.9072562404 17 20 13
-714.74711090359 -567.068221923514 2428.57709871716 19 22 15
-708.701058619878 -567.812041181694 2437.11732594705 20 23 16
-704.501240221874 -569.782530619177 2452.36084942588 16 19 12
-696.78438838793 -569.470344143652 2455.18822646739 15 18 11
-678.5517903042 -562.147879675012 2419.70000454328 19 22 15
-676.666673997838 -565.692427958121 2443.58351362403 21 24 17
-680.856610936195 -573.433044842744 2490.54225747427 10 13 6
-688.129617456717 -583.43791865583 2550.07621286898 10 12 7
-689.037267342804 -589.2341438673 2586.64110649371 10 12 7
-683.263878197674 -590.47984018777 2598.24457486266 11 14 7
-676.207552793649 -590.850183195281 2605.04693916205 11 14 7
-664.232197605056 -587.729045382934 2592.56761324202 10 13 4
-656.703217195266 -587.750303833894 2597.43468306242 9 12 3
-657.08057409476 -593.523168026605 2634.19426897547 12 15 8
-643.51617153166 -589.18439889124 2614.91751929234 8 10 5
-635.939127546425 -589.202677235508 2619.80227726851 18 20 15
-829.121403241804 -583.818536067417 2411.35591493166 20 23 16
-827.203924378378 -586.92635283273 2432.08421161762 14 17 10
-822.758988993276 -588.592976879563 2445.30635565193 16 19 10
-803.799607195465 -581.640325654208 2413.25422156292 15 18 7
-793.392668929678 -579.718328385947 2407.58070177216 17 20 9
-783.032343609446 -577.797765735014 2401.89013750358 17 20 9
-782.991926994895 -582.150922278964 2429.30886638007 17 20 11
-773.798976793341 -580.946140160791 2427.40687766679 17 20 13
-764.920472120832 -579.92095751794 2426.44338994893 16 19 12
-754.062346856037 -577.6439394743 2418.82747774855 15 17 12
-749.776238814813 -579.481130991791 2433.04585479882 14 17 10
-747.674749317019 -582.745030976121 2454.89578896797 10 13 6
-733.233391458673 -578.146423220341 2434.89071907859 9 12 5
-724.151544977485 -576.943676765677 2432.94795431194 11 14 7
-724.105333580557 -581.628261482226 2462.47714864573 13 16 9
-719.04823345333 -583.097622307138 2474.87004270804 15 18 11
-703.761033460254 -577.79386457852 2450.95877016259 20 23 16
-692.863281532564 -575.344654885711 2442.30343740921 21 24 17
-686.494683575868 -575.923148308913 2449.90702976119 18 21 14
-682.442912809992 -578.101049704035 2466.14766864944 17 20 13
-686.30688802578 -585.786275175177 2512.16246976797 14 17 10
-684.074518460445 -589.37570242827 2536.16876280866 12 14 9
-685.012932669749 -595.268293831724 2572.71520761635 13 15 10
-682.023737140421 -598.491605287029 2594.89074119341 14 17 10
-672.253619128006 -596.922101032516 2591.09261130851 14 17 10
-653.461785653132 -588.795857897735 2551.60174773269 14 17 8
-660.09185441507 -599.100532893301 2612.41324231974 13 16 7
-657.306967393629 -602.665151127781 2636.62215758179 8 11 4
-646.821781734235 -600.563243375449 2629.92408630355 18 20 15
-629.116525590545 -592.981735564741 2593.19699593972 12 14 9
-639.00168394907 -606.260867305102 2670.73434858988 14 16 13
-838.83119659437 -598.046504128341 2441.95335833797 19 22 15
-838.357348594533 -602.114787369063 2467.41769647952 13 16 9
-824.401272554922 -598.154967893205 2451.4545871401 16 19 10
-814.763005266655 -596.750079878272 2448.66268661482 14 17 6
-795.007134710658 -589.153548033603 2413.74860560673 17 20 9
-787.294049244133 -588.845945367143 2416.5742683298 17 20 9
-783.688487390823 -591.084936796557 2432.64817342234 17 20 11
-775.649643802113 -590.593288875485 2434.53952657579 18 21 14
-759.83414323215 -585.194964415518 2410.82759498611 18 21 14
-747.590771583338 -581.981454612731 2398.45236482022 18 20 15
-748.169803885131 -586.939057474418 2428.80034122 18 21 14
-742.709275995231 -588.080619429154 2439.23118190708 14 17 10
-737.208336506626 -589.220155398511 2449.67685850944 12 15 8
-730.84086342574 -589.814057163992 2457.27887956777 10 13 6
-728.813955665425 -593.304174825472 2480.15120314327 9 12 5
-717.490357513727 -590.635594676338 2470.6005919293 10 13 6
-707.572755700851 -588.873856448494 2465.80399657061 17 20 13
-694.780095221666 -585.124655529448 2450.46883939764 19 22 15
-690.4887885173 -587.161066488622 2465.74063012988 18 21 14
-691.332388961674 -592.806150473165 2500.20708669419 17 20 13
-685.313375791758 -593.751475147051 2509.78909623589 9 12 5
-683.083079823716 -597.400654405322 2533.7901274766 5 7 2
-683.012083057 -602.667352587187 2566.48407458782 6 8 3
-676.788255527489 -603.603184009495 2576.14121715903 10 13 6
-663.35980506312 -599.315431260299 2557.87803224771 12 15 8
-650.534298689521 -595.391905535631 2541.50140606922 14 17 8
-655.728313894703 -604.781315174163 2596.50388504129 15 18 9
-652.502176311849 -608.047593558652 2618.7622666412 19 22 15
-637.562072534305 -602.506912540156 2593.67620100876 24 26 21
-646.214741585458 -614.925780493396 2665.32642555111 14 16 11
-839.58136535993 -607.080219244158 2445.26566487696 18 21 14
-838.481846884937 -610.842968916934 2468.84727311959 13 16 9
-823.613820237149 -606.27331622872 2450.06159955607 16 19 10
-803.447936512087 -598.378725711761 2414.25217019022 14 17 6
-803.182975554367 -602.692334983342 2440.68891212664 15 18 7
-795.691648638345 -602.566440114899 2444.4868477342 12 15 4
-787.902483575906 -602.255268624113 2447.34042230509 12 15 6
-768.197538941874 -594.377336302604 2411.36251387495 14 17 10
-755.329097164286 -590.749590778717 2397.11228312754 15 18 11
-751.975472740523 -593.208375512262 2414.14487667746 17 20 13
-742.886440427479 -591.978907197631 2412.20673900039 14 17 10
-738.870584955724 -594.064523934698 2427.37473530089 18 21 14
-724.787130473538 -589.521990177854 2408.30195103875 19 22 15
-711.92336965585 -585.719494486268 2392.99690276985 17 20 13
-715.246496705587 -592.76614501677 2433.92310603968 15 18 11
-713.232759669363 -596.313441006894 2456.7863300003 14 17 10
-703.620231343906 -594.714781341509 2452.93314168624 14 17 10
-696.164369919232 -594.585299937634 2456.71846195873 12 15 8
-690.278787038558 -595.555699815105 2466.25009930129 19 22 15
-689.555795195951 -600.190358291346 2494.96240416424 22 25 18
-683.806206549183 -601.33819111373 2505.49779833284 11 14 7
-689.990049963582 -611.089559138018 2561.18013574851 14 16 11
-686.814056103719 -614.241360121643 2582.36237951601 9 11 6
-674.30500377331 -610.62206220601 2567.98093170023 13 16 9
-664.112764892922 -608.651166823165 2562.23309300067 16 19 12
-657.635381404132 -609.42203241898 2570.92825267166 18 21 12
-656.935078509362 -614.573008813308 2602.79302548867 19 22 13
-646.26705411587 -612.236186146961 2595.1125548569 21 24 17
-627.367021689686 -603.518790734975 2553.57224062664 19 21 16
-648.296370091842 -625.611928512619 2675.49668633527 14 16 11
-819.665137076128 -603.539827560616 2385.57123200341 18 21 12
-821.476948691204 -609.059657606773 2417.5619849183 14 17 8
-812.817663350957 -608.188346048968 2417.57404730798 16 19 10
-809.587510699832 -610.695429105539 2434.5581347404 14 17 6
-808.069829859875 -614.324343418199 2457.23496462302 15 18 7
-799.941413616613 -613.824311609583 2459.15949546343 13 16 5
-784.492359453322 -608.639863349539 2437.43139530656 12 15 6
-768.596249115917 -603.085816667123 2413.760501763 13 16 7
-754.283787877663 -598.472905234009 2394.77623436362 14 17 8
-746.652990424226 -598.166612848001 2397.5718998985 15 18 11
-737.891497707075 -597.112118199832 2396.56810898056 11 14 7
-733.354600398912 -598.860886832402 2409.81772260019 13 16 9
-724.31924993483 -597.618956055349 2407.86102060408 15 18 11
-707.882513246377 -591.338292791281 2380.1749020432 14 17 10
-702.511879595205 -592.525500891323 2390.56963670287 12 15 8
-706.280076480115 -600.049593880527 2433.43147237142 11 14 7
-686.158195016889 -596.074950227226 2421.84286267857 11 14 7
-686.659083290554 -601.534955853173 2454.3146914277 14 17 10
-693.101460949343 -616.71056867588 2541.49280158166 15 18 11
-697.906764180726 -625.678130020636 2592.40186408409 7 9 4
-681.285378806467 -619.035297295754 2562.67654050392 7 9 4
-673.321444898631 -618.709792039462 2565.59469666519 9 12 5
-665.852243626497 -618.754958214923 2570.43849690917 10 13 6
-661.7948536685 -621.394832326775 2588.77968766187 10 13 4
-657.414606414444 -623.845698953134 2606.18563496887 10 13 4
-645.781440106903 -620.737620067642 2594.6475498982 18 21 14
-632.095934701389 -615.966611804708 2574.38085832064 14 16 11
-638.200541925516 -626.738093632211 2635.34805149689 18 20 15
-820.643809227734 -608.157535523836 2363.53457963725 10 12 7
-817.032658882354 -610.334688942201 2378.54862477808 15 17 12
-813.049367760665 -612.318080088656 2392.64569176863 13 16 9
-810.520703527091 -615.251139532397 2411.47612829641 17 20 13
-808.506244385732 -618.561023257858 2432.22416097931 14 17 10
-803.414611846161 -619.963722684077 2443.56807543541 15 18 11
-798.868168092155 -621.744544216034 2456.81873919489 14 17 10
-779.914074005578 -614.208464499298 2423.74189395046 14 17 10
-761.445735046189 -606.869783325046 2391.54047213349 15 18 11
-758.70673255478 -609.791750250806 2410.44791509241 15 18 11
-748.180792309596 -607.585820544734 2403.77250010823 15 18 11
-736.576119419922 -604.622924382567 2393.27966427791 13 16 9
-727.004243079388 -602.989394027355 2389.41408231504 13 16 9
-718.023961268534 -601.735932179562 2387.4384961521 14 17 10
-714.01887613131 -603.891645516294 2402.59729028521 14 17 10
-709.947810367695 -606.044244263568 2417.7802926585 10 13 6
-708.239175883863 -609.896188419621 2441.57648575596 9 12 5
-693.590193517732 -604.66865767592 2419.56094011111 10 13 6
-691.515768148988 -608.326700636321 2442.4378583863 10 13 6
-693.266480734963 -614.812668619293 2479.71120402054 9 12 5
-704.184111795047 -633.608681552876 2584.1894053785 12 15 8
-689.783352550722 -628.567390357883 2563.13642942295 9 11 6
-684.831231736647 -630.502675253984 2577.58913831802 10 12 7
-672.338873188357 -626.785485116052 2563.20926545402 13 16 9
-666.848980511559 -628.34173064908 2575.7528537129 14 17 10
-662.041474812722 -630.459861006733 2591.2060330663 16 19 10
-655.476859037414 -631.258879919753 2599.9307632902 16 19 10
-648.165252966167 -631.492595934815 2605.76963313024 20 23 16
-636.581813623425 -628.344998667017 2594.21620780558 18 20 15
-621.098755214184 -622.009436394941 2566.18747002356 19 21 18
-839.976512084828 -633.143783049699 2449.55540175777 16 18 13
-813.491290770391 -621.04004054487 2395.02696171619 14 16 11
-806.407773841087 -621.120735912572 2399.72794761997 16 18 13
-802.318631590636 -623.131655742776 2413.86165152288 13 15 10
-803.529768160106 -628.613853729221 2445.00693540143 14 17 10
-798.090926634177 -629.845531461209 2455.42309723877 14 17 10
-778.853132648025 -622.013306132151 2421.40511924397 14 17 10
-769.391419610909 -620.547889331857 2418.55389122762 14 17 10
-762.83696326018 -621.009189272058 2425.16704480671 14 17 10
-753.697149635615 -619.736734889869 2423.25060125461 14 17 10
-738.934034680135 -614.617174705908 2402.3351882572 13 16 9
-722.620162519121 -608.348518460438 2375.66982438285 13 16 9
-713.399556917355 -606.890575376684 2372.73017477147 14 17 10
-708.606920003652 -608.506734916154 2385.0159032191 14 17 10
-713.29151329841 -616.839708309965 2430.68366935653 15 18 11
-708.847346468683 -618.831125591543 2444.94783852029 15 18 11
-683.375327412105 -610.921807300725 2414.26736164099 16 19 12
-692.530443772567 -622.872194117509 2478.30397358404 17 20 13
-690.203555434322 -626.576170537945 2501.26915538424 19 22 15
-687.256254493967 -629.892696858184 2522.35587763595 13 16 9
-690.824000135445 -638.177244315846 2568.43283597738 4 7 0
-684.092984431716 -638.806336555283 2576.16429054577 5 8 1
-678.333978292279 -640.198109960501 2587.75151127929 9 12 5
-668.090767421608 -638.150812463426 2582.02795727954 12 15 8
-662.287514960169 -639.53999315344 2593.63144998799 17 20 13
-658.854039023735 -642.834154339115 2614.89650535893 18 21 14
-647.91740932325 -640.214774370564 2606.26813797948 18 20 15
-635.625034049142 -636.454439572202 2591.81860470998 20 22 21
-626.465375002185 -635.172915807388 2589.91031034979 19 21 20
-854.790141658292 -646.479292562602 2468.76599816319 10 12 9
-833.332104898134 -637.535835724546 2430.30552644763 17 19 14
-817.902580621932 -632.325454914814 2409.63884323906 14 16 11
-797.756385483307 -623.984829927278 2373.85616858869 15 17 12
-797.638443654111 -628.576769886465 2400.21823815439 12 14 9
-804.239866982262 -637.66497011912 2448.33248790175 14 17 10
-795.838550742668 -636.961625573499 2449.30470328742 14 17 10
-786.277760874704 -635.476198146129 2446.49098343826 14 17 10
-775.298036176347 -633.014388842159 2438.93294136912 13 16 9
-768.686963548977 -633.484195467801 2445.56602392471 13 16 9
-760.916400749631 -633.171875097942 2448.41292627957 12 15 8
-745.806159026873 -627.786324904165 2426.57715060643 13 16 9
-723.835808708025 -617.530466950359 2380.93518782853 13 16 9
-710.166072793158 -612.937000195338 2362.78248328739 14 17 10
-707.108795091406 -620.895695913405 2410.22484551045 15 18 11
-709.185066955147 -627.591920772173 2447.36403901585 16 19 12
-702.001459673458 -627.667589056761 2452.10151649968 17 20 13
-696.659072418183 -629.103157518557 2463.53405953973 18 21 14
-696.769473425865 -634.616360058638 2495.07694264232 21 24 17
-687.393689259098 -633.132581143574 2492.19562458598 23 26 19
-685.493686251497 -637.277707107139 2517.10578425674 14 17 10
-685.763899653276 -643.163379854782 2550.69586482306 8 11 4
-687.632168685316 -650.398870113199 2591.06986815065 9 12 5
-682.329167466685 -652.200699850495 2604.59357824123 10 13 6
-671.548773652419 -649.739607718711 2596.9633119696 10 13 6
-664.484081373259 -650.183497821061 2603.76316702319 11 14 7
-654.021165636107 -647.918067495559 2597.06934228514 12 15 8
-652.206400509753 -652.614455116222 2625.10686127781 15 17 12
-637.031412040289 -646.484129245452 2599.08407148318 21 23 22
-638.600653709044 -654.071553362284 2641.67328118492 22 24 23
-846.852044061561 -650.083169543481 2445.77915902259 8 10 7
-803.384182833785 -631.373979167144 2365.92056555497 13 15 10
-807.576763731543 -638.818428168139 2405.43429282268 14 16 11
-797.764656529227 -637.121360500078 2401.66104405061 12 14 9
-799.890624043642 -643.362979440753 2435.61655898474 14 17 10
-792.113408914513 -643.052126091784 2438.46576769177 14 17 10
-782.874589663699 -641.749613291875 2436.58781886267 13 16 9
-781.198002679679 -645.599269458618 2459.30572998968 12 15 8
-772.519298879734 -644.691319001095 2459.32761229851 12 15 8
-762.148173228152 -642.595966404543 2453.65416037643 11 14 7
-743.358900511779 -634.567181020878 2419.48804853036 13 16 9
-724.210976233228 -626.150605098931 2383.34839520629 13 16 9
-717.463353823808 -626.437418744819 2388.97834230086 14 17 10
-717.288334359212 -631.46353439062 2417.46175784627 14 17 10
-709.633957037674 -631.153551306105 2420.26626930185 15 18 11
-703.865726041126 -632.224296867054 2429.74769705577 15 18 11
-695.661276397905 -631.518297833109 2430.64883800439 16 19 12
-693.280706700784 -635.148551987666 2452.5725304835 17 20 13
-681.116833000235 -631.485349382939 2439.13553522484 21 24 17
-687.955342818246 -642.198425375798 2495.57425589117 21 24 17
-682.450286454639 -643.650431154672 2507.06440820015 8 11 4
-682.233561236029 -649.23038061882 2538.72111238378 12 15 8
-683.624088639231 -656.179815520688 2577.15716804504 13 16 9
-676.36476775406 -656.440973789121 2582.9749701516 17 20 13
-671.800279065517 -658.861163344865 2599.38361768737 19 22 15
-660.827823648136 -656.175203739993 2590.77329067617 21 24 17
-653.29434317576 -656.237629005292 2595.63914374168 21 24 17
-645.990155529193 -656.495306808812 2601.47351023423 13 15 10
-648.822371519103 -665.177616209843 2648.85451288937 15 17 16
-848.53816090411 -659.806978809402 2451.89925478813 5 7 4
-837.998369995123 -662.607558409662 2473.65017600104 12 14 9
-794.395377049494 -638.531702690431 2365.44655157862 12 14 9
-799.990076791227 -647.084276248021 2409.70051644485 11 13 8
-791.679634326604 -646.373882955544 2410.64024581456 14 17 10
-790.160853641466 -650.287902291763 2433.2962179882 13 16 9
-786.196651383761 -652.589404536161 2448.4289035247 13 16 9
-778.400294051155 -652.276731147402 2451.28520463804 12 15 8
-768.307426794039 -650.357596173372 2446.56416563308 12 15 8
-738.658129642909 -639.704412063663 2404.80904205361 13 16 9
-731.850909265767 -639.997293343371 2410.46018551536 13 16 9
-727.520823164156 -642.09204124819 2424.67485410057 14 17 10
-726.421697491549 -646.586798306937 2450.33445527726 14 17 10
-719.765092961807 -647.073465209799 2456.98280914806 15 18 11
-703.128618372872 -640.158006987638 2428.35034861806 17 20 13
-691.461180551082 -636.847498165752 2416.83973503227 17 20 13
-687.001259433975 -638.934863090395 2431.10238891738 16 19 12
-689.802758969706 -646.611225531498 2472.17060628326 21 24 17
-685.92648654591 -649.288625565125 2489.37660260586 21 24 17
-684.025231419388 -653.558553072953 2514.27780074264 8 11 4
-685.306753319472 -660.415385569087 2551.69363865352 12 15 8
-678.113070107602 -660.687624973377 2557.48675603899 13 16 9
-678.614694990689 -667.13363962547 2593.08358990698 16 19 12
-666.635973870499 -663.617944593235 2580.63500262336 17 20 13
-661.316865356015 -665.47768431352 2594.16019569873 18 21 14
-651.121965430957 -663.357253226269 2588.42486086957 18 21 14
-640.974070897676 -661.238288178396 2582.67208229606 20 22 17
-837.51016759545 -661.187565499119 2419.53651631171 1 3 0
-848.491209521096 -673.340467786162 2479.69424348686 13 15 10
-839.949729169508 -672.616890244461 2480.71916667532 11 13 8
-784.824792867715 -645.263854232436 2363.08291715315 11 13 8
-795.366169548815 -657.397340541746 2423.40185618956 13 16 9
-783.789995019852 -654.438400055027 2413.96492360995 13 16 9
-782.212388375487 -658.406664876861 2436.63817655524 13 16 9
-772.999533673829 -657.07725307213 2434.75256909795 13 16 9
-773.28304961649 -662.462786247037 2464.10907342603 13 16 9
-753.514712737329 -653.606681633189 2427.16119189801 14 17 10
-743.545077437261 -651.669703266928 2422.39672440759 13 16 9
-739.482011828867 -654.000138773395 2437.56340195658 13 16 9
-732.308906434987 -654.093815062906 2442.29570497745 14 17 10
-724.303783231195 -653.577877684773 2444.17663892703 14 17 10
-716.032761848226 -652.85884165938 2445.10269724534 15 18 11
-702.930071656307 -648.49043942459 2428.86034900064 16 19 12
-687.532237066153 -642.301989547666 2403.98946935703 15 18 11
-684.159790641892 -645.233250988423 2422.05980876197 15 18 11
-682.274235287693 -649.375295721604 2445.898395304 20 23 16
-686.746429464705 -658.570464211278 2493.7113924955 22 25 18
-689.697620751486 -666.744287775626 2536.82105377061 10 13 6
-687.868446521242 -671.270766225498 2562.74326126999 11 14 7
-686.670575203159 -676.397926082983 2591.59069335929 12 15 8
-673.653590107509 -672.029449100941 2575.3172108743 15 18 11
-664.675748045057 -670.893561853213 2574.39842330525 16 19 12
-659.61418169115 -672.985254067355 2588.87935099845 15 18 11
-653.287721408743 -674.066073205472 2598.56284434843 15 18 11
-635.725847964341 -665.675347772202 2562.91152496983 15 17 12
-652.789540742021 -686.693765351066 2668.18887033195 14 16 15
-849.84523790221 -682.98417038104 2484.87448740066 12 14 9
-845.860581615602 -685.357986853088 2500.0094027353 10 12 7
-798.292893523535 -657.949568841998 2379.6314997905 11 13 8
-811.324415045389 -671.906809855825 2447.44128330069 11 13 8
-789.245208456885 -661.677880473667 2405.03701761267 14 17 10
-789.795007316973 -667.151730308162 2434.28985341848 14 17 10
-777.3561959727 -663.538165430872 2422.01581862781 12 15 8
-767.893690760817 -661.990313978654 2419.17084395917 12 15 8
-753.012954108711 -656.525788292817 2398.32419553935 14 17 10
-751.620824349607 -660.751760391077 2421.97716957863 14 17 10
-743.355826172882 -660.029207994382 2422.90130475574 13 16 9
-739.567699433643 -662.600599453821 2439.0164624144 12 15 8
-721.327053474035 -654.46869963243 2405.72560455589 12 15 8
-704.651762787198 -647.372503089346 2377.12088436691 12 15 8
-700.632496236464 -649.738594890664 2392.26895774902 13 16 9
-694.933992303713 -650.868788639435 2401.7205655814 14 17 10
-691.330819098872 -653.639893184169 2418.8200102414 15 18 11
-687.124059210495 -655.996990010063 2434.03688567955 13 16 9
-683.112598181458 -658.556139667721 2450.23411273638 18 21 14
-676.702512605084 -659.266556742818 2457.84282524843 22 25 18
-694.736488330666 -685.672206183071 2590.09365174574 11 14 7
-685.932055749981 -684.727630688001 2590.16397945986 11 14 7
-680.372929013914 -686.443359945775 2602.72068975081 13 16 9
-657.801008285217 -674.045033225345 2548.92599427418 15 18 11
-656.453624040757 -679.237931229764 2577.82278997634 15 18 11
-651.839698648907 -681.768874538783 2594.2412974807 14 17 10
-647.869587706157 -684.908924707531 2613.57959364466 8 10 5
-854.576357417204 -694.965961189851 2500.38417631886 9 11 6
-829.224209601606 -682.700085023899 2449.72301492709 14 16 11
-816.850356130757 -679.244949000657 2438.47998102894 12 14 9
-789.28050396075 -665.112355637688 2379.16567265457 10 12 7
-803.617364578604 -680.29625843397 2451.74191365724 15 18 11
-789.317572111107 -675.380498132817 2433.84244988583 15 18 11
-768.419918461349 -665.659461047046 2394.17022907008 13 16 9
-748.910376651506 -656.783155756484 2358.19665229048 12 15 8
-751.397661533824 -663.79116497023 2394.09642846596 12 15 8
-748.308136776665 -666.824256540305 2412.05603425315 12 15 8
-748.79713062419 -672.56671788985 2442.37750617846 13 16 9
-726.262386956863 -661.198381588574 2394.89143449249 12 15 8
-716.714681597601 -659.430894819484 2391.02743183499 12 15 8
-713.501926863114 -662.457248631371 2409.03257438065 12 15 8
-695.015852037496 -653.816255513715 2373.73593516816 13 16 9
-692.590092820472 -657.465394886683 2394.60806553959 15 18 11
-696.455490052523 -666.103763388668 2438.41706704235 16 19 12
-686.657695998641 -664.126500727781 2433.59294838289 14 17 10
-675.074401982897 -660.695545294889 2422.06110438677 18 21 14
-672.873863937289 -664.746436244216 2444.95420312546 23 26 19
-694.248397620054 -694.210941879925 2589.62673218718 11 14 7
-685.194071452151 -693.050626847279 2588.73757728134 11 14 7
-669.955118911737 -686.707298534149 2563.82065564767 13 16 9
-663.955635409359 -688.037151859528 2574.43311226435 15 18 11
-655.728066203679 -687.500789238274 2576.39641031747 15 18 11
-646.544285723039 -686.136230529387 2574.50314529912 14 17 10
-662.13928506546 -706.291243969396 2672.91286509074 19 21 16
-883.249110150287 -723.60853180785 2589.13537817808 3 5 0
-858.271741974763 -711.602801778826 2540.45152930183 10 12 7
-808.52046666983 -681.992691100054 2413.56672454996 8 10 5
-818.143804509571 -693.987324060057 2471.03002956851 12 14 9
-801.058868356841 -687.099370810537 2444.69180345238 14 17 10
-787.663543836129 -682.760338211976 2429.62012050053 14 17 10
-774.657677559636 -678.63648481085 2415.45725336604 13 16 9
-753.072660138387 -668.164334704761 2372.89178158657 12 15 8
-752.93534028589 -673.361097345814 2400.28206762138 12 15 8
-765.158660102635 -687.858433917827 2469.41130632771 12 15 8
-750.292799692315 -682.257208884532 2448.56931268938 13 16 9
-745.5931053718 -684.267568767247 2461.8583390998 12 15 8
-731.1686557761 -678.883196005262 2441.90615872286 12 15 8
-713.309920248281 -670.759059024876 2409.54250898073 12 15 8
-706.486499515549 -671.081916827316 2415.19727686355 12 15 8
-702.871247480053 -673.934357486988 2432.29522758185 13 16 9
-697.583699435702 -675.518493485826 2443.69638151395 14 17 10
-696.465948208156 -680.471204274813 2470.39475295141 13 16 9
-679.828769525114 -672.994309928302 2440.73835325994 16 19 12
-688.940361665511 -686.360597566572 2505.75024914083 20 23 16
-690.047087724965 -693.401925706907 2542.14912021657 10 13 6
-683.632518846673 -694.337971656012 2550.80899385916 11 14 7
-677.939986913651 -695.902750627278 2562.35900847086 10 13 6
-671.95417041235 -697.255172268725 2572.96479653731 13 16 9
-661.999907229702 -695.246349827783 2568.2001645295 15 18 11
-658.404580542107 -698.69465101548 2588.44558570456 16 19 12
-647.025057215433 -695.427311244025 2577.89391533911 15 18 11
-635.480284979638 -691.952915729317 2566.35109825197 15 17 12
-823.130140858965 -700.93363788779 2460.1612373329 6 8 3
-805.69203476957 -693.744666473492 2432.9072328764 12 14 9
-796.426515183321 -692.359748649132 2431.04494856731 10 13 6
-793.067786752599 -695.268188676928 2448.04546938464 11 14 7
-768.646625866268 -682.726526027302 2397.06685400935 12 15 8
-762.141527677264 -683.276402918539 2403.65539064227 13 16 9
-766.497600700061 -691.96945725556 2446.21542883217 13 16 9
-757.017275232348 -690.37055826135 2443.38078055027 13 16 9
-759.941921006209 -698.19381386556 2482.25980415929 12 15 8
-746.510269429091 -693.595578112482 2466.15432124576 11 14 7
-737.323153334801 -692.209837459503 2464.26386639263 11 14 7
-719.409154394363 -683.982689622822 2431.9280682573 12 15 8
-710.356463271497 -682.601355083748 2429.98818501021 12 15 8
-704.559084453329 -689.661372559686 2469.96072276507 13 16 9
-691.254880422129 -684.862769625926 2452.7574951582 13 16 9
-686.923706641854 -687.319904773856 2468.01202678442 14 17 10
-685.882839533899 -692.545211102106 2495.72819749733 18 21 14
-694.422836752021 -705.861707025962 2559.88523021161 15 18 11
-687.453007914625 -706.385858453904 2566.64456196907 10 13 6
-675.70432055878 -702.864292417871 2555.17964829938 10 13 6
-673.950421127482 -707.855848373873 2582.10597103432 13 16 9
-667.162059284257 -708.588671978092 2589.85043491167 15 18 11
-654.52152831542 -704.218752265218 2574.50683759867 16 19 12
-660.959051625284 -716.635740153693 2635.2289137985 15 18 11
-665.42672342835 -727.553137907163 2689.31345522525 13 15 10
-889.286896589712 -746.053483760788 2609.7806897498 17 19 14
-862.748384724463 -732.657881468794 2556.43589559321 12 14 9
-829.280175586506 -714.050130825377 2480.40280147262 6 8 3
-805.213209451979 -701.985736981871 2432.45940616641 15 17 12
-797.878142050957 -707.448568330426 2464.57794135907 11 14 7
-790.025205666706 -707.133415763354 2467.45498682463 12 15 8
-781.017764558747 -705.949206665338 2466.55059966116 13 16 9
-773.748464960756 -706.067543469337 2471.31624727895 13 16 9
-746.048296713729 -690.565368164581 2407.88614551889 12 15 8
-740.068201244446 -691.55667214788 2416.38373504341 12 15 8
-744.084098928825 -700.348627626304 2459.0599094598 11 14 7
-730.501127078613 -695.483836120452 2441.96296270402 11 14 7
-725.774449638036 -697.55166725122 2455.25720249259 11 14 7
-709.617747970364 -690.527141529805 2428.5920185398 12 15 8
-705.15545893861 -692.810176968256 2442.84051481925 11 14 7
-710.197436826394 -702.873902098421 2491.4477647479 15 18 11
-695.259271790586 -696.719059488134 2468.54070095075 16 19 12
-684.629201993229 -694.02544245095 2460.87310638862 16 19 12
-686.182875400676 -701.48092612643 2498.14489224892 18 21 14
-691.12939807916 -711.949516369944 2548.88964370066 6 9 2
-688.739580150579 -716.367842598314 2572.89034758801 10 13 6
-685.98778101628 -720.56558601178 2595.97291423485 10 13 6
-678.669386033366 -720.879848582819 2601.80817337518 12 15 8
-669.374752190096 -719.470031736258 2599.95834604002 15 18 11
-664.717131742593 -722.150902502052 2616.38116302776 17 20 13
-669.592702083747 -733.434880030011 2671.35665111054 16 19 12
-849.783982695271 -732.232645510852 2517.44632275038 7 9 6
-819.676829419758 -721.238969002204 2479.08316920822 5 7 2
-836.062408216104 -738.976320196711 2559.25533070894 6 8 3
-807.088829590933 -723.026246995318 2495.25489083034 12 15 8
-789.834830016829 -715.66883621607 2467.94695688713 12 15 8
-792.081094510522 -723.048067799892 2503.90604119531 13 16 9
-766.403438219588 -709.103189013619 2448.15679719337 12 15 8
-745.579497484165 -698.685076725514 2407.44383290733 11 14 7
-726.115394527602 -689.154199287279 2370.43632445702 12 15 8
-742.217041201497 -707.501216344033 2453.86557191543 11 14 7
-730.581075080174 -704.115128784605 2443.41578225282 11 14 7
-712.186963609724 -695.250655601965 2409.16940177023 11 14 7
-705.631619648332 -695.816523698837 2415.7749880172 12 15 8
-700.933157839404 -697.914280640448 2429.05671805696 10 13 6
-685.823028128312 -691.47123231117 2405.16732482868 14 17 10
-702.414394372571 -711.292092161335 2495.77383725625 17 20 13
-681.555931397182 -700.035519299305 2450.86994582544 16 19 12
-678.746488982331 -703.873152465363 2471.86726055396 17 20 13
-688.094816096004 -718.19465393984 2538.85443609943 4 7 0
-690.024280471379 -726.38637798066 2579.13405549476 9 12 5
-687.752102589329 -731.076746291152 2604.13830086847 9 12 5
-680.905910698316 -731.834405906886 2611.90190265723 12 15 8
-671.829446895784 -730.62781740711 2611.0242825924 15 18 11
-667.381907761186 -733.563158621304 2628.41812518541 17 20 13
-665.497889684336 -738.891573254452 2656.43311892839 16 18 13
-822.553488153588 -721.09351284477 2434.31708856037 11 13 12
-825.894971093879 -729.036457681704 2471.96907259156 3 5 0
-820.75734583138 -736.428534551659 2511.67684269143 10 13 6
-798.956312660863 -731.333755880637 2498.6497353744 11 14 7
-779.480232162156 -722.111494827646 2463.756659996 12 15 8
-763.354215731012 -715.344178416973 2439.19403256605 12 15 8
-747.944032803895 -709.026981558557 2416.47072048247 10 12 7
-734.357132894891 -704.048516997725 2399.38352344622 11 14 7
-721.840547820584 -705.650091140883 2414.47675282067 10 13 6
-718.275428082648 -708.668169339663 2431.54399097575 11 14 7
-706.248366058286 -704.805273599175 2419.13916460591 12 15 8
-699.662805094865 -705.380203690181 2425.75504608257 14 17 10
-694.118976837078 -706.840371870698 2436.19236787835 13 16 9
-683.278398674616 -703.867643000276 2427.55576210688 15 18 11
-678.746314781118 -706.211357398456 2441.82529346156 16 19 12
-684.808557950661 -724.162895787155 2527.86526219174 8 11 4
-681.961496908536 -728.260266430616 2549.92320381029 10 11 6
-682.013223432181 -735.005100787754 2583.52784374917 11 12 7
-680.912132112135 -740.859045539164 2613.35183118725 14 16 11
-670.607103647435 -738.537253350175 2607.67170320904 16 18 13
-667.619451217284 -742.837574189914 2630.83197027973 14 16 11
-664.525266724203 -747.132987197192 2654.03131475344 13 15 10
-825.109264884895 -731.61377574989 2443.26103354736 16 18 17
-826.312166445038 -738.075428911478 2474.33540805702 4 6 1
-822.286642938786 -740.69356764544 2489.46673748249 15 17 12
-809.019779273611 -736.315023901524 2475.41791729399 10 13 6
-808.168725092339 -741.410379321474 2500.94206867625 10 13 6
-770.063707864237 -723.423787917036 2434.01323588364 11 14 7
-770.022462297437 -729.191043785468 2462.39212613487 11 14 7
-751.155088163335 -720.097052758486 2428.33501723896 11 13 8
-739.322323904318 -722.395154971226 2446.32715769314 10 13 6
-732.392630499647 -722.754668587093 2452.01751838377 10 13 6
-709.837968383818 -716.284620843233 2432.96840728253 10 13 6
-702.410477663976 -716.195284455052 2436.74039040696 13 16 9
-692.856718119796 -714.31045234237 2432.88744135577 13 16 9
-688.592871115416 -716.911594843263 2448.10664505114 14 17 10
-684.783317990572 -719.957802852951 2465.26031829084 16 19 12
-676.519478008989 -719.191747224396 2466.18756934573 15 18 11
-677.191198686924 -726.263289001765 2500.60884776567 7 10 3
-678.779822926703 -741.055326990584 2572.51327882533 10 11 6
-673.746005987305 -743.408391191942 2586.96414887505 14 16 11
-664.001427107047 -741.511784060921 2583.18142009871 17 19 14
-664.223478482413 -748.775715374567 2618.81812040306 13 15 10
-825.379124229981 -751.83794366637 2500.30169969087 9 11 6
-812.676608588405 -747.865916555502 2488.15077942787 10 13 6
-803.868663861597 -746.863289614522 2488.22676331087 10 13 6
-795.657873532017 -746.316909262535 2490.18446651671 10 13 6
-796.960804742268 -753.294240982665 2523.31695450732 10 13 6
-772.114094381317 -739.525902607838 2470.45214509964 10 13 6
-750.966241955867 -728.502755785261 2428.83596467928 10 12 7
-748.568640578194 -732.51626196821 2449.67037219256 11 14 7
-731.624651298271 -724.690892405372 2421.21829756202 11 14 7
-727.239423182004 -727.108519340367 2435.42863957355 10 13 6
-715.156259869162 -723.15660446166 2423.0509135448 10 13 6
-711.80188494881 -726.480244761388 2441.08508128221 9 12 5
-709.436711554638 -730.708733339205 2462.95804196371 8 11 4
-699.812826412836 -728.801925360609 2459.13223028984 9 12 5
-700.725965523785 -735.974403571738 2493.45817651163 10 13 6
-676.565691563981 -727.848996248199 2467.65068743707 16 19 12
-688.949976808896 -745.435247428932 2546.08814687118 9 12 5
-685.289674174546 -748.959038770713 2565.28492415772 10 11 6
-676.798635634594 -748.176630120082 2566.29595884282 14 15 10
-668.318623377962 -747.394072959322 2567.30274416517 17 19 14
-664.497064113882 -750.909805368124 2586.55872010056 16 18 13
-664.46208339014 -758.039244659611 2621.23240121962 11 13 8
-777.590987947066 -734.925421585871 2404.81134588438 10 13 6
-768.153707427118 -733.231343749579 2401.96823915204 11 14 7
-779.193360323241 -747.918374927197 2466.18020024926 11 14 7
-786.760922519474 -760.054802644208 2520.11301356152 10 13 6
-764.353819436122 -747.976574722295 2474.76749449444 9 11 6
-723.935294647388 -726.84420902609 2396.11716180989 11 14 7
-714.387332634558 -724.923276853801 2392.26483010498 11 14 7
-709.782538428839 -727.144929676699 2405.50317904477 10 13 6
-692.430197374507 -718.5545938145 2374.05726886059 10 13 6
