ply
format ascii 1.0
comment KinectMotionCapture
element vertex 754
property float x
property float y
property float z
property uchar red
property uchar green
property uchar blue
end_header
-1197.53956794739 461.374908685684 1860.00001430511 149 148 144
-1197.06428050995 463.176935911179 1868.00003051758 159 158 154
-1194.6405172348 464.237302541733 1873.00002574921 160 159 155
-1193.4689283371 465.795606374741 1879.99999523163 156 155 151
-1189.74053859711 466.365307569504 1883.00001621246 173 172 168
-1184.12005901337 466.19501709938 1883.00001621246 176 177 172
-1183.518409729 468.007892370224 1891.00003242493 175 176 171
-1182.25824832916 469.575226306915 1898.00000190735 175 176 171
-1185.30762195587 472.875744104385 1911.99994087219 175 176 171
-1185.81771850586 475.188195705414 1922.00005054474 174 175 170
-1183.82406234741 476.51344537735 1927.99997329712 174 175 170
-1175.69553852081 475.370168685913 1924.00002479553 175 176 171
-1171.25022411346 475.712478160858 1925.99999904633 178 179 174
-1168.61963272095 476.798325777054 1930.99999427795 180 181 176
-1171.39053344727 480.107933282852 1945.00005245209 179 180 175
-1168.0965423584 480.950742959976 1949.00000095367 179 178 173
-1167.17517375946 482.782661914825 1957.00001716614 178 177 172
-1164.4366979599 483.876496553421 1962.00001239777 179 178 173
-1165.81332683563 486.698359251022 1973.99997711182 181 180 175
-1163.01620006561 487.796008586884 1978.99997234344 181 180 175
-1160.19952297211 488.895773887634 1983.99996757507 181 180 175
-1157.36377239227 489.997714757919 1988.9999628067 180 179 174
-1157.40323066711 492.333203554153 1998.99995326996 179 178 173
-1156.24177455902 494.177639484406 2006.99996948242 181 180 175
-1152.75061130524 495.039165019989 2010.99991798401 182 181 176
-1150.38597583771 496.395111083984 2016.99995994568 182 181 177
-1146.29328250885 497.014820575714 2019.99998092651 174 174 172
-1146.14403247833 499.358683824539 2029.99997138977 181 181 179
-1144.82247829437 501.212179660797 2038.00010681152 178 178 176
-1144.0224647522 503.313183784485 2046.99993133545 179 179 177
-1139.28711414337 503.695070743561 2049.00002479553 180 180 178
-1136.2076997757 504.816472530365 2053.99990081787 175 175 173
-1132.55786895752 505.694150924683 2058.00008773804 181 181 179
-1129.43994998932 506.819546222687 2062.99996376038 188 188 186
-1126.84643268585 508.192479610443 2069.00000572205 187 187 185
-1128.56042385101 511.531829833984 2082.99994468689 203 203 201
-1128.58557701111 514.135599136353 2094.00010108948 214 214 212
-1124.80306625366 515.022397041321 2098.00004959106 209 208 206
-1120.47159671783 515.665709972382 2101.0000705719 188 187 185
-1115.06915092468 515.820264816284 2101.99999809265 183 182 180
-1113.36183547974 517.694473266602 2109.99989509583 187 186 184
-1110.56637763977 519.079625606537 2115.9999370575 198 197 195
-1108.78789424896 520.957171916962 2124.00007247925 205 204 202
-1105.41319847107 522.100448608398 2128.99994850159 212 211 209
-1106.14824295044 525.207102298737 2141.99995994568 197 196 194
-1107.8439950943 528.805375099182 2157.00006484985 200 199 197
-1104.86447811127 530.198514461517 2163.00010681152 200 199 197
-1100.33345222473 530.858039855957 2165.99988937378 203 202 200
-1096.80211544037 532.009541988373 2171.0000038147 208 207 203
-1094.75576877594 533.897936344147 2178.99990081787 201 200 196
-1091.1717414856 535.052835941315 2184.00001525879 184 183 179
-1088.55926990509 536.69935464859 2190.99998474121 203 202 198
-1087.39542961121 539.082288742065 2200.99997520447 216 215 211
-1087.1639251709 541.95636510849 2213.00005912781 216 215 211
-1087.35942840576 545.076549053192 2226.0000705719 231 230 226
-1083.11665058136 545.994400978088 2230.00001907349 215 214 210
-1078.37378978729 546.669185161591 2233.00004005432 230 229 225
-1071.21849060059 546.121656894684 2230.99994659424 226 225 221
-1070.28543949127 548.758149147034 2242.00010299683 234 233 229
-1073.09305667877 553.353786468506 2260.99991798401 216 212 211
-1073.91273975372 556.971549987793 2276.00002288818 226 224 225
-1073.24707508087 559.856295585632 2288.00010681152 219 217 218
-1068.32253932953 560.54025888443 2290.99988937378 235 235 235
-1066.16735458374 562.69383430481 2299.99995231628 226 226 226
-1062.58451938629 564.114928245544 2305.99999427795 227 226 224
-1059.4310760498 565.782129764557 2312.99996376038 224 219 215
-1054.42202091217 566.472411155701 2315.99998474121 230 219 213
-1048.04289340973 566.430568695068 2315.99998474121 222 209 200
-1043.01714897156 567.12406873703 2319.00000572205 219 202 192
-1037.08481788635 567.330002784729 2319.9999332428 198 181 165
-1031.59499168396 567.78210401535 2322.00002670288 156 140 117
-1025.2149105072 567.746698856354 2322.00002670288 100 82 58
-1018.83828639984 567.712843418121 2322.00002670288 116 98 74
-1013.77356052399 568.414092063904 2325.00004768372 123 106 80
-1007.39574432373 568.383276462555 2325.00004768372 116 96 71
-1002.74336338043 569.331824779511 2328.9999961853 122 101 74
-996.361196041107 569.303929805756 2328.9999961853 122 98 72
-992.53261089325 570.744156837463 2335.00003814697 110 86 60
-988.251805305481 571.941137313843 2339.99991416931 106 80 55
-982.268393039703 572.161972522736 2341.00008010864 105 79 54
-975.865483283997 572.13968038559 2341.00008010864 105 79 52
-968.63716840744 571.630001068115 2338.99998664856 100 76 48
-964.302241802216 572.832405567169 2344.00010108948 99 75 47
-960.351288318634 574.280381202698 2349.99990463257 100 76 48
-955.5584192276 575.240910053253 2354.00009155273 101 77 51
-951.552391052246 576.691269874573 2359.99989509583 97 75 51
-947.115838527679 577.898621559143 2365.00000953674 99 79 55
-942.654073238373 579.107105731964 2369.99988555908 96 78 56
-935.007393360138 578.361988067627 2367.00010299683 93 76 58
-930.517613887787 579.572916030884 2371.99997901917 88 75 59
-927.560865879059 581.762194633484 2381.00004196167 100 88 74
-924.557209014893 583.952665328979 2390.00010490417 139 131 120
-1256.5153837204 434.063166379929 1748.99995326996 55 40 33
-1255.17404079437 435.291409492493 1754.99999523163 62 47 40
-1258.7970495224 438.25763463974 1768.00000667572 69 54 47
-1254.55868244171 438.499450683594 1769.99998092651 70 55 48
-1246.0925579071 437.259614467621 1766.00003242493 65 50 43
-1278.41055393219 450.378000736237 1820.00005245209 57 50 40
-1226.49323940277 433.806985616684 1753.99994850159 96 89 79
-1227.21815109253 435.797423124313 1763.00001144409 50 43 33
-1242.45512485504 442.97781586647 1792.99998283386 93 84 77
-1239.58539962769 443.734437227249 1797.00005054474 109 106 101
-1227.09381580353 441.038876771927 1786.99994087219 108 107 102
-1223.56724739075 441.556692123413 1789.99996185303 107 106 101
-1222.07951545715 442.817479372025 1796.0000038147 104 103 98
-1217.18347072601 442.848563194275 1797.00005054474 108 107 102
-1213.64510059357 443.375885486603 1799.99995231628 113 112 107
-1211.44580841064 444.398790597916 1804.99994754791 116 117 111
-1213.23919296265 446.900874376297 1815.99998474121 94 95 89
-1214.31457996368 449.158221483231 1825.99997520447 95 96 90
-1216.00532531738 451.662957668304 1837.00001239777 97 98 92
-1209.7362279892 451.219856739044 1835.99996566772 114 113 108
-1205.45518398285 451.517581939697 1838.00005912781 119 118 113
-1205.09254932404 453.291773796082 1845.99995613098 139 138 133
-1206.6445350647 455.804228782654 1856.99999332428 135 134 129
-1204.26261425018 456.845849752426 1861.99998855591 145 144 139
-1196.71392440796 455.92787861824 1858.99996757507 145 144 140
-1196.24447822571 457.710713148117 1866.99998378754 158 157 153
-1193.82655620575 458.760201931 1871.99997901917 164 163 159
-1193.29535961151 460.546970367432 1879.99999523163 162 161 157
-1188.3065700531 460.621446371078 1881.00004196167 174 173 169
-1185.83905696869 461.678177118301 1886.0000371933 176 177 172
-1183.9793920517 462.981879711151 1891.99995994568 174 175 170
-1183.9644908905 465.021669864655 1901.00002288818 171 172 167
-1187.00706958771 468.285769224167 1914.99996185303 167 168 163
-1188.12739849091 470.817297697067 1925.99999904633 170 171 166
-1185.51063537598 471.883893013 1930.99999427795 175 176 171
-1176.76568031311 470.509856939316 1925.99999904633 174 175 170
-1172.92547225952 471.093356609344 1929.00002002716 175 176 171
-1169.6834564209 471.923470497131 1932.99996852875 178 179 174
-1170.64380645752 474.464446306229 1944.00000572205 178 179 174
-1169.75247859955 476.274728775024 1952.00002193451 178 177 173
-1168.82467269897 478.086769580841 1960.00003814697 177 176 172
-1166.07999801636 479.168951511383 1965.0000333786 175 174 170
-1163.90669345856 480.497062206268 1970.99995613098 177 176 172
-1160.53318977356 481.339782476425 1975.00002384186 182 181 177
-1157.73069858551 482.428342103958 1980.00001907349 182 181 177
-1154.90877628326 483.519017696381 1985.00001430511 181 180 176
-1156.11982345581 486.316442489624 1996.99997901917 179 178 174
-1156.69441223145 488.871574401855 2007.99989700317 178 177 173
-1154.34908866882 490.21103978157 2013.99993896484 180 179 175
-1149.12676811218 490.335732698441 2015.00010490417 181 180 176
-1145.04218101501 490.94945192337 2017.99988746643 181 181 179
-1143.77164840698 492.781609296799 2026.00002288818 177 177 175
-1141.90196990967 494.37215924263 2032.99999237061 176 176 174
-1141.67714118958 496.693819761276 2042.99998283386 180 180 178
-1137.51149177551 497.315496206284 2046.0000038147 180 180 178
-1133.88991355896 498.182326555252 2049.99995231628 181 181 179
-1129.70328330994 498.808234930038 2052.99997329712 182 182 180
-1127.1493434906 500.164985656738 2059.00001525879 181 181 179
-1124.0246295929 501.280665397644 2063.99989128113 179 179 177
-1121.42050266266 502.641081809998 2069.9999332428 178 178 176
-1119.32873725891 504.246056079865 2076.99990272522 178 178 176
-1118.81268024445 506.580829620361 2086.99989318848 179 178 176
-1118.2473897934 508.917093276978 2096.99988365173 183 182 180
-1115.51070213318 510.284125804901 2102.9999256134 183 182 180
-1112.21981048584 511.410355567932 2108.00004005432 181 180 178
-1109.43186283112 512.780904769897 2114.00008201599 179 178 176
-1106.61673545837 514.153122901917 2119.99988555908 171 170 168
-1103.25562953949 515.284657478333 2125 184 183 181
-1102.45430469513 517.630159854889 2134.99999046326 192 191 189
-1101.08971595764 519.734621047974 2144.00005340576 193 192 190
-1099.68101978302 521.840631961823 2153.00011634827 181 180 178
-1097.21171855927 523.463308811188 2160.00008583069 181 180 178
-1095.21448612213 525.329828262329 2167.99998283386 190 189 185
-1093.17862987518 527.198016643524 2176.00011825562 197 196 192
-1089.10512924194 528.09864282608 2180.0000667572 197 196 192
-1085.01517772675 529.00105714798 2184.00001525879 183 182 178
-1082.39030838013 530.6316614151 2190.99998474121 184 183 179
-1079.73206043243 532.263875007629 2197.99995422363 202 201 197
-1079.4825553894 535.108268260956 2210.00003814697 194 193 189
-1076.25734806061 536.501288414001 2216.00008010864 217 216 212
-1073.48668575287 538.137972354889 2223.00004959106 210 209 205
-1068.28165054321 538.565814495087 2224.99990463257 215 214 210
-1065.45734405518 540.205597877502 2232.00011253357 203 202 198
-1065.44637680054 543.298840522766 2244.99988555908 210 208 209
-1066.78366661072 547.11925983429 2260.99991798401 215 213 216
-1067.56806373596 550.698816776276 2276.00002288818 210 210 212
-1064.07749652863 552.102088928223 2282.00006484985 187 187 189
-1061.94877624512 554.232537746429 2290.99988937378 204 204 206
-1058.39240550995 555.638670921326 2296.99993133545 212 212 212
-1055.26518821716 557.28816986084 2303.99990081787 211 210 208
-1050.28259754181 557.971715927124 2306.99992179871 213 205 202
-1044.38245296478 558.173060417175 2308.00008773804 211 202 195
-1039.83008861542 559.101521968842 2312.00003623962 217 204 195
-1034.36541557312 559.54784154892 2313.99989128113 208 196 184
-1028.89382839203 559.995710849762 2315.99998474121 200 188 172
-1022.9731798172 560.203313827515 2316.99991226196 186 173 156
-1017.05086231232 560.412526130676 2318.00007820129 128 115 96
-1011.56234741211 560.864865779877 2319.9999332428 104 89 68
-1006.49964809418 561.560451984406 2322.99995422363 118 101 81
-1002.71534919739 562.982559204102 2328.9999961853 112 92 68
-997.617959976196 563.68088722229 2332.00001716614 116 96 72
-992.50739812851 564.380645751953 2335.00003814697 115 91 67
-987.805724143982 565.323412418365 2338.99998664856 112 88 64
-982.245922088623 565.784096717834 2341.00008010864 111 87 61
-976.678073406219 566.246151924133 2342.99993515015 101 77 49
-969.859778881073 565.984547138214 2342.00000762939 95 71 45
-964.695155620575 566.690862178802 2345.00002861023 95 71 45
-960.334002971649 567.88170337677 2349.99990463257 96 72 46
-956.354320049286 569.315552711487 2355.99994659424 97 75 51
-953.150629997253 571.233868598938 2364.00008201599 96 74 50
-950.706601142883 573.636531829834 2374.00007247925 100 82 60
-949.005722999573 576.523542404175 2385.99991798401 97 80 60
-943.29172372818 576.995491981506 2388.00001144409 96 80 64
-934.430599212646 575.535595417023 2381.99996948242 115 103 89
-923.656582832336 572.868943214417 2371.00005149841 130 120 108
-1248.32355976105 441.835433244705 1809.99994277954 117 116 111
-1211.04669570923 432.121843099594 1771.99995517731 102 103 98
-1223.90496730804 438.490003347397 1799.00002479553 96 97 92
-1221.71223163605 439.495861530304 1804.00002002716 112 113 108
-1220.17812728882 440.747946500778 1809.99994277954 105 104 100
-1219.96438503265 442.489236593246 1817.999958992 98 97 93
-1219.04838085175 443.989217281342 1825.00004768372 110 109 105
-1222.75829315186 447.193473577499 1838.99998664856 97 96 92
-1218.45507621765 447.481691837311 1840.99996089935 117 116 112
-1211.51900291443 446.801275014877 1838.99998664856 122 121 116
-1205.92045783997 446.610569953918 1838.99998664856 129 128 123
-1202.94678211212 447.394400835037 1843.00005435944 138 137 132
-1205.15978336334 450.122117996216 1855.00001907349 139 138 133
-1202.78704166412 451.153039932251 1860.00001430511 145 144 139
-1199.75352287292 451.943963766098 1863.9999628067 146 145 141
-1197.99041748047 453.222185373306 1870.00000476837 159 158 154
-1196.84147834778 454.744905233383 1876.99997425079 169 168 164
-1195.02866268158 456.027507781982 1883.00001621246 168 167 163
-1190.03403186798 456.101775169373 1883.99994373322 173 172 168
-1188.81773948669 457.631170749664 1891.00003242493 170 171 166
-1185.69457530975 458.436727523804 1894.99998092651 170 171 166
-1187.54124641418 461.179435253143 1906.99994564056 168 169 164
-1191.18773937225 464.648574590683 1922.00005054474 166 167 162
-1192.906498909 467.393308877945 1934.00001525879 168 169 164
-1188.42720985413 467.723309993744 1935.99998950958 173 174 169
-1179.67092990875 466.365367174149 1930.99999427795 172 173 168
-1175.81856250763 466.942727565765 1934.00001525879 173 174 169
-1171.95963859558 467.522591352463 1937.00003623962 175 176 171
-1171.10407352448 469.311386346817 1945.00005245209 174 175 170
-1170.21203041077 471.101880073547 1952.99994945526 170 169 165
-1167.49477386475 472.170680761337 1957.99994468689 174 173 169
-1164.16525840759 473.000556230545 1962.00001239777 173 172 168
-1162.00315952301 474.31468963623 1968.00005435944 172 171 167
-1159.81578826904 475.630730390549 1973.99997711182 176 175 171
-1159.35730934143 477.671444416046 1983.00004005432 175 174 170
-1155.94720840454 478.509515523911 1986.99998855591 177 176 172
-1155.99656105042 480.794429779053 1996.99997901917 177 176 172
-1154.8455953598 482.599347829819 2005.00011444092 181 180 176
-1154.23023700714 484.646499156952 2013.99993896484 183 182 178
-1149.58071708679 485.011219978333 2016.00003242493 183 182 178
-1146.06308937073 485.859304666519 2019.99998092651 178 179 174
-1144.78886127472 487.671345472336 2028.00011634827 175 176 171
-1141.23070240021 488.523334264755 2032.00006484985 176 177 172
-1139.33444023132 490.098536014557 2039.00003433228 180 181 176
-1134.6263885498 490.47377705574 2040.99988937378 182 183 178
-1132.12740421295 491.812407970428 2046.99993133545 179 180 175
-1129.05216217041 492.912650108337 2052.00004577637 180 181 176
-1127.05039978027 494.495034217834 2059.00001525879 175 176 171
-1123.38328361511 495.358735322952 2062.99996376038 172 173 168
-1118.61741542816 495.744377374649 2065.00005722046 173 174 169
-1114.38620090485 496.372044086456 2068.00007820129 176 177 172
-1114.96961116791 499.161511659622 2079.99992370605 181 180 176
-1115.49234390259 501.952290534973 2092.00000762939 179 178 174
-1115.95416069031 504.744291305542 2104.00009155273 176 175 171
-1112.66219615936 505.858421325684 2108.99996757507 179 178 174
-1109.87365245819 507.214248180389 2115.00000953674 183 182 178
-1106.53555393219 508.331894874573 2119.99988555908 173 172 168
-1103.17635536194 509.451389312744 2125 169 168 164
-1101.34410858154 511.291682720184 2132.99989700317 170 169 165
-1097.41938114166 512.174904346466 2137.00008392334 192 191 187
-1095.01028060913 513.778686523438 2144.00005340576 190 189 185
-1092.5680398941 515.384137630463 2151.00002288818 180 179 175
-1091.60816669464 517.709851264954 2161.00001335144 186 185 181
-1090.09575843811 519.797325134277 2170.00007629395 181 180 176
-1086.54069900513 520.928263664246 2174.99995231628 185 184 180
-1081.47287368774 521.342396736145 2177.00004577637 185 184 180
-1077.88133621216 522.476673126221 2181.99992179871 181 180 176
-1075.24979114532 524.091422557831 2188.99989128113 185 184 180
-1074.53835010529 526.665329933167 2200.00004768372 183 182 178
-1071.82836532593 528.282940387726 2207.00001716614 180 179 175
-1070.05023956299 530.38078546524 2216.00008010864 176 175 171
-1065.82653522491 531.283378601074 2220.00002861023 183 182 178
-1062.06297874451 532.42689371109 2224.99990463257 182 181 177
-1059.22555923462 534.050583839417 2232.00011253357 194 193 191
-1059.18490886688 537.111103534698 2244.99988555908 184 184 182
-1060.48381328583 540.890514850616 2260.99991798401 178 178 176
-1059.83400344849 543.714225292206 2273.00000190735 192 194 193
-1058.19523334503 546.060740947723 2282.99999237061 182 184 183
-1054.66246604919 547.451913356781 2289.00003433228 191 193 192
-1051.10096931458 548.844575881958 2295.00007629395 193 195 194
-1047.05512523651 549.999535083771 2299.99995231628 191 192 187
-1041.62847995758 550.438582897186 2302.00004577637 193 192 187
-1037.09411621094 551.357388496399 2305.99999427795 201 198 191
-1032.09459781647 552.038609981537 2309.00001525879 201 198 191
-1027.52673625946 552.960395812988 2312.99996376038 194 191 184
-1022.05753326416 553.405463695526 2315.00005722046 189 185 176
-1016.14201068878 553.612947463989 2315.99998474121 179 175 164
-1010.66052913666 554.060995578766 2318.00007820129 190 182 169
-1005.60474395752 554.749488830566 2321.00009918213 189 179 167
-1000.96619129181 555.678308010101 2325.00004768372 136 123 107
-996.308982372284 556.608498096466 2328.9999961853 118 103 84
-991.632997989655 557.539999485016 2332.99994468689 105 87 67
-987.782776355743 558.950841426849 2338.99998664856 110 89 68
-983.063459396362 559.884905815125 2342.99993515015 107 86 65
-978.325128555298 560.820341110229 2346.99988365173 108 88 64
-971.497416496277 560.562372207642 2345.99995613098 103 83 59
-966.323137283325 561.261355876923 2348.99997711182 92 72 48
-961.95250749588 562.439620494843 2354.00009155273 88 68 44
-958.774626255035 564.335644245148 2361.99998855591 86 68 44
-954.749464988709 565.755188465118 2368.00003051758 87 69 47
-952.29572057724 568.131446838379 2378.00002098084 96 81 62
-952.971458435059 572.420060634613 2395.99990844727 95 82 65
-950.391411781311 574.79852437973 2405.99989891052 112 100 86
-938.736498355865 571.683406829834 2392.99988746643 155 147 136
-1235.72242259979 439.478188753128 1825.00004768372 97 98 93
-1228.73413562775 438.788831233978 1822.99995422363 112 111 107
-1227.81240940094 440.268963575363 1830.00004291534 108 107 103
-1222.85521030426 440.308451652527 1830.9999704361 115 111 108
-1225.21936893463 442.995429039001 1843.00005435944 107 103 100
-1219.5839881897 442.800343036652 1843.00005435944 128 127 123
-1214.62142467499 442.849010229111 1843.99998188019 125 124 119
-1207.70013332367 442.180842161179 1842.00000762939 134 135 129
-1205.37292957306 443.196207284927 1847.00000286102 135 136 130
-1204.97763156891 444.933652877808 1855.00001907349 135 136 130
-1201.31480693817 445.474117994308 1858.00004005432 145 146 141
-1200.22106170654 446.976035833359 1865.00000953674 146 147 142
-1199.73874092102 448.719561100006 1873.00002574921 147 148 143
-1198.58348369598 450.225412845612 1879.99999523163 143 143 141
-1199.93722438812 452.690839767456 1891.00003242493 142 142 140
-1195.55330276489 453.003823757172 1893.00000667572 130 130 128
-1193.05551052094 454.037249088287 1898.00000190735 127 128 123
-1188.03763389587 454.116493463516 1899.00004863739 143 144 139
-1187.38377094269 455.871969461441 1906.99994564056 153 154 149
-1189.79287147522 458.824127912521 1919.99995708466 165 166 161
-1187.81924247742 460.105031728745 1925.99999904633 166 167 162
-1183.98034572601 460.671544075012 1929.00002002716 171 172 167
-1178.30204963684 460.524380207062 1929.00002002716 172 173 168
-1175.06623268127 461.334735155106 1932.99996852875 174 175 170
-1172.42276668549 462.386101484299 1937.99996376038 175 176 171
-1170.36259174347 463.678061962128 1944.00000572205 173 174 169
-1168.87664794922 465.210497379303 1950.99997520447 166 165 161
-1164.97540473938 465.791255235672 1953.9999961853 173 172 168
-1160.47334671021 466.136068105698 1955.9999704361 175 174 170
-1160.10224819183 468.151062726974 1965.0000333786 172 171 167
-1159.68835353851 470.167607069016 1973.99997711182 172 171 167
-1160.40098667145 472.661912441254 1985.00001430511 171 170 166
-1156.98778629303 473.491162061691 1988.9999628067 177 176 172
-1154.71816062927 474.798530340195 1995.00000476837 177 176 172
-1152.42302417755 476.107746362686 2000.99992752075 180 179 175
-1152.39453315735 478.370398283005 2010.99991798401 180 179 175
-1150.03645420074 479.68316078186 2016.99995994568 177 176 172
-1147.08578586578 480.760097503662 2022.0000743866 181 182 177
-1144.11449432373 481.838881969452 2026.99995040894 178 179 174
-1140.56146144867 482.681959867477 2030.99989891052 176 177 172
-1135.87653636932 483.051955699921 2032.99999237061 174 175 170
-1131.74390792847 483.661621809006 2036.00001335144 175 176 171
-1129.26137447357 484.985947608948 2042.00005531311 179 180 175
-1126.75249576569 486.312061548233 2048.00009727478 178 179 174
-1124.21691417694 487.63981461525 2053.99990081787 177 178 173
-1122.19953536987 489.206850528717 2061.00010871887 176 177 172
-1119.06635761261 490.300744771957 2065.99998474121 175 176 171
-1115.91219902039 491.396576166153 2071.00009918213 175 176 171
-1113.80910873413 492.968678474426 2078.00006866455 171 170 166
-1112.73944377899 495.016664266586 2086.99989318848 174 173 169
-1112.68663406372 497.540503740311 2098.00004959106 179 178 174
-1110.99624633789 499.354213476181 2105.99994659424 179 178 174
-1109.26735401154 501.169562339783 2114.00008201599 179 178 174
-1106.978058815 502.74932384491 2121.00005149841 179 178 174
-1104.65610027313 504.33075428009 2128.00002098084 180 179 175
-1101.26829147339 505.439698696136 2132.99989700317 180 179 175
-1096.31848335266 505.839705467224 2134.99999046326 166 165 161
-1094.42758560181 507.662951946259 2142.99988746643 165 164 160
-1091.98999404907 509.250819683075 2150.00009536743 185 184 180
-1091.53962135315 511.787474155426 2161.00001335144 185 184 180
-1088.52207660675 513.141512870789 2167.00005531311 182 181 177
-1084.47742462158 514.02348279953 2171.0000038147 177 176 172
-1078.92596721649 514.196991920471 2171.99993133545 177 176 172
-1076.33805274963 515.792667865753 2178.99990081787 181 180 176
-1073.22537899017 517.153143882751 2184.99994277954 181 180 176
-1072.03817367554 519.461750984192 2194.9999332428 181 180 176
-1069.34368610382 521.061718463898 2201.99990272522 179 178 174
-1068.54677200317 523.609697818756 2213.00005912781 176 175 171
-1063.85314464569 524.266242980957 2216.00008010864 176 175 171
-1059.62491035461 525.16096830368 2220.00002861023 177 176 172
-1054.43024635315 525.584161281586 2221.99988365173 182 181 177
-1054.41856384277 528.610706329346 2234.99989509583 183 184 179
-1054.80885505676 531.875014305115 2249.00007247925 178 180 177
-1056.52475357056 535.849750041962 2266.00003242493 182 184 181
-1054.90672588348 538.170337677002 2276.00002288818 185 190 186
-1051.85556411743 539.7829413414 2282.99999237061 177 182 178
-1047.39618301392 540.687680244446 2286.99994087219 186 191 187
-1042.91880130768 541.593849658966 2290.99988937378 199 201 196
-1038.87581825256 542.73796081543 2296.0000038147 194 197 190
-1034.80935096741 543.883562088013 2301.00011825562 190 191 185
-1030.27212619781 544.794082641602 2305.0000667572 192 193 187
-1025.27236938477 545.469701290131 2308.00008773804 187 188 183
-1020.25985717773 546.146869659424 2311.00010871887 196 195 190
-1014.79542255402 546.589016914368 2312.99996376038 188 188 180
-1009.32371616364 547.032713890076 2315.00005722046 184 180 169
-1004.71091270447 547.950327396393 2319.00000572205 184 177 167
-1000.07915496826 548.86931180954 2322.99995422363 177 167 155
-995.428860187531 549.789547920227 2326.99990272522 189 177 161
-990.75973033905 550.711214542389 2331.00008964539 148 132 116
-986.49400472641 551.870405673981 2335.99996566772 113 96 78
-981.784164905548 552.794575691223 2339.99991416931 97 79 59
-977.889180183411 554.192543029785 2345.99995613098 96 78 58
-973.135769367218 555.119216442108 2349.99990463257 99 81 59
-968.363344669342 556.047201156616 2354.00009155273 94 76 54
-964.388728141785 557.448744773865 2359.99989509583 91 73 51
-960.384130477905 558.851540088654 2365.9999370575 86 69 49
-956.34913444519 560.255467891693 2371.99997901917 87 70 52
-953.885555267334 562.605321407318 2381.99996948242 87 71 55
-954.551637172699 566.845774650574 2400.00009536743 106 94 80
-956.306934356689 571.795761585236 2421.0000038147 94 84 72
-1241.33431911469 438.186854124069 1842.00000762939 179 180 175
-1233.64865779877 437.270879745483 1838.99998664856 119 118 114
-1228.6673784256 437.309890985489 1840.0000333786 119 118 114
-1226.35352611542 438.302576541901 1845.00002861023 120 119 115
-1221.37713432312 438.347995281219 1845.99995613098 128 127 123
-1213.11616897583 437.209963798523 1842.00000762939 130 131 125
-1206.20429515839 436.550736427307 1840.0000333786 135 136 131
-1203.88638973236 437.555432319641 1845.00002861023 132 133 128
-1204.14924621582 439.510762691498 1853.99997234344 138 139 134
-1203.0782699585 440.993815660477 1860.99994182587 149 150 145
-1203.26507091522 442.952632904053 1870.00000476837 140 141 136
-1204.69164848328 445.386677980423 1881.00004196167 146 146 144
-1203.51505279541 446.875125169754 1888.00001144409 107 107 105
-1201.67469978333 448.129028081894 1894.00005340576 112 112 110
-1196.02203369141 447.965979576111 1894.00005340576 124 124 122
-1190.38152694702 447.806030511856 1894.00005340576 136 137 132
-1186.62941455841 448.358237743378 1896.99995517731 146 147 142
-1185.98413467407 450.094401836395 1904.99997138977 154 155 150
-1188.40098381042 453.013241291046 1917.99998283386 160 161 156
-1187.66915798187 454.752445220947 1925.99999904633 164 165 160
-1184.44657325745 455.549269914627 1929.99994754791 158 159 154
-1179.98993396759 455.876529216766 1932.000041008 159 160 155
-1175.53234100342 456.206381320953 1934.00001525879 152 153 148
-1172.88839817047 457.246243953705 1939.00001049042 151 152 147
-1173.83754253387 459.702759981155 1950.00004768372 160 161 156
-1172.33633995056 461.217761039734 1957.00001716614 166 165 161
-1167.22786426544 461.320966482162 1957.99994468689 162 161 157
-1160.34388542175 460.720181465149 1955.9999704361 165 164 160
-1159.38448905945 462.477117776871 1963.99998664856 158 157 153
-1158.38837623596 464.235693216324 1972.00000286102 165 164 160
-1160.27784347534 467.172741889954 1985.00001430511 168 167 163
-1157.44864940643 468.228459358215 1990.00000953674 172 171 167
-1154.0207862854 469.050854444504 1993.99995803833 172 171 167
-1151.15487575531 470.110684633255 1998.99995326996 174 173 169
-1149.98817443848 471.877723932266 2006.99996948242 179 178 174
-1149.92439746857 474.116533994675 2016.99995994568 179 178 174
-1145.84112167358 474.711716175079 2019.99998092651 177 178 173
-1142.3134803772 475.543946027756 2023.9999294281 175 176 171
-1138.77153396606 476.378321647644 2028.00011634827 176 177 172
-1135.77342033386 477.449417114258 2032.99999237061 176 177 172
-1130.53143024445 477.583169937134 2033.99991989136 174 175 170
-1127.50351428986 478.658258914948 2039.00003433228 177 178 173
-1125.00512599945 479.969888925552 2045.00007629395 179 180 175
-1124.12202358246 481.987208127975 2053.99990081787 180 181 176
-1122.65110015869 483.771413564682 2062.00003623962 178 179 174
-1120.05889415741 485.087990760803 2068.00007820129 177 178 173
-1117.43974685669 486.406266689301 2073.99988174438 178 179 174
-1113.18600177765 487.02284693718 2076.99990272522 171 170 166
-1110.52191257477 488.344639539719 2082.99994468689 172 171 167
-1109.42149162292 490.371316671371 2092.00000762939 177 176 172
-1107.22231864929 491.930723190308 2098.99997711182 179 178 174
-1107.08904266357 494.428992271423 2109.99989509583 178 177 173
-1105.85653781891 496.4599609375 2118.99995803833 179 178 174
-1104.06112670898 498.258173465729 2127.00009346008 179 178 174
-1099.64561462402 498.886674642563 2130.00011444092 184 183 179
-1095.73292732239 499.751210212708 2134.0000629425 176 175 171
-1093.84655952454 501.554071903229 2141.99995994568 162 161 157
-1090.90566635132 502.890229225159 2148.00000190735 167 166 162
-1089.45226669312 504.930198192596 2157.00006484985 182 181 177
-1085.94524860382 506.035327911377 2161.99994087219 183 182 178
-1081.91633224487 506.907999515533 2165.99988937378 178 177 173
-1077.37421989441 507.548391819 2168.99991035461 176 175 171
-1074.79643821716 509.126484394073 2176.00011825562 180 179 175
-1073.16708564758 511.173725128174 2184.99994277954 180 179 175
-1071.004986763 512.98862695694 2193.00007820129 181 180 176
-1068.31753253937 514.570891857147 2200.00004768372 180 179 175
-1066.56205654144 516.622424125671 2209.00011062622 177 176 172
-1062.36112117767 517.506003379822 2213.00005912781 176 175 171
-1058.62033367157 518.62496137619 2217.99993515015 177 176 172
-1053.90739440918 519.277930259705 2220.99995613098 179 179 171
-1052.01292037964 521.335065364838 2230.00001907349 180 181 173
-1051.01132392883 523.861110210419 2240.9999370575 177 178 170
-1051.8182516098 527.323424816132 2256.00004196167 178 181 172
-1051.15616321564 530.085504055023 2267.99988746643 180 183 176
-1049.51095581055 532.381474971771 2278.00011634827 180 183 176
-1045.06683349609 533.276557922363 2282.00006484985 174 177 170
-1040.60471057892 534.173130989075 2286.00001335144 170 175 168
-1035.67218780518 534.837424755096 2289.00003433228 179 184 177
-1031.62622451782 535.970509052277 2293.99991035461 187 192 185
-1027.55677700043 537.105023860931 2299.00002479553 185 190 184
-1023.01919460297 538.007318973541 2302.99997329712 194 196 195
-1018.46325397491 538.910925388336 2306.99992179871 193 195 194
-1013.01145553589 539.348781108856 2309.00001525879 194 194 192
-1008.85987281799 540.488719940186 2313.99989128113 199 198 194
-1004.68444824219 541.630029678345 2319.00000572205 191 190 185
-1000.48458576202 542.772650718689 2323.99988174438 175 171 162
-994.549632072449 542.982399463654 2325.00004768372 180 173 163
-990.312397480011 544.127643108368 2329.99992370605 177 169 158
-985.628604888916 545.040667057037 2334.00011062622 175 165 153
-981.344997882843 546.188354492188 2338.99998664856 176 167 152
-976.620197296143 547.103822231293 2342.99993515015 176 167 152
-972.704529762268 548.487484455109 2348.99997711182 183 174 159
-969.170153141022 550.105929374695 2355.99994659424 165 153 139
-965.19136428833 551.491975784302 2361.99998855591 142 130 116
-961.182415485382 552.879273891449 2368.00003051758 95 83 69
-957.546412944794 554.501116275787 2375 85 73 59
-955.476343631744 557.057976722717 2385.99991798401 80 70 58
-954.541742801666 560.316443443298 2400.00009536743 98 89 80
-954.718053340912 564.276218414307 2417.00005531311 118 111 103
-955.980837345123 568.937480449677 2437.00003623962 160 157 150
-1244.18127536774 435.869842767715 1855.00001907349 129 128 124
-1227.13685035706 431.680113077164 1838.00005912781 125 124 120
-1223.50287437439 432.192713022232 1840.99996089935 125 124 120
-1219.86544132233 432.708293199539 1843.99998188019 124 123 119
-1214.90669250488 432.757586240768 1845.00002861023 132 133 127
-1209.95581150055 432.810127735138 1845.99995613098 138 139 134
-1209.57970619202 434.506416320801 1853.99997234344 135 136 131
-1210.46721935272 436.673015356064 1863.9999628067 144 145 140
-1211.30800247192 438.841074705124 1873.99995326996 107 108 103
-1208.24122428894 439.606130123138 1878.00002098084 111 111 109
-1208.36508274078 441.543608903885 1886.99996471405 124 124 122
-1206.53593540192 442.781060934067 1893.00000667572 111 111 109
-1202.78012752533 443.319201469421 1896.00002765656 108 108 106
-1197.75605201721 443.392485380173 1896.99995517731 132 132 130
-1192.73805618286 443.46871972084 1898.00000190735 133 134 129
-1191.47872924805 444.949239492416 1904.99997138977 151 152 147
-1191.43462181091 446.89866900444 1914.00003433228 157 158 153
-1192.58785247803 449.316442012787 1924.99995231628 153 154 149
-1188.75479698181 449.868887662888 1927.99997329712 157 158 153
-1186.14256381989 450.890272855759 1932.99996852875 149 150 145
-1181.06913566589 450.981140136719 1934.00001525879 143 144 139
-1176.00071430206 451.074689626694 1934.99994277954 136 137 132
-1172.75154590607 451.870024204254 1939.00001049042 142 143 138
-1174.30448532104 454.53143119812 1950.99997520447 154 155 150
-1172.80280590057 456.029444932938 1957.99994468689 164 163 161
-1168.88618469238 456.597834825516 1960.99996566772 161 160 158
-1161.99624538422 456.004738807678 1958.99999141693 156 155 153
-1159.84988212585 457.276225090027 1965.0000333786 151 150 148
-1159.44027900696 459.247559309006 1973.99997711182 157 156 154
-1160.74132919312 461.918145418167 1985.99994182587 160 159 157
-1157.91153907776 462.962210178375 1991.00005626678 168 167 165
-1153.9044380188 463.543295860291 1993.99995803833 169 168 166
-1149.88923072815 464.126586914063 1996.99997901917 169 168 166
-1150.44915676117 466.570883989334 2007.99989700317 174 173 171
-1150.38430690765 468.784064054489 2017.99988746643 180 179 177
-1146.3006734848 469.373047351837 2020.99990844727 176 177 172
-1140.51496982574 469.267427921295 2020.99990844727 173 174 169
-1137.54510879517 470.32505273819 2026.00002288818 169 170 165
-1136.23070716858 472.080767154694 2033.99991989136 169 170 165
-1132.09974765778 472.677826881409 2036.99994087219 171 172 167
-1127.95948982239 473.276883363724 2039.99996185303 167 168 163
-1124.91047382355 474.341928958893 2045.00007629395 171 172 167
-1124.0291595459 476.3363301754 2053.99990081787 178 179 174
-1124.19319152832 478.795945644379 2065.00005722046 178 179 174
-1121.05286121368 479.865878820419 2069.9999332428 178 179 174
-1117.8914308548 480.937659740448 2075.00004768372 179 180 175
-1113.63697052002 481.547683477402 2078.00006866455 179 178 174
-1110.43870449066 482.622981071472 2082.99994468689 172 171 167
-1107.7493429184 483.931720256805 2088.99998664856 166 165 161
-1105.0329208374 485.242038965225 2095.00002861023 169 168 164
-1104.91240024567 487.71196603775 2105.99994659424 180 179 175
-1103.17122936249 489.488482475281 2114.00008201599 180 179 175
-1101.91059112549 491.497993469238 2122.99990653992 180 179 175
-1098.54054450989 492.582947015762 2128.00002098084 179 178 174
-1096.68922424316 494.363963603973 2135.99991798401 182 181 177
-1094.79892253876 496.146440505981 2144.00005340576 176 175 171
-1091.3462638855 497.23619222641 2148.9999294281 166 165 161
-1088.37687969208 498.558938503265 2154.99997138977 161 160 156
-1082.86821842194 498.726636171341 2155.99989891052 170 169 165
-1080.35624027252 500.28395652771 2163.00010681152 181 180 176
-1076.8176317215 501.380145549774 2167.99998283386 180 179 175
-1075.7257938385 503.634095191956 2177.99997329712 173 172 168
-1072.12829589844 504.733383655548 2183.00008773804 174 173 169
-1070.46139240265 506.758868694305 2191.99991226196 177 176 172
-1066.32173061371 507.629930973053 2196.00009918213 178 177 173
-1063.13025951386 508.964776992798 2201.99990272522 178 177 173
-1059.43059921265 510.070025920868 2207.00001716614 177 176 172
-1056.66255950928 511.638998985291 2213.99998664856 176 175 171
-1053.38573455811 512.978255748749 2220.00002861023 178 178 170
-1049.60870742798 514.087855815887 2224.99990463257 179 180 172
-1048.15328121185 516.354143619537 2234.99989509583 177 178 170
-1047.57952690125 519.083738327026 2246.99997901917 178 179 171
-1048.3341217041 522.50748872757 2262.00008392334 179 180 172
-1046.70691490173 524.777412414551 2272.0000743866 180 183 174
-1044.11256313324 526.586651802063 2279.99997138977 179 182 173
-1038.74707221985 527.011573314667 2282.00006484985 171 176 169
-1033.8271856308 527.668952941895 2285.00008583069 168 173 166
-1029.34396266937 528.558552265167 2289.00003433228 173 178 171
-1025.28965473175 529.680609703064 2293.99991035461 177 182 176
-1020.3230381012 530.342161655426 2296.99993133545 187 189 188
-1015.34354686737 531.005144119263 2299.99995231628 191 193 192
-1010.35106182098 531.669557094574 2302.99997329712 196 198 197
-1006.6534280777 533.027768135071 2309.00001525879 203 203 201
-1002.49290466309 534.156501293182 2313.99989128113 196 195 191
-999.169230461121 535.74812412262 2321.00009918213 179 176 171
-994.099318981171 536.417722702026 2323.99988174438 180 175 169
-989.441156387329 537.319540977478 2328.00006866455 180 176 167
-983.919203281403 537.760853767395 2329.99992370605 177 170 160
-979.648113250732 538.895905017853 2335.00003814697 176 170 158
-975.352346897125 540.032148361206 2339.99991416931 180 174 162
-971.86017036438 541.631162166595 2346.99988365173 170 164 152
-968.332409858704 543.23136806488 2354.00009155273 175 167 156
-964.360237121582 544.601917266846 2359.99989509583 174 166 155
-960.763990879059 546.204507350922 2367.00010299683 175 167 156
-956.728518009186 547.577261924744 2372.99990653992 179 171 160
-954.264521598816 549.874246120453 2382.99989700317 170 161 152
-951.350688934326 551.941633224487 2391.99995994568 179 172 164
-952.73494720459 556.548237800598 2411.99994087219 182 177 171
-957.935154438019 563.46321105957 2441.99991226196 206 205 200
-961.805462837219 569.687008857727 2469.00010108948 171 172 167
-955.859780311584 570.143342018127 2470.99995613098 154 154 152
-1222.64993190765 426.803946495056 1840.0000333786 163 163 161
-1222.98717498779 428.705483675003 1848.99997711182 142 142 140
-1221.30846977234 429.913401603699 1855.00001907349 147 148 143
-1216.98594093323 430.196911096573 1856.99999332428 153 154 149
-1219.18821334839 432.799071073532 1868.99995803833 142 143 138
-1220.68226337433 435.170859098434 1879.99999523163 121 122 117
-1220.83079814911 437.081128358841 1889.00005817413 116 117 112
-1215.14868736267 436.911404132843 1889.00005817413 108 108 106
-1212.68105506897 437.900930643082 1894.00005340576 128 128 126
-1208.28437805176 438.199400901794 1896.00002765656 109 109 107
-1202.6195526123 438.038617372513 1896.00002765656 116 116 114
-1198.86112213135 438.573807477951 1899.00004863739 122 122 120
-1195.0968503952 439.11150097847 1901.99995040894 124 125 120
-1196.95496559143 441.728919744492 1914.00003433228 138 139 134
-1199.37598705292 444.5780813694 1927.00004577637 144 145 140
-1199.25403594971 446.505695581436 1935.99998950958 142 143 138
-1197.24071025848 447.743237018585 1942.00003147125 145 146 141
-1193.3628320694 448.291331529617 1945.00005245209 137 138 133
-1187.64626979828 448.150604963303 1945.00005245209 120 121 116
-1180.11748790741 447.321712970734 1942.00003147125 120 121 116
-1175.6409406662 447.647392749786 1944.00000572205 132 133 128
-1176.57935619354 450.047433376312 1955.00004291534 144 145 140
-1175.06814002991 451.528131961823 1962.00001239777 159 158 156
-1171.14245891571 452.090352773666 1965.0000333786 160 159 157
-1166.02301597595 452.194809913635 1965.99996089935 139 138 136
-1163.2684469223 453.221619129181 1970.99995613098 141 140 138
-1160.49432754517 454.250425100327 1975.99995136261 142 141 139
-1160.62259674072 456.430286169052 1985.99994182587 142 141 139
-1157.21344947815 457.23295211792 1990.00000953674 157 156 154
-1153.21183204651 457.807958126068 1993.00003051758 156 155 153
-1149.20175075531 458.385199308395 1996.00005149841 163 162 160
-1150.33912658691 461.030781269073 2007.99989700317 171 170 168
-1149.70636367798 462.989032268524 2016.99995994568 178 177 175
-1145.0606584549 463.342308998108 2019.00005340576 179 180 175
-1139.84751701355 463.468253612518 2019.99998092651 178 179 173
-1138.56685161591 465.202301740646 2028.00011634827 170 171 165
-1139.4829750061 467.855185270309 2039.99996185303 167 168 162
-1135.33699512482 468.445599079132 2042.99998283386 169 170 164
-1130.62918186188 468.808829784393 2045.00007629395 166 167 161
-1127.01773643494 469.632536172867 2049.00002479553 166 167 161
-1126.67417526245 471.833020448685 2059.00001525879 173 174 168
-1126.28138065338 474.034816026688 2069.00000572205 177 178 172
-1122.59006500244 474.863588809967 2072.99995422363 178 179 173
-1117.26725101471 475.007116794586 2073.99988174438 177 178 172
-1111.94598674774 475.15270113945 2075.00004768372 180 179 174
-1109.82418060303 476.673990488052 2082.00001716614 178 177 172
-1107.13934898376 477.967947721481 2088.00005912781 168 167 162
-1106.01007938385 479.950189590454 2096.99988365173 167 166 161
-1104.31182384491 481.704920530319 2105.00001907349 175 174 169
-1102.05328464508 483.232319355011 2111.99998855591 178 177 172
-1099.24304485321 484.532535076141 2118.00003051758 183 182 177
-1097.95367717743 486.520528793335 2127.00009346008 179 178 173
-1096.10688686371 488.281160593033 2134.99999046326 184 183 178
-1095.24214267731 490.500569343567 2144.99998092651 184 183 178
-1090.26527404785 490.892231464386 2147.0000743866 179 178 173
-1086.79795265198 491.971433162689 2151.99995040894 163 162 158
-1080.79707622528 491.909295320511 2151.99995040894 163 162 158
-1077.7987241745 493.220448493958 2157.99999237061 175 174 170
-1074.77235794067 494.533032178879 2164.00003433228 179 178 174
-1074.18715953827 496.989667415619 2174.99995231628 176 175 171
-1071.58160209656 498.533546924591 2181.99992179871 174 173 169
-1068.94242763519 500.078916549683 2188.99989128113 177 176 172
-1064.32723999023 500.712037086487 2191.99991226196 179 178 174
-1061.14876270294 502.031922340393 2197.99995422363 180 179 175
-1058.42173099518 503.581643104553 2204.99992370605 179 178 174
-1055.6606054306 505.132734775543 2211.99989318848 178 177 173
-1051.91659927368 506.228566169739 2217.00000762939 179 178 173
-1047.67763614655 507.097542285919 2220.99995613098 179 178 173
-1044.82781887054 508.652865886688 2227.9999256134 179 178 173
-1042.87612438202 510.666131973267 2236.99998855591 178 177 172
-1043.19620132446 513.8218998909 2250.99992752075 179 180 174
-1042.52207279205 516.522407531738 2263.00001144409 180 181 175
-1040.41194915771 518.539369106293 2272.0000743866 182 185 178
-1036.43548488617 519.644677639008 2276.99995040894 178 181 174
-1031.98313713074 520.523190498352 2280.99989891052 170 173 166
-1028.41186523438 521.859467029572 2286.99994087219 165 170 164
-1023.91743659973 522.740662097931 2290.99988937378 169 174 168
-1019.84906196594 523.85151386261 2296.0000038147 172 172 172
-1015.31505584717 524.735450744629 2299.99995231628 177 177 177
-1010.32400131226 525.392651557922 2302.99997329712 188 187 185
-1006.19173049927 526.507437229156 2308.00008773804 190 189 187
-1000.73564052582 526.93909406662 2309.99994277954 188 187 185
-996.993780136108 528.284549713135 2315.99998474121 183 182 178
-992.794394493103 529.403209686279 2321.00009918213 181 178 173
-989.420652389526 530.979156494141 2328.00006866455 186 183 178
-984.322428703308 531.644105911255 2331.00008964539 187 184 177
-979.6302318573 532.538294792175 2335.00003814697 175 172 165
-974.918961524963 533.433735370636 2338.99998664856 172 169 162
-971.016705036163 534.786522388458 2345.00002861023 176 173 166
-967.084169387817 536.140382289886 2351.0000705719 170 167 158
-963.121473789215 537.49543428421 2357.00011253357 168 165 156
-960.346043109894 539.535641670227 2365.9999370575 166 162 153
-957.524240016937 541.577160358429 2375 167 160 152
-955.85685968399 544.303715229034 2387.00008392334 167 163 154
-952.13770866394 545.891284942627 2394.00005340576 176 173 166
-951.542496681213 549.304008483887 2408.99991989136 175 172 165
-955.967426300049 555.682122707367 2437.00003623962 207 206 202
-962.579131126404 563.429236412048 2470.99995613098 197 197 195
-961.271166801453 566.617071628571 2484.99989509583 187 187 185
-955.663979053497 567.29781627655 2487.99991607666 209 209 207
-949.660956859589 567.75164604187 2490.00000953674 206 206 204
-940.240740776062 566.154360771179 2483.00004005432 152 154 151
-1228.4152507782 434.554159641266 1901.00002288818 142 144 141
-1222.70023822784 434.386253356934 1901.00002288818 130 132 129
-1220.83950042725 435.592085123062 1906.99994564056 118 120 117
-1217.04411506653 436.115056276321 1909.9999666214 113 115 114
-1208.80389213562 435.042917728424 1906.00001811981 113 115 114
-1207.54325389862 436.484277248383 1912.99998760223 115 117 114
-1203.74023914337 437.015295028687 1916.00000858307 113 113 111
-1206.18414878845 439.828872680664 1929.00002002716 103 104 99
-1205.45101165771 441.503763198853 1937.00003623962 104 105 100
-1204.68246936798 443.18038225174 1945.00005245209 112 113 108
-1200.1793384552 443.491995334625 1947.00002670288 118 119 114
-1195.06227970123 443.578511476517 1947.99995422363 112 113 108
-1188.72928619385 443.212449550629 1947.00002670288 119 120 115
-1183.02047252655 443.076938390732 1947.00002670288 123 124 119
-1179.74126338959 443.854123353958 1950.99997520447 123 124 119
-1178.85589599609 445.54328918457 1958.99999141693 127 128 123
-1176.13768577576 446.552008390427 1963.99998664856 149 148 146
-1172.80471324921 447.335422039032 1968.00005435944 153 152 150
-1167.6789522171 447.439223527908 1968.99998188019 130 129 127
-1166.09823703766 448.908627033234 1975.99995136261 138 137 135
-1164.48640823364 450.379759073257 1983.00004005432 139 138 136
-1163.42771053314 452.079653739929 1991.00005626678 137 136 134
-1157.09924697876 451.738148927689 1990.00000953674 149 148 146
-1152.52113342285 452.080011367798 1991.99998378754 152 151 149
-1148.51641654968 452.651113271713 1995.00000476837 159 158 156
-1149.65844154358 455.265790224075 2006.99996948242 169 168 166
-1149.03056621552 457.201331853867 2016.00003242493 176 175 171
-1146.65842056274 458.458065986633 2022.0000743866 172 173 168
-1142.00305938721 458.809792995453 2023.9999294281 179 180 174
-1141.27433300018 460.750162601471 2032.99999237061 175 176 170
-1140.50245285034 462.691932916641 2042.00005531311 170 171 165
-1136.35289669037 463.275909423828 2045.00007629395 167 168 162
-1132.19428062439 463.861912488937 2048.00009727478 162 163 157
-1128.57639789581 464.676290750504 2052.00004577637 160 161 155
-1126.03747844696 465.945333242416 2058.00008773804 162 163 157
-1123.47209453583 467.216014862061 2063.99989128113 168 169 163
-1120.88000774384 468.488425016403 2069.9999332428 177 178 172
-1117.72239208221 469.536185264587 2075.00004768372 178 179 173
-1114.54367637634 470.585644245148 2079.99992370605 177 176 171
-1113.47556114197 472.541660070419 2088.99998664856 180 179 174
