ply
format ascii 1.0
comment KinectMotionCapture
element vertex 774
property float x
property float y
property float z
property uchar red
property uchar green
property uchar blue
end_header
-655.90157812885 58.5995417038092 2358.50303949425 156 160 163
-651.456335263497 59.2601271181887 2371.90088691782 151 155 158
-648.51496552383 60.133464423322 2391.16847356797 151 155 156
-646.773883302675 61.1859748581088 2415.34625077243 169 173 174
-645.940126900199 62.3837746623002 2443.47205830802 193 195 194
-644.974145244748 63.5861762867239 2471.64625545834 204 206 203
-1022.67955225966 39.8926867344405 2305.95804457023 154 160 148
-1012.85708936292 40.0257941340098 2303.13736565381 161 163 160
-1003.06493653442 40.1573733503581 2300.3053043422 147 149 148
-990.677021968838 40.0913598861107 2290.93506979625 142 144 143
-981.336269765801 40.2471494392515 2289.00738063132 139 140 142
-971.28083885201 40.3451414420246 2285.20188768903 154 155 157
-962.730912159567 40.5545478848814 2285.12427417715 149 150 152
-953.101428200455 40.677834320202 2282.23248345278 167 168 170
-943.502577536869 40.7994930056822 2279.32969399066 197 199 198
-935.373312335885 41.0339835819501 2280.16768723658 208 210 207
-926.182603462661 41.1816027768046 2278.18511953381 202 204 199
-917.017338691017 41.3278244059142 2276.19294727957 198 200 195
-906.821498706587 41.3859980434468 2271.36890962895 169 174 170
-899.113067141571 41.6452087142853 2273.12241961879 115 120 116
-893.491432261543 42.0785191700485 2280.53095445163 57 62 58
-885.777785020414 42.3371595031922 2282.28631645959 55 59 58
-877.385800477684 42.5366278693091 2282.15082109478 33 37 36
-869.348379330413 42.7645812238365 2282.95495070301 38 43 39
-861.321281730717 42.9916844795408 2283.75526523741 35 39 38
-851.634069797065 43.0700453636443 2279.81450331212 5 9 8
-840.325269235949 42.9980986813918 2271.11854899472 19 24 20
-832.038873371108 43.1916080657842 2270.94398537798 23 28 24
-825.726482620447 43.5636389915974 2276.46550734106 27 31 30
-819.722708633887 43.9658177746877 2282.94372818522 23 27 26
-811.449743058085 44.1577303495481 2282.76416435827 29 33 32
-804.467235465939 44.4694616967925 2286.39124845612 14 18 17
-798.428300294155 44.8719129227453 2292.88226523558 29 33 32
-789.233511317748 44.9708424742696 2289.83095003874 14 18 17
-779.136756208024 44.9766954034401 2283.90015290838 128 132 131
-770.628787195731 45.1333500059848 2282.73675814758 205 209 208
-763.365205069158 45.4116536850505 2285.39688877101 168 172 171
-755.192119226502 45.5971914065585 2285.18055389321 168 172 171
-746.132627269699 45.6891498090752 2282.07929991857 252 255 255
-739.48979879618 46.027432975304 2286.65152545073 245 249 248
-732.837258420164 46.3657544708604 2291.22753687906 252 255 255
-725.881871766741 46.6728825549929 2294.84441959781 242 246 247
-717.760009551276 46.854721151586 2294.6091941477 216 220 221
-710.517869712807 47.1298047591084 2297.26129102306 175 179 182
-704.13238610755 47.4988859576992 2302.80914780355 182 186 189
-698.014959900995 47.8998055473784 2309.32882206449 209 213 216
-691.036933501402 48.2061211989707 2312.95386935391 215 219 222
-684.609806006875 48.5758175220987 2318.51690333542 213 217 220
-676.792468806421 48.786385763367 2319.23975644608 222 226 229
-669.803755183133 49.0921227908314 2322.86889745236 225 228 233
-663.080569961833 49.4297648770851 2327.47027123824 208 211 216
-659.289430621542 50.1211126764938 2342.76614613786 188 192 195
-654.637955826759 50.7178622760911 2355.16755261473 186 190 193
-650.460634381932 51.3808429999664 2369.5350453972 191 195 198
-648.300399322681 52.3053774779262 2391.72234810362 171 175 176
-647.581573525382 53.428593078463 2419.80076953692 164 168 169
-647.494281460377 54.6543364145999 2450.85738994731 170 172 171
-647.511406957688 55.9180293661547 2482.94549113249 194 196 193
-1021.0654422526 31.8181653473111 2302.73560710777 155 161 149
-1009.35045737334 31.841863170361 2295.26075327002 208 210 205
-1000.71215201978 32.0643412107321 2295.21623731765 196 198 195
-987.963818486792 32.0078709504814 2284.91112033044 202 204 201
-979.383819020161 32.2273259103069 2284.84519156344 201 203 202
-968.599637964869 32.2929468892279 2279.1686716898 209 211 210
-960.432608484879 32.5354205882818 2280.02124276112 198 200 199
-950.816553889379 32.6744696180496 2277.12576195754 200 202 201
-941.593212858369 32.8376702651828 2275.15597208337 224 226 223
-933.833851361017 33.1030560698337 2276.92870705924 225 227 222
-926.079450193485 33.3678907061182 2278.69959817447 221 224 217
-919.038946159642 33.6843004924602 2282.34810755331 162 165 158
-910.23369098802 33.8696648722918 2281.29489421716 6 11 5
-901.448884556616 34.053842997316 2280.23416158092 5 10 4
-895.805484758759 34.474350597908 2287.64938412466 20 25 19
-890.480653693128 34.9219235927379 2296.01771135421 28 33 29
-878.633801579774 34.8652551427269 2286.4515935963 26 31 27
-869.56636868457 35.01913317222 2284.42470734022 25 30 24
-861.870601076025 35.2787124184819 2286.17364384869 23 28 24
-846.833394708025 34.9463551178146 2267.07957514937 34 39 35
-837.547732538654 35.0677277627663 2264.06271665821 44 49 43
-832.896399735902 35.5667140613676 2274.323582672 34 39 33
-838.970051014563 36.9639053231268 2315.95407477953 39 44 40
-831.239168446505 37.2230566679931 2317.71599189093 42 47 43
-818.054818637813 37.0161736982946 2303.29146785693 49 54 50
-814.20075823125 37.6022913267267 2316.46889777832 41 46 42
-807.130785494515 37.914403799174 2320.12779000441 49 54 50
-793.787825835117 37.6728045313946 2304.69146494286 49 54 50
-778.056009949248 37.2049048853653 2281.57306782566 25 30 26
-770.786583095588 37.4839134001048 2284.23537523891 9 14 10
-765.35184089902 37.9303924446871 2292.64355476969 0 3 0
-756.248947577684 38.0408406633112 2289.55946522685 9 14 10
-746.876725349345 38.1215708072168 2285.50443447679 0 2 0
-738.43495068701 38.2854049398135 2284.31753052976 52 57 53
-732.673202013981 38.7033320181722 2291.77555895985 251 255 252
-725.714855229464 39.0080609192236 2295.39359048845 252 255 255
-717.880906996371 39.2269009831305 2296.12310313332 235 239 238
-710.633324418031 39.5023759567475 2298.77720708968 242 246 245
-703.101164847755 39.7487287738732 2300.46595500369 226 230 229
-696.987876181804 40.1387214664325 2306.98304718365 249 253 254
-689.454391723963 40.3844709916851 2308.67223095974 230 234 235
-683.591686422032 40.8039317574165 2316.16705644364 245 249 250
-675.504615105359 40.9908720500933 2315.91957508456 246 250 251
-669.340267781874 41.3815661359242 2322.45552601877 203 207 210
-663.695707811771 41.8313160632335 2330.93993271434 189 193 196
-659.891914248034 42.4879334823858 2346.2377849059 200 204 207
-655.492967720214 43.0877097551385 2359.61447728983 195 199 202
-650.776316724922 43.6595829067402 2372.03768776027 202 206 209
-648.604865003605 44.530244450556 2394.22500110235 193 197 198
-647.873837743294 45.5833381701659 2422.30256497749 180 184 185
-646.501604822711 46.5812255881003 2448.47557076539 188 190 189
-648.785539593939 48.0335311014592 2489.35405518423 162 164 161
-1023.66002924302 24.0035938764828 2309.7362328294 159 165 153
-1009.26614233093 23.9015383213796 2295.75908844439 197 200 193
-999.49315776393 24.0648241779329 2292.92245490016 194 196 191
-987.501464408732 24.0912801124663 2284.48179150984 179 181 176
-978.921601653858 24.3187692307776 2284.41641926041 187 189 186
-969.617459871308 24.4998828640565 2282.47759320237 218 220 217
-961.072933000204 24.7253061561579 2282.39922622947 233 235 232
-951.449784724084 24.8808603001275 2279.50756816368 229 231 228
-940.771156342092 24.96576000271 2273.79415165035 8 10 5
-933.373605012887 25.2568922633113 2276.50392625319 3 6 0
-926.332737315759 25.5709044117482 2280.15238685896 7 10 1
-923.184143533247 26.1417516784943 2294.13915263194 22 25 16
-910.828320493904 26.1046900259001 2283.69288625231 30 35 28
-902.385270871423 26.3236164794653 2283.57715858722 27 32 25
-889.798152679906 26.2576865493709 2272.14594172221 27 32 25
-890.017886577922 27.0675508168386 2295.59322705766 27 32 25
-863.830531673014 26.0441710702986 2246.36594466203 32 37 30
-867.072313381287 27.0700040633501 2278.33127077456 36 41 34
-846.946928071676 26.4415932602507 2245.06397577118 38 43 36
-835.695106454478 26.4333138901214 2236.35212266402 39 44 37
-832.785225447189 27.0288662780129 2251.32032109406 38 43 36
-835.067203421358 28.0163511019015 2281.49811973736 39 44 37
-839.156962651978 29.1560406710057 2317.43041368616 56 61 54
-839.508568251112 30.0321870215615 2342.9678986441 60 65 59
-810.870343622606 29.5447935675752 2307.47124235204 75 80 74
-806.665317036769 30.0771386524673 2319.70557800499 70 75 69
-785.180744296127 29.2385551760861 2279.45012100773 76 81 75
-774.801193155477 29.2676356760659 2272.55701631028 62 67 63
-762.624768829874 29.1434622257267 2259.90588244161 60 65 61
-761.224946741879 29.8995198938981 2280.73737617166 50 55 51
-755.78933508716 30.3294477246158 2289.14462279372 35 40 36
-746.718345709115 30.454876971302 2286.05007169263 23 28 24
-741.550778943201 30.9108373754556 2295.42870228223 3 8 4
-736.052373816654 31.3421610278035 2303.8586151425 9 14 10
-728.182054299726 31.5683640314474 2304.6021526915 136 141 137
-719.16185860199 31.6905278192283 2301.48889995474 211 215 214
-711.61103933139 31.9408256862271 2303.18472529895 190 194 193
-702.640738959433 32.0604141946403 2300.0531494076 183 187 186
-695.961556734869 32.3875229016161 2304.63774049197 194 198 197
-688.712962123809 32.662233476864 2307.29215448275 229 233 234
-683.406498527826 33.1208827936078 2316.72145438966 233 237 238
-675.866563863192 33.3691610647339 2318.41291826077 232 236 237
-669.693521501799 33.7494893218891 2324.95099200521 207 211 214
-664.040086094418 34.1834934206652 2333.4376897378 198 202 205
-661.02746556571 34.8854530119013 2351.65142321052 178 182 185
-656.875551044654 35.4829461280674 2366.00474355886 165 169 172
-653.710832400895 36.1899864417395 2384.27412333736 176 180 183
-649.686742135251 36.8187974255817 2399.64991955391 208 212 213
-648.422153367068 37.7478344008446 2425.77861930288 192 196 197
-645.764090303347 38.5451617168644 2447.07064739804 193 195 194
-646.533656069825 39.727882503518 2482.07917231436 188 190 187
-1022.42800321035 15.9492166047248 2307.44279174794 159 165 151
-1009.94083433904 15.9939777414325 2298.11697813923 190 193 186
-1000.91531335508 16.2132599838453 2297.14635480156 193 195 190
-990.036466838455 16.3322766611605 2291.50825923584 205 207 202
-982.924783023762 16.6484174247805 2295.18286490925 206 208 203
-973.959827857777 16.8642607298817 2294.18997626208 66 67 62
-965.015017370069 17.07897313058 2293.18942866296 6 7 2
-952.810743714671 17.1104450994437 2283.75982590941 19 20 15
-942.482300643618 17.2406480314552 2278.98940266529 18 19 13
-933.631870343101 17.4505862868644 2277.95445728814 21 24 15
-928.369036681375 17.8647395851165 2286.2977369631 16 19 10
-914.92957213326 17.805124191861 2273.04331920061 30 33 24
-897.709902427089 17.5136851010964 2249.41227324512 30 33 26
-884.822120788236 17.4662778926791 2237.02514003327 32 37 30
-884.488836209274 18.1690737060194 2258.53191248375 28 33 26
-879.926235257463 18.6230845817407 2268.75714541633 27 32 25
-882.831573340465 19.5434063336397 2299.76994259855 27 32 25
-858.14380612926 18.7491085261635 2254.28156753072 22 27 20
-844.475952314873 18.6270426541444 2238.97230770248 31 36 29
-836.910935826646 18.8867685973443 2240.67400279243 28 33 26
-833.323752607929 19.4043931959507 2253.74929830058 40 45 38
-830.994256538023 20.0103798612285 2270.6410294551 34 39 32
-826.958284270588 20.5103618672314 2282.81149947945 35 40 33
-824.164580711404 21.0992924312302 2298.80379719512 30 35 29
-816.808256991257 21.3835728906307 2301.49807527997 38 43 37
-804.67895283009 21.3370166700521 2289.90223346736 27 32 26
-791.679896241523 21.2207197858199 2275.41696600745 26 31 25
-781.904500065862 21.3228474314441 2270.44348173166 30 35 29
-769.68628810354 21.2444189503494 2257.81072810646 19 24 18
-760.322181181092 21.3643148204187 2253.75570387758 13 18 12
-752.521269345254 21.5951140612668 2254.47411549766 23 28 22
-748.36492899752 22.0967333130461 2266.68844329876 18 23 17
-745.358713410099 22.690872471775 2282.75834761184 16 21 15
-740.495088439202 23.1504246519717 2293.09337197562 17 22 16
-733.229866804048 23.427899127581 2295.75403572936 15 20 14
-726.842838775675 23.7740834417109 2301.30072605027 19 24 18
-718.990998522717 24.0049078306964 2302.03764377435 9 14 8
-711.724867969868 24.2814649983902 2304.69856855968 0 2 0
-702.465319710872 24.3944756201905 2300.60503473875 164 169 165
-695.78301817415 24.7164817553949 2305.19062849444 209 214 210
-689.091022330611 25.0385231388757 2309.77949291014 201 206 202
-683.775368672383 25.4786375922003 2319.2104791215 200 204 203
-676.776936765537 25.7776082014323 2322.8426406081 191 195 194
-670.590150696001 26.1477840242407 2329.38494194047 183 187 186
-665.192105943516 26.5900762885865 2338.84602824984 188 192 191
-661.360446856323 27.1773626575777 2354.1487738941 194 198 199
-656.141168544606 27.6464211618566 2364.61348343504 209 213 214
-651.928985475276 28.2133672602368 2378.98639678906 204 208 209
-648.693002161105 28.8794816382343 2397.27858177142 220 224 223
-648.456005886761 29.8408424939315 2427.30309102535 240 244 243
-647.314124015882 30.7338059674446 2454.45104118447 225 227 224
-1011.3738621544 8.10287915561111 2302.33419912555 129 130 122
-1004.59842423135 8.43546299363274 2306.95443093264 36 37 31
-996.688661469653 8.71686421506337 2308.7827664196 12 13 5
-988.411837487855 8.98048202633395 2309.67682531373 39 39 29
-978.297913743802 9.15686729721213 2305.8984999106 30 30 20
-966.385436917967 9.24445401324758 2297.43366659531 45 43 31
-953.077268934239 9.25924174521739 2285.20396823751 37 35 23
-940.936102407582 9.32329366288465 2275.7538945033 32 32 22
-933.530196436561 9.61463333180307 2278.46672031056 21 21 11
-921.488783883796 9.67410186684386 2268.98005638788 28 29 23
-901.726021071072 9.3365203416472 2238.8028735643 28 29 24
-888.468627666372 9.31583900675004 2225.48549445996 30 33 26
-876.345029535619 9.34571960542258 2214.95990294972 29 32 25
-875.028376191883 9.93710822089269 2233.61564133376 28 31 24
-878.436665094429 10.7879914188455 2265.50726888811 28 31 24
-873.839010492858 11.2212028668579 2275.74341447278 26 29 22
-861.074094697391 11.2113054734507 2263.31446966132 24 27 20
-844.359132437182 10.974551703891 2239.5041706315 16 19 12
-839.125524282318 11.368103057476 2247.83502282739 21 24 17
-835.184932503616 11.8378134038298 2259.96880779842 33 36 29
-830.208090223395 12.2524486882644 2269.27476866829 21 24 17
-822.915191861566 12.5350245629169 2271.94587332492 17 20 13
-816.592081848742 12.8746017858138 2277.4688413148 22 25 18
-813.460036571262 13.4065568135116 2292.51321615032 23 26 19
-800.719722468304 13.361422970372 2279.00586343098 27 30 23
-792.168425096926 13.5649409981678 2277.86174741048 28 31 24
-779.257086581228 13.4941241224147 2263.34829452501 27 30 23
-772.024867605534 13.7723931193391 2265.99702712107 26 29 22
-760.483879324932 13.7744860025922 2255.25740063992 28 31 24
-748.404814243181 13.7338255235684 2242.57719368874 25 28 21
-742.764017163951 14.1076618497898 2249.98794914488 24 27 20
-740.999312859167 14.7421562691135 2269.8765442138 25 28 21
-736.762446831998 15.21908209072 2282.11826685959 23 26 19
-728.640255894323 15.4350865272085 2281.88573871378 20 23 16
-718.779597242952 15.5283353459224 2275.87575303306 19 22 15
-715.052179223839 16.0477809748728 2290.06894905297 17 20 13
-710.976484052129 16.548736466433 2303.32048158869 13 15 10
-704.852018245678 16.9074248360347 2309.83927288239 5 7 2
-698.425600638945 17.2458584639842 2315.39969011473 2 4 0
-691.425252200775 17.5429524539822 2319.03215204996 92 94 89
-685.251578706222 17.9025974134116 2325.5691488262 223 225 220
-678.509138410188 18.2207443839902 2330.17604776623 200 202 197
-672.844709374775 18.6232285563463 2338.66436166796 206 208 203
-666.611652432536 18.9842253962968 2345.22278237715 198 200 195
-661.692649542187 19.4520029163555 2356.64510447121 202 204 199
-654.879015565876 19.7716381873556 2361.27823734883 205 207 202
-651.195492114391 20.3488938064397 2377.59295915482 218 220 215
-648.218297567518 20.9931791840486 2396.85602566386 253 255 250
-652.33709890059 22.246763717873 2443.45268637325 248 250 245
-1009.00997340873 0.0417839212014659 2297.25157637563 168 169 161
-1010.53943472172 0.682449723825501 2322.34358904089 95 96 90
-1004.08344397525 1.02573133026779 2327.91511709321 40 41 33
-993.521759300577 1.20993571639791 2323.23325947364 38 38 28
-978.200822302634 1.20267368579 2306.40017650491 38 36 24
-964.454045269075 1.24953386738511 2293.26570496675 37 35 23
-951.158385088719 1.30745451449021 2281.03471650158 42 40 28
-940.113873717879 1.45113703379582 2274.39211803859 31 31 21
-931.633295874666 1.69737565516789 2274.29208653211 19 19 9
-926.019147667213 2.06341136681235 2281.69257088352 26 27 21
-898.44137736316 1.4883777953606 2230.87119457869 28 29 24
-885.558181819098 1.52846658444822 2218.48899677912 28 31 24
-881.125961948158 1.93432597395971 2228.6632242621 28 31 24
-878.72935564676 2.43445881002158 2244.50454170087 27 30 23
-877.978718871037 3.01506095022158 2265.08717793265 28 31 24
-867.241505923029 3.14405394847211 2258.3318180644 26 29 22
-858.586206280752 3.36548115360741 2257.22658694544 25 28 21
-846.592938713016 3.4268777439545 2246.65601937906 21 24 17
-834.338372295433 3.46917019950299 2235.11239382286 22 25 18
-832.082778622048 3.99084516712597 2251.97065770388 31 34 27
-830.734896855597 4.56376033991082 2271.7031592386 23 26 19
-825.06193392068 4.92816419718115 2279.12489006323 21 24 17
-814.841119256055 5.06379048023242 2273.24896003494 27 30 23
-808.512318776774 5.39514861870974 2278.77337544194 27 30 23
-797.082039699233 5.46138745402267 2269.0651746069 28 31 24
-786.349474365177 5.55808378981337 2261.23913301377 30 33 26
-775.36087995435 5.63549861933971 2252.43785103613 32 35 28
-768.156606194302 5.91280946664977 2255.07635779196 33 36 29
-753.877212924603 5.79921161264466 2235.72345288436 29 32 25
-747.0378493846 6.09068522441894 2239.29725319914 30 33 26
-741.706141466552 6.46794193575742 2247.66251926629 30 33 26
-739.04355092136 7.00156395471432 2264.66981612474 30 33 26
-736.899161357623 7.57256857997804 2283.62476415808 31 34 27
-728.182501426579 7.76215102897293 2281.4731228665 30 33 26
-719.784166009109 7.96796758434637 2280.27334914606 31 34 27
-710.827687196978 8.13738310938455 2277.14076519619 31 34 27
-710.515598310548 8.83833123014374 2302.90617629921 29 32 25
-706.381990797657 9.3113870054386 2316.17664548521 25 28 21
-700.500840674964 9.67849422223505 2323.67447681156 24 27 20
-695.991704745701 10.1365528158298 2336.01370177525 14 17 10
-686.448724955978 10.2693767246947 2330.95783367501 16 19 12
-678.044660864357 10.4733787107351 2329.76025879014 5 8 1
-673.194142150172 10.9148674522472 2341.15571448079 6 9 2
-668.029109282141 11.339315708889 2351.59734870047 2 5 0
-662.290649160531 11.7279143909349 2360.11151319359 74 77 70
-655.202124149557 12.0241369447907 2363.7759472379 103 106 99
-649.678172441119 12.4327018816202 2373.28048979727 89 92 85
-1004.36121606349 -7.00223094110802 2329.34158196374 38 40 29
-992.308890418091 -6.84311962186937 2320.93321192733 34 34 24
-978.103263887078 -6.75790350074598 2306.90154111762 34 32 20
-962.157230629416 -6.73648243243996 2288.1643765007 35 33 21
-952.516104626123 -6.51494196283006 2285.28422919198 42 39 30
-942.182838884912 -6.31925193674243 2280.52049931086 33 33 25
-930.455145015895 -6.17452614320549 2271.99283864258 25 25 17
-912.376534339007 -6.25511519454816 2246.55642039086 24 25 19
-881.596567601952 -6.25942781515698 2208.67446564153 23 26 19
-882.068007972972 -5.69902242271023 2232.01147449215 22 25 18
-882.426349687577 -5.13446614374252 2255.38963521777 23 26 19
-869.965744736126 -5.04189912033295 2243.92466449501 23 26 19
-862.694716216059 -4.75815318886966 2246.58791129948 22 25 18
-857.453365337464 -4.39633694306324 2254.91943655837 21 24 17
-847.145664571216 -4.23112708834184 2249.07730764147 16 19 12
-829.888422861682 -4.34664519498343 2223.33981974485 25 28 21
-820.05781595752 -4.17438257663058 2218.39143309058 34 37 30
-826.340664912416 -3.34420055411855 2259.90338837874 21 24 17
-823.626345093475 -2.87242913073654 2275.85800315611 15 18 11
-811.154321904534 -2.80815252052397 2263.3282360083 20 23 16
-799.405312941368 -2.71984129837693 2252.67095086983 20 23 16
-788.363863057538 -2.60693731438069 2243.89155098387 22 25 18
-780.851196171203 -2.34312343101967 2245.5745339391 24 27 20
-773.969143564729 -2.0516798907094 2249.1635882207 30 33 26
-761.811803390102 -2.00109984082999 2236.51870579394 32 35 28
-755.271264457037 -1.69728997003757 2241.05116462944 31 34 27
-747.501345913635 -1.45087739620015 2241.7597475786 34 37 30
-744.277097301525 -0.988299729741488 2256.83238871555 33 36 29
-739.487701494093 -0.596263504658745 2267.13509434473 32 35 28
-737.629763241365 -0.0564169067465425 2287.05016917377 33 36 29
-731.849750844977 0.294857098204454 2294.51005872487 30 33 26
-721.663512325061 0.424038723980197 2287.5545233876 30 33 26
-716.450712467811 0.80510757454863 2296.94368386542 30 33 26
-705.750738078078 0.901301499425744 2288.03895230789 28 31 24
-700.231690495345 1.26746451160356 2296.4717031786 24 27 20
-692.709869157094 1.52778018172148 2298.15774834423 23 26 19
-692.174953035574 2.17103640165106 2323.99976800386 26 29 22
-684.047234401251 2.40193640290323 2323.77037217198 19 22 15
-677.854433414658 2.74065081914882 2330.31248513624 21 24 17
-674.357478684326 3.2361168675234 2346.55350267089 16 19 12
-675.900328698481 4.0328090476317 2381.25193790496 12 15 8
-668.749030201344 4.32925168946324 2384.9391965202 7 10 3
-659.746414577011 4.51410649065609 2381.82428641963 0 2 0
-855.933173556666 -20.2191447613807 1887.35587547606 159 163 148
-998.653389829284 -15.1849788380331 2315.86524364808 25 27 16
-991.096395225422 -14.886290264113 2318.63352011632 34 34 24
-978.005248981303 -14.7249242239952 2307.40258541524 38 36 24
-966.08996535382 -14.5391893641736 2298.94643165583 37 35 23
-954.599725099375 -14.3468103519045 2291.40264692082 36 33 24
-944.249463599365 -14.1286750122755 2286.64678577189 34 34 26
-928.918907243172 -14.046012872838 2268.75717225681 29 29 21
-916.905913355335 -13.8813400203403 2259.26812059967 28 29 23
-891.325112998541 -13.6099114825436 2235.51753365107 26 29 22
-884.053859925108 -13.3252486092975 2238.18093122893 27 30 23
-871.595310689189 -13.19150857056 2226.71806585202 28 31 24
-864.70580181927 -12.8988047137417 2230.31017867228 27 30 23
-855.766995826523 -12.6676541414122 2228.24213346352 26 29 22
-861.054594889591 -12.0033991227785 2265.83644739579 27 30 23
-850.71732278982 -11.8124225718864 2260.00726129853 23 26 19
-833.100776774706 -11.8554959156184 2233.33897767996 34 37 30
-822.912632279954 -11.6709579037242 2227.45512212534 36 39 32
-816.704823921285 -11.3595896817273 2232.93381397475 27 30 23
-810.807192124604 -11.0370994364188 2239.36771105305 31 34 27
-796.498763257932 -10.9985671039066 2221.10339057118 37 40 33
-791.907707000234 -10.6335175399538 2231.33199580673 35 38 31
-784.417737607641 -10.3674344602928 2233.00690312458 30 33 26
-778.82324305598 -10.0344278678683 2240.39800877022 27 30 23
-766.329655986932 -9.95015057866877 2226.81077513035 25 28 21
-761.980425594421 -9.57223199332524 2238.01929747833 25 28 21
-755.434235608436 -9.27355974173486 2242.55367621727 28 31 24
-750.40183653115 -8.91661772303276 2251.87546990888 28 31 24
-744.12524554652 -8.60553776836986 2257.37938562442 27 30 23
-740.230567407356 -8.19952546887148 2270.55798425878 27 30 23
-739.844411179716 -7.64849444762178 2295.27243908642 27 30 23
-731.684385238031 -7.40598469187614 2295.0556576871 23 26 19
-722.080781390943 -7.22498003649499 2290.02570620313 23 26 19
-708.757250697011 -7.20480880015012 2272.46870609121 25 28 21
-700.990942471658 -6.9549195473792 2273.17623959722 25 28 21
-695.793342583909 -6.59394796946308 2282.55836098398 25 28 21
-689.433912998003 -6.28198285549478 2288.092441861 25 28 21
-685.292380587116 -5.86877963191837 2301.36127448945 27 30 23
-686.349059034848 -5.21221595886665 2333.02585817432 20 23 16
-677.938110415578 -4.98565763066666 2331.83248660892 15 18 11
-667.377197640165 -4.86341039695218 2322.87919450828 20 23 16
-675.965514638348 -3.82048690858366 2382.76882215914 23 26 19
-671.20509203182 -3.40837797037261 2395.19588203474 17 20 13
-992.20205226172 -23.3047143045831 2300.53043853036 13 15 4
-984.685836315356 -23.007768301945 2303.28376710112 39 39 29
-974.219264675763 -22.7623385747666 2298.572225199 28 28 18
-960.497698836769 -22.5774547506085 2285.43900759129 28 28 18
-950.863034366003 -22.3235323870154 2282.55895583075 33 33 25
-935.12094578672 -22.1852908581743 2263.75650474344 30 30 22
-927.7420726462 -21.8952309926514 2266.45941194496 29 30 24
-910.041213974613 -21.8060153701016 2241.96511047468 28 29 23
-902.736493446115 -21.5194341314937 2244.64081277955 26 29 22
-888.065043114337 -21.3826254565769 2227.58236297343 25 28 21
-881.16232839942 -21.0915493623945 2231.17915115583 27 30 23
-873.217379397337 -20.8224865107341 2231.95278393818 28 31 24
-859.793372300873 -20.6728457307498 2217.64223668326 26 29 22
-856.336773476365 -20.3090553435036 2230.65847894007 25 28 21
-857.893014690898 -19.8290913122893 2257.86174873098 26 29 22
-854.620465741348 -19.4522433577573 2271.87891451331 28 31 24
-837.640910923762 -19.3938972148384 2247.12020711317 33 36 29
-829.066622995569 -19.1436555233887 2245.98796980039 36 39 32
-817.891549291325 -18.9586823530928 2237.26255820175 33 36 29
-798.000231393574 -18.9955726923562 2202.88829264352 42 45 38
-789.921028364326 -18.7446834450125 2202.64277749088 37 40 33
-788.577046858703 -18.3200410694152 2222.36267449505 35 38 31
-788.410451144778 -17.8584502277275 2245.92379579553 34 37 30
-779.63050604022 -17.6227132075355 2243.79863082022 33 36 29
-769.627392526021 -17.4227333114694 2237.8484573712 32 35 28
-765.245643438698 -17.0679749977775 2249.06704750275 32 35 28
-757.746629096763 -16.7998411997419 2250.74539592035 26 29 22
-750.557710029514 -16.5233388685731 2253.37826273582 25 28 21
-743.671201024604 -16.238078326753 2256.96846967721 26 29 22
-738.277276651779 -15.9074000880819 2265.35308120401 27 30 23
-734.931194664143 -15.5113892318642 2280.46496640954 27 30 23
-730.930245155652 -15.1317440158243 2293.68018798477 23 26 19
-716.078767740168 -15.0980950648277 2271.34632972066 23 26 19
-707.723300280212 -14.8608864859436 2270.13360334493 25 28 21
-702.541681686525 -14.5191196621625 2279.50846909803 25 28 21
-699.029060966181 -14.1181187928079 2294.68124058388 26 29 22
-688.694766835545 -13.9499375636941 2286.71588575504 26 29 22
-686.227335442225 -13.5072225687938 2305.77852735926 25 28 21
-685.60788185526 -12.9915426018285 2331.64163682284 30 33 26
-678.568852524586 -12.7034924715966 2335.28747060529 29 32 25
-672.881578020877 -12.3645803545383 2343.77928851052 24 27 20
-675.761647260695 -11.6958134350977 2383.31549941385 22 25 18
-674.190014659177 -11.1860409866621 2407.39075876014 21 24 17
-664.073213849996 -11.0074503243372 2400.41372208557 45 48 41
-989.493011773615 -31.3033407651511 2294.51137950177 83 87 73
-989.415275732942 -30.935402471201 2315.90003603673 20 22 11
-974.490510605285 -30.7110800247966 2300.00703860555 35 35 27
-962.962464919426 -30.457030277729 2292.48189746421 41 41 33
-945.67516113948 -30.2676974284397 2269.97825675572 38 38 30
-931.052559385131 -30.0561665895155 2253.97450687623 36 37 31
-911.874138742373 -29.9021119870224 2225.75547210869 31 32 26
-907.451301559544 -29.5831940034274 2235.91947633556 27 30 23
-902.280901671382 -29.2714943600618 2244.22144105741 22 25 18
-895.326399515403 -28.9808520453422 2247.83675852739 27 30 23
-887.670609374437 -28.6992663328605 2249.57308444883 26 29 22
-870.691521087922 -28.5421848622779 2225.88821351601 22 25 18
-863.115258251112 -28.2642878278108 2227.5953658646 23 26 19
-857.245884947937 -27.9628977015837 2234.01714922803 23 26 19
-853.720604012998 -27.6267487026557 2247.05651499324 19 22 15
-845.110450306933 -27.3635683457516 2245.93803100221 19 22 15
-837.186356455414 -27.09132937347 2246.70458027378 24 27 20
-829.932773868029 -26.8093371889673 2249.36135599272 26 29 22
-819.404163643617 -26.5806036145163 2242.53772850677 25 28 21
-798.203672926638 -26.5321100034386 2204.37909769945 28 31 24
-791.086714818658 -26.2562910363525 2206.98576683505 33 36 29
-792.605034316947 -25.8297649869317 2235.26533926597 34 37 30
-786.688236533606 -25.5290970583111 2241.70429923309 36 39 32
-776.030997977762 -25.3147520861484 2233.85976537006 35 38 31
-768.551642594595 -25.0439784425479 2235.53091582497 34 37 30
-766.959269955406 -24.6599052252806 2255.33800164838 34 37 30
-759.442196275749 -24.3882220395889 2257.02317950854 34 37 30
-751.017338803714 -24.1356182441146 2255.83657241853 35 38 31
-740.802415330315 -23.9217643043864 2248.89784806341 37 40 33
-737.522764150782 -23.5633512716183 2263.98275964576 35 38 31
-732.39658856039 -23.2415721390263 2273.33597277041 31 34 27
-726.352602625049 -22.9384334865266 2279.82158569495 29 32 25
-716.789495565565 -22.7149592135492 2274.77987030241 28 31 24
-706.979104235145 -22.5001184951285 2268.76104922448 29 32 25
-702.944474303469 -22.1497964302655 2281.98629568373 28 31 24
-702.544574187964 -21.7069980682547 2307.76413409244 28 31 24
-694.426494319996 -21.4506888082694 2307.53315330391 27 30 23
-686.881993522115 -21.1809113224113 2309.22815267804 29 32 25
-685.971977199022 -20.7372202402185 2334.12484658183 22 25 18
-678.651247866837 -20.4587079252153 2336.80575667311 19 22 15
-668.349519852408 -20.2625148009857 2328.83068289347 22 25 18
-669.919095437311 -19.7362201690477 2363.49900579721 19 22 15
-669.724607573746 -19.2496928086535 2392.40543266097 21 24 17
-672.026352749061 -18.6807060682563 2431.07743129904 22 25 18
-1007.3324484555 -39.2284354734265 2339.69675136689 149 153 139
-985.977976532417 -38.959093085678 2308.01057714241 32 34 23
-975.497992344437 -38.6696365405283 2303.30723041653 21 21 13
-960.668173815956 -38.3948337530095 2287.3832898373 28 28 20
-940.854621647208 -38.1406258290451 2258.33602269577 31 31 23
-923.01907646487 -37.8872471977555 2233.90304425408 32 33 27
-913.928438296759 -37.607209817057 2231.89410826961 36 39 32
-906.996861471955 -37.3196817658267 2235.50086112968 38 41 34
-901.472224280063 -37.0259403721246 2242.86362235111 39 42 35
-897.32357360985 -36.7247932228877 2253.99321972063 31 34 27
-880.952157169708 -36.4839796974554 2232.2272432826 33 36 29
-871.275555628303 -36.2131747780106 2228.29714641312 27 30 23
-862.320446665681 -35.9400866478715 2226.23844324652 23 26 19
-856.79290762907 -35.6476176231751 2233.6019085096 18 21 14
-849.551624573808 -35.3652723969252 2236.25424198418 15 18 11
-844.655829996541 -35.0672955405971 2245.52195311517 25 28 21
-834.40435108565 -34.8061104796167 2239.66689247468 29 32 25
-827.168488892033 -34.5247959469451 2242.31717857917 26 29 22
-816.986535269177 -34.266865202854 2236.43635694188 23 26 19
-806.526213246456 -34.0136596734667 2229.58976423581 25 28 21
-798.695204818479 -33.7406083153591 2230.3222990678 28 31 24
-795.989281258567 -33.4223609991302 2246.26253383515 30 33 26
-786.552757665989 -33.1638877029944 2242.24402288494 36 39 32
-777.467118126949 -32.9040270110478 2239.16519210999 37 40 33
-769.348402595523 -32.6361398471189 2238.93531585321 38 41 34
-766.814381748684 -32.3103773656021 2255.8799608726 39 42 35
-760.521911467812 -32.0222742493899 2261.38791249365 32 35 28
-750.563393565427 -31.7753982339015 2255.42507417119 30 33 26
-740.651603002571 -31.5306002922543 2249.44535556272 29 32 25
-736.170512707069 -31.2219992227102 2260.69630314288 27 30 23
-729.567908019259 -30.9381689197618 2265.25005961288 25 28 21
-724.71941213505 -30.6310962282274 2275.56782788513 25 28 21
-714.00204429243 -30.4018375546803 2266.67971027527 24 27 20
-707.39075202637 -30.1184877628281 2271.23633270812 22 25 18
-697.620661618358 -29.8806569222937 2265.20460343302 22 25 18
-694.706689960407 -29.5429038776547 2282.28820355806 22 25 18
-694.246960141274 -29.1633922356924 2308.08325956614 23 26 19
-694.500459154257 -28.7660733221779 2336.82018505397 21 24 17
-692.960034658109 -28.3910523816034 2359.80738186969 21 24 17
-678.459673618947 -28.230255659899 2337.35554334242 21 24 17
-664.364346275739 -28.0700698852978 2315.82330530834 21 24 17
-666.498299396933 -27.6249636103538 2352.41355534194 19 22 15
-668.719413266167 -27.1683728620581 2390.03981366706 24 27 20
-660.491467623237 -26.9011745126461 2389.84957283971 16 19 12
-985.880656685373 -46.9567952939075 2308.50905393204 13 15 2
-973.189412260099 -46.6349453958503 2298.21173918813 36 36 28
-959.106920669764 -46.3095291290135 2284.15370662003 27 27 19
-940.032474692214 -45.9661714323644 2256.97773341009 29 28 23
-928.333708210097 -45.6587489921384 2248.4518380576 28 29 23
-917.412425839344 -45.3567252342998 2241.77641297038 26 29 22
-912.940374572445 -45.0796235358911 2251.95539772196 25 28 21
-905.251102431735 -44.7907753066857 2253.70418257453 23 28 21
-894.76443133833 -44.4939289733775 2247.93701248115 31 34 27
-880.151073031301 -44.1876567435493 2230.87049626191 36 39 32
-871.168285625547 -43.899581538171 2228.82298051192 34 37 30
-861.183254943306 -43.6105024534162 2223.93951580445 32 35 28
-855.65987897433 -43.3318323074371 2231.30068162653 32 35 28
-848.085955794744 -43.0490702144841 2233.00709666097 30 33 26
-843.866317380915 -42.7713801554106 2244.16097097398 21 24 17
-833.286215154534 -42.4853402916315 2237.36037631715 26 29 22
-825.395673252259 -42.2036348899317 2238.1151948575 26 29 22
-817.51564798135 -41.9226370567136 2238.86639322881 26 29 22
-811.593777877195 -41.6425991579035 2245.30563959188 31 34 27
-801.786900259318 -41.3625656829038 2240.35701698524 29 32 25
-794.577244136478 -41.0832430408836 2242.99763114873 31 34 27
-786.417083559501 -40.8049373542442 2242.78359952762 33 36 29
-779.215702521799 -40.5264591938638 2245.42114332443 31 34 27
-773.885413588556 -40.2456265428044 2253.77887277705 32 35 28
-768.833881793297 -39.9633443339668 2263.10198490175 31 34 27
-757.613614785576 -39.6926533883761 2253.33290503306 29 32 25
-750.413695759126 -39.41528941116 2255.96983355938 26 29 22
-740.801974891443 -39.1448642533084 2250.94932390826 23 26 19
-735.11831031015 -38.8641133041832 2258.36888560267 22 25 18
-730.002213544826 -38.5806179396056 2267.71554814024 21 24 17
-723.969217017674 -38.2993784127954 2274.19526157082 23 26 19
-714.712414967663 -38.0311936364814 2270.11243808679 23 26 19
-706.069524441696 -37.7619553265203 2267.94000376189 22 25 18
-694.877612660923 -37.5068167543755 2257.09263738028 22 25 18
-688.862331237492 -37.2272372783786 2263.56578899492 22 25 18
-689.290202665972 -36.9098615926683 2292.2335808968 22 25 18
-693.478209105667 -36.5633602989092 2334.46992235277 22 25 18
-690.559967027522 -36.2545583386599 2352.61970021899 21 24 17
-678.268052699303 -36.0080384314458 2337.90513083109 22 25 18
-665.798426052886 -35.7673202381945 2322.18788271102 21 24 17
-669.249395517622 -35.4059959090874 2363.62657956327 19 22 15
-670.105573193777 -35.0570408912623 2396.40735938133 18 21 14
-668.699314312612 -34.7207864775431 2421.47625057439 11 14 7
-868.88191680573 -54.2231578623702 1939.81692616742 147 155 134
-982.44673457237 -54.9194432396963 2300.62297378183 21 23 10
-969.409827987843 -54.5558447526174 2289.38759053655 35 36 28
-960.470802142596 -54.2438112776288 2288.39253849531 26 27 21
-947.922195683348 -53.8899735500317 2278.04581155447 28 29 24
-934.72438134634 -53.5308224527267 2265.80200033837 27 28 23
-925.187054073356 -53.2160159638354 2262.89117612292 26 29 22
-910.706421572033 -52.8468762838141 2246.84773532097 26 29 22
-899.855522160382 -52.5208644123973 2240.14854740298 26 31 24
-890.456445726442 -52.2122500376212 2237.18702426087 27 30 23
-879.002614893922 -51.8830013338206 2228.5737814149 25 28 21
-872.785579577846 -51.6101586776503 2234.05317325424 24 27 20
-862.443843263607 -51.2951993371257 2228.23496387321 26 29 22
-858.265985690799 -51.0431576216258 2239.3714681239 29 32 25
-853.704740568556 -50.7862717335433 2249.58133503758 27 30 23
-847.763454206831 -50.5153457391623 2256.02694854844 29 32 25
-838.147858335144 -50.2099730831277 2252.07729421905 31 34 27
-829.557154228597 -49.9151852122343 2250.95438260074 25 28 21
-821.968193659634 -49.6301084313532 2252.66643593036 22 25 18
-816.007009873652 -49.3594160004941 2259.11951560521 24 27 20
-801.334107958075 -49.0157303483326 2239.94408993742 20 23 16
-793.485529963341 -48.7311687940332 2240.68387691551 27 30 23
-784.063707398956 -48.4348281126191 2236.66313598961 29 32 25
-780.962083672394 -48.1878564041558 2251.6749550867 29 32 25
-774.989334482592 -47.9179637656163 2258.13192225623 27 30 23
-765.905759857431 -47.6256845415609 2255.05453294528 26 29 22
-753.481940574469 -47.3118953119381 2241.4595213963 26 29 22
-743.273305345671 -47.0156440296449 2234.52472929683 27 30 23
-736.732814628827 -46.7443054993514 2239.05497490433 28 31 24
-734.365660243715 -46.497923233211 2256.99981225027 28 31 24
-729.843205181681 -46.2368060763422 2268.2622064665 28 31 24
-722.632135823245 -45.9598251653878 2270.90315742421 24 27 20
-713.38392353579 -45.6726217347957 2266.8186479447 24 27 20
-706.480453898041 -45.398236519074 2270.41419676023 24 27 20
-694.997057399569 -45.1031367656584 2258.60945092588 23 26 19
-688.125580053164 -44.8304782719787 2262.19324545657 22 25 18
-684.900481152173 -44.5721732409423 2278.3173390763 22 25 18
-685.500065387313 -44.3254504784383 2307.98396662848 21 24 17
-685.956658668547 -44.0734830330327 2337.70268957862 21 24 17
-677.529933269833 -43.7904484777421 2336.5193115312 22 25 18
-674.265435192073 -43.5219508775855 2353.72529993976 24 27 20
-667.708600908136 -43.2434063381449 2359.32858372129 24 27 20
-664.588068779756 -42.9712582575412 2377.54909556589 23 26 19
-657.705877690436 -42.6903929635867 2382.20395825536 20 23 16
-975.3098319872 -62.766083853149 2283.42449884367 17 19 6
-967.840762894706 -62.4717397071282 2286.16050087762 21 22 16
-961.467603081148 -62.1989739751007 2291.69661280601 34 35 29
-955.441566589664 -61.9328795345819 2298.17265467331 29 30 25
-940.388322958552 -61.4933940054072 2281.27601646813 27 28 23
-925.80040152521 -61.0651991586199 2265.276013571 23 25 20
-904.212563373805 -60.5070425088932 2230.49649854092 24 26 21
-887.413248926473 -60.0431605647207 2207.83626814936 23 28 21
-884.75199691135 -59.8452892711272 2222.68437896105 36 39 32
-882.37128369062 -59.6514870449685 2238.49680871307 31 34 27
-875.43554702218 -59.3731013992142 2242.10438319145 26 29 22
-860.964480746508 -58.9581696856634 2224.99436546509 23 26 19
-860.869256750357 -58.8042456018972 2247.43978455454 20 23 16
-854.934727002202 -58.5442285615528 2253.88212003596 17 20 13
-851.990953630854 -58.3368047025005 2268.83360222262 27 30 23
-842.340296286383 -58.0109009794252 2264.8982361448 27 30 23
-832.725720296414 -57.6866604656834 2260.94963486406 19 22 15
-821.512840904726 -57.3359806441268 2252.25046232289 16 19 12
-810.037492652683 -56.9824739222539 2242.58031163227 18 21 14
-793.159575074718 -56.5398383482896 2216.74711461985 18 21 14
-785.691940292668 -56.2574176508406 2218.41513963427 25 28 21
-781.079084122864 -56.022321778521 2228.64186038302 28 31 24
-775.48341467282 -55.7705575611036 2236.02726304643 29 32 25
-767.993568409951 -55.4879834277274 2237.70336990297 29 32 25
-762.053678808516 -55.2304367500042 2244.14746642756 29 32 25
-754.56200778664 -54.9482677171824 2245.82420572208 28 31 24
-742.823054135086 -54.6005424670107 2234.11602977127 30 33 26
-736.583222138998 -54.339121229594 2239.60284273629 28 31 24
-733.61338799193 -54.12701475146 2255.63070333 26 29 22
-727.907637390038 -53.8726605121291 2263.05629803121 24 27 20
-717.480629806718 -53.5484638825143 2255.13614678739 20 23 16
-713.220300653947 -53.3153048000079 2267.36800187812 21 24 17
-708.62088730553 -53.0763394619403 2278.65694084508 23 26 19
-699.403022643368 -52.7714292341938 2274.56274093973 23 26 19
-689.088734384761 -52.4524703756926 2266.60149363918 24 27 20
-686.129001307022 -52.2354419739144 2283.6926117395 24 27 20
-687.820865775671 -52.0790853922192 2317.22203384521 21 24 17
-681.358539041558 -51.8113954622226 2322.79016048709 21 24 17
-679.249222118568 -51.5999018609632 2343.83860641218 22 25 18
-661.088688807037 -51.1822860347816 2307.8029644884 25 28 21
-654.383835956883 -50.9129059082594 2312.39278126677 25 28 21
-654.301690931467 -50.7243746442253 2341.23590547712 27 30 23
-659.599185242488 -50.5967922072831 2390.5192671237 21 24 17
-876.443348390522 -68.3543087303782 1959.46937356878 149 153 136
-968.919321698139 -70.5354113104809 2268.0940317352 21 23 10
-967.375959459581 -70.4018424210615 2285.73104250781 32 33 25
-958.080235065665 -70.0586151601276 2283.80138982845 30 31 25
-950.62321462301 -69.7653523001571 2286.53293255067 28 29 24
-930.202388311957 -69.1252808770927 2255.60205814795 26 27 22
-916.044269485409 -68.6548657860086 2240.51563364505 22 24 19
-899.143901529258 -68.1130264411657 2217.89800179862 23 26 19
-884.848830133818 -67.642203526078 2201.79481184072 26 29 22
-886.048741162628 -67.5820343507902 2226.96250879752 34 37 30
-880.874681770356 -67.3528050092135 2235.25958063868 36 39 32
-872.222850428274 -67.0322540875916 2234.16082270397 30 33 26
-862.907268673577 -66.6948787973319 2231.17113286629 25 28 21
-854.980715709172 -66.3942875573085 2231.94046054455 21 24 17
-857.174135610382 -66.3563667726759 2261.01223330097 20 23 16
-852.5353712489 -66.1404017863973 2271.24692401281 18 21 14
-843.873468515638 -65.8206482968144 2270.15176522522 20 23 16
-836.220087451904 -65.5272314743231 2271.88810851457 16 19 12
-817.136999917745 -64.9425822671777 2240.46700168147 15 18 11
-803.749446693929 -64.5053340785286 2225.09809926118 21 24 17
-793.675476150294 -64.1534671197719 2219.18513095337 22 25 18
-783.648026704854 -63.8036106227711 2213.25536239622 26 29 22
-781.261607793664 -63.6462825596183 2230.13366944344 27 30 23
-773.148745588785 -63.3451560060264 2229.90417441834 27 30 23
-763.183746201057 -62.9984261948655 2223.95122519125 28 31 24
-760.983863108957 -62.8446782485923 2241.82829718729 28 31 24
-758.089876917799 -62.6728887321524 2257.8258116963 28 31 24
-753.302719751655 -62.4539530440239 2268.11464323109 28 31 24
-742.15314797376 -62.0795313575038 2258.32770378054 22 25 18
-731.36922029173 -61.7151697281817 2249.47370928845 20 23 16
-725.677862445982 -61.4748664763084 2256.8930143914 21 24 17
-718.787924305063 -61.2055955853382 2260.48326082199 23 26 19
-717.70894632727 -61.0753214152507 2283.28458455882 24 27 20
-712.487814376695 -60.8452779914845 2292.66537728943 25 28 21
-702.946706360853 -60.5128647286035 2287.62388843893 25 28 21
-693.447352232579 -60.1822607297094 2282.56734662643 24 27 20
-687.916805643204 -59.9452182829947 2290.99453316524 24 27 20
-684.579696819235 -59.7588514460399 2307.15389634484 25 28 21
-677.316206431968 -59.4810128792166 2309.81395854247 24 27 20
-663.778644188851 -59.0594678220163 2290.23189595106 24 27 20
-660.088856643251 -58.8644409122353 2305.45349773377 24 27 20
-651.247123051016 -58.5519117103749 2302.28976638652 24 27 20
-653.572161912626 -58.49129331271 2339.84838811288 21 24 17
-653.613041773436 -58.376959972987 2369.70802495274 29 32 25
-980.303940847686 -78.8311146513516 2297.46399064114 22 25 14
-966.543402381615 -78.3199863017145 2284.36954892286 35 38 29
-956.520632725575 -77.9381662103373 2280.57360420158 27 30 21
-941.458475349454 -77.3834865523963 2263.68889627568 28 29 23
-924.704199242168 -76.7714263887804 2242.0900382845 26 27 21
-910.584860270058 -76.2506572011566 2226.99332290113 21 22 16
-900.820608005355 -75.879908078289 2223.10261378084 19 20 14
-896.375649269864 -75.6917649421977 2233.26478842748 22 23 15
-890.490846980186 -75.4543558223211 2239.68735025204 27 28 22
-884.585504100814 -75.2163809558802 2246.11767223596 37 38 32
-876.247783632367 -74.8954792826089 2245.9713687268 32 33 27
-865.531730879078 -74.4937766660312 2239.22889694133 26 27 21
-858.260987260538 -74.2099376531918 2241.89204725351 23 24 18
-850.653405730616 -73.9148579344585 2243.61162101518 21 22 16
-842.382562726434 -73.5974929875288 2243.44075156005 22 25 18
-834.458974690918 -73.2922076118517 2244.20961045358 23 26 19
-824.900144119991 -72.9317645382746 2240.24348630957 22 25 18
-817.01014857666 -72.6282249557055 2240.99975376102 21 24 17
-802.003000948987 -72.0842173299915 2220.89433048821 21 24 17
-793.226193489664 -71.7515494831013 2218.77508476897 24 27 20
-794.678497411121 -71.7644969176902 2247.04548416197 26 29 22
-782.39238871194 -71.313817345665 2234.47757632388 27 30 23
-770.816062690586 -70.8876889565095 2223.78278352709 28 31 24
-763.979264646114 -70.6215507097613 2227.35374010724 29 32 25
-758.371897459265 -70.3968732600226 2234.74109495262 29 32 25
-758.247485942171 -70.3562030442102 2259.32194055948 23 26 19
-752.846860266556 -70.1383816706123 2267.70047169056 23 26 19
-745.309748489099 -69.8491515165532 2269.39425409096 21 24 17
-733.900113130632 -69.4307882397852 2258.63831042624 20 23 16
-728.182082733466 -69.2029013050934 2266.06636983783 18 21 14
-725.077439053411 -69.062214176928 2282.13782309357 21 24 17
-720.448467569312 -68.8706284298406 2293.43392677545 22 25 18
-711.741213197443 -68.5434777603514 2291.28899352766 23 26 19
-704.773184338723 -68.2744142337496 2294.90785190797 22 25 18
-697.800573588359 -68.0053663801353 2298.52811957377 21 24 17
-701.196447064788 -68.0796430370768 2337.82085560281 22 25 18
-682.17533159859 -67.4123435725793 2299.98362204887 21 24 17
-671.626972052972 -67.0259682386822 2291.04569777535 22 25 18
-663.049478352104 -66.7050191012112 2288.85340399246 21 24 17
-657.73944721102 -66.4919276513014 2298.26521808405 21 24 17
-661.757721563377 -66.5852355115347 2341.59685582125 21 24 17
-652.048292019966 -66.2273975093659 2335.55188660268 28 31 24
-658.916993609766 -66.4127857646475 2390.64034723041 16 19 12
-653.037679430836 -66.1801720550942 2399.19391997699 20 23 16
-985.757361644813 -87.0540690912701 2311.92829434694 25 28 17
-966.813497664223 -86.2795498008691 2285.80421816702 32 35 26
-955.32675537534 -85.8173589033309 2278.27952022736 32 35 26
-947.519825061631 -85.5095294433279 2280.0727411822 30 31 25
-931.083030289812 -84.839886919609 2259.42943121747 28 29 23
-908.344680679957 -83.9056942157565 2221.89638971028 27 28 22
-898.239560988149 -83.5015264097074 2217.06549578293 30 31 25
-896.977219726332 -83.4689065359001 2235.65934055411 33 34 26
-894.578921384145 -83.3890097273035 2251.4695652955 14 15 9
-887.94543033116 -83.1314704108184 2256.03256024497 20 21 15
-880.612847461701 -82.8447382116029 2258.71839737488 27 28 22
-868.153188879258 -82.3424330070719 2247.28374389554 26 27 21
-862.216120117839 -82.1148159703151 2253.72481156907 24 25 19
-852.89182072816 -81.7447335446219 2250.74075698117 22 23 17
-839.255154871527 -81.1929532680226 2235.4710081646 22 25 18
-834.335926045103 -81.0088318920837 2244.73864326056 23 26 19
-824.446514916275 -80.6152679459772 2239.8285742333 22 25 18
-808.396815783988 -79.9615324464061 2216.91005089506 22 25 18
-802.200755436044 -79.7240347157947 2222.3791549097 22 25 18
-796.953286322394 -79.5269380182187 2230.7004748002 21 24 17
-786.576218675943 -79.1130250313854 2223.83575828696 30 33 26
-778.779794345917 -78.8084812234862 2224.55835787825 30 33 26
-772.561582869686 -78.5709676039984 2230.03525712326 24 27 20
-766.017412000538 -78.3198817605663 2234.56531177073 24 27 20
-759.154862201096 -78.055552118454 2238.14523416319 26 29 22
-752.287615035746 -77.7912312430349 2241.72711692889 35 38 31
-746.932045073592 -77.5914134852785 2250.08791922566 32 35 28
-740.643878325201 -77.3522378414416 2255.59036125056 27 30 23
-732.253809798645 -77.023843016499 2254.39708688964 28 31 24
-727.727379853126 -76.8601897084812 2265.65382583253 31 34 27
