ply
format ascii 1.0
comment KinectMotionCapture
element vertex 781
property float x
property float y
property float z
property uchar red
property uchar green
property uchar blue
end_header
-808.777966287553 -485.054490830132 2596.41507856059 16 18 13
-817.164151851243 -524.21957124505 2296.42182381776 8 15 8
-830.231707272489 -526.936181328967 2300.92267895159 13 20 13
-834.102917766492 -527.113861654823 2308.97206625262 17 24 17
-785.73658364146 -511.176441101269 2355.3158188725 8 10 5
-781.2660868138 -509.078597923464 2366.27937054969 6 8 3
-779.559873478441 -507.741077523906 2376.20192421692 7 9 4
-880.510456637058 -534.489049503214 2349.20924597538 8 10 5
-636.528094255576 -463.615926633691 2480.94278890741 15 18 11
-640.272671436766 -463.810351244282 2488.44509185285 14 17 10
-641.232635716804 -463.247019895595 2496.90031945978 13 16 9
-631.963503087362 -459.909244632426 2508.77323709432 14 17 10
-624.540779221 -457.077690776938 2519.966338202 15 18 11
-614.312777843495 -453.491802905622 2532.02440290057 17 20 13
-620.839190369851 -454.442349802416 2538.55840798105 16 19 12
-632.033366176302 -456.650480920942 2543.61781632487 18 21 14
-652.569271688007 -461.373037044888 2545.7538421436 21 24 17
-691.800679128274 -471.122964669687 2542.0952995615 18 21 14
-706.794029324501 -474.325450190119 2546.25419175889 18 21 14
-639.545861532796 -455.402625781073 2575.98824393095 17 23 13
-667.615216094462 -462.125508386816 2576.04408506086 18 24 14
-680.743625092496 -464.823346695445 2580.80096869734 20 23 16
-679.83771060817 -463.752046582279 2589.84918906937 21 22 17
-705.171136349854 -469.708248650189 2591.06723577673 22 23 18
-739.914104741825 -478.167434790587 2589.65508002395 24 25 19
-762.500615437988 -483.359048926779 2591.98923789362 29 30 22
-818.922134906342 -497.569392036695 2584.68186015482 23 24 16
-760.770025381393 -481.199108243401 2610.4334649171 24 26 21
-764.601248664668 -481.371681849748 2618.30364196395 11 15 16
-802.49764007177 -528.407719996204 2311.7214901354 3 10 3
-812.796155336646 -530.388463596256 2317.25676707524 8 15 8
-807.608940142936 -527.171738592549 2338.07426002559 13 15 10
-796.702311078696 -523.260067736399 2351.50669190212 10 12 7
-797.781712390159 -522.677828574949 2360.47819321465 8 10 5
-815.491443221156 -526.700448009769 2363.4180059969 9 11 6
-831.37308648761 -530.207672023308 2367.11405959931 10 12 7
-691.996798673054 -489.113367274175 2444.17953392585 13 15 10
-629.959202291853 -471.180302093222 2474.6723018472 15 17 12
-630.916085786737 -470.615755977816 2483.11432566735 15 18 11
-653.222284351388 -475.918780266218 2484.27879488105 15 18 11
-656.049328313373 -475.861605886692 2492.1463424282 14 17 10
-627.275036935888 -467.136648958028 2510.59079224722 14 17 10
-615.202441614927 -463.004725561571 2523.31216683747 16 19 12
-603.111360346543 -458.875326066189 2535.95465259821 17 20 13
-609.629267499495 -459.840825641681 2542.45997278901 16 19 12
-654.364302687496 -471.239720319451 2536.68283925812 18 21 14
-645.066238761693 -467.873228941824 2548.41137908076 21 24 17
-658.150730902766 -470.612054688915 2552.99884726003 18 21 14
-656.308842136838 -469.280737765274 2562.3271856303 17 20 13
-638.576946994561 -463.630221821319 2576.5578525068 15 21 11
-656.351610076386 -467.635333151112 2579.77458284606 16 22 12
-661.98368192889 -468.335891416624 2586.778065793 20 23 16
-664.812222186979 -468.273871515103 2594.64827049299 20 21 16
-705.118794063473 -478.358503671552 2591.36797707616 20 21 16
-751.101639309696 -489.955664308107 2586.64961990307 24 25 19
-748.35881506239 -488.361873825118 2596.40885957682 27 28 20
-726.834239397624 -481.701171482202 2611.56043286084 21 24 17
-818.018644127924 -541.900503285562 2306.03014904817 11 14 7
-836.609958666883 -546.235460969867 2308.48311426559 5 8 1
-831.27401077983 -543.834187200166 2320.01092883953 12 15 8
-848.050972280351 -547.646102730087 2323.27398671852 12 15 8
-800.280777678143 -533.342938058349 2350.42277255928 13 16 9
-837.543146076142 -541.997087242434 2355.66972073393 14 17 10
-790.587269260926 -527.969313798992 2382.01134282264 12 15 8
-766.816108579389 -519.570203127037 2409.0238117411 10 13 6
-624.353483755963 -478.153702935639 2476.85601128771 13 16 9
-638.290198868646 -481.198366288352 2480.82234173437 15 18 11
-675.441731833799 -490.685571407906 2476.95804957947 16 19 12
-689.426597976213 -493.721576069574 2481.13146839722 16 19 12
-643.031349473935 -480.008942579078 2505.571403907 17 20 13
-595.642148450363 -466.048909406009 2530.04339292814 17 20 13
-602.151651678602 -467.029649411791 2536.5217309272 16 19 12
-642.185057324308 -477.272541453137 2532.12970687498 16 19 12
-657.114644459361 -480.561654803342 2536.05857401274 14 17 10
-656.213244275448 -479.476556139964 2545.11857113214 17 20 13
-597.469261512775 -462.456852943799 2572.43648069875 20 23 16
-615.192732921446 -466.516678836632 2575.459812403 16 19 12
-675.90729778632 -482.385630754235 2565.26248498336 18 21 14
-657.246922524991 -476.421457083355 2579.77365720266 19 22 15
-687.198305147541 -483.804495499068 2579.39718010592 19 22 15
-687.235546982451 -482.97295105558 2588.18610013744 21 24 17
-716.305313757558 -490.089635927126 2588.32446209293 25 28 21
-753.920691976143 -498.667452281653 2595.08207808826 20 23 14
-733.346931618236 -492.194542763001 2609.97645167698 17 20 13
-753.123777676467 -496.733202747693 2613.21695566956 23 25 20
-830.959967255077 -553.851666879189 2310.84872248852 14 15 9
-768.675752549344 -534.362259813325 2353.01074952806 9 12 5
-834.284750188738 -552.079362521372 2338.1275211071 9 12 5
-811.401451035385 -544.693269574331 2355.97793814851 10 13 6
-768.172458324314 -531.564855192812 2381.04461835901 10 13 6
-797.8729499287 -539.076133311077 2379.63799754472 11 14 7
-761.968586150491 -528.047014182927 2401.76252172977 10 13 6
-787.999399404612 -534.508792108138 2401.79461613645 12 15 8
-617.824840207495 -484.83811206559 2479.35921280921 13 16 9
-612.286536840499 -482.445451245679 2490.00039861242 14 17 10
-671.672299662138 -498.291601081139 2478.49059968944 15 18 11
-687.507402768164 -501.884263048769 2482.03182239241 15 18 11
-681.997771657107 -499.485796900328 2492.79594014108 16 19 12
-600.261045749862 -475.749500692361 2528.76295961382 16 19 12
-618.864039442709 -480.125200534985 2531.29026669673 16 19 12
-628.182193359214 -481.896483868088 2536.93980239782 16 19 12
-651.480600799303 -487.564577840757 2538.13483065631 17 20 13
-570.429142065442 -464.127385946833 2572.73996241442 18 21 14
-573.19908006312 -464.082764380899 2580.36325139414 18 21 14
-690.845931149497 -494.296473478861 2569.74474225768 20 22 17
-687.148887998894 -492.42207836839 2579.69159455175 21 24 17
-718.064377759025 -500.139112235595 2579.20248082103 23 26 19
-744.336721353955 -506.553689218662 2580.27222118 26 29 22
-718.175221105706 -498.458502082459 2596.93023709554 19 22 13
-767.210549464779 -545.629665735032 2325.84073352522 21 22 16
-730.563526356782 -534.201160200887 2349.01417351351 23 24 18
-734.367940447335 -534.412076115747 2356.78876553196 14 17 10
-843.184223729797 -564.746691151162 2325.55660554382 14 17 10
-845.2209413728 -564.416346380057 2334.33725686247 13 16 9
-771.623878449785 -542.433531780829 2370.74914639284 11 14 7
-786.532404536618 -545.80589699195 2374.63417246488 10 13 6
-767.285348116556 -539.412558260262 2390.86516159608 11 14 7
-798.069743728746 -546.412305753775 2398.49038560553 14 17 10
-644.638792216286 -500.972814368005 2470.30485486017 12 15 8
-644.722035390564 -499.298906955437 2487.91384482375 17 20 13
-652.183797101975 -500.567041613971 2494.19992513502 19 22 15
-634.609719798049 -493.895545039044 2517.63941908305 20 23 16
-630.915513944933 -492.008249302836 2527.59118641493 20 23 16
-613.258341222344 -486.180752147854 2542.04702867977 17 20 13
-621.643755066318 -487.710822664726 2548.00090764909 18 21 14
-609.541657561411 -482.629935852801 2569.14802773233 19 22 15
-635.659207491915 -489.141743726318 2569.5917598022 21 24 17
-666.476505353438 -496.958819026459 2568.72988360675 22 24 19
-676.782189656864 -499.002507153947 2574.33377336897 23 25 20
-692.707432473448 -502.615857381348 2578.28437163798 25 28 21
-696.492208591388 -502.820831870078 2585.96893290178 27 30 23
-717.126908743573 -507.737549157454 2588.6545039821 26 29 22
-759.486785226487 -516.968326588776 2603.03285408842 17 20 13
-824.807332708977 -572.325861804916 2294.602594191 14 16 13
-806.619121363438 -566.11874359199 2311.05258654686 16 19 12
-774.610481181957 -555.908349639069 2332.59766013432 12 15 8
-795.007824547162 -560.927156368733 2334.29734637465 16 19 12
-800.697089496457 -561.670250347967 2341.57787311751 15 18 11
-799.020255056861 -560.277380912221 2351.59624619028 13 16 9
-794.572671971783 -558.084568198809 2362.60491101654 11 14 7
-760.591366076894 -547.359855393092 2384.26867774004 10 13 6
-843.08122975953 -569.36478352306 2373.38628502843 11 14 7
-815.528707215454 -560.510303882826 2392.5819640007 12 15 8
-776.835490204479 -548.466897356926 2415.48984409325 11 14 7
-605.723347926526 -497.533940398109 2492.73797280777 16 19 12
-627.059900438651 -502.81292675387 2494.17189148978 17 20 13
-637.291121594506 -504.896921841336 2499.47244744545 18 21 14
-612.261610054873 -496.880277265136 2516.60736043568 19 22 15
-626.207462873139 -500.026262907807 2520.67463774105 19 22 15
-621.580712605904 -497.858265693843 2530.9083845836 19 22 15
-632.75685761908 -500.203793519231 2535.96915113788 21 24 17
-648.599218147815 -503.873571198876 2539.58662475203 17 20 13
-664.460163105004 -507.539769797437 2543.2849733585 19 22 15
-643.062878012341 -500.597046653132 2558.83050027704 25 28 21
-656.139250578863 -503.465246508735 2563.45828256643 26 29 22
-662.698339130816 -504.475897784622 2570.17271485228 24 26 21
-665.528751301668 -504.425776386106 2578.05925299796 24 26 21
-681.442497246671 -508.081193121991 2581.9828451744 25 28 21
-705.790099419731 -514.114667818144 2583.4597278837 26 29 22
-686.192425614237 -507.710180896825 2598.13913816101 25 28 21
-693.718178458868 -508.978078464898 2604.70706075998 25 28 19
-717.229958258327 -513.886603502749 2615.50947508333 24 26 21
-691.950127562763 -505.904756066166 2631.5618044461 30 32 27
-813.662361101425 -578.261940981785 2299.10765875504 16 18 15
-797.311618400982 -572.53670416667 2314.82412328353 21 24 17
-786.452170378366 -568.434252340791 2328.35225082922 22 25 18
-791.213729991157 -568.920220001103 2335.94994698033 17 20 13
-784.012848684744 -565.899536224396 2348.00937395382 17 20 13
-805.354398609554 -571.236941949799 2349.50076088622 16 19 12
-788.931338892823 -565.521715023633 2364.90444253862 15 18 11
-803.843904724938 -568.968484684875 2368.8499459088 15 18 11
-822.465648378659 -573.489023901139 2371.54615230299 10 13 6
-860.505296549746 -583.657972009523 2367.4388931021 10 13 6
-849.610885689166 -579.55836552897 2380.81462781453 12 15 8
-639.062715986463 -514.825169161068 2490.33437934871 15 18 11
-629.826656466697 -511.292721894585 2502.23853641139 15 18 11
-629.85530914595 -510.446913533315 2510.98013170197 15 18 11
-614.09668752288 -505.039014107847 2524.93606375533 14 17 10
-612.252084154893 -503.658283276307 2534.22228997025 13 16 9
-632.71692410619 -508.713646756265 2536.24090647524 13 16 9
-642.042170043835 -510.547772254277 2541.95865540941 10 13 6
-637.412760978651 -508.360652829179 2552.16943899894 11 14 7
-672.834320113898 -517.691817881444 2549.70292146974 13 16 9
-652.366776317668 -510.950649072975 2564.90756496488 13 16 9
-643.996655197855 -507.693113936978 2576.23283300597 15 17 12
-667.351257859814 -513.533735392943 2577.77696476308 15 17 12
-680.459676067871 -516.427363960417 2582.56091491751 17 20 13
-675.823680610618 -514.238811006041 2592.74183192041 19 22 15
-696.43300844205 -519.266283284731 2595.38074043174 15 18 11
-705.835891818059 -521.083634305396 2601.43073837168 19 22 13
-668.421014680847 -509.547801548055 2621.15635910877 34 37 30
-875.251451881819 -604.808040119407 2285.37364043089 9 12 5
-788.176856104089 -578.03645981229 2327.92960855184 14 17 10
-774.547946728013 -573.081254653003 2342.42263924996 12 15 8
-807.079844500547 -580.877084081624 2349.10378026253 12 15 8
-814.621607123251 -582.184266598154 2355.76535727518 12 15 8
-811.106701832885 -580.224867526569 2366.46481718165 12 15 8
-838.032021554703 -587.241325648146 2366.20846034326 8 11 4
-864.067816413668 -593.980014993187 2366.42537681957 9 12 5
-836.551031594718 -584.950633779904 2385.674578959 13 16 9
-627.001793959161 -519.005724478292 2503.43991570884 16 19 12
-640.943399127922 -522.222401287093 2507.52896725217 15 18 11
-679.962816384083 -532.754611012441 2503.39638677903 14 17 10
-637.295532510988 -519.433749369667 2526.26868201365 13 16 9
-622.452580018702 -514.248048976216 2539.83277671384 12 15 8
-721.054554160231 -542.09767806909 2516.81012587316 13 16 9
-638.30368407219 -517.148173433269 2552.14999280941 12 15 8
-646.707292187958 -518.730803480721 2558.2149600038 9 12 5
-628.094270645593 -512.468491408612 2572.76053108346 9 12 5
-659.811137155943 -520.809039767906 2571.61306909493 9 11 6
-662.640036732892 -520.764878753788 2579.49644758538 10 12 7
-647.728979791133 -515.587388313144 2592.76526373799 18 21 14
-635.59884018314 -511.223166175275 2605.09752098124 16 19 12
-831.959494782947 -601.194314927414 2302.08770201635 13 16 9
-874.413689775133 -612.978639829674 2295.60047063251 7 10 3
-808.451537154681 -592.283374733391 2329.96003996639 9 12 5
-822.426543954338 -595.533894185262 2334.21618344332 9 12 5
-816.167532693786 -592.732085917446 2345.9972745768 10 13 6
-801.607635792407 -587.457656856005 2360.75757411177 10 13 6
-887.9324750651 -610.368500423323 2358.19322098382 9 12 5
-876.14273466705 -605.916071878432 2371.97359279396 10 13 6
-782.082747419608 -577.047008125433 2414.41233838631 10 13 6
-669.58408948157 -540.131108831932 2489.34097068617 15 18 11
-630.69626104881 -527.767938941702 2511.20320655846 14 17 10
-662.273421130842 -536.219537899894 2509.50652044268 15 18 11
-641.894425066778 -529.33888177842 2525.01931429068 9 12 5
-678.162344697737 -539.150078581838 2522.00828089582 12 15 8
-690.30321393593 -541.843321494702 2526.9671995001 12 15 8
-695.014752816225 -542.346820880414 2534.35587353402 12 15 8
-650.388756433978 -528.366545436008 2557.32192122673 12 15 8
-628.059362980193 -520.951861911593 2573.0399433267 11 14 7
-680.275287977135 -535.386342224127 2565.5588380754 10 13 6
-701.774580630904 -540.801830014694 2567.79125551576 18 20 15
-667.293147936111 -529.841455856905 2587.11256760713 19 22 15
-698.148657972003 -537.981042652823 2586.60768054759 16 19 12
-626.223354134549 -514.409105426683 2634.00912445842 16 19 12
-699.268855480864 -534.794241572951 2621.56655740612 14 16 11
-728.361598529597 -542.36824215267 2622.0762306125 30 32 27
-827.042327319387 -609.892380862308 2294.64965082089 17 22 18
-814.392127050817 -605.116450452865 2309.00447430949 15 20 13
-820.08873600402 -605.902818044944 2316.34281508318 5 11 1
-864.385596918626 -618.358889646385 2309.25663063453 20 23 16
-830.578255319026 -607.194338702747 2331.42828566796 18 21 14
-800.403977926464 -597.147775536627 2352.03907825716 14 17 10
-787.681447402157 -592.381799457843 2366.08102785145 13 16 9
-845.886744462899 -608.984415864681 2354.37183918136 11 14 7
-868.416311115545 -613.869402090606 2365.38861869432 9 12 5
-874.160791110297 -614.645205396129 2372.9306068305 9 12 5
-678.652810957303 -553.282844657876 2468.68795939455 13 16 9
-699.168093651077 -557.636060123682 2479.62868706537 17 20 13
-656.606548487635 -544.044418641865 2502.80766401082 12 15 8
-626.04459246809 -534.056242932096 2521.74446319663 11 14 7
-658.556124220473 -542.867988107039 2519.8194899024 10 13 6
-685.535858848841 -550.014934741296 2519.87966551981 10 13 6
-663.289916329217 -542.518890876668 2535.91756693633 13 16 9
-667.05329897952 -542.757653862978 2543.52772956836 13 16 9
-615.917669817774 -525.853021609789 2577.09949320171 20 23 16
-659.721500657067 -537.953202704009 2572.18890389997 22 24 19
-720.43647139586 -554.133353054419 2571.28921371088 17 20 13
-685.021500851261 -542.793841497057 2590.83023086948 15 18 11
-663.572686077272 -535.592207394314 2605.99749181604 15 18 11
-631.808355461013 -525.367597440789 2624.05436649089 16 19 10
-659.878635580005 -532.759067803588 2624.50644123165 15 18 11
-702.963174006706 -544.544964246951 2620.79778988254 23 25 20
-771.397376610339 -563.744495969251 2610.12205737039 19 21 16
-800.54593884718 -571.385712533193 2610.91723626993 21 23 20
-850.74702894672 -626.396610566735 2285.78179575262 9 14 10
-883.069936063638 -635.333301716355 2283.09912297149 21 26 19
-838.524232946638 -619.796736686006 2319.1739346155 18 21 14
-821.258732566464 -613.578294772197 2335.1257695464 17 20 13
-800.457500762012 -605.357072863141 2361.66086362795 10 13 6
-796.940754035101 -603.351261548347 2372.32382452964 8 11 4
-831.206022651215 -612.829578226338 2369.40606812097 9 12 5
-634.239649485161 -547.688601380933 2492.96677796324 16 19 12
-697.246898347189 -565.819312674156 2480.53232348535 18 21 14
-700.104886300906 -565.782811520186 2488.54838737318 11 14 7
-654.747345716059 -551.228437784777 2512.51065709792 11 14 7
-691.907457976513 -561.521893310793 2509.15729399983 12 15 8
-658.549739305595 -550.604919965615 2528.89945732829 12 15 8
-640.011224092329 -544.157172791551 2543.66319286372 14 17 10
-596.33603613326 -528.459292007961 2583.47911430034 24 27 20
-609.371031931961 -531.494085029616 2588.02363782359 17 19 14
-725.894969133399 -565.424565015598 2560.97270318049 14 16 11
-638.299299233003 -537.521071380485 2605.12425696725 15 18 11
-643.915487182215 -538.320732774264 2612.11603552435 17 20 13
-653.275707389982 -540.230904421378 2618.03154265839 17 20 11
-615.881486790894 -528.246284017122 2637.58531215623 11 14 7
-653.307927874672 -538.489660481498 2635.37717857101 28 30 25
-727.30635265244 -559.552850594024 2622.97614343587 36 38 33
-874.666824476941 -642.147176115717 2286.53129944787 8 14 4
-811.576864085703 -621.695221765038 2320.02020272552 13 19 9
-816.353407760083 -622.220189231303 2327.70686568204 13 16 9
-813.782824442333 -620.478633515271 2338.13818726908 12 15 8
-808.447565909054 -617.888371030366 2349.55896895264 10 13 6
-772.888251579492 -605.073365055108 2381.26639110166 8 11 4
-809.89123265054 -615.497505679725 2377.29748231828 11 14 7
-834.033333506081 -621.956004241522 2378.11879318849 11 14 7
-827.759269794883 -619.083839603548 2389.79325965861 10 13 6
-785.61592852778 -604.307155681531 2423.2308921957 10 13 6
-681.441040699994 -569.764360142438 2486.11090000445 18 21 14
-676.878273448551 -567.476634827131 2496.55617265446 16 19 12
-700.11503290788 -573.646480237387 2497.77465826283 17 20 13
-677.002861261255 -565.721907972397 2514.30090192788 19 22 15
-621.372120702676 -547.943554424115 2541.21994305848 20 23 16
-628.822020484352 -549.324661278511 2547.5212858518 19 22 15
-643.715166724486 -552.956014756862 2551.48978150377 22 25 18
-624.214912900746 -546.173051943591 2566.37587309127 23 26 19
-594.449305883811 -536.30018386404 2584.33434460344 17 20 13
-631.692682887145 -546.678316379949 2581.39769809104 17 19 14
-641.958849406909 -548.897110892419 2586.93044162726 16 18 13
-631.732349325163 -544.05901158893 2607.37251040185 18 21 14
-677.493868750309 -556.943061875209 2602.43577083259 18 21 14
-677.530796005409 -556.064696084249 2611.1946794465 17 20 11
-663.540845221491 -550.977763342751 2624.019276192 19 22 15
-696.3093988945 -559.916547152221 2623.30160927849 27 29 24
-686.05350520933 -555.951819053119 2635.01394297804 29 31 26
-830.312517972094 -638.653860986742 2294.07954025171 19 24 18
-866.268833761514 -648.916328077016 2289.96082356135 10 16 6
-876.585145388215 -651.160713731849 2295.72958715314 13 19 9
-840.096089725009 -638.817402701645 2319.06106383945 12 15 8
-797.297676765643 -623.585693659338 2353.90084881084 11 14 7
-816.783969093873 -628.689978859784 2356.19260182994 11 14 7
-828.93036243494 -631.50530234102 2361.2487530225 10 13 6
-831.880038881746 -631.463216893073 2369.66556464489 12 15 8
-867.089995614403 -641.409087656408 2366.62815505356 12 15 8
-649.862970976507 -569.659543145383 2488.15756270154 14 17 10
-619.376720332529 -559.381983916372 2507.25775737782 13 16 9
-656.444938414861 -569.893246061846 2503.62864883017 13 16 9
-680.588041705106 -576.412299068168 2504.48890674028 16 19 12
-602.776267609542 -550.757552536305 2547.5092530769 10 13 6
-623.211092421557 -556.137050808354 2549.58625111434 16 19 12
-612.082085522089 -551.849826643509 2561.81787016028 18 21 14
-603.727563568921 -547.542185188547 2581.70705082124 15 18 11
-603.727764066525 -546.666986347455 2590.30706932582 19 21 16
-612.10980729085 -548.345711800398 2596.33352938493 19 21 16
-681.22012742764 -565.809051155981 2610.40019066045 22 25 16
-710.232457311018 -573.705920787939 2610.74433183327 27 30 23
-703.740576097569 -570.836167146625 2621.46038718332 23 25 20
-686.943077017319 -564.854106969086 2635.0571310425 18 20 15
-857.428096242862 -657.454820880969 2274.25222237495 17 19 18
-854.90594603863 -655.680983097991 2284.87798085828 20 22 19
-848.712100841902 -652.752142129689 2296.87260107317 13 15 10
-802.157801889087 -637.117837578779 2324.03889705515 11 14 7
-792.24476099119 -633.041308521279 2337.19627964989 13 16 9
-835.575715939263 -645.705302650694 2330.5335436175 13 16 9
-820.340235068389 -638.993551283868 2355.14066353393 13 16 9
-829.72571138641 -640.973529958213 2361.20960823963 14 17 10
-858.45702327337 -649.003684199321 2360.39381615092 15 18 11
-826.414918392934 -638.013173280257 2381.33258570611 14 17 10
-945.790109646809 -673.344441171398 2358.55700201269 12 15 8
-645.186039931077 -576.837626827263 2489.99693937403 11 14 7
-613.809183410736 -565.297635382382 2518.10039529286 10 13 6
-667.615311832046 -580.19267145801 2517.89861118162 15 18 11
-678.800816652166 -582.750773455559 2523.12565161414 22 25 18
-601.824830579391 -558.042221182124 2556.71517687898 17 20 13
-599.04551285811 -556.301589906106 2566.22723835884 16 19 12
-533.061819000722 -535.059874014464 2595.61407412127 20 23 16
-571.148622546893 -545.941368932001 2592.13370538608 20 23 16
-592.532816903024 -551.655911295187 2594.03374125221 16 19 12
-592.524496415583 -550.776490041659 2602.59372791086 15 18 11
-611.151274520538 -555.624680209997 2605.50374617148 19 22 15
-598.096216176732 -550.73522770979 2618.00776214587 22 25 16
-641.007195632473 -563.018917206871 2613.82709576769 24 27 18
-686.773978954721 -576.151280265988 2609.05960141994 22 25 16
-669.998999886293 -570.113599968872 2622.72286746542 21 24 17
-656.004359586154 -564.937086447085 2635.47411101595 19 21 16
-698.122971491833 -576.909256425522 2632.17499786703 22 24 19
-857.96929203295 -667.973558954174 2264.59711016008 120 124 125
-864.60259162674 -669.103848677007 2271.70783999438 18 20 17
-832.791661482779 -657.981831365812 2293.58795063032 15 17 14
-770.703791944366 -637.244024673482 2326.7681075512 15 17 12
-728.698164365188 -622.932578260633 2351.97232493788 12 14 9
-772.863463064456 -636.021338656611 2344.6785285885 14 17 10
-834.526796500324 -654.635132610646 2331.16363564474 13 16 9
-843.912243248512 -656.637517823917 2337.2445424326 13 16 9
-838.600625585173 -653.980217864877 2348.73007013289 13 16 9
-818.56276330036 -646.668139364219 2365.49234705676 14 17 10
-825.187896168161 -647.796488300004 2372.56594809182 14 17 10
-823.529897066398 -646.306045372786 2382.61101736547 12 15 8
-883.618552461454 -664.29304630502 2370.90025368607 10 13 6
-961.308303424878 -687.788212532661 2353.41261734984 11 14 7
-936.658726192595 -679.021013386986 2371.78137413701 11 14 7
-698.731689306022 -602.281472865947 2472.06759755861 13 16 9
-666.451846224998 -591.229137181998 2491.92239256265 15 18 11
-640.646749435874 -581.325228157065 2518.2009943273 15 18 11
-648.100124048191 -582.755122290913 2524.54525789678 22 25 18
-651.852142372808 -583.024130313193 2532.12421832679 14 17 10
-648.184581897725 -580.974702218611 2542.09695315024 15 18 11
-577.661329019976 -558.075279754822 2573.28798845352 17 20 13
-563.715067512239 -552.850179432732 2586.2238396186 20 23 16
-545.099506335171 -546.181032215094 2600.5189324612 19 22 15
-583.205538709319 -557.162461452172 2597.1820751043 19 22 15
-598.086914775823 -560.905758830332 2601.16563275833 19 22 15
-641.863675622962 -573.607293890608 2596.48836785509 21 24 17
-651.20632662969 -575.606752627338 2602.38005714537 22 25 16
-660.559307217549 -577.604145721624 2608.31496315702 22 25 16
-664.32177953389 -577.866599121204 2615.93613467203 21 24 15
-675.559171876115 -580.437552360246 2621.39938004986 21 24 17
-828.576826577343 -667.873296176448 2276.27639451329 32 36 35
-792.204927300583 -655.179417226889 2299.91793701803 21 23 20
-784.152157617712 -651.619493581617 2312.46269655433 21 23 18
-795.317663576629 -654.24157243481 2317.63923959942 16 18 13
-721.270120128303 -629.501120256808 2355.0005064655 9 11 6
-785.590745089714 -649.185209803414 2340.15437684683 12 15 8
-856.634584347332 -669.996336831947 2332.81328009258 10 13 6
-811.823405878064 -654.682854410077 2358.73556618249 11 14 7
-791.775777513397 -647.30894652299 2375.41844211587 13 16 9
-794.701349954162 -647.279366889883 2383.73639313643 14 17 10
-827.091590025839 -656.64131890344 2381.60055263128 12 15 8
-645.226040036731 -591.369938524117 2516.94734431375 21 24 17
-638.786838557537 -588.426613284814 2527.85226445974 16 19 12
-616.579607138303 -580.512192286333 2543.8146734822 15 18 11
-624.020958985723 -581.959268209752 2550.11606360231 13 16 9
-565.57265485058 -562.651489012377 2577.39113167874 19 22 15
-552.552932153876 -557.67405585745 2589.99910948929 21 24 17
-610.145699059886 -574.898516338526 2580.51182861559 21 24 17
-616.6634825061 -576.050509016907 2587.12737924644 22 25 18
-607.367683477747 -572.239019945431 2598.60307998879 22 25 18
-619.475132588812 -575.140519378161 2603.53830638602 22 25 18
-658.619780670916 -586.498099857926 2600.44302107898 21 24 15
-660.515870954144 -586.183638678271 2608.61332958038 19 22 13
-641.88443239617 -579.456063635183 2622.8040922123 19 22 13
-679.247847034691 -590.215096138608 2620.62043349147 18 21 14
-701.709427705098 -596.305437744982 2622.93267996266 21 23 18
-691.475747918024 -592.199666855924 2634.65994411044 16 18 13
-826.612935401745 -676.52296759485 2277.2662207121 11 15 14
-747.284195948809 -649.747839597161 2317.50046582637 24 26 23
-778.717658201345 -658.024260827477 2324.17925616077 13 15 10
-796.294625386586 -662.751239917926 2326.94940371928 11 13 8
-765.307544540701 -651.744147411015 2347.97105722352 11 14 7
-823.256430151383 -669.523622744202 2335.82416221892 11 14 7
-813.353597423248 -665.342060421215 2348.9647507442 12 15 8
-798.842387073126 -659.680167467432 2363.71061120738 13 16 9
-772.360047011657 -650.168303830178 2382.67798550908 16 19 12
-803.786164001783 -659.329003580364 2380.73278658766 14 17 10
-804.878943046763 -658.708302815924 2389.73952961872 12 15 8
-823.829787241049 -661.874875159789 2411.31629351065 12 15 8
-837.849500562688 -665.392561405165 2415.9265784184 12 15 8
-790.011860000086 -649.094944478807 2441.60400047642 14 17 10
-615.590222671782 -589.618527074173 2535.69702684161 17 20 13
-588.743317849757 -580.16039798522 2553.09061045105 17 20 13
-573.912116383711 -574.544444813268 2566.45342629844 15 18 11
-552.564055291069 -566.866537807281 2581.7845377448 13 16 9
-554.396176836497 -566.565731402992 2589.68099448966 14 17 10
-583.170974416929 -574.813482628481 2589.18480881636 17 20 13
-619.41910153189 -585.412314754869 2586.5498195865 18 21 14
-627.804901485838 -587.165493680648 2592.63553864756 20 23 16
-619.44302265031 -583.615711012568 2603.82523647968 19 22 15
-614.794019911611 -581.245240649964 2613.84183804122 17 20 11
-703.410270841068 -607.396204674225 2605.05378524671 18 21 12
-725.868602701657 -613.545989063274 2607.38776430738 15 18 11
-721.268710185606 -611.165305424819 2617.61476663966 22 24 19
-700.771976130188 -603.789643721754 2632.31759306552 21 23 18
-765.284637673921 -665.666325630069 2301.37855594067 10 12 9
-776.422201928811 -668.347174943462 2306.46545222228 17 19 16
-843.358976597024 -689.313076080957 2290.23119821557 17 19 14
-833.510600491197 -685.090146957426 2303.58742333759 13 15 10
-781.521061738245 -667.087736207585 2332.75069273829 18 20 15
-792.689861138502 -669.762178771659 2337.97254720471 13 16 9
-773.610203763525 -662.553901422826 2354.46187252593 13 16 9
-804.971659025209 -671.811434772803 2352.28760479007 15 18 11
-794.134003664258 -667.298829768465 2365.67052463227 16 19 12
-813.60155716904 -672.658940777384 2368.03017200351 17 20 13
-817.64450257848 -672.008044978538 2385.46287906883 11 14 7
-849.328236631119 -680.316598678447 2393.26449657456 12 15 8
-800.662710207982 -663.562956210656 2419.58305044539 12 15 8
-810.973161162473 -665.924465125213 2425.39487662104 11 14 7
-572.971677135002 -585.319058621285 2541.30597733951 23 26 19
-599.814095554299 -593.063417797185 2541.1124373106 25 28 21
-613.722565432009 -596.631092321056 2545.26192109717 22 25 18
-577.595877743798 -584.11430089591 2565.53175800856 25 28 21
-554.403875330883 -575.773124817702 2581.46010223599 21 24 17
-546.028564891064 -572.198635963209 2592.57499491205 19 22 15
-592.434995261137 -586.178223408443 2586.56697066423 17 20 13
-650.982295434272 -604.013714362149 2577.08998095006 16 19 12
-625.90835577222 -595.079705970943 2593.49064105516 16 19 12
-645.466950849924 -600.416295052815 2596.23763512867 16 19 12
-620.351450884791 -591.488039263398 2612.45854012807 15 18 9
-631.541349751027 -594.147835273511 2617.76475635195 16 19 10
-718.271510280772 -620.852827238712 2600.99136563918 18 21 12
-695.946576040841 -612.814830568954 2616.36242516451 17 20 13
-729.610221827002 -622.582467423215 2615.52014721196 18 20 15
-755.290876808767 -670.480609352122 2314.85203325837 14 16 11
-827.676854767196 -693.455658771586 2296.47120967745 12 14 9
-875.4574133895 -708.250559913333 2287.88511374687 14 17 10
-800.629182666526 -682.527048796656 2325.78442629814 12 15 8
-762.340552625622 -668.90768515767 2349.54822276798 14 17 10
-811.08304191102 -683.996305162979 2340.817296442 15 18 11
-781.918146295261 -673.404117015133 2360.99868089568 15 18 11
-794.935738821493 -676.705669859981 2365.62341500717 13 16 9
-821.746774610702 -684.531784075427 2365.33858429448 12 15 8
-834.803822054886 -687.826213456855 2370.13298967786 15 18 11
-810.342406559561 -677.823772783618 2397.71717853318 13 16 9
-834.651298815649 -683.801111341901 2408.10436401423 15 18 11
-828.382067929 -680.761596700075 2419.70061047142 14 17 10
-643.222104864507 -616.576377732203 2518.38605176334 19 22 15
-598.853562179116 -601.231652668469 2541.68406381024 15 18 11
-647.943402276319 -616.257734195234 2534.44698184432 18 21 14
-654.474998670255 -617.449839093585 2541.14590655435 19 22 15
-601.673641397854 -599.414435380143 2566.71243126873 17 20 13
-578.489086233813 -591.000262302096 2582.63065790656 12 15 8
-601.691985338027 -597.601008334233 2583.95337698916 12 15 8
-645.362270784879 -610.798869480657 2579.09884302897 15 18 11
-686.299220985662 -623.08694207803 2575.33594478724 14 17 10
-662.169987165928 -614.373227093449 2591.47159916361 12 15 8
-640.798805947622 -606.564010031674 2606.62359775268 16 19 10
-654.79413180987 -610.147706040702 2611.16524227545 18 21 12
-652.959742003085 -608.635184658867 2620.41896041762 17 20 11
-678.170105359471 -615.807974325207 2621.81028057107 18 21 14
-716.478337345899 -627.166356537046 2619.58722883768 21 23 18
-728.683996870869 -630.13647758078 2624.99450138283 24 26 21
-842.384111469915 -706.6453841182 2300.68608530448 16 19 12
-838.02631047644 -704.183716652463 2311.93225007836 19 22 15
-779.801731899229 -682.80384581959 2352.64474936054 14 17 10
-777.219582030753 -680.959627261181 2362.96580555226 13 16 9
-819.594306457578 -694.04189077671 2356.89069984391 13 16 9
-788.565960786267 -682.754307975604 2377.56554156382 13 16 9
-783.220823533343 -679.996714352339 2388.84437321624 16 19 12
-793.496954335232 -682.413688994783 2394.53758819047 14 17 10
-848.148783097833 -698.492619448151 2394.2012817927 12 15 8
-799.51850555155 -681.442340744161 2420.50069074144 14 17 10
-774.790595639463 -672.30411280272 2438.30604166908 14 17 10
-617.28758792433 -616.683380078033 2527.19824230827 9 12 5
-670.168850060152 -631.226051628637 2536.38402046677 12 15 8
-644.276159897878 -621.819753870353 2553.45541577462 13 16 9
-633.186304111857 -617.267064830274 2565.70341937372 15 18 11
-639.713228994397 -618.471896330402 2572.38924408931 15 18 11
-588.666173546095 -600.901324614349 2596.84681864087 13 16 9
-623.976758745279 -611.49303320696 2594.63269666709 13 16 9
-676.07125953972 -627.523641839186 2587.55531709442 14 17 10
-659.40691425228 -620.238739363962 2610.08642222814 16 19 10
-636.145901486205 -611.762197930577 2625.63104966816 17 20 11
-663.202354530452 -619.608847410884 2626.44083311214 16 19 12
-688.426469666317 -626.845263695967 2627.9301746143 16 18 13
-714.615093078 -634.377774229349 2629.28852769952 20 22 17
-859.821640135075 -724.918065602553 2265.24160727076 9 14 10
-881.970795625695 -731.366071295858 2266.38749504801 18 20 15
-874.912461213438 -727.956780881168 2278.84649988788 15 18 11
-844.072847131966 -716.54608482945 2300.28059034563 15 18 11
-827.826336729009 -710.065359401616 2316.0120085958 12 15 8
-815.217183916486 -704.818580752562 2330.27077322632 13 16 9
-795.260102824734 -697.114436825906 2347.15950487831 13 16 9
-805.524033582206 -699.558979396443 2352.81517399514 13 16 9
-773.604276071842 -687.865148152788 2373.87940638378 12 15 8
-782.944596974811 -690.002552606389 2379.84196306232 12 15 8
-775.761863199627 -686.61000841631 2391.76264234501 15 18 11
-806.251763059222 -695.806293883473 2390.26818222127 13 16 9
-858.853916293618 -712.361793312354 2381.18121532223 10 13 6
-867.559730399449 -713.233810863115 2397.27272881718 12 15 8
-805.101570140475 -691.439051576904 2428.19842044812 12 15 8
-759.157169511001 -675.174867504715 2453.12539867285 12 15 8
-784.207368546197 -682.514359593197 2453.90899163132 12 15 8
-750.1875961836 -670.244267869691 2474.49431156518 18 21 14
-670.840457081121 -642.977203532828 2509.80064396106 21 24 17
-599.707175895365 -618.482306779065 2541.92154379965 20 23 16
-597.8745562299 -616.953569599584 2551.17352459996 19 22 15
-634.925846087553 -628.273202454245 2547.94527780921 17 20 13
-657.199870498265 -634.691768946167 2549.62409468817 15 18 11
-652.613676881552 -632.239869077451 2559.86957518884 13 16 9
-593.280271675885 -611.758128240098 2587.11029897942 12 15 8
-627.633182136717 -622.145095701629 2585.11318166012 14 17 10
-615.579261231969 -617.254338255631 2597.47052506307 15 18 11
-644.41067192109 -625.799272563909 2597.39860269058 15 18 11
-690.022529773596 -639.831248828798 2592.47754072746 15 18 9
-638.904151309264 -621.20083767047 2625.11027406469 16 19 10
-661.293967670698 -627.59570254632 2627.28539635811 14 17 10
-705.163564696719 -640.995524183479 2623.42901682246 14 16 11
-864.23203106839 -735.830821926706 2263.75424446454 10 15 11
-854.43475593088 -731.463668647715 2277.25082190489 17 19 14
-866.540249851467 -734.552887983686 2282.28784332479 14 17 10
-834.793165033929 -722.735716858585 2304.04042641812 15 18 11
-779.223711100065 -702.854893395994 2334.55041991703 11 14 7
-809.598046696665 -712.154374088783 2332.60849965747 13 16 9
-825.359309689348 -716.484140823296 2336.25679489341 13 16 9
-803.568839290429 -708.09612721727 2353.77714096072 12 15 8
-745.984847882893 -687.622617419178 2384.17522334405 12 15 8
-784.667403396935 -699.701755575257 2379.46808907624 12 15 8
-812.381294381854 -708.054897096486 2378.91533188862 14 17 10
-837.373341527373 -715.472713989448 2379.48982867854 12 15 8
-855.041389734252 -720.408277676379 2382.78292783932 9 12 5
-854.534750872993 -718.200730120106 2402.03618097892 11 14 7
-839.997486996071 -712.302687513061 2416.52833910496 11 14 7
-749.173947916267 -678.867102300693 2475.09926391615 20 23 16
-617.200753672594 -633.754669241569 2527.74247704224 23 26 19
-590.426897061341 -623.87519465291 2545.21013141862 20 23 16
-605.239538936761 -627.89347787485 2549.05254438788 18 21 14
-636.73074347428 -637.463381516465 2547.63375258877 15 18 11
-651.589586424131 -641.473141329458 2551.67474087309 14 17 10
-571.001446777541 -613.713555468595 2585.77923203327 14 17 10
-613.65568674699 -626.976263353055 2581.04196404986 14 17 10
-617.385055784314 -627.284802225309 2588.54436944857 15 18 11
-614.616501978741 -625.435801732064 2598.04012369738 15 18 11
-615.559220879129 -624.819225825791 2606.38804153327 15 18 11
-640.678918269643 -632.207526709615 2607.50767836624 15 18 9
-642.566140892058 -631.895382542952 2615.64027364536 15 18 9
-640.728986343605 -630.351810951969 2624.86354602668 15 18 9
-667.772311318684 -638.343917052767 2625.70103248125 13 16 9
-713.497300374537 -652.479636779625 2621.33951018209 14 16 11
-709.830712763031 -650.313700663534 2631.24800578873 20 22 17
-863.1684383155 -744.893764525419 2264.39796993819 14 19 15
-843.566226471027 -736.091825999527 2291.31758462269 13 16 9
-786.235915046749 -715.407704510017 2322.7096519941 12 15 6
-765.393448418289 -707.260066068494 2339.99133633498 13 16 7
-791.175105272287 -715.079781520276 2339.72528525926 12 15 8
-788.611429467732 -713.194078087095 2350.10226234263 12 15 8
-762.225020263339 -703.175942048208 2369.19459028142 11 14 7
-769.716473377078 -704.733558878231 2375.7828583577 11 14 7
-786.388519975547 -709.415656292133 2379.09541340313 11 14 7
-826.027781864128 -721.906869785596 2374.28895452184 14 17 10
-844.592150163356 -727.204083083108 2377.18914643499 12 15 8
-844.796958549362 -726.250934928663 2386.64385132222 9 12 5
-801.521929918932 -706.516785007159 2448.63330594451 11 14 7
-582.989517800083 -630.766646805259 2539.27320429566 20 23 16
-613.494470574669 -640.12096582252 2537.93911255643 16 19 12
-659.757548989172 -654.762561243759 2531.68876861672 15 18 11
-583.947320501428 -627.375151390624 2573.39608171053 12 15 8
-580.244216525076 -625.204593670796 2583.14203334599 12 15 8
-607.129557839182 -633.297999305268 2583.34293400564 12 15 8
-643.326094554146 -644.494407411871 2580.83208247746 14 17 10
-633.149785047588 -640.142577916547 2592.66742944063 15 18 11
-667.549477133893 -650.706579954952 2590.97949841478 15 18 11
-688.977909925584 -656.914412340038 2593.36569776239 15 18 9
-658.339836483546 -645.72957147757 2611.26324044546 15 18 9
-667.684961509137 -647.898251403508 2617.26536206271 16 19 10
-701.258375050172 -658.132297316411 2616.29979551836 17 20 13
-673.396369868774 -646.948979911866 2641.8747816415 17 19 14
-831.117068863323 -743.204833279454 2277.09758190606 13 18 14
-813.09885850651 -735.92646111961 2293.66553339544 11 13 8
-809.655898700632 -733.707834100889 2304.52955707251 15 18 11
-816.251811683974 -734.964815327823 2311.55005580394 10 13 4
-773.505071594589 -719.167364942847 2337.17197861621 14 17 8
-742.586637305274 -707.483146585957 2358.09786501884 11 14 7
-816.860795160149 -732.099808353549 2339.88909241962 11 14 7
-789.58793172934 -721.679527511916 2359.3961571572 11 14 7
-788.849632638534 -720.411915991663 2369.06752339632 11 14 7
-815.616442062469 -728.603547851393 2368.80387783371 10 13 6
-830.488661216026 -732.691764348482 2372.94886861341 15 18 11
-888.082053612186 -749.345497468012 2381.35645755887 9 12 5
-847.309704535246 -732.297738783787 2424.05719057911 8 11 4
-617.074589253949 -651.776302809327 2519.55955002046 20 23 16
-594.957203907573 -643.298377932156 2535.58643793546 19 22 15
-652.24920336429 -661.847310575916 2525.55390037926 15 18 11
-669.868388405047 -666.876887735207 2528.68806239182 15 18 11
-670.859438403818 -666.250435990019 2537.24314619821 14 17 10
-582.070414763768 -634.24321448227 2582.83523031678 12 15 8
-605.241671108542 -641.154492858933 2584.20115818589 11 14 7
-646.062777127183 -654.019047866907 2580.26685197828 14 17 10
-681.367856278184 -664.993530551874 2578.25360240972 14 17 10
-671.21246709256 -660.603424241344 2590.15862316632 14 17 10
-681.485787436789 -663.108010162546 2595.89098374061 15 18 9
-674.102054136418 -659.659455252868 2606.89299983726 16 19 10
-662.984098083462 -654.960004652324 2618.93085714194 17 20 11
-689.09498533164 -662.782465809052 2620.11611305858 14 17 10
-645.377924055328 -646.192652823183 2650.11009922273 14 16 11
-659.393113903875 -649.943049546871 2654.83732380976 15 17 14
-775.399298215869 -733.040070735103 2298.9983720282 13 15 10
-809.318167095159 -743.879368192321 2295.35357718816 11 13 8
-823.209309487741 -747.70025214456 2299.57563562588 17 20 13
-817.944970547472 -744.827538452992 2311.14280124936 8 11 2
-790.74609797038 -734.312189172072 2330.91890968145 14 17 8
-789.104483927559 -732.717841405713 2340.97506751544 11 14 7
-792.947233503997 -733.033654844178 2348.98028503039 11 14 7
-827.916315317298 -744.167404187037 2345.58011339456 11 14 7
-802.472927051641 -734.298914522447 2364.3595450838 10 13 6
-836.574107321794 -745.106112146503 2361.49923901218 10 13 6
-843.201030853056 -746.36875865436 2368.66080659682 15 18 11
-856.259692089129 -749.854583611458 2373.57380949173 13 16 9
-894.606160072638 -759.977154328432 2389.01909392512 10 13 6
-871.831583752316 -751.072484805843 2406.45542915218 9 12 5
-828.763032554841 -735.191759789389 2430.61028771849 7 10 3
-609.651045527537 -657.794359633029 2522.28378598528 16 19 12
-626.295161728985 -662.561593004758 2525.52333782763 17 20 13
-629.107911640044 -662.57134122572 2533.36725925339 15 18 11
-668.883535989714 -675.25285686431 2529.27470771994 13 16 9
-667.100804444662 -673.673651601488 2538.71684059283 13 16 9
-656.060677627982 -668.928727848494 2551.07091245175 14 17 10
-625.559724733786 -657.539278707994 2569.45342963523 13 16 9
-634.855733637693 -659.761892651945 2575.2697531893 13 16 9
-652.505823884598 -664.828984561804 2578.56216626594 13 16 9
-663.682957395174 -667.678777924924 2583.92388122896 13 16 9
-669.30251662096 -668.629195067147 2591.01918517735 14 17 10
-681.430020609159 -671.790387473142 2596.19552782318 16 19 10
-661.035673963608 -663.89229358497 2611.04225451422 16 19 10
-647.123333772577 -658.20912076959 2623.85815922955 17 20 11
-680.66248821994 -668.629019271831 2622.85093983819 14 17 10
-672.328783069312 -664.840012634463 2634.02299699309 10 12 7
-656.52502823116 -658.528653060111 2647.24866038927 11 13 8
-658.419056573068 -658.212900271036 2655.40912310884 11 13 10
-803.716749587995 -751.171653951523 2297.74379712861 9 11 6
-824.896731534659 -757.5994448473 2299.1634651619 11 14 7
-821.461994534264 -755.347748702196 2310.04427306902 14 17 8
-805.234901493267 -748.600088134246 2325.70425285193 13 16 7
-804.5189374872 -747.314549898454 2335.4634964115 12 14 9
-835.806035383263 -757.264140527644 2333.36861284711 9 11 6
-802.161819673634 -744.42302672202 2355.27299485014 10 12 7
-814.254807516231 -747.629189819275 2360.32368979889 13 15 10
-829.110620420082 -751.794863799235 2364.44302957891 14 16 11
-838.482558793727 -754.033772026736 2370.60352581184 15 17 12
-865.297951514001 -762.360055435295 2370.63316383838 12 14 9
-853.583902904935 -757.223495539614 2384.3446934861 7 9 4
-829.907694061296 -747.925455457348 2402.13295551886 8 10 5
-812.633026182918 -740.873861199528 2417.55436018099 9 11 6
-927.149016085459 -778.623113658877 2397.57272291322 14 16 11
-633.575547559538 -674.646675714904 2514.58923095425 19 21 16
-614.25421631167 -666.985860526932 2529.7474342185 21 23 18
-672.44511330089 -686.176300042651 2519.49686358916 3 5 0
-635.568884843981 -672.444636435721 2540.30456421495 12 14 9
-649.479360847819 -676.288204712031 2544.6251598419 13 15 10
-667.1058810403 -681.405891983919 2547.84346824234 13 15 10
-644.954125429323 -672.793746218194 2563.63995666076 14 16 11
-631.10625279124 -667.058216302216 2576.70914775531 14 16 11
-604.26217399624 -656.859473646135 2593.67957975241 14 16 11
-625.606302829535 -663.249517644885 2595.80037188289 14 16 11
-684.098023734793 -682.38657704403 2586.84400800099 14 17 10
-639.614204897079 -665.186054744122 2617.65642606714 15 18 11
-635.945437177476 -662.013661972539 2636.07724830074 15 18 11
-669.486807722633 -672.522846545 2635.13230946136 8 10 5
-740.340617905571 -695.751906511759 2623.81849210795 13 15 10
-878.946250664775 -788.265920812873 2259.18563493388 20 25 21
-820.895567763179 -766.540320939563 2291.34826008414 15 17 12
-808.348719987851 -761.031744988002 2305.72650950843 15 18 11
-771.150124324571 -746.778128631622 2329.36417164851 12 15 6
-778.631712312145 -748.403115786425 2335.94859332993 11 14 5
-807.132537553422 -757.473852498984 2334.72918114491 12 14 9
-810.073040891294 -757.474893403158 2343.13093628541 9 11 6
-796.549361626022 -751.650637718006 2357.57652423603 14 16 11
-801.312698539586 -752.299207542083 2365.2776894789 17 19 14
-795.087955876203 -749.065865489052 2376.95706009203 15 17 12
-830.100191169353 -760.382471641763 2373.85459791122 11 13 8
-837.64017101018 -761.995390325389 2380.68814299013 10 12 7
-829.584444727196 -758.11386126989 2393.03071624679 7 9 4
-840.803145152551 -761.01702519007 2398.6069897616 7 9 4
-826.300058551292 -754.876321064974 2413.10811345146 9 11 6
-900.066322866913 -779.728174859512 2397.35600806058 9 11 6
-827.598977533916 -753.253646182192 2431.54671111472 15 17 12
-807.524859812859 -745.183094929419 2447.70420324317 10 12 7
-660.317529590252 -691.655731453223 2514.84589639745 18 20 15
-662.230738238244 -691.345044814342 2523.09385832099 21 23 18
-667.837989351202 -692.322714353921 2530.14986820495 12 14 9
-664.210028207553 -690.077875914331 2540.18325288518 12 14 9
-647.630055079883 -683.325678135533 2554.28557141298 13 15 10
-642.128522694513 -680.439727414747 2564.7997407106 14 16 11
-606.06383768282 -666.93544312042 2584.76089960863 14 16 11
-595.890316184036 -662.446485291455 2596.52787773011 13 15 10
-627.420805072175 -672.431669323991 2595.52644973711 13 15 10
-623.73743812212 -670.192841234681 2605.31921966019 14 17 10
-668.320695181135 -684.667295700175 2600.6822082235 14 17 10
-727.824411819968 -704.272457139498 2591.90310951975 15 18 11
-696.306298055721 -692.387524082837 2610.06840942733 15 18 9
-702.017334477691 -692.39093152048 2626.12371270609 10 12 7
-689.040694537186 -686.93648349755 2638.64097335218 15 17 12
-700.277811286379 -689.824944961603 2644.28975227717 13 15 12
-806.393418589515 -769.599501982105 2306.70709422756 16 19 12
-762.82381267411 -752.943448068082 2332.75440037667 18 21 12
-757.52231866013 -750.0133727916 2344.12301475468 19 22 13
-763.169755620007 -751.002291902205 2351.36380963334 18 20 15
-803.548224537562 -764.3930380971 2345.78739184276 20 22 17
-789.111501522299 -758.197392237773 2360.54863672684 18 20 15
-772.822918609381 -751.352373791825 2375.88039404477 15 17 12
-838.92137308766 -773.859659527897 2361.41501719547 12 14 9
-851.961190644879 -777.444666405661 2366.30331957025 7 9 4
-843.927022060888 -773.531171655383 2378.72208726957 7 9 4
-831.291831551487 -767.9902154868 2392.69308922288 8 10 5
-852.608634664311 -774.503054919372 2394.76677918739 8 10 5
-850.982637277647 -772.871072616753 2404.86853117439 9 11 6
-804.302258292615 -755.289628918507 2430.33400236572 10 12 7
-794.356684225738 -750.734459623115 2443.06650455076 5 7 2
-653.803574260886 -698.068396935685 2517.25290551078 9 11 6
-652.022920098299 -696.458389052762 2526.68716184101 13 15 10
-717.622869857509 -718.566749315969 2514.34685753764 11 13 8
-647.524352603038 -692.914489152891 2545.78930663639 12 14 9
-617.999471185296 -681.564308030052 2563.9396463035 12 14 9
-603.232067795173 -675.414094443687 2577.26935863842 13 15 10
-591.219135337732 -670.240445869293 2589.64201980184 13 15 10
-602.34227666917 -673.179253129069 2594.81816923767 12 14 9
-624.599538803371 -680.007072532701 2596.66383108276 12 14 9
-636.682579250449 -683.263727546754 2601.70038978221 13 16 9
-710.957189888145 -708.231975297045 2588.25680977809 13 16 9
-743.539441827368 -718.604020925279 2587.56118807013 14 17 10
-726.911953320208 -711.802375534524 2601.42504303764 14 17 8
-679.625876346911 -693.354419026874 2632.82570437104 14 16 11
