ply
format ascii 1.0
comment KinectMotionCapture
element vertex 750
property float x
property float y
property float z
property uchar red
property uchar green
property uchar blue
end_header
-782.54904927934 294.619666330322 2391.09338107212 209 213 216
-774.473682900506 294.670046277124 2391.89815371607 219 223 226
-768.495646450265 295.526926620396 2399.46788734298 215 218 223
-765.152430357493 297.423043977743 2415.75872723498 211 214 219
-764.667800023515 300.476453352843 2441.76432608384 211 214 219
-759.704454883892 301.799669554714 2453.26730359689 214 217 222
-752.68049658703 302.313905862172 2457.99128385248 215 218 223
-745.932157303022 302.943891374455 2463.69066537501 216 219 224
-739.451819154916 303.689699293544 2470.36796724322 218 221 226
-734.632732065457 305.13172786149 2482.8940512093 216 219 224
-731.151229916597 307.155615520854 2500.31133232949 187 190 195
-727.043435088533 308.949375980283 2515.80543885526 184 187 192
-722.597316799258 310.628811746661 2530.34728878196 199 202 207
-718.090418557356 312.309921954466 2544.91109438202 223 224 228
-718.603408124158 316.205696003473 2578.08443479347 221 222 224
-712.86719947556 317.425807155397 2588.79363266045 193 193 191
-930.282640157012 265.473245123705 2201.88788214987 130 134 119
-983.043168274086 286.291486356839 2380.54935921982 167 170 163
-972.156193493188 285.600991010511 2374.85339228814 168 170 167
-959.877447049551 284.466995729459 2365.36291193022 183 184 186
-947.308274032283 283.219318742012 2354.90256644433 167 171 172
-939.062404871265 283.293989546677 2355.7711219362 168 172 173
-929.771425276079 283.035883904691 2353.79411946024 170 174 175
-921.204400993781 282.997537954331 2353.70402483114 168 172 173
-911.959571146623 282.736483533721 2351.71028623379 182 186 187
-903.772435199219 282.806490572332 2352.55689554961 186 190 191
-894.571205837505 282.542600693409 2350.54710131865 196 200 201
-885.734467471684 282.388036557204 2349.47942455466 204 208 209
-877.254811758113 282.34346348221 2349.35737010223 192 196 199
-869.791968152024 282.631430485004 2352.09062901753 179 183 184
-862.329246865951 282.918797188726 2354.82379819584 181 185 186
-855.523991460005 283.428476231106 2359.46797162497 193 197 198
-847.404314578883 283.491783649454 2360.28981933683 188 192 195
-840.589194356455 284.000716738405 2364.93752074087 200 204 207
-832.801171001485 284.174202683159 2366.71373565481 225 229 232
-825.97374598651 284.682425624776 2371.36585427034 199 203 206
-818.504655440416 284.966646792673 2374.10110030431 178 182 185
-811.662517940798 285.474359095656 2378.75878029478 176 180 183
-804.499646466345 285.869633703196 2382.45770083694 191 195 198
-797.332102081524 286.264600828971 2386.15855032819 203 207 210
-790.159718858262 286.659234788387 2389.86087850797 203 207 210
-782.073455969008 286.716128568512 2390.66984743724 210 214 217
-774.598835119352 286.997111861035 2393.40685853532 216 220 223
-769.210323844155 288.065950080013 2402.91200917242 217 220 225
-766.149361496122 290.037387222431 2420.17228060931 210 213 218
-763.890652532905 292.349484132118 2440.36694390955 212 215 220
-758.3473313944 293.422540138304 2449.92840671732 216 219 224
-752.76874596693 294.496259703906 2459.50273243221 216 219 224
-746.014337827096 295.118383343006 2465.20372580709 215 218 223
-739.81028143555 295.96688639936 2472.85494888706 220 223 228
-734.981373748799 297.382321777557 2485.38259454631 221 224 229
-732.321621089099 299.706161658719 2505.72385810842 189 192 197
-728.470761858116 301.578957069118 2522.19712983339 180 183 188
-723.459530748192 302.99955271107 2534.79140978948 194 197 202
-719.207205976217 304.76245632787 2550.33570127357 218 219 221
-719.431988270149 308.461267985448 2582.53208654107 219 221 220
-987.632129396715 277.173170799406 2370.7276235658 136 140 126
-986.214944344109 279.299000978932 2389.53566496142 167 170 163
-976.026807551084 278.848793649345 2385.73702653372 167 169 164
-961.563248437356 277.105796936732 2370.59457450264 182 183 185
-948.623795756048 275.789098839692 2359.19725583923 168 169 171
-939.302385444303 275.546415371195 2357.23247361302 166 170 171
-931.061334625921 275.625662016712 2358.09962367456 166 170 171
-922.481428007879 275.595978132635 2358.01486324857 163 167 168
-912.877529794309 275.240956463305 2355.07768715169 183 187 188
-904.336053790799 275.20857961543 2354.97876025177 189 193 194
-894.786007093566 274.85026231013 2352.02176921565 202 206 207
-886.283066361662 274.815307512025 2351.90864649393 199 203 204
-877.795579927812 274.779093666087 2351.78981364817 179 183 184
-870.658196275848 275.175978761626 2355.47984932638 177 181 182
-863.184687371688 275.463767061782 2358.2169698616 184 188 189
-856.039832615505 275.859766793406 2361.90939896517 192 196 197
-847.912174573609 275.928759486456 2362.73432119027 230 234 237
-840.441783725268 276.214818027996 2365.47017830566 221 225 228
-833.292514681402 276.609309133248 2369.16435176271 195 199 202
-826.456553001828 277.11250603304 2373.81919284619 203 207 210
-818.97925113895 277.396988559757 2376.55744207987 212 216 219
-812.128573476247 277.899615405779 2381.21784132646 208 212 215
-804.957333264474 278.292715898024 2384.9196385047 212 216 219
-797.473347613662 278.575792185146 2387.66021010651 216 220 223
-789.684299998202 278.748663089065 2389.43675076694 218 222 225
-781.59783112717 278.811103242448 2390.24621301984 222 226 229
-774.122713898916 279.092225037922 2392.98341492118 222 226 229
-769.62581977703 280.471995564246 2405.3877366137 226 229 234
-766.554285429649 282.403158263282 2422.64906478917 219 222 227
-763.40646518295 284.336647260189 2439.93828601962 224 227 232
-757.57136391544 285.280590974816 2448.52921123463 213 216 221
-752.281288379927 286.445735205333 2459.07241915059 216 219 224
-746.095786361749 287.280649926484 2466.71587546833 223 226 231
-739.602958006214 288.005493620134 2473.39638801893 219 222 227
-735.329042796898 289.615207250766 2487.87015514794 217 220 225
-732.38083996785 291.780088321303 2507.23741925037 204 207 212
-728.522118009464 293.615302343393 2523.71096652898 197 200 205
-722.687124585306 294.676532117524 2533.37751252362 196 199 204
-717.625872712022 296.071391030689 2545.98802502426 213 215 214
-717.054236704068 299.355635532397 2575.2425761984 211 213 210
-710.261591246347 300.087862937314 2582.03232636924 158 159 153
-987.926572807427 271.832384719427 2394.75024397644 165 168 161
-976.276970579076 270.982656942371 2387.18598711518 166 168 163
-961.451685645991 269.18657617261 2371.10440214438 179 180 182
-948.867928827006 268.015516870142 2360.65513642802 166 167 169
-940.603652885667 268.101685926676 2361.53124735591 167 171 172
-933.052340890352 268.397219486447 2364.2972210682 164 168 169
-923.756692783752 268.16585642746 2362.32393260835 163 167 168
-913.447865824206 267.616877918723 2357.49513676996 190 194 195
-903.867453971826 267.276660058471 2354.55054416708 197 201 202
-894.659049301922 267.040265802442 2352.5454315837 204 208 209
-886.830633184472 267.224753242951 2354.33689848034 193 197 198
-878.671494382497 267.30282340626 2355.1741980627 180 184 185
-871.856538052817 267.80323417375 2359.82119689559 177 181 182
-863.376934676278 267.773798917601 2359.7000112945 197 201 202
-856.226333736592 268.1673296937 2363.39459622095 205 209 210
-847.115963973347 267.923604216615 2361.35305641674 204 208 211
-839.970808409526 268.31580438508 2365.04530813192 189 193 196
-832.500116905896 268.601279158062 2367.7812304404 182 186 189
-826.30219309765 269.311917702063 2374.35352129276 191 195 198
-819.452839251247 269.809742353644 2379.01282290868 185 189 192
-812.906597420309 270.413964033079 2384.63683091452 180 184 187
-805.10363375116 270.591249668469 2386.4187608984 185 189 192
-797.306161749888 270.767903818134 2388.1986479065 191 195 198
-789.208846119437 270.83678261736 2389.01253700055 193 197 200
-781.727698902385 271.118795144402 2391.75199703039 198 202 205
-774.847346164266 271.614423132153 2396.42265027128 202 206 209
-770.338051639655 272.967582187705 2408.82946961784 202 205 210
-768.138452442835 275.18055136174 2428.99492246891 200 203 208
-763.799717014577 276.644586882684 2442.41469333432 205 208 213
-756.505908817852 277.035198498753 2446.16109058003 205 208 213
-750.644376861898 277.963486952 2454.76069214753 218 221 226
-744.752603071144 278.892256370828 2463.37106369369 212 215 220
-738.548532239075 279.713888410444 2471.02051886458 215 218 223
-734.836667558843 281.506871427717 2487.43726667688 214 217 222
-732.716589282542 283.949778695104 2509.72454256762 211 214 219
-729.671099916011 286.071654107067 2529.12390967704 209 212 217
-723.003120708755 286.790181999447 2535.86758457247 210 213 218
-718.470958191191 288.374971830638 2550.43330210644 217 219 218
-714.945784539077 290.394776504844 2568.9326988935 222 224 221
-990.00019869525 264.433432108554 2400.9049573003 164 167 160
-976.164832526249 263.002133933611 2387.6911441135 164 166 161
-961.698518472518 261.362388713438 2372.55748354558 177 178 180
-949.824202008787 260.434093729853 2364.00238954642 164 165 167
-942.257027042023 260.730723653443 2366.77420959437 167 171 172
-933.98725522497 260.822004441082 2367.65244876331 164 168 169
-923.635613670091 260.297031139803 2362.84102030653 171 175 176
-912.632669754067 259.564584932611 2356.11721351467 203 207 208
-902.36807186614 259.035032487174 2351.27355901581 204 208 209
-894.531613201926 259.223215007446 2353.06848117665 196 200 201
-886.361841806496 259.307669586079 2353.90987138858 187 191 192
-879.210132696286 259.700290841365 2357.6047903302 178 182 183
-871.386680500244 259.886251736455 2359.39456482228 181 185 186
-863.568556484773 260.071454740157 2361.1826005074 210 214 215
-855.099318112141 260.049237042328 2361.05819348744 198 202 203
-846.645635414631 260.025815886561 2360.92804370369 184 188 191
-838.853714815039 260.208327368988 2362.70635562419 201 205 208
-832.349133999029 260.804489271823 2368.31461849574 215 219 222
-825.829476365858 261.400823536446 2373.92837234613 210 214 217
-818.979283300616 261.893202214652 2378.58756797439 200 204 207
-811.806439168044 262.281587550304 2382.28984645644 204 208 211
-804.628724733236 262.669581397387 2385.99361065851 209 213 216
-796.830906788219 262.848928900854 2387.77382657881 211 215 218
-789.343715599715 263.131832705927 2390.51554985881 212 216 219
-782.159478177502 263.518414029087 2394.22157752998 216 220 223
-775.570602718963 264.113463456278 2399.86038387273 216 220 223
-771.346387376824 265.544498017043 2413.23605531497 210 213 218
-768.835620760905 267.60474218126 2432.43648739181 213 216 221
-763.899757440137 268.830112576106 2443.92209710563 213 216 221
-757.469401831708 269.53269766147 2450.57797720827 225 228 233
-750.731971015914 270.130634815519 2456.27097717483 216 219 224
-744.549027365672 270.938577970686 2463.91172319895 215 218 223
-737.776923008325 271.536738733815 2469.61733823697 216 219 224
-734.903432166723 273.60734739034 2488.95034366441 210 213 218
-733.328367943763 276.206928794029 2513.1845292705 202 205 210
-729.720580710146 278.072579763307 2530.6357552936 200 203 208
-723.046297498931 278.780648381787 2537.38067719623 197 200 205
-717.698742616786 280.016629534361 2549.01667051376 211 213 212
-712.305904879238 281.253784890808 2560.66920538878 218 220 217
-1001.97848795044 257.285500975342 2409.87972046505 138 142 128
-990.615898525598 256.598315434481 2403.29000138238 163 166 159
-974.245579139808 254.518056825414 2383.48186452441 164 166 161
-961.227104987214 253.327137534288 2372.12249323563 178 179 181
-950.066540371069 252.630329554269 2365.45864492463 166 167 169
-942.847423569271 253.026954896948 2369.17835772685 168 172 173
-934.569732795746 253.123845285116 2370.05989740339 168 172 173
-923.16553966611 252.321398577555 2362.41004163256 178 182 183
-912.50960262358 251.716039112195 2356.63629934695 206 210 211
-901.899806128499 251.108280885816 2350.84561147732 203 207 208
-894.744690420689 251.499486927674 2354.54166138367 196 200 201
-886.231328524278 251.489355667918 2354.43419803799 186 190 191
-878.740591299552 251.779038090079 2357.17772118359 179 183 184
-870.916763450855 251.967782827833 2358.96784220976 191 195 196
-863.098274269721 252.155769264351 2360.75622058773 194 198 199
-855.285082740077 252.342982917943 2362.54261582226 173 177 178
-846.500714847107 252.227224641854 2361.45883886286 201 205 208
-838.705859769054 252.412619969729 2363.23843458033 206 210 213
-832.518055843113 253.101825121428 2369.80517701047 195 199 202
-825.992254193115 253.69021112248 2375.42056350373 184 188 191
-818.505711556019 253.975322776014 2378.16221772634 191 195 198
-810.706848590948 254.158581991484 2379.94310848658 192 196 199
-802.91344582996 254.341151399021 2381.72196330252 195 199 202
-796.048070767306 254.827155844784 2386.38619417457 202 206 209
-788.867934477185 255.211538434912 2390.09082015777 205 209 212
-781.683039746065 255.595525164764 2393.79689088775 211 215 218
-775.992715262415 256.487674175156 2402.33155957228 209 213 216
-771.163918715028 257.685767807288 2413.77595552593 195 198 203
-767.763238911196 259.394517804361 2430.07353697564 193 196 201
-762.246156162227 260.391453476437 2439.61972299035 211 214 219
-756.983318472184 261.491230890914 2450.14784803825 213 216 221
-750.53191493957 262.183383259054 2456.81058847702 203 206 211
-743.776138474568 262.773461920681 2462.5096611711 223 226 231
-737.287583789388 263.465921035414 2469.18617746856 213 216 221
-734.131449586448 265.388122829519 2487.54386976625 212 215 220
-732.831675834832 268.030753454266 2512.74809068088 209 212 217
-729.495166136126 269.958621211524 2531.1720019813 207 210 215
-722.817272211038 270.656097915708 2537.9176909203 204 207 212
-716.926957198038 271.662260401713 2547.60018241091 214 216 215
-709.668655127313 272.154569146344 2552.40765409056 216 218 215
-926.317709724835 225.027999817428 2174.67770209671 144 149 129
-994.504291872575 249.614110107998 2414.14992467833 163 166 159
-974.855796519599 246.730557696062 2385.87249340646 165 167 162
-963.265950818672 245.967478716813 2378.29280823957 180 181 183
-951.732456003842 245.201618025723 2370.69269310019 170 171 173
-944.143705803724 245.499150693935 2373.47242035418 167 171 174
-934.098360637848 245.116998729067 2369.62703525181 169 173 176
-922.695387380355 244.344369605917 2361.97898603998 181 185 188
-911.34870559221 243.568988475567 2354.31002207474 203 207 210
-902.117990054837 243.37470582652 2352.31619325538 196 200 203
-895.638376466444 243.958279359212 2357.91443478287 183 187 190
-887.452810429602 244.054219431165 2358.76243038001 182 186 189
-879.277665759533 244.149291890099 2359.60682834569 187 191 194
-870.779844171702 244.145639963168 2359.4942074983 190 194 197
-863.619247962392 244.532131078031 2363.19163862263 178 182 185
-855.798009544757 244.722398601838 2364.98118801315 201 205 208
-847.656722951264 244.81389855643 2365.81276021168 206 210 213
-839.525904095829 244.904423673292 2366.6404555348 201 205 208
-833.326765782903 245.583249435732 2373.21078733715 191 195 198
-826.472038365082 246.065741058596 2377.87088447187 195 199 202
-818.977301892343 246.351172939622 2380.61553998435 202 206 209
-810.857932048393 246.439093053486 2381.43913320525 202 206 209
-802.749074571601 246.526050276719 2382.25857993149 203 207 210
-795.265599304613 246.809463928442 2384.9989915464 209 213 216
-787.782526013555 247.092325903577 2387.73921548347 215 219 222
-780.904385299827 247.572443509776 2392.40789472977 214 218 221
-775.514825298276 248.547274239597 2401.90607908811 208 212 215
-770.981226820838 249.820184166374 2414.31567404854 212 215 220
-766.691454451207 251.193692966057 2427.71082441028 224 227 232
-761.46991784887 252.2708803248 2438.22249307145 221 224 229
-756.786752071738 253.547819236126 2450.6867354421 204 207 212
-750.331663596143 254.229277178503 2457.35000784754 203 206 211
-743.28794977192 254.711948900718 2462.07878442976 220 223 228
-737.361749177951 255.59303889729 2470.69832134312 212 215 220
-734.197451366616 257.472311394378 2489.05599500755 213 216 221
-732.888323760797 260.052956782245 2514.2589376436 212 215 220
-728.17318481608 261.438087194777 2527.80951652573 216 219 224
-721.77333381879 262.224612382422 2535.52745711501 217 220 225
-715.348589357758 263.011528616941 2543.25421763439 217 219 218
-705.435813798117 262.496023451006 2538.2840470661 217 219 216
-991.116874225927 240.687166304801 2406.17393574147 156 159 152
-973.298754300933 238.361747596862 2382.6068622148 171 173 168
-963.510174556095 238.09823922202 2379.74369267805 173 174 176
-952.328654262835 237.456591295763 2373.09162026566 166 167 169
-944.024971917355 237.565990983276 2373.98354750301 172 176 179
-933.626898394668 237.108637121202 2369.19409151852 179 183 186
-921.876879114741 236.27137660494 2360.60045007525 186 190 193
-911.571028903496 235.809316806885 2355.77713082794 199 203 206
-902.335382561238 235.628818376992 2353.78587929126 195 199 202
-895.509138607198 236.109796044624 2358.43576738882 179 183 186
-887.320809510604 236.211382424311 2359.28519293226 178 182 185
-879.142901773729 236.3119523116 2360.13100961363 181 185 188
-871.640983647593 236.601625061337 2362.87859447081 188 192 195
-863.808961262706 236.795589391316 2364.67234101154 200 204 207
-855.982157066578 236.988887062959 2366.46388698264 203 207 210
-847.8356402879 237.086086277076 2367.29804382735 199 203 206
-840.989816119494 237.563882661547 2371.95455181397 193 197 200
-833.493996047443 237.850547928517 2374.69969409972 189 193 196
-826.633401714533 238.32780615264 2379.36178234198 194 198 201
-818.188343882922 238.32649897609 2379.23016735559 200 204 207
-810.695966963412 238.611421779171 2381.97392714304 207 211 214
-802.274637646014 238.60811532287 2381.83353984748 206 210 213
-795.097845665793 238.987616754609 2385.53632812086 216 220 223
-787.611701438433 239.270688074374 2388.2776836398 219 223 226
-781.032249171921 239.84178669156 2393.91125905615 214 218 221
-774.138365456135 240.316594147814 2398.58525766702 215 219 222
-768.422501839958 241.176779310451 2407.12679395415 210 213 218
-764.148372901033 242.519871034198 2420.51396545309 220 223 228
-760.402128354094 244.057691225475 2435.85739608197 208 211 216
-755.432706673466 245.210826582057 2447.3497485592 211 214 219
-749.55756745684 246.074838316975 2455.94919006921 218 221 226
-742.799843148248 246.648973652363 2461.64776753859 219 222 227
-737.716974863456 247.804785893929 2473.18154140278 208 211 216
-735.099998801276 249.835209428349 2493.48512388864 210 213 218
-733.220836604497 252.159827323952 2516.74249703565 206 209 214
-728.221850147237 253.418499328107 2529.32011065254 205 208 213
-720.730115979021 253.802507883072 2533.13766931994 213 217 220
-714.040503551076 254.478527478811 2539.88599705801 200 202 201
-982.280453847349 230.435682397109 2384.07847468288 154 157 150
-971.020798073411 229.825405034088 2377.45715878405 177 179 174
-963.037025853288 230.03417320466 2379.30715871222 172 173 175
-953.279512816311 229.785172387479 2376.4337960922 165 166 168
-944.96545291948 229.900442725442 2377.33019113888 178 182 185
-933.155346066206 229.098760461521 2368.76106620352 190 194 197
-921.058694330479 228.202406797176 2359.22235443921 193 197 200
-910.410614644712 227.670078372645 2353.45126758946 189 193 196
-902.209242608234 227.77880083151 2354.30622485661 183 187 190
-895.379514149847 228.254419822868 2358.95672037952 181 185 188
-887.864050380592 228.545753442212 2361.70935219281 183 187 190
-879.678256686034 228.652110295973 2362.55847077462 190 194 197
-871.502763872393 228.757542300239 2363.40352257292 195 199 202
-863.337739614162 228.862045295421 2364.24495496194 200 204 207
-855.510587725047 229.058006613297 2366.03682823932 200 204 207
-848.013788923593 229.345901167735 2368.78241888592 190 194 197
-840.839699934132 229.725878789854 2372.48451529582 189 193 196
-833.660632279682 230.105528710247 2376.18814161081 192 196 199
-826.476740581155 230.48477164296 2379.89348997431 199 203 206
-819.288005619452 230.863757218758 2383.60057865922 203 207 210
-811.15803744237 230.963049074146 2384.42888066862 198 202 205
-802.729000578737 230.968321549249 2384.29194110814 202 206 209
-794.315702913979 230.972413169958 2384.14919380828 225 229 232
-787.440629164093 231.442257322076 2388.81598356292 230 234 237
-781.159557466837 232.098870211269 2395.41415453875 216 220 223
-774.55906963369 232.662126134282 2401.05478122263 210 214 217
-769.130844025792 233.600086799349 2410.56423234256 214 217 222
-765.432696425374 235.101457433224 2425.8874373672 220 223 228
-761.668468514313 236.604725739193 2441.2347950327 208 211 216
-756.392581937894 237.640220697888 2451.76281101712 214 217 222
-749.643573709772 238.206482085105 2457.45762750517 214 217 222
-743.44778094792 238.961152071484 2465.09902254842 206 209 214
-738.915565608485 240.281576678034 2478.57825625877 203 206 211
-737.116339585233 242.54685358919 2501.80210821995 209 212 217
-734.933936520739 244.721265406808 2524.09177063637 210 213 218
-728.817383187073 245.575641683486 2532.77845425582 207 210 215
-721.314870834553 245.957526820786 2536.60002313235 211 215 218
-714.345182104591 246.528466228311 2542.3751197931 228 230 229
-703.901960392882 245.867075911462 2535.45330618475 223 225 222
-978.900354107799 221.633229834862 2376.10947424374 153 156 149
-970.547902605909 221.757100937698 2377.0202130385 181 183 178
-962.563766965133 221.968592921025 2378.87055052706 171 172 174
-953.873444071159 222.001942408119 2378.83066444925 166 167 169
-944.492423153148 221.856589917059 2376.89513907786 181 185 188
-933.034142235197 221.176386839289 2369.27390460359 188 192 195
-920.588612441506 220.22635768005 2358.79134720042 189 193 196
-911.322839982877 220.074893204567 2356.81348657667 186 190 193
-903.110933200492 220.189341184242 2357.67244920706 182 186 189
-894.909324620711 220.302910279682 2358.52760380049 182 186 189
-886.718121671573 220.415493273372 2359.37915753983 183 187 190
-878.202130814564 220.437682314788 2359.27508801259 191 195 198
-871.364169736732 220.906625705568 2363.92807107059 196 200 203
-863.196392901508 221.016685271008 2364.7709228263 202 206 209
-856.021137218919 221.395144056187 2368.47307423571 203 207 210
-847.86654772552 221.503646082771 2369.31101701609 196 200 203
-841.011380886713 221.97105848182 2373.97013605744 193 197 200
-834.146294143547 222.438308907708 2378.6331014567 194 198 201
-826.63693534635 222.725086425503 2381.38317133923 201 205 208
-819.442416683557 223.101647979225 2385.09217856361 199 203 206
-811.307064632271 223.206702259013 2385.92261721557 201 205 208
-803.182404858871 223.310818786305 2386.74935451176 203 207 210
-794.761439846599 223.32345799146 2386.61003797609 211 215 218
-787.877857397424 223.788275008827 2391.27953995538 214 218 221
-781.587944656091 224.434454532351 2397.88013600044 214 218 221
-774.978818657141 224.990008546564 2403.52332013305 213 217 220
-770.134512479332 226.091311247995 2414.9660482876 212 215 220
-766.420952574011 227.557999739747 2430.29223635841 199 202 207
-762.058332372781 228.844448315732 2443.70754054548 199 202 207
-756.484058704159 229.767422487869 2453.2689256558 217 220 225
-749.728974634525 230.325941378637 2458.96536554153 218 221 226
-743.810586326968 231.15881658615 2467.57842607502 213 216 221
-739.268415675999 232.449884106199 2481.05906188486 201 204 209
-737.457609317522 234.658682014174 2504.28285998573 209 212 217
-734.435337331242 236.504133365628 2523.65293471221 208 211 216
-729.411665428257 237.709637471667 2536.23550587576 193 196 201
-722.982379035671 238.457055980289 2543.96119078821 172 176 179
-715.72289352257 238.928822115999 2548.76779678953 198 200 199
-705.262986553888 238.295388413024 2541.8541549328 222 224 221
-983.148040601194 214.671832188377 2387.90712995985 149 152 145
-971.156563233249 213.944710418353 2379.40952945206 187 189 184
-962.448370918499 213.987452841316 2379.3768447179 169 170 172
-954.110923824155 214.115041367937 2380.28266663873 171 172 174
-944.372136828891 213.897377386476 2377.40486455881 182 185 190
-933.262883576269 213.333270392893 2370.73238540381 188 191 196
-921.161663627413 212.507813097512 2361.20068268714 195 198 203
-911.888403284515 212.370202999782 2359.22633372261 193 196 201
-903.668698751979 212.490450583304 2360.0888214631 190 193 198
-895.45921120161 212.609717044358 2360.94726865777 180 183 188
-887.59758451084 212.814753740443 2362.75260698231 183 186 191
-879.071316789155 212.84550302239 2362.65291730977 196 199 204
-871.557618282093 213.13575527096 2365.40482614586 202 205 210
-863.054694551618 213.164520300897 2365.29650500966 203 206 211
-855.876205253176 213.540425626878 2368.99963865056 202 205 210
-848.043517287145 213.741651520025 2370.79417491846 195 199 202
-841.182478296806 214.203979604637 2375.45529821859 193 197 200
-834.311358716121 214.666090050691 2380.11981344934 194 198 201
-826.796389381554 214.953146388637 2382.87194288823 198 202 205
-820.224935921458 215.502404402205 2388.50096412939 195 199 202
-811.455527504425 215.438066347468 2387.41588587366 200 204 207
-803.634840002247 215.635666995638 2389.20578839184 206 210 213
-794.592718684843 215.481133013383 2387.14618100494 215 219 222
-787.705776651785 215.940781212639 2391.81651365164 215 219 222
-781.110596246157 216.488256901408 2397.45402130391 215 219 222
-776.294633530118 217.564660928551 2408.88457256965 215 219 222
-772.915481552584 219.083492423327 2425.16000249732 213 216 221
-768.877195144898 220.427775437088 2439.52812966989 196 199 204
-763.029920181421 221.243310997239 2448.11404375076 202 205 210
-756.863689019973 221.970920611524 2455.74265620613 204 207 212
-749.241290650424 222.255862941294 2458.53365914258 202 205 210
-744.456105743335 223.42751124754 2471.02702455011 206 209 214
-739.058111758409 224.422846468509 2481.59637662538 200 203 208
-736.40527024358 226.308293201951 2501.90205164595 208 211 216
-732.832907976465 227.929631579641 2519.32171836792 217 220 225
-727.817395420866 229.107810036562 2531.89926317028 205 208 213
-722.480525149177 230.198215954442 2543.52039048365 187 191 194
-714.683598601802 230.486227342121 2546.37503762673 199 201 200
-977.228691663959 205.315585996814 2373.35229292285 148 151 144
-973.205706003514 206.446816396022 2385.56567312448 188 190 185
-963.048235997585 206.165728887706 2381.76865266193 168 169 171
-954.702906439812 206.299074468309 2382.67777295667 175 176 178
-944.251440312211 205.931302646757 2377.91422131343 184 187 192
-932.440484219069 205.227483590629 2369.35304317936 189 192 197
-920.690942382556 204.520742096955 2360.76907613165 190 193 198
-912.10802398796 204.564037620984 2360.69091641006 182 185 190
-904.567849427233 204.857498236753 2363.45268706717 178 181 186
-896.008067465994 204.898758068584 2363.36596741425 186 189 194
-888.47569867005 205.190811913807 2366.12479580079 191 194 199
-879.269695382707 205.062082902647 2364.12693421959 205 208 213
-872.41470466724 205.520883174452 2368.78533946996 208 211 216
-863.901511063417 205.558208171688 2368.68139562763 198 201 206
-857.366267177306 206.100602064941 2374.2967426619 193 196 201
-849.193390639941 206.220806095432 2375.142212747 196 200 203
-841.996728957577 206.593699634286 2378.85172185329 198 202 205
-834.475843239049 206.881552936158 2381.60606106886 200 204 207
-827.272050352014 207.25365323976 2385.31810135875 203 207 210
-819.434963125698 207.455735909068 2387.11430068824 201 205 208
-810.979951178732 207.487213967407 2386.98877610412 202 206 209
-802.540669695714 207.517600840519 2386.85745372003 208 212 215
-794.117148385552 207.546806039543 2386.72031591407 219 223 226
-787.229402095935 208.001126002771 2391.39053875347 222 226 229
-781.537576886468 208.796621439693 2399.91846004158 216 220 223
-777.01091091685 209.934494569565 2412.31534741961 209 213 216
-773.322399374447 211.330320023186 2427.6270877501 196 199 204
-767.511500479841 212.128815278996 2436.19824501565 203 206 211
-760.505763178148 212.58503689975 2440.91148190391 211 214 219
-754.35619521063 213.298596122228 2448.53297987065 208 211 216
-748.181536272963 214.012524334498 2456.16336786473 201 204 209
-743.399373831265 215.156958420954 2468.65358174075 198 201 206
-738.56664658918 216.302832689546 2481.16227637172 198 201 206
-735.075286511331 217.881062164302 2498.54951362602 212 215 220
-732.33511666615 219.720507466709 2518.88319312189 215 218 223
-727.04427092872 220.785442810964 2530.48567619808 198 201 206
-721.708042708063 221.851526476767 2542.10473507744 191 195 198
-712.304451376889 221.620137247102 2539.10410823277 212 214 213
-909.979177854129 176.992726941428 2137.52438812177 152 157 137
-984.737524893354 199.008344972116 2393.61417777359 147 150 141
-972.730895166282 198.347054444178 2385.12704975926 188 190 185
-962.574032560811 198.084999793616 2381.33124466482 168 170 169
-953.873347928612 198.14317049659 2381.29699619601 177 178 180
-944.130412193332 197.958289383342 2378.42342933415 187 190 195
-932.668173517183 197.367926085124 2370.81041141688 192 195 200
-920.56753075082 196.613104517001 2361.28382856656 191 194 199
-911.637208244852 196.583759225845 2360.25985670226 187 190 195
-904.096532930304 196.877239411832 2363.02181077865 190 193 198
-896.216204721024 197.088962177766 2364.83444854183 196 199 204
-889.015341274909 197.462526118732 2368.5455348896 196 199 204
-880.136526834604 197.42902394741 2367.50253456744 200 203 208
-872.606452895308 197.720005500439 2370.26044824022 201 204 209
-864.088121055226 197.765749464696 2370.15900653659 196 199 204
-857.546778598737 198.300252870123 2375.7759740606 193 196 201
-849.368523423611 198.426070240711 2376.62356763701 195 199 202
-841.200836437363 198.551103588044 2377.46751654296 198 202 205
-834.32041613424 199.002828409287 2382.13462746348 202 206 209
-826.480141020649 199.208370570332 2383.93224609632 206 210 213
-818.645313872086 199.413134073971 2385.72782652792 206 210 213
-808.946790010755 199.123846985469 2381.76343502415 215 219 222
-800.829280588591 199.244282951095 2382.58855135164 210 214 217
-792.416022941947 199.28142429132 2382.44828316581 199 203 206
-786.449247984591 199.977566990205 2390.00205146274 204 208 211
-781.963600623433 201.087306696223 2402.38191252813 213 217 220
-778.323197443613 202.446606509764 2417.67316306069 209 213 216
-774.32062399355 203.725045001011 2432.02360060546 200 203 208
-768.495543238573 204.507882707606 2440.59898359163 211 214 219
-761.476212799013 204.959365228954 2445.31680180475 211 214 219
-754.447093661255 205.41070803195 2450.03791177231 216 219 224
-748.266107752084 206.111470651585 2457.66985953301 210 213 218
-744.326749077539 207.479045950718 2473.07061052777 207 210 215
-740.882983242977 209.0153506585 2490.43713741024 198 202 205
-737.641279114604 210.637525777759 2508.80353728889 200 204 207
-733.766979221893 212.095088872086 2525.25399594525 195 199 202
-725.725358705407 212.299656464553 2527.12469739162 196 200 203
-720.124323934859 213.257488755784 2537.76499215345 244 245 247
-710.195612651603 212.874543532595 2532.81061349136 253 255 254
-983.535893095137 190.719574755575 2391.29200800334 173 179 169
-973.696336318786 190.556424625218 2388.45518683161 171 176 170
-964.244791318747 190.469165693172 2386.54941445426 177 181 180
-955.173782510773 190.458300941481 2385.5779535931 182 186 187
-944.713607250254 190.134372121308 2380.82087432938 191 195 198
-932.195556450482 189.340046822798 2370.37641463615 192 196 199
-920.09649769538 188.620566931157 2360.85192284097 195 199 202
-910.821656131222 188.523887292029 2358.88149096723 197 201 204
-902.9408675814 188.738887316527 2360.69428895856 196 200 203
-895.065337305929 188.953281061332 2362.50538498182 188 192 195
-887.531980984997 189.245373500526 2365.26457508525 196 200 203
-878.995419698993 189.301119989601 2365.1705115304 199 203 206
-871.469984505388 189.59192025343 2367.9267260941 201 205 208
-863.944694357845 189.882208657812 2370.68284933651 190 194 197
-857.726535307522 190.48764940236 2377.25430076503 191 195 198
-849.218925826644 190.540225956505 2377.1497330607 194 197 202
-841.370015786997 190.749871042111 2378.95054435341 195 198 203
-833.526584244282 190.958811913599 2380.74956627362 202 205 210
-826.321497713415 191.325722210892 2384.46168499863 205 208 213
-817.855910438669 191.374556073816 2384.34131235141 212 215 220
-808.472033933078 191.183830763714 2381.33684483315 228 232 235
-799.427972745172 191.070969570233 2379.28108655251 228 232 235
-791.941138176431 191.355169579034 2382.0227780598 232 236 239
-785.669351932497 191.958120662053 2388.61352641276 226 230 233
-782.388603723398 193.360388404942 2404.84415332938 202 206 209
-779.036590205362 194.764832094023 2421.10109209294 197 201 204
-774.429355333124 195.851096041266 2433.52335918377 190 195 199
-767.423990773296 196.297192969415 2438.23544241144 202 207 211
-760.990754494642 196.903760238971 2444.88537877748 211 216 220
-754.82576331568 197.590988697542 2452.51023957271 224 228 231
-749.778729211961 198.600629908252 2464.01996469549 215 219 222
-745.252517645442 199.772625069352 2477.48581777098 195 199 200
-742.634905513909 201.510912026693 2497.76758919347 202 206 207
-738.813547427787 202.929096833498 2514.19584094862 218 220 219
-734.094674019842 204.106805179033 2527.7321263753 216 217 219
-725.499232945849 204.152674423492 2527.65871080474 225 226 228
-719.353188094468 204.927004309279 2536.3500701721 250 252 251
-900.229012405003 160.368829099559 2114.21355991772 150 158 137
-983.422306871896 182.664625048634 2391.79232986838 175 181 171
-974.300412252125 182.667659363877 2390.84040644043 173 178 172
-964.841485057898 182.594356091507 2388.93836926827 179 183 182
-955.053317936657 182.44436721587 2386.08361503736 184 188 189
-943.534769652568 181.916606255181 2378.49603426693 192 196 199
-931.722854655464 181.310741627092 2369.94234105144 193 197 200
-920.66667048939 180.852855674612 2363.25859445149 196 200 203
-911.384443228327 180.769982952397 2361.29188783273 199 203 206
-902.469738226614 180.761241459742 2360.26354182688 200 204 207
-894.593884730622 180.97835744622 2362.07496068578 194 198 201
-886.723227511875 181.194704611633 2363.88443353324 205 209 212
-878.857799786229 181.410430537509 2365.69195943595 208 212 215
-870.997557033487 181.62534222352 2367.49728570233 206 210 213
-864.130104301604 182.067941317109 2372.15925077176 196 200 203
-856.925949332661 182.434130361138 2375.87097660563 202 206 209
-849.392881285488 182.723710355948 2378.62987240044 199 202 207
-840.895688431765 182.783575694033 2378.5218155894 198 201 206
-833.370798443199 183.071853472215 2381.27764173407 209 212 217
-824.897239723591 183.129782770929 2381.16085167729 214 217 222
-816.753166394023 183.263362006914 2381.99686565592 219 222 227
-807.374854946319 183.088809659291 2378.99134211373 212 216 219
-799.26217006478 183.220133720927 2379.81552702865 221 225 228
-792.078439137747 183.581550672396 2383.51972628433 225 229 232
-786.407394303917 184.328159543399 2392.03615440687 209 213 216
-783.113716398693 185.69295459499 2408.26890609852 193 197 200
-780.345462813743 187.214474756941 2426.45568903731 198 202 205
-775.42487198945 188.196975219698 2437.91717045013 201 206 210
-768.406009489204 188.638315636707 2442.63405340536 209 214 218
-761.9587857322 189.234604810443 2449.28804214358 206 211 215
-756.356003947451 190.064243869541 2458.85274303977 201 205 208
-751.00358844482 190.97253563255 2469.3992214781 200 204 207
-747.025793359879 192.271193007776 2484.8087378968 194 198 199
-743.823352871013 193.805646015437 2503.15399874204 202 206 207
-739.150280832645 194.952459598233 2516.67156605718 220 222 221
-732.49422598125 195.553813510236 2523.40181311712 232 234 233
-724.181843985465 195.685855365613 2524.29860965186 242 244 243
-716.691085086843 196.052184763103 2528.11473435178 243 245 242
-998.290993463274 175.739531862989 2408.26667512259 149 155 141
-984.395169415211 174.819169376051 2395.11337946728 176 181 174
-975.982622001095 174.977844882916 2396.04857941169 173 178 172
-966.865856008011 174.990981235819 2395.09555477593 178 182 183
-955.641718143218 174.568392941453 2388.4754953268 184 188 189
-942.356395736878 173.708274929081 2376.17148327725 192 196 199
-931.599625846299 173.352672559585 2370.45347622903 191 195 198
-921.92970133938 173.212801669576 2367.55652343398 178 182 185
-911.946204386961 172.998491356801 2363.70133047366 180 184 187
-902.682184533238 172.928022162505 2361.72868998078 193 197 200
-893.783156269594 172.92907588381 2360.69564139704 209 213 216
-886.251397471192 173.2211952172 2363.45425308975 212 216 219
-878.385655262774 173.439613267334 2365.26209638094 200 204 207
-871.188220632474 173.803961546015 2368.97124157472 196 200 203
-864.314764774802 174.241389722661 2373.63474334599 192 196 199
-856.778456272798 174.531632326107 2376.39486651461 199 203 206
-848.918515023729 174.747828678592 2378.20043446878 208 211 216
-841.063943091487 174.963338775156 2380.00399976939 215 218 223
-831.939792394874 174.88293689294 2377.97979012186 225 228 233
-824.106306255111 175.096550991316 2379.77555110611 227 230 235
-815.651010998528 175.161538044273 2379.65265776616 226 229 234
-807.83353845172 175.373633029278 2381.44248579118 235 239 242
-799.404605696158 175.436607190088 2381.30986208866 232 236 239
-792.826868545084 175.944245820725 2386.93802618183 205 209 212
-787.750877977621 176.823882611713 2397.38165269157 200 204 207
-785.040610179558 178.300289036583 2415.54396331286 191 195 198
-780.757660928186 179.406470852741 2428.91646433171 199 203 206
-775.531941334253 180.290278137188 2439.4150619954 207 212 216
-767.920945926805 180.577037792708 2442.20205892761 221 226 230
-761.763126597046 181.237544937775 2449.82229775491 214 219 223
-756.156284520536 182.048480823579 2459.38731702854 199 203 206
-751.370329427779 183.085423141768 2471.87079849155 199 203 206
-747.382283386756 184.349226437482 2487.28140967161 197 201 202
-742.767733549782 185.464526611077 2500.77508163091 192 196 197
-736.986624729047 186.280083377258 2510.40351290476 207 209 208
-730.069682064614 186.794785278861 2516.15545603469 241 243 242
-723.138150221049 187.309491604966 2521.91270029512 240 242 241
-714.571772867846 187.370542205472 2521.82987024088 232 234 231
-995.988054389678 167.200936175807 2403.12613320146 151 157 143
-984.642364921166 166.811832075483 2396.55276445068 179 184 177
-976.584096844725 167.045619088945 2398.43146492749 175 180 176
-967.459791219988 167.069918316898 2397.48202197981 180 184 185
-955.520104337953 166.535387981789 2388.98013537484 186 190 191
-940.826696153542 165.439664179887 2372.9034776803 194 198 201
-930.777202785059 165.247972308503 2369.07397029392 189 193 196
-922.49748509807 165.404360978653 2369.96098996988 175 179 182
-912.506853143191 165.209310471931 2366.10958830178 183 187 190
-902.552230376194 165.012392341432 2362.24521653347 209 213 216
-893.98986006922 165.094725010878 2362.16253633494 213 217 220
-886.45250296827 165.387122686263 2364.92320310256 214 218 221
-879.249247021679 165.749511136551 2368.63456983223 197 201 204
-871.709560012931 166.040987486601 2371.39601362738 196 200 203
-864.498824230015 166.402639793894 2375.10978821408 196 200 203
-855.978137847398 166.480871990236 2375.01165329316 203 207 210
-848.120463667409 166.699748903822 2376.81659978861 213 216 221
-839.625874115373 166.775978590819 2376.70883181657 220 223 228
-831.465467048442 166.922150013602 2377.55147625074 225 228 233
-822.683666173514 166.925113464182 2376.4759786464 229 232 237
-814.863002240945 167.140608525788 2378.26722276292 233 236 241
-806.115168687585 167.141351204121 2377.17921599422 229 233 236
-799.238027954642 167.56951419705 2381.84335754616 228 232 235
-793.574057649224 168.283972647266 2390.3550437315 194 198 201
-789.698840870248 169.42895070458 2404.649138012 174 178 181
-785.762482350152 170.575885325943 2418.96534070381 188 192 195
-781.169018316357 171.580888538863 2431.3764730797 202 206 209
-775.638297920016 172.371444245845 2440.91204246593 213 218 222
-769.193534934495 172.946720854026 2447.56380598709 219 224 228
-763.01908259938 173.594419321262 2455.18912177469 215 220 224
-757.395206191348 174.387126909558 2464.75870060126 197 201 204
-751.73608997246 175.180675756215 2474.34114684882 185 189 192
-747.455138299428 176.33722281293 2488.78353275296 194 198 199
-742.553150307984 177.350531841549 2501.30739015617 206 210 211
-736.212822433584 178.00213855446 2508.99352394519 223 225 224
-729.297548569091 178.508765511379 2514.74425146995 252 254 253
-722.367689023951 179.015456307936 2520.50028333706 251 253 252
-897.325259777597 136.501742513002 2088.93521890238 155 162 144
-995.14473261842 158.954217536599 2401.74350503837 152 158 146
-985.250788173652 158.858848886607 2398.93155917001 181 186 180
-977.543998216835 159.162394195847 2401.75462836389 177 182 178
-967.695821635426 159.064267954063 2398.92559094203 182 186 189
-955.398157188301 158.495563670241 2389.48463631367 188 192 195
-941.760136499836 157.655495788783 2376.24372937237 191 195 198
-932.05018275619 157.550419240974 2373.36394599098 184 188 191
-923.410813484221 157.645378772194 2373.31019512496 180 184 187
-913.066553677258 157.40246605069 2368.51711221785 188 192 195
-902.080429269978 157.022445502246 2361.81378534555 200 204 207
-892.840286010727 156.977857597135 2359.83467667908 203 207 210
-885.643922591157 157.337727397552 2363.54309475343 209 213 216
-878.442528888994 157.697317374125 2367.2533194052 203 207 210
-871.567421660917 158.124583253195 2371.91690872504 204 208 211
-863.696224685169 158.347770201342 2373.72709375901 199 203 206
-855.178135967175 158.434059482134 2373.62862292888 209 213 216
-846.35212427421 158.451167321621 2372.57025599177 214 217 222
-838.188753172257 158.603528873314 2373.41444442629 219 222 227
-830.035914479552 158.754942835761 2374.25473454386 221 224 229
-822.209521309398 158.973937157057 2376.0483243323 226 229 234
-814.388569118588 159.192272197683 2377.83988746482 230 233 238
-805.330188817597 159.135294296727 2375.79354833937 228 232 235
-799.071230479216 159.695627187989 2382.37667452713 225 229 232
-794.931144504891 160.7381924015 2395.69246797802 190 194 197
-790.735084192058 161.782438986013 2409.0287258703 176 180 183
-785.281283281983 162.552152780394 2418.53477496291 203 207 210
-780.09002016559 163.391825440627 2429.01752326644 218 222 225
-775.744154859219 164.440348506572 2442.40853360607 221 226 230
-770.75694624902 165.351862476246 2453.8891180233 208 213 217
-764.853583235127 166.056233072686 2462.48702342522 190 195 199
-758.05710574526 166.552738516249 2468.19382408141 169 173 176
-752.10104299262 167.258199783753 2476.81070526514 172 176 179
-746.397467071539 168.034088360435 2486.40822720186 197 201 202
-741.218525609602 168.950399621562 2497.95858302259 219 223 224
-734.329828923336 169.448543919383 2503.69901403024 239 241 240
-728.800655511739 170.296807355842 2514.30518602185 246 248 247
-721.869881473908 170.795583718562 2520.06095300182 236 238 237
-943.224351086943 138.644296126856 2226.01504772259 154 161 143
-988.835545095291 149.753851752115 2386.27551618801 149 155 143
-984.772609782271 150.696361553391 2398.48942663348 176 181 175
-977.424597565979 151.063944574068 2402.25352638556 174 178 177
-967.217651006994 150.918067751753 2398.48468447497 181 185 188
-954.213259752712 150.256133237754 2387.16010908652 192 195 200
-940.582613609655 149.462019168852 2373.91998998446 187 190 195
-931.227274937715 149.437519777962 2371.98399754274 182 185 190
-922.244061899001 149.476076112431 2370.98436608135 179 182 187
-912.59355132886 149.383951488111 2368.08396200598 187 190 195
-901.949951061618 149.095924479848 2362.3299348525 217 220 225
-893.046235845937 149.129839261982 2361.30081432871 210 213 218
-885.844203153106 149.48735620483 2365.01136904134 205 208 213
-878.637062452911 149.844490948985 2368.72349654212 199 202 207
-871.424928176002 150.201374210706 2372.4374194221 206 209 214
-862.893846488052 150.296865848291 2372.34436375841 222 225 230
-854.378419179621 150.391374686596 2372.24580042222 225 228 233
-846.525204914326 150.61562931442 2374.04927791504 241 244 249
-838.356670047619 150.773747081688 2374.89603116013 243 246 251
-830.516781207095 150.996528101958 2376.69455583966 234 237 242
-821.7353816253 151.021420730592 2375.62056702196 243 246 251
-813.914160400988 151.242565222974 2377.41243988208 243 246 251
-805.16675610607 151.265235986434 2376.3259316567 222 226 229
-800.135978915307 152.079087518465 2386.74816684588 195 199 202
-795.675447234806 153.026281463717 2399.10663810406 183 187 190
-790.255507946932 153.776270369276 2408.59889572331 204 208 211
-783.598991323151 154.261737831343 2414.25401050736 202 206 209
-778.416223397415 155.079550488512 2424.73202281696 191 195 198
-774.963912947336 156.297480769598 2441.0110761828 179 184 188
-770.562542054348 157.317801628151 2454.42012588495 186 191 195
-765.235296526508 158.139682564236 2464.95093929131 192 197 201
-759.005132498862 158.762104920255 2472.59459010607 195 199 202
-752.750024210042 159.385071581431 2480.24759948162 199 203 206
-747.034584041186 160.142470254047 2489.84778274706 225 229 230
-741.283965239821 160.900797121876 2499.46081776462 236 240 241
-734.389260876074 161.391166483364 2505.20284495575 243 245 244
-728.853183436493 162.218066329069 2515.80965921771 253 255 254
-722.732705570236 162.911299763828 2524.48561028249 197 199 198
-911.008770065861 125.715815869043 2145.01425530929 153 160 142
-991.273332039596 142.106244152655 2393.3459652509 151 157 145
-985.741027599196 142.777503261773 2401.80655282358 176 181 177
-978.023034034673 143.081367321227 2404.6337167591 175 179 180
-966.026234422496 142.647567817985 2396.16018165595 190 193 198
-951.612974036985 141.780102043529 2381.06551441538 202 205 212
-939.757128217229 141.33979755584 2372.54052899979 184 187 192
-930.753523382964 141.390479377607 2371.54896722566 183 186 191
-921.424223160129 141.378050083131 2369.60467905082 192 195 200
-911.089294466535 141.17827532289 2364.81146062786 202 205 210
-902.501364995175 141.286664525833 2364.74028734593 217 220 225
-893.590143362288 141.331859988672 2363.71474533079 207 210 215
-885.70770815934 141.56248348754 2365.52957473438 203 206 211
-877.163539141085 141.667657584562 2365.4420047463 204 207 212
-870.289445141999 142.084045426202 2370.10440515669 213 216 221
-861.435214036772 142.125064486209 2369.0580955316 223 226 231
-853.578942970178 142.3527437068 2370.86294206612 223 226 231
-845.728082236484 142.579751153158 2372.66602644234 232 235 240
-837.882611793599 142.806071523899 2374.46710048252 238 241 246
-829.724390303601 142.968772500564 2375.31019799574 245 248 253
-821.261255861788 143.067593619122 2375.19270576047 242 245 250
-814.065605100558 143.417788166106 2378.90013488596 214 217 222
-806.554807833528 143.704532573685 2381.65072492039 164 168 171
-801.199202705171 144.434068401188 2391.11831861131 171 175 178
-795.808030105466 145.164442207861 2400.59864422189 184 188 191
-789.170650138379 145.641688021736 2406.24618560342 188 192 195
-782.518251960242 146.118998494533 2411.89893423838 192 196 199
-776.743748137636 146.78754476611 2420.44731725435 191 195 198
-773.299025793578 147.967289816943 2436.72098674496 192 197 201
-768.320799663094 148.829723229836 2448.19434997834 200 205 209
-763.876859705663 149.821411938659 2461.61696058409 203 208 212
-757.078547982685 150.301999391844 2467.32322664826 204 208 211
-751.119680178645 150.975293175724 2475.9386999245 214 218 221
-744.84859604667 151.584949061279 2483.59650960457 238 242 243
-739.671077581451 152.452626474698 2495.14293320094 248 252 253
-733.893957236882 153.192634707735 2504.76421505415 245 247 246
-729.728717996451 154.320944703453 2520.22898399209 227 229 228
-727.129316727533 155.839385673063 2541.55410723089 219 221 220
