ply
format ascii 1.0
comment KinectMotionCapture
element vertex 754
property float x
property float y
property float z
property uchar red
property uchar green
property uchar blue
end_header
-1004.45983659163 565.25394240696 2239.45469168021 146 120 93
-1002.6692071212 565.330139294483 2249.74712860226 149 122 93
-1002.79967188146 565.560108405247 2259.2995830122 152 122 94
-1003.89091875869 565.866827572172 2268.48533456301 158 127 99
-1010.76539339405 566.639398111434 2275.53962007751 154 124 96
-1015.71689189521 567.256989819402 2283.32521863178 139 114 92
-1023.56800500434 568.108812716667 2290.08011533193 116 98 78
-1039.15345799065 569.586249423802 2294.09557554762 33 26 10
-1007.65237537421 554.310349290799 2141.48427098026 234 227 219
-1004.94625377575 554.334662273803 2152.32944545291 100 82 70
-992.671490995556 553.62081701017 2167.01116322426 127 105 91
-992.81819113105 553.862391779066 2176.62833396596 126 104 83
-989.13242807693 553.807510756584 2187.75963006659 127 105 81
-995.020688103149 554.491199545174 2195.07785654032 130 109 82
-997.079169016406 554.879000309809 2203.92061560558 136 112 84
-999.137856922276 555.266374116229 2212.76453792223 135 111 83
-1000.23684701174 555.579107645557 2221.97978665739 141 114 87
-1002.29530922335 555.965632436246 2230.82321379864 143 118 88
-1006.27648076063 556.501188982747 2238.93765006392 146 117 85
-1003.52730299261 556.51376295123 2249.59999879531 152 122 88
-1003.65949203024 556.749192382896 2259.15792619118 161 126 94
-1002.82641006339 556.908900471461 2269.06325718134 167 132 100
-1006.80832244602 557.442849796815 2277.1819033523 166 131 99
-1007.89994154155 557.75124042214 2286.36722560317 155 128 99
-1015.74491076861 558.585974218682 2293.10510007631 145 123 99
-1038.08038371277 560.55273077032 2294.68021376537 32 24 5
-1029.66561582036 547.213785499341 2142.41378600483 83 69 58
-1018.36851336072 546.614472636652 2156.77878082685 108 90 78
-1011.83702747707 546.366918643517 2169.15381376546 125 107 87
-1003.38044153646 545.974765455015 2182.24360914516 126 108 86
-1006.40392551806 546.435348573568 2190.73951255289 131 111 86
-1001.76160522139 546.324536663088 2202.24496999507 134 113 86
-1002.86512219629 546.641004749445 2211.47797024655 133 109 81
-998.209630895743 546.526927939516 2222.92730897777 139 112 83
-1002.18794992369 547.05697016002 2231.03350520337 144 117 87
-1005.20835525565 547.51515589879 2239.51616596011 146 115 84
-1005.34542623995 547.757158264955 2249.09174003542 152 121 90
-1004.51813288546 547.926141805679 2259.01712346282 162 129 98
-1005.61292704671 548.238669199091 2268.21400376742 168 135 104
-1004.77983504738 548.405780550778 2278.11493619109 166 135 106
-1003.94320273996 548.571642298763 2288.00100295726 153 127 102
-1011.78448833825 549.389886703437 2294.73234376525 130 109 88
-1028.32014501491 550.863260866667 2298.38093141155 22 13 0
-1045.84050878197 552.412586161137 2301.7665404721 6 0 0
-1057.4261703125 540.411628183898 2141.15441681108 255 255 246
-1036.57979627685 539.167368538696 2159.38757102631 154 150 138
-1019.53164320472 538.191302692768 2175.97233172126 113 102 84
-1015.86388121469 538.170940277349 2187.16156173538 124 109 90
-1007.39810944043 537.805208978777 2200.19642496673 114 94 69
-1002.75400294751 537.712021657887 2211.68364519295 133 112 85
-1000.02020254482 537.75478371283 2222.39491338289 144 119 89
-1004.95969692295 538.348672492475 2230.142642566 137 106 78
-1005.10061358375 538.596997583905 2239.73035767266 153 121 96
-1002.35543823185 538.636471594136 2250.39452162533 149 119 95
-996.719052539306 538.466066526915 2262.1110119401 169 144 124
-994.922619826487 538.571675268622 2272.35949093584 156 133 117
-992.158226689982 538.60625846722 2282.94184689241 135 117 105
-995.169829682796 539.05795712848 2291.39062137802 201 187 178
-1002.04013447734 539.789077881468 2298.45091158626 249 236 230
-1010.84645235129 540.660960829695 2304.84678520503 245 237 235
-1005.17900297362 540.482051064207 2316.43139324303 247 241 241
-998.535520012542 540.230601655618 2328.31519380116 255 254 255
-994.781345035706 540.187763322099 2339.1379445078 254 252 253
-1031.84527673462 530.046316772858 2171.22878199475 89 80 63
-1020.53052466429 529.516216192969 2185.47638048735 115 102 85
-1005.36785590337 528.71842856968 2201.15091366653 124 106 84
-1000.72544216363 528.643931259096 2212.63460028311 124 104 80
-999.910592120065 528.832483497288 2222.60330642628 136 112 86
-1004.8500554164 529.418370516932 2230.35451860841 156 130 107
-1002.11131720317 529.472554658571 2241.03839627746 150 125 103
-994.562368037177 529.192073814209 2253.50567329392 169 147 126
-988.92430981222 529.042379158107 2265.20261228148 141 122 105
-985.200625099873 529.024202488527 2276.14521544419 194 176 162
-987.246078357161 529.405928456891 2284.93414016135 255 250 242
-990.254981301845 529.854382552472 2293.37292502958 243 232 228
-1000.01319458406 530.773045400911 2299.37839048532 249 239 237
-1003.9937597463 531.289245200704 2307.50262613027 235 231 232
-999.290380265161 531.198576073043 2318.7271743613 243 241 244
-993.612765272954 531.038269217464 2330.25604523099 235 235 237
-989.858135793029 531.011029932293 2341.06761828483 238 238 238
-990.93159976417 531.320788230068 2350.17213419571 241 241 239
-979.424046228645 530.747340967113 2363.59563364895 223 223 221
-960.153357690147 529.626180570195 2379.58477665733 247 247 245
-1047.97441028113 522.076914727617 2164.96962314801 115 109 97
-1025.19340240346 520.827851574758 2183.7933052061 96 86 74
-1009.08266200755 520.015880454676 2199.8559241526 104 91 75
-1002.52964919102 519.833717427968 2212.09654980258 127 111 95
-1001.71768181766 520.030636802946 2222.07303737202 131 114 98
-1000.90222201795 520.226488422793 2232.03476332103 124 110 97
-995.283484409464 520.102252557148 2243.80295243821 176 166 156
-989.655305761222 519.975847832875 2255.52972814558 237 227 217
-985.93960477021 519.97513680437 2266.49723945655 236 229 221
-982.216705195411 519.972716056611 2277.43403526821 236 231 225
-983.298670620528 520.289905650134 2286.57164262934 230 226 223
-988.231614551457 520.864018725471 2294.30105178751 237 235 236
-995.095581591164 521.567327115136 2301.35085893727 236 236 238
-997.144755759093 521.948367017007 2310.15658364865 221 225 228
-991.475207933177 521.811094007146 2321.70745533694 225 228 233
-984.830268074232 521.606656973519 2333.55718482154 220 225 229
-974.309971445776 521.139801029033 2346.71092009031 252 253 255
-965.707289828552 520.799747196677 2359.12629075418 249 250 252
-952.254306047574 520.130650607039 2373.14617543122 243 245 244
-944.589506885172 519.849251610597 2385.10349076108 245 247 246
-938.849742024827 519.695997714446 2396.35434524674 250 252 251
-937.946121629199 519.868074366876 2405.94156856518 254 255 255
-933.159664289535 519.776320722715 2416.80066584771 249 251 250
-923.51235234513 519.353696474331 2429.2188520992 241 243 240
-913.850307259692 518.927825997889 2441.57402498308 238 240 237
-905.145367756201 518.564737164451 2453.55233702323 249 251 248
-903.232963723744 518.66119181613 2463.29516382218 250 252 249
-668.990637114964 506.756008384357 2704.86419929695 255 255 248
-643.205391213407 505.157546417583 2719.76779771004 255 253 246
-625.653363063878 504.688150048827 2756.61839130359 128 112 97
-615.562578073288 504.169386945691 2767.13892599095 175 157 143
-604.468168459 503.578312369509 2777.83476418295 169 150 135
-584.450603613518 502.36111674101 2790.59031182484 202 183 168
-584.210780968082 502.524587257903 2798.55126567148 165 146 131
-1099.24017635883 515.963676974913 2134.73807017216 255 255 250
-1049.75348867859 513.102909301137 2164.4171783388 144 140 129
-1029.85231708774 512.105767247566 2182.11259925731 120 112 101
-1013.75143810526 511.345488033806 2198.18826977191 108 96 84
-1004.33180457518 511.005966304155 2211.55977346484 124 110 97
-997.772456800971 510.845917303173 2223.76056331072 119 105 94
-993.120257326214 510.805477221046 2235.18109700118 147 138 129
-990.378681034066 510.885145118002 2245.8374797496 242 237 231
-989.551686046616 511.085825149093 2255.74553511332 220 215 209
-987.760390395881 511.224084221561 2265.99744710087 242 239 234
-982.11856044522 511.115215819274 2277.65375302656 240 239 235
-982.23931534489 511.373540855286 2287.14782858769 251 251 251
-986.208755858346 511.877676808625 2295.22905178181 225 226 228
-993.070606542324 512.567370603123 2302.27754071127 226 230 233
-992.227420618706 512.762353533716 2312.11760034669 236 241 245
-985.593572399577 512.584064692754 2323.99974005198 235 240 244
-976.05298710775 512.216720759144 2336.85571124129 241 246 250
-960.702936790664 511.472687433519 2351.67400340239 238 242 245
-947.26391710956 510.848749093576 2365.72777491648 248 249 251
-935.738942773914 510.345697918816 2379.03310362503 248 249 251
-930.002938723794 510.214616237381 2390.28748943094 240 241 243
-923.288749887353 510.018432252924 2401.82721391913 246 247 249
-919.470254546769 510.008361973103 2412.34725901113 244 246 245
-918.552970557438 510.185129770033 2421.87151349931 236 238 237
-910.841281426856 509.919327845179 2433.61303097313 239 241 240
-904.088230063008 509.713911789369 2444.98584840662 248 250 249
-896.352640862471 509.442639414496 2456.62526596648 249 251 250
-893.464550443556 509.485532026234 2466.65765322857 240 242 239
-889.59784590524 509.463292959805 2476.97241815139 233 233 233
-880.857862482757 509.121092805853 2488.78402049037 245 245 245
-865.28728499172 508.329662343494 2502.65842053786 232 232 230
-794.736197846914 505.452261970913 2594.45412003845 251 251 249
-782.917832079303 504.884795717125 2606.5044842036 251 251 249
-775.002438924101 504.573006545902 2617.3754127839 255 255 253
-778.842523186325 505.038016880583 2624.90963034878 237 239 238
-764.041019222507 504.266500404832 2637.60380553093 246 248 247
-750.200270582241 503.555749451456 2649.93947495685 248 250 249
-729.462227413754 502.383854663463 2664.04994224063 240 242 241
-715.577533683146 501.664219002274 2676.19719001908 253 253 251
-698.72177220134 500.743909502051 2689.0405386698 247 248 243
-675.936480456162 499.425059254972 2703.32889764206 242 241 236
-652.135083195633 498.034538244686 2717.73935810869 249 246 241
-640.128737165829 497.427787243541 2728.98339271926 255 253 241
-628.104785953696 496.817363243223 2740.15309551986 176 163 147
-622.971541043519 496.665772003303 2749.51924183635 121 104 88
-614.867191558056 496.313558397415 2759.58129648222 154 132 118
-602.79816148349 495.693519778647 2770.55692448245 210 187 173
-586.756776540232 494.804339701936 2782.41416924801 208 185 171
-567.725316977395 493.711238492929 2794.88458323348 210 184 171
-557.577021255005 493.212365046274 2805.13999411367 220 197 183
-557.319564751068 493.377454222139 2813.02120458497 208 186 173
-541.200535680745 492.472510911963 2824.54557608987 206 187 173
-526.051101549734 491.630082829856 2835.74827873924 156 140 125
-504.926039158705 490.381315525001 2848.19853064373 102 90 74
-1116.99702635113 507.516311387206 2117.70489194496 204 206 203
-1094.31325200391 506.422992212976 2136.86543733886 204 206 201
-1045.79699585409 503.764956187339 2166.14517884315 127 126 121
-1032.59476283159 503.234227955553 2181.18863182863 137 134 129
-1017.45949810382 502.583675552968 2196.89732399061 205 198 192
-1005.17431032201 502.102612631481 2211.39618823776 207 200 194
-997.661169297182 501.90874799592 2223.97031169347 220 212 209
-989.177276105106 501.653948221519 2236.85898882542 209 208 204
-987.394975687394 501.805104315918 2247.14295337606 229 231 228
-988.487457576947 502.130549908451 2256.32313282947 227 229 226
-986.697532389551 502.279517500582 2266.57478546516 238 240 239
-982.019422854227 502.250845683942 2277.87422281754 230 234 235
-979.25621474529 502.33793196664 2288.43092008773 224 228 229
-983.223867693831 502.836378089958 2296.50761281494 231 235 236
-982.379091522551 503.039300487796 2306.33599516921 239 243 244
-976.71281746985 502.944999746879 2317.87601809997 251 255 255
-967.179729603825 502.611177808302 2330.74531071671 248 253 255
-961.491537065753 502.511865561781 2342.19169579875 245 250 253
-950.966150112802 502.112392745995 2355.2833676145 236 240 243
-938.492573761083 501.590193812795 2368.97627833226 243 244 248
-929.867606108193 501.303263488394 2381.26219839305 249 250 254
-926.065695861525 501.312900811591 2391.84373557905 246 247 251
-922.256492217542 501.320696289217 2402.39421717521 242 243 247
-913.59731226369 501.025930760268 2414.53398657267 254 255 255
-910.739555164785 501.089697498698 2424.6877624089 246 247 249
-906.906004574573 501.091424456256 2435.13452666248 244 245 247
-904.035730844636 501.151795376967 2445.23405792213 245 246 248
-892.419961117553 500.665111789509 2458.12857662543 248 249 251
-883.701744406245 500.35700905055 2470.01712703731 242 244 243
-879.831505884935 500.349835618643 2480.30745808434 239 239 241
-868.170866494672 499.853355102569 2493.01001747897 232 232 234
-859.41354946526 499.536326212626 2504.73043306121 248 248 248
-839.927076931478 498.543661980369 2519.69421684429 250 250 250
-829.186277108768 498.096810131352 2531.86452246423 234 234 236
-818.429464073581 497.646548177558 2543.96627037249 253 253 253
-816.440602074834 497.74618896581 2553.37030541677 255 255 255
-814.446855681106 497.844405185172 2562.75365489247 244 244 244
-805.607395494176 497.509168923729 2574.12389587108 244 244 244
-800.665935270162 497.41816156737 2584.29952235533 255 255 255
-789.845002044804 496.953437608114 2596.12722590718 249 249 249
-783.903557748523 496.795506067103 2606.49211604298 234 234 234
-775.992733990696 496.510946553883 2617.36716442058 242 244 243
-769.049807990849 496.28584427473 2627.91595020837 253 254 255
-757.191135857956 495.746210116779 2639.77124500606 250 251 253
-746.296642323644 495.26550467977 2651.28419931276 234 238 239
-731.457355315166 494.530832270087 2663.79021019338 254 255 255
-715.614066134163 493.729304608232 2676.46882453159 235 235 235
-692.864770752705 492.483450202611 2690.8728704152 238 238 236
-677.956736556949 491.734902757256 2703.08410249253 246 245 240
-656.134799375085 490.540859995816 2716.98882847319 254 251 246
-638.22442150865 489.593568384962 2729.7572067627 154 140 127
-624.232794818402 488.894344377974 2741.42124095162 139 122 106
-609.234882226549 488.127798830294 2753.24700301945 202 181 164
-592.241493058493 487.229931329454 2765.47068527882 206 180 165
-571.273549604731 486.073057523544 2778.55924483069 215 187 173
-568.067987074501 486.057012260549 2787.22624630324 216 187 173
-556.944084161096 485.529048846215 2797.75608654298 222 193 179
-559.658564109317 485.892198317844 2804.94764774944 215 187 175
-556.43300373608 485.870953570255 2813.52958539127 198 171 160
-552.210172709337 485.784019574308 2822.31310362966 205 181 171
-531.124831340745 484.603397380636 2834.89830847512 206 187 173
-525.884433289117 484.446551410684 2843.79536708336 211 193 179
-528.576871285848 484.803163849647 2850.89364364357 143 130 113
-550.143764074736 486.385614126538 2853.86439351125 105 94 76
-1129.44358984335 498.074231924509 2082.41408786904 237 241 240
-1119.21511651155 497.77251541454 2096.75554838815 220 224 223
-1109.92396889429 497.522196569328 2110.64185509705 218 224 222
-1088.21590742317 496.556622595193 2129.47041105489 224 228 227
-1075.06904104427 496.078989107709 2144.72661272083 225 227 224
-1051.3948798012 494.992201926918 2164.07550792027 207 208 203
-1026.73178852756 493.843587129789 2183.65937960154 186 187 182
-1013.5121246671 493.351261329516 2198.60343523384 187 183 180
-1003.14428007533 493.021019689443 2212.34860978467 205 200 197
-994.676120557112 492.798333829456 2225.28773017695 230 225 222
-988.111162851324 492.684057169265 2237.43687764182 238 238 236
-986.330225920997 492.845862723413 2247.72058683764 234 236 235
-983.584806330751 492.950550998238 2258.34531763509 240 242 241
-979.873274825215 492.997769070249 2269.30301176546 232 234 233
-976.154524520486 493.043273921383 2280.22990337537 228 230 229
-977.235860211545 493.367817287645 2289.36041051708 239 241 240
-978.316143039177 493.691773320596 2298.48662358728 241 243 242
-969.768395949658 493.450917795412 2311.08680858102 243 245 244
-956.391106941021 492.92456522575 2325.35520417846 248 249 251
-946.849576224036 492.620578553182 2338.169744609 248 252 253
-941.151678424641 492.540469621034 2349.56206796544 242 246 247
-934.478731334941 492.401239550092 2361.25002887749 249 250 254
-925.863195671852 492.145460153081 2373.56027616246 240 241 246
-923.999106638437 492.286440945191 2383.48981781324 241 242 247
-922.130223941872 492.425955033005 2393.39909849474 241 242 247
-920.256534817682 492.564173760226 2403.28796118057 241 242 246
-909.663789162563 492.183983959075 2416.07147017471 241 242 246
-906.805876605703 492.260740372922 2426.21692087094 246 247 251
-902.003086325186 492.220595936285 2436.97369097203 242 243 247
-897.191755793276 492.178335827984 2447.69407218265 246 247 249
-888.489052552738 491.902411704431 2459.63097104785 241 242 244
-882.686645566137 491.797502232733 2470.57844009648 236 237 239
-871.042875074911 491.341489341045 2483.33153182713 241 242 246
-854.518897341501 490.590708437715 2497.53719930989 239 240 244
-845.757177543473 490.30184270454 2509.22164911237 241 242 246
-836.007937970039 489.951464344276 2521.1481909362 249 250 254
-831.116212467079 489.890766153894 2531.52515034406 241 242 246
-819.390541862722 489.417095794353 2543.92772861849 243 244 248
-813.50145267688 489.292601343272 2554.50474528848 239 240 244
-807.602753039636 489.165677282552 2565.03975538873 237 238 242
-801.694202756447 489.036468421016 2575.53270172272 247 248 253
-792.842951827546 488.727479237159 2586.83554823708 238 239 244
-783.97835781091 488.415529596121 2598.08025226644 242 243 247
-781.951521013118 488.515939707757 2607.31649601458 244 245 249
-776.002035872562 488.377107682606 2617.63580626504 242 243 247
-769.062958653727 488.176320504604 2628.18616423656 242 246 249
-753.286825942717 487.435888480058 2641.1247741471 240 244 247
-742.394752287478 486.989850332934 2652.62800166503 236 240 243
-726.57738480419 486.24093235871 2665.38881220119 218 222 225
-712.702545545421 485.607409085347 2677.52883595602 225 227 226
-691.92618519294 484.548977023428 2691.40372061959 221 223 222
-678.007369073592 483.906621390722 2703.35515193935 225 226 221
-656.194079892274 482.777469058211 2717.25873314254 222 221 217
-638.290837810959 481.884289810934 2730.02672868032 142 126 111
-612.478013330886 480.501709551218 2744.68291185593 201 180 163
-585.644345672982 479.051831673166 2759.43666110866 213 187 172
-568.642909704802 478.202785503751 2771.59616942597 204 177 160
-556.555204243202 477.653446323333 2782.44791982936 117 85 72
-559.270857696738 478.015352775098 2789.64538327886 103 69 57
-557.04442798098 478.071413373105 2798.02819077291 104 72 59
-566.684613331748 478.860350332791 2803.58985781169 74 42 31
-572.374799502701 479.405249713659 2810.11688835669 88 59 51
-568.164536143133 479.336343963238 2818.94518333954 72 45 36
-557.008722566431 478.834960746712 2829.31877323955 73 46 37
-543.853312217007 478.206851379746 2840.06833786391 74 50 38
-545.56500355886 478.501086736979 2847.43797474337 74 52 39
-547.276592053645 478.794667912235 2854.80754318797 110 88 75
-536.070897024321 478.282503944056 2864.96766760516 161 141 130
-526.837343734706 477.890979901394 2874.6344143509 196 180 167
-1152.25087066621 489.066942777921 2042.39802227552 241 242 244
-1143.02024589507 488.860648481987 2056.52404724059 239 240 242
-1125.21366656403 488.186721359522 2074.14652990242 237 239 238
-1116.90014723384 488.025069714957 2087.73118557005 236 238 237
-1103.81084566405 487.601258837655 2103.20939419099 228 232 231
-1076.40585513186 486.393831621351 2124.41577667197 230 234 233
-1055.63852171593 485.543694962572 2142.76541904767 226 230 229
-1048.20243300298 485.418483086607 2155.63869999401 223 227 226
-1038.84450194603 485.186087751652 2169.21909202408 204 206 203
-1024.69383828599 484.688262867444 2184.62135386111 198 198 198
-1012.43509775474 484.291487624503 2199.18609823463 212 210 211
-1000.15780794318 483.890702295221 2213.67254882312 229 225 224
-991.692011315766 483.697409361034 2226.60479351226 243 239 240
-984.17080847791 483.554041151947 2239.11369163424 232 232 232
-979.513414750011 483.567139671335 2250.47984680104 239 241 240
-974.847575346757 483.578196752671 2261.80998617202 233 235 234
-973.052726806515 483.747035264952 2272.02934266778 226 228 227
-974.134883225574 484.074671224119 2281.16164744695 230 232 231
-971.371581523092 484.187761641718 2291.70155109668 242 244 243
-967.640384705824 484.245747010356 2302.56625558111 242 244 243
-957.165490023929 483.925830562557 2315.83363292559 244 244 244
-941.859723038688 483.333460355562 2330.75785962247 250 250 250
-932.313707355346 483.060155211348 2343.53350442823 248 250 247
-922.752782114388 482.783701843665 2356.24638724092 245 247 246
-919.931178413936 482.883222354062 2366.53736013227 248 249 253
-915.172336663225 482.872513387751 2377.47156616032 238 239 244
-921.032117327542 483.458288775974 2384.7207992398 237 238 243
-923.030068777593 483.826290793251 2393.30847565411 232 233 238
-922.126241601389 484.030034288192 2402.87616237584 232 233 237
-911.539620535648 483.685211341953 2415.66585820423 243 244 248
-904.811149302978 483.556264565616 2427.10309951038 239 240 244
-897.102594045722 483.369915017266 2438.81169533943 247 248 252
-889.381764950791 483.180687378889 2450.46789837912 239 240 242
-883.589576393182 483.099171525527 2461.44554992999 243 244 246
-880.700447780562 483.181165521702 2471.45036415619 242 243 245
-870.032220719416 482.81815753768 2483.89115287961 237 238 242
-849.62545726101 481.896464830421 2499.31426840421 235 236 240
-839.891859027008 481.581134820861 2511.28912067021 241 242 246
-834.037645942797 481.485519963568 2522.001749058 249 250 254
-830.121704819591 481.499413766391 2532.07829709643 241 242 246
-821.324846526532 481.231362479092 2543.5956641031 241 242 246
-811.538940354972 480.904368600385 2555.34687781896 241 242 246
-806.618202439363 480.855074854556 2565.58928412879 238 239 244
-798.759060661161 480.634773564708 2576.65427844437 245 246 251
-788.93306890126 480.298753582002 2588.23416086293 238 239 244
-779.092501151455 479.959617435848 2599.75055950179 241 242 247
-776.085987637477 480.013699985389 2609.2545249417 242 243 247
-773.073539981401 480.06610542239 2618.73224115083 238 239 243
-768.095465850553 480.003119800106 2628.73004423478 237 240 245
-751.344981880608 479.254294810482 2641.93644456294 240 243 248
-736.532910673807 478.61481645584 2654.50639388425 233 236 241
-716.7919578747 477.685097686493 2668.31176879202 225 229 232
-707.827722957869 477.380302053829 2679.11318995398 221 222 224
-693.935827796067 476.78547756282 2691.15529423066 229 231 230
-673.140307641947 475.783892357548 2704.91231432418 205 205 203
-654.284186220129 474.89195313514 2718.03813850197 197 196 192
-631.463742808077 473.763882963762 2732.05938840309 175 159 146
-597.7742787795 471.993455096976 2748.68810755435 203 182 165
-566.997855561322 470.388542319185 2764.38570498735 204 178 163
-557.883358335519 470.053335057302 2774.54395753243 224 196 182
-549.742495812911 469.773532811547 2784.40252473951 137 105 92
-554.429802398775 470.248576693976 2791.10778374429 84 52 39
-560.109065127667 470.782154158908 2797.59333850231 65 33 22
-585.57298666278 472.486019783557 2799.43742905981 94 61 52
-602.159897226 473.666980942957 2803.4838585873 84 55 47
-612.824206997784 474.498271341163 2808.97708994553 81 54 47
-600.710382681022 473.978077582201 2819.69660326613 80 53 46
-599.485048607557 474.10246978904 2827.89421752454 88 61 52
-582.382710145678 473.281127813853 2839.59279671971 82 58 46
-578.161760845707 473.223966211167 2848.36709577913 71 49 38
-571.946814680056 473.046544348165 2857.53824294862 86 66 55
-540.87348990487 471.382914304166 2871.96205694107 166 148 136
-525.672041113345 470.663204497597 2882.86337419886 192 178 165
-1140.79931016526 478.121988797949 2016.60003532322 240 241 245
-1141.07574371852 478.436784099068 2026.74690660273 240 241 243
-1133.75757484643 478.362369847991 2040.10993268385 241 242 244
-1130.22621843423 478.480238959971 2051.81894085566 241 242 244
-1124.78680507177 478.498718372677 2064.29339527082 239 240 242
-1108.87780473743 477.97704859772 2081.0742511862 240 242 241
-1104.36405312577 478.039210122298 2093.04451887354 240 242 241
-1084.60753454053 477.312935538701 2111.21804873019 233 237 236
-1054.34249079012 476.038957144644 2133.53083939507 234 238 237
-1035.47616485701 475.349539513967 2151.04898602186 233 239 237
-1028.03099221771 475.248903070088 2163.86778349763 230 236 234
-1023.4375735382 475.29443029226 2175.49677601806 228 232 233
-1007.37285516182 474.741159604417 2191.61003530608 231 232 234
-999.887615442755 474.631905223499 2204.25734297352 240 240 242
-990.477455058191 474.420140811682 2217.59544811198 243 243 245
-984.880761842852 474.405476047039 2229.39633136074 241 239 242
-979.27462108678 474.388699149266 2241.15573918855 244 244 246
-975.575317649115 474.470316488678 2252.1470846931 242 242 244
-969.950849032223 474.449336451588 2263.82928798499 239 239 239
-968.155114784933 474.628364117035 2274.03766220839 239 239 239
-969.235199229297 474.958128795444 2283.15958463225 249 249 249
-964.549422185564 474.982509322462 2294.39403087679 252 251 249
-961.777861557743 475.106677964286 2304.89211151237 247 246 244
-949.380209767937 474.719221486022 2318.83925199479 251 250 246
-935.038779725191 474.225596447915 2333.39733081012 252 251 247
-923.566110794186 473.881325244975 2346.83975802034 247 246 242
-915.932048800958 473.738945381674 2358.85075248168 249 249 247
-914.072874043242 473.902587444511 2368.78862063821 237 238 242
-913.173970254289 474.116439997847 2378.37205681779 231 234 239
-920.96330295843 474.794535844832 2384.95689409874 227 230 235
-923.928265745204 475.214378701751 2393.21888155583 224 227 232
-919.15884080159 475.218542805849 2404.09661768431 227 231 234
-911.478080214911 475.064545073948 2415.90866453576 234 238 241
-901.848534693519 474.803511547035 2428.31009748012 238 242 245
-892.204500307333 474.53926124496 2440.64848974466 228 232 235
-879.637106447208 474.114605697168 2453.8706147289 233 237 238
-876.752267330832 474.210982811693 2463.88478485153 231 235 236
-873.861130656513 474.305761286636 2473.87323099009 215 219 220
-861.250981571821 473.871720055912 2486.91138580642 234 238 239
-847.650268320063 473.380903354933 2500.17543106256 240 244 245
-837.920000526244 473.097737186408 2512.1460414426 237 241 244
-833.040941537535 473.076547295714 2522.55557930563 226 230 233
-825.231914804078 472.893910347588 2533.81925639559 229 233 236
-818.384903590152 472.761612518584 2544.73611334747 228 232 235
-810.551872102997 472.573429136017 2555.89727391824 236 240 243
-804.657917881779 472.489558700959 2566.42787231422 233 236 241
-796.801464518415 472.295929847399 2577.48902547585 236 239 244
-786.00200423711 471.938537497197 2589.34822222191 231 234 239
-772.253929207513 471.416063177479 2601.9815267093 229 232 237
-768.267361341196 471.429004385752 2611.74741298261 231 232 237
-768.188342125415 471.656312234482 2620.37941219039 229 230 235
-769.086404678373 471.936729606236 2628.72826594755 222 225 230
-757.243401584156 471.510711028405 2640.58578256778 217 220 225
-738.518618582715 470.700356709833 2654.24237378719 211 214 219
-714.862057910156 469.61230906628 2669.11207619461 216 220 223
-705.900619536394 469.337167888991 2679.90946516213 226 227 229
-697.908171478356 469.11367681762 2690.38891146486 191 193 192
-683.021771924437 468.503670985888 2702.61399256443 200 201 196
-663.195658455094 467.614622867296 2716.02017943166 205 204 200
-643.342518228969 466.720359770312 2729.30925173384 179 166 157
-597.85332432476 464.386633733906 2748.95410560515 169 153 140
-567.088179766647 462.870914762406 2764.64894241725 187 168 154
-556.99183728694 462.510222980445 2775.05201522253 190 166 154
-544.90712674678 462.03539472449 2785.87313807992 183 156 145
-544.654154872226 462.224054226341 2793.76024711159 193 166 155
-562.183012518987 463.414159116194 2797.39565321218 169 140 132
-595.550437925276 465.499996680855 2797.38904332583 63 36 27
-623.021720684404 467.256668487686 2798.9348511082 73 48 41
-625.77760387289 467.617906948198 2806.30998279808 90 67 61
-617.639059353956 467.361531141427 2816.16498579618 75 55 48
-612.461471969599 467.271102462951 2825.29975984734 75 55 48
-612.234010105271 467.46024678869 2833.2989954982 77 57 48
-610.018905027239 467.535521617402 2841.72149108687 64 46 36
-603.827057175263 467.383158712982 2850.97968385003 61 43 33
-571.528498659241 465.936500766306 2873.54710175612 88 75 66
-1184.21519321985 469.826843528742 1966.73101409474 235 239 242
-1161.8182191241 469.064521942962 1986.95959796355 239 240 244
-1146.01743399293 468.614646613944 2004.17508515412 242 243 247
-1134.93087335197 468.388338309289 2019.24954563074 240 241 245
-1133.30877227139 468.616243700456 2030.19429916733 241 242 244
-1130.73333591675 468.797222627846 2041.52211578342 243 243 245
-1122.45557559698 468.700786460682 2055.2270750139 243 243 245
-1114.16472920121 468.601665761046 2068.874862011 243 243 245
-1102.05801956427 468.314775160082 2084.04599779609 242 242 242
-1095.64057839248 468.302286167575 2096.78423335934 240 242 241
-1075.88652493705 467.63689347301 2114.93281725693 235 237 236
-1050.38962144859 466.68641671167 2135.28338683413 238 242 241
-1035.34074105836 466.242618232859 2151.25221857494 238 242 243
-1025.03861678887 466.028401004791 2165.21766648332 235 239 240
-1016.62891269233 465.904713403611 2178.35723395126 237 241 242
-997.701853725981 465.260776186121 2195.58100581009 238 242 243
-988.303401122326 465.082973810492 2208.95072680427 244 245 247
-979.846217393669 464.949326451323 2221.88692971023 246 247 249
-978.073228654044 465.144558525288 2232.18600281828 246 246 248
-973.423331847957 465.195980632685 2243.56265305146 248 247 252
-969.722933752736 465.293086135732 2254.54006523322 253 252 255
-966.015574374012 465.38845231251 2265.48673860051 227 227 229
-964.219106021662 465.577721110041 2275.68694084596 247 247 249
-962.418136164139 465.765734504744 2285.86695884699 251 251 253
-955.80992073828 465.712056231878 2297.7898459258 251 251 251
-952.07431189037 465.800446504623 2308.6161388835 247 247 245
-939.675741745384 465.45218287981 2322.53726701898 250 250 248
-932.070599746899 465.342349756608 2334.6565566805 248 248 246
-926.379018424557 465.326753116344 2346.03985645505 244 244 242
-921.641452278074 465.35760933418 2357.04228133726 246 246 246
-917.859747410214 465.435180332266 2367.67181226359 228 229 231
-915.035282299125 465.559846306694 2377.93647280383 225 229 232
-919.928342655366 466.074868810692 2385.52488713771 223 227 230
-922.893085150259 466.491896634291 2393.78755957274 224 228 231
-921.026020389701 466.662560503483 2403.68652984174 228 232 235
-913.3504219481 466.535837251138 2415.50528211522 226 230 231
-902.758836451376 466.257898576189 2428.23376266145 238 242 243
-894.088448956448 466.075737834521 2440.25791472871 225 229 230
-878.620381170809 465.542726177244 2454.43203799365 238 242 243
-871.858033409298 465.45332494122 2465.69674043481 209 213 214
-865.084896439447 465.361405619657 2476.91429406386 211 215 216
-859.271428444106 465.317002052738 2487.77743434925 234 238 237
-852.476837705695 465.220093870182 2498.9033846203 227 231 230
-839.837514013751 464.81907833595 2511.7946411122 224 228 229
-833.016875786892 464.716456299772 2522.81025828098 220 224 225
-823.264968875754 464.459843262403 2534.66881016953 230 234 235
-821.290697165894 464.604660781986 2544.11165335067 221 225 228
-814.438324241501 464.49450413803 2554.99077439 229 233 236
-811.475931429951 464.585097012812 2564.66768683927 229 233 236
-803.627753621398 464.419339781378 2575.74891367708 234 238 241
-786.001551999864 463.740587217184 2589.61159004445 226 229 234
-769.327746630466 463.108019947864 2603.08750139297 222 225 230
-762.408767733647 462.983144276997 2613.68177546123 223 224 229
-761.349055746904 463.163877856022 2622.57607773385 224 227 232
-766.159986895716 463.652178364618 2629.81830054933 220 223 228
-755.299955709175 463.315360484212 2641.39848581922 204 207 212
-740.502481350604 462.768209026279 2653.97953999421 204 209 213
-718.817888972559 461.854341818257 2668.32360965147 213 217 220
-705.937367172397 461.401757244663 2680.18125337107 216 217 219
-701.877390050631 461.413379587101 2689.6244319584 163 165 164
-688.965032417953 460.954078528645 2701.34682551764 188 189 184
-676.034309616728 460.490889258915 2712.9894920901 173 172 168
-668.988817518005 460.337922274972 2723.043885032 157 147 138
-619.593363164706 457.926987399809 2743.74763078574 121 108 99
-593.779442859555 456.765602423336 2758.26779887356 121 104 94
-574.831588564266 455.966418887845 2770.9348393862 137 117 108
-552.898423989159 455.003594248267 2784.21235214278 177 155 144
-550.677500087646 455.092889714772 2792.59987375674 199 177 166
-566.230423541489 456.134623232658 2796.7282565299 219 194 187
-601.567402733214 458.240800639818 2796.27585819031 87 64 56
-630.023737142516 459.981165015517 2797.6155555994 76 56 49
-636.742899598991 460.553972579402 2804.10294038629 65 46 40
-620.693380316809 459.898434435807 2815.78692002156 67 50 43
-623.447303843713 460.255618092447 2823.15471480807 72 55 47
-617.279154193158 460.129703650578 2832.50286576507 63 49 40
-625.981923503535 460.807550198965 2838.55657073164 76 62 53
-1187.77261774742 459.426887681168 1933.84276953382 244 247 252
-1187.15279868997 459.719685531901 1944.60958050633 241 244 249
-1173.30355571973 459.417009769096 1961.22420850999 237 240 245
-1164.16018732605 459.32309098314 1975.66972606403 241 242 246
-1155.94841103905 459.269079858677 1989.6394094575 243 244 248
-1143.93687416529 459.041022009783 2005.1953276711 243 244 248
-1132.85446866994 458.852156328116 2020.26498917044 243 244 248
-1135.02421665261 459.26287492899 2029.58457541442 244 245 247
-1127.7100564637 459.241510714661 2042.93406376006 243 243 245
-1119.43485566673 459.17437297033 2056.63198293401 242 242 244
-1108.29734933187 458.974227418994 2071.46547289499 243 243 245
-1098.09304993219 458.814108547405 2085.83126096638 245 243 244
-1093.57807183589 458.91257482571 2097.77585719712 244 244 244
-1073.83084401157 458.308992881546 2115.91816368632 241 243 242
-1050.24699478425 457.524214416196 2135.48739390562 245 247 246
-1036.1574764762 457.172919187105 2151.07182696213 248 252 253
-1019.18710044026 456.685113365242 2167.71213941063 246 250 251
-1009.82396860555 456.546128092619 2181.21575948534 241 245 246
-992.809604651378 456.049256589779 2197.66756800458 242 246 247
-984.367738740432 455.947696104292 2210.65131116342 242 243 245
-975.912507834957 455.843184226575 2223.57789638221 241 242 244
-976.051762090048 456.138093994373 2233.13197279854 241 242 246
-970.446574699307 456.163308919105 2244.87088348371 246 247 252
-966.746935025249 456.27622356785 2255.84233928212 239 240 245
-961.123406296752 456.297233018849 2267.50398741726 254 255 255
-958.367202818849 456.451586245511 2278.05090049023 248 249 253
-952.726163275556 456.468521222727 2289.6377823767 248 249 253
-949.956148401825 456.619440772522 2300.12585407282 243 244 248
-950.062283026562 456.90531616565 2309.53930007365 248 249 251
-934.784010553381 456.460473250014 2324.49682625842 244 246 245
-928.141619549979 456.42268527719 2336.25976993145 240 241 243
-922.451069512303 456.428254531679 2347.63407864074 240 242 241
-923.493289436851 456.753266744419 2356.59302986873 233 234 236
-920.679245590457 456.893320103312 2366.89347572727 227 231 234
-918.823604523781 457.077938008898 2376.83457805321 227 231 234
-921.788586842516 457.492693310935 2385.09964391298 225 229 232
-924.75495514829 457.907168023362 2393.37098226242 231 235 238
-921.924858459906 458.042358123791 2403.60355047639 233 237 238
-914.25379501088 457.942685015294 2415.4263765242 225 229 230
-903.667720665453 457.699949086669 2428.15843726699 227 231 232
-893.065700729716 457.453872618048 2440.82219736453 228 232 233
-877.603494734985 456.969314601191 2454.99365220266 208 212 211
-872.783123919843 456.998381552856 2465.63224447875 208 212 211
-866.984196843271 456.978062475177 2476.54420829465 233 237 236
-862.146088524705 457.002784280784 2487.10719460218 212 217 213
-857.299188702553 457.025301901917 2497.63382332851 178 183 179
-847.584499186198 456.808168742524 2509.63315568867 175 180 176
-837.85480169198 456.587696757035 2521.56940446579 207 211 210
-830.05672882047 456.459602116511 2532.84927056739 229 233 232
-825.167695182151 456.472378879757 2543.19487631092 202 206 207
-818.321196647342 456.387087477672 2554.0863447767 211 215 216
-809.513720083873 456.202932966856 2565.50757623303 217 221 222
-803.619375394016 456.160545183055 2576.0131416695 222 226 229
-790.881684276661 455.777536072093 2588.45925750972 200 204 207
-772.263961084323 455.09998302784 2602.50950644953 206 210 213
-763.395386489193 454.902699918404 2613.66922665164 220 221 226
-763.316266597894 455.140332899973 2622.29362290867 222 225 230
-761.276917346808 455.279431727711 2631.45306056252 220 223 228
-753.356735603713 455.123764406812 2642.21106209684 215 218 223
-737.584553040429 454.573525491663 2655.05412684404 203 208 212
-728.653926460871 454.362440739569 2665.94961440049 210 214 217
-716.766270086632 454.0007127231 2677.57254937869 178 180 179
-710.752266440078 453.931279465885 2687.5656494854 156 158 155
-710.622832070188 454.156102595151 2695.97695195945 124 125 120
-706.55868159005 454.181638494097 2705.39355682999 126 125 120
-682.813413527547 453.212511703141 2719.80350450739 137 132 126
-667.894716838408 452.68501944561 2731.83773406438 117 110 102
-659.849353070539 452.502172751509 2742.06009762055 63 53 44
-634.051900196135 451.41716953514 2756.60790542248 58 45 37
-607.233394721014 450.275489973483 2771.2471957885 68 51 43
-583.33927857949 449.277514246489 2785.01820122387 69 52 44
-589.034914699821 449.782167325838 2791.59291894046 51 34 26
-610.543806499868 451.0934867957 2794.4675533788 68 51 44
-631.088845745487 452.358082850148 2797.67878628407 61 46 39
-640.775336629537 453.06937533357 2803.49125649023 55 44 38
-633.644005719515 452.91963441388 2813.16441038435 67 56 50
-619.567745881653 452.411528662082 2824.34309273328 88 81 71
-1257.94455249413 448.352467494987 1762.00299319745 227 232 238
-1249.92574557382 448.365101327256 1776.78489862774 229 234 240
-1248.44859022114 448.643047599837 1788.33893399276 237 242 246
-1248.84063294255 448.99690137375 1798.97227284004 238 243 247
-1251.10585786407 449.427339902052 1808.7009867715 239 244 248
-1249.61840565722 449.703386896167 1820.2107653685 240 245 249
-1241.55439569719 449.707425928801 1834.79744897777 241 246 250
-1239.11372294971 449.941959388275 1846.68869893827 241 246 250
-1229.1466096165 449.863652338177 1862.05154619123 240 245 249
-1211.6382296429 449.469589565779 1880.82237324573 239 244 248
-1195.98678230658 449.148962620834 1898.61990897153 243 248 252
-1176.544474832 448.666636031557 1918.03455145255 244 249 253
-1174.98261631212 448.928116999233 1929.2250203017 244 249 253
-1177.18869081232 449.346632058868 1938.70009645216 247 250 255
-1181.28269920665 449.844576353631 1947.33387910425 241 244 249
-1167.43561178109 449.586832532812 1963.93266458719 236 239 244
-1157.34830071104 449.484742075234 1978.77875369457 244 245 249
-1155.75554589998 449.739553598082 1989.83808487537 247 248 252
-1147.53463430239 449.712365216371 2003.75173657508 244 245 249
-1138.35340536988 449.642144766996 2018.01648023249 241 242 246
-1130.10527353748 449.609373643618 2031.8134675086 243 244 246
-1120.89559146799 449.533414746309 2045.95620544771 241 242 244
-1117.36371121369 449.698007900018 2057.63651012515 240 241 243
-1110.97689807781 449.73884096254 2070.47834813857 244 244 246
-1102.67903427357 449.695732800441 2084.06335406327 244 244 246
-1091.51635804362 449.526921850142 2098.76750100137 244 244 244
-1064.16652556827 448.656604454253 2120.01866461734 242 244 243
-1039.6338858036 447.902352933453 2139.94651548525 248 249 251
-1025.54368133557 447.595542410917 2155.5017604747 245 249 250
-1008.57360179936 447.160317172589 2172.11245328952 241 245 246
-1002.06918479275 447.176916219575 2184.45140107736 241 245 246
-991.736856463122 447.024645710236 2198.24840389904 241 245 246
-989.027954717763 447.203043662889 2208.98961328796 240 241 243
-976.757808653701 446.961314823591 2223.41399150373 241 242 244
-969.250090929634 446.925688005749 2235.91894282519 247 248 252
-960.773559166368 446.845255241487 2248.73750166552 240 241 246
-958.985166647654 447.057604378077 2258.95862916642 238 239 244
-955.275993379157 447.183966919612 2269.88016485326 172 173 178
-951.559614550916 447.30856068198 2280.77098903784 164 165 170
-944.958366737187 447.303701149683 2292.69586583417 158 159 163
-942.185702697343 447.467062722708 2303.16494578904 240 241 245
-940.367217991351 447.671782517956 2313.2590435457 248 249 253
-928.933479490622 447.446011044025 2326.80223654085 242 243 245
-924.214437487034 447.517853006511 2337.86218297408 238 239 241
-920.449164512188 447.630737854166 2348.54443822918 240 241 243
-920.528534268058 447.914914726138 2357.83985542844 229 230 232
-917.714717365 448.068036857848 2368.13470111505 224 228 231
-919.715824318 448.437048269881 2376.73568879717 224 228 231
-926.541133997583 449.023556206959 2383.68276118607 224 228 231
-932.407237714498 449.567108880197 2390.98577770452 232 236 239
-928.618219268324 449.672814509633 2401.56761933777 232 236 237
-919.02203692457 449.513015093892 2414.05652703314 230 234 235
-909.411372454491 449.350000070197 2426.48242305573 226 230 231
-894.946473419423 448.963013805323 2440.43370503571 218 222 223
-887.240119518112 448.88158335228 2452.09029131979 186 190 189
-875.644865904108 448.619864291056 2464.94398544015 231 235 234
-870.820760525504 448.665986938521 2475.55608947849 231 235 234
-862.10672253326 448.531571352174 2487.35981020854 203 208 204
-861.146882557299 448.752050726125 2496.67082882211 173 178 174
-851.439002208494 448.56769683701 2508.68197300502 175 180 176
-841.71658943234 448.380176478592 2520.62985495816 193 197 196
-833.924931823481 448.279515525513 2531.92185479764 219 223 222
-830.988116489028 448.402018312772 2541.69270795315 193 197 198
-823.174934357693 448.296356243021 2552.89279986057 204 208 209
-810.475869258672 447.960951678556 2565.48221112381 212 216 217
-803.610435126357 447.894813885856 2576.27788651835 214 218 221
-796.733665718761 447.826031287852 2587.02625416937 188 192 195
-783.009982283587 447.434592612233 2599.68997116385 199 203 206
-770.2438503241 447.084954844027 2611.99113236234 213 216 221
-762.347998469354 446.961154888533 2622.83760203413 214 217 222
-765.202214931463 447.34139315513 2630.63487161716 209 212 217
-750.435283499946 446.889999202564 2643.29310764716 214 218 221
-742.504823934212 446.758411254494 2653.99165648309 191 196 199
-734.56197789895 446.623983558375 2664.63729365743 167 171 172
-725.625704850652 446.440325870714 2675.49176792156 123 125 124
-721.583457540653 446.486837655629 2684.99255342595 139 141 138
-724.408847280519 446.858483028628 2692.6667635403 135 136 131
-729.200816518476 447.323424544641 2699.83916826744 133 134 128
-709.41226780216 446.614958598485 2713.30467450508 135 132 125
-690.580575419527 445.948115298764 2726.40466659855 141 136 130
-671.722595338464 445.27609505301 2739.3929512949 130 123 115
-662.691037578695 445.071754398463 2749.8386249537 101 92 83
-635.900497893764 444.011630127967 2764.55318051664 47 37 28
-626.830445254673 443.799464530081 2774.83382597348 54 44 34
-608.862898410646 443.15594157316 2787.17161806621 55 42 33
-611.612157405106 443.509206135007 2794.52224973419 63 53 44
-615.350853564694 443.910038967537 2801.64852652832 97 87 78
-1287.36795917269 437.086174366464 1670.44931595269 230 233 238
-1272.91103484798 436.899664835602 1688.87531761688 227 230 235
-1260.29582775768 436.778620383766 1706.26458185963 232 235 240
-1258.84973905961 437.072361166738 1717.94622495723 237 240 245
-1265.79598521298 437.680106440279 1725.4137218968 242 245 250
-1261.54526217314 437.868068732311 1738.46905284584 245 248 253
-1250.74642677249 437.807996273267 1754.713621717 246 249 254
-1243.67017173901 437.886155314971 1769.05292067636 241 244 249
-1245.00097582215 438.281042873741 1779.2413548751 243 246 251
-1237.90616209767 438.355755855176 1793.50090042827 243 247 250
-1233.60937251528 438.535160189705 1806.35826920739 243 247 250
-1228.3667800805 438.677286278636 1819.62730489186 246 250 253
-1230.61806795017 439.104847880188 1829.29629627153 246 250 253
-1229.11555592162 439.388294600442 1840.73536035543 243 247 250
-1228.54745030456 439.707058384989 1851.71477817433 243 247 250
-1214.81933131027 439.517289323135 1868.79674004461 245 249 252
-1200.13022098556 439.287193314473 1886.22414638646 241 245 248
-1185.41900513179 439.052876182855 1903.55771219089 234 238 241
-1174.4524992493 438.960739446814 1919.08120123574 243 247 250
-1173.83343861302 439.269346443245 1929.8420558249 244 248 251
-1177.92530832963 439.761366535078 1938.46989865562 238 242 245
-1183.90669191812 440.327722202339 1946.26749261341 243 247 250
-1177.62028288093 440.412860656095 1959.52679625809 229 233 236
-1157.15278515504 439.93780621131 1978.97598961118 224 228 231
-1154.61669009071 440.165935065736 1990.45052094233 244 248 251
-1147.34518218556 440.205587295468 2003.95207190141 241 245 248
-1140.06163145055 440.242864261875 2017.40195227817 237 241 244
-1122.3473074246 439.863286086646 2035.25675202524 234 238 241
-1114.08489666413 439.856343907861 2048.97671280084 238 242 245
-1110.55150518367 440.036224506356 2060.64028016033 248 252 255
-1102.26556734385 440.024455001024 2074.2594063689 241 245 248
-1099.66436920752 440.238575107282 2085.45420919929 233 237 240
-1084.7038085129 439.9541832335 2101.71847055574 252 255 255
-1061.16367952479 439.320044725262 2121.39175579098 241 245 248
-1035.68742071506 438.602467565211 2141.69631375686 252 255 255
-1018.74454746888 438.225236175127 2158.39278304537 250 254 255
-1002.72987886872 437.881669091381 2174.60324962152 250 254 255
-997.1788088038 437.960745835823 2186.54895260577 237 241 244
-990.663981282755 437.998624396014 2198.82950976483 249 253 255
-989.865739911263 438.268442391349 2208.82360540508 252 255 255
-978.557057854665 438.106332878497 2222.88042513112 238 242 245
-970.098726519538 438.058557012005 2235.75997780482 240 244 247
-957.801143170113 437.850257643968 2250.04378943787 237 242 245
-954.098687028443 437.993924284275 2260.984746943 200 205 208
-950.389269603268 438.135851598312 2271.89496563366 203 208 211
-943.797561177851 438.156710689411 2283.84675160699 216 220 223
-938.153755603004 438.2150510833 2295.39709145375 241 245 248
-932.500488535515 438.271161224233 2306.90596387364 252 255 255
-934.518520205241 438.645823284263 2315.57820806506 248 252 255
-925.007622233712 438.53747434363 2328.41266626539 234 235 239
-922.211878793879 438.708292816316 2338.77565920527 230 231 235
-915.5620040898 438.715836915187 2350.47896254489 235 236 240
-916.602156729537 439.045337714334 2359.42507767651 224 225 229
-917.64104592195 439.374227563309 2368.36707108409 225 226 230
-921.570638661426 439.824717194089 2376.30425508308 221 222 226
-929.360685307941 440.438837167917 2382.92986692398 225 226 230
-932.332805919589 440.848812370098 2391.22919970644 231 232 236
-926.615157657335 440.888390490577 2402.46409514879 230 231 235
-916.056051679786 440.719516380008 2415.27155092177 225 226 228
-905.480986397504 440.547241502323 2428.01068103948 231 232 234
-891.987268895312 440.247066549123 2441.63408185536 202 203 205
-886.219442763869 440.275523316141 2452.65440596387 223 224 226
