ply
format ascii 1.0
comment KinectMotionCapture
element vertex 776
property float x
property float y
property float z
property uchar red
property uchar green
property uchar blue
end_header
-934.364447951182 -223.059943835625 2606.42069581237 16 19 12
-925.705449314019 -222.065239474294 2616.17345262898 16 19 12
-916.012595900285 -220.994063883558 2626.16306220133 16 19 12
-895.520376842719 -218.776815744267 2646.24503038917 13 18 14
-1004.37635110465 -249.277151204006 2289.50604921613 20 22 17
-923.905007050065 -241.715431391737 2338.35420909969 15 18 11
-906.075051353682 -239.487193181021 2361.22056609597 12 15 8
-912.431265212028 -239.664263768633 2366.51265049988 12 15 6
-915.917999567729 -239.598871790093 2372.94505504205 13 16 7
-928.046355365867 -240.258758794866 2376.01816276759 12 15 6
-925.774757636095 -239.708790556682 2384.69547204848 11 14 5
-926.375661032726 -239.400539838935 2392.23824255885 10 13 6
-882.179624751912 -234.998496476814 2424.36989766677 18 21 14
-845.961493967715 -231.631617119907 2445.48347025492 17 20 13
-844.483857901643 -231.163844454473 2453.48150244783 21 24 17
-852.685722960846 -231.500551240818 2457.88996686422 23 26 19
-869.634928643541 -232.560659558771 2459.13464013424 24 27 20
-882.732508105257 -233.298114297256 2461.85220121291 20 23 16
-865.688412528173 -231.543168364771 2475.44656413936 16 19 12
-850.538343527123 -229.94961846515 2488.24625323202 18 21 14
-860.707475986353 -230.445371913187 2491.99545354071 22 25 18
-877.73328066148 -231.502677250046 2493.38184923058 21 24 17
-877.185555671419 -231.114090796105 2500.95104081045 21 24 17
-879.565900084161 -230.966264710262 2507.48818164101 23 26 19
-862.325475946618 -229.213747185139 2520.72123454278 23 26 19
-862.709598887814 -228.90577343818 2527.86522300581 22 25 18
-866.035961880135 -228.838273137395 2534.0033094073 22 25 18
-876.255135427392 -229.331717122813 2537.84523889913 23 26 19
-880.575903180437 -229.343875902695 2543.67295812313 23 26 19
-877.987405105208 -228.795199600384 2551.7670414149 23 26 19
-875.383037271689 -228.246771364379 2559.83186273079 22 25 18
-884.641698841538 -228.658998556448 2564.04645859741 22 25 18
-880.038651466991 -227.950570107456 2572.71356236733 19 22 15
-875.414883383232 -227.242652413371 2581.34189913873 18 21 14
-889.985283353383 -227.746092158209 2591.06872160835 17 20 13
-887.322240636778 -227.198390282021 2599.0249064475 17 20 13
-887.636053655339 -226.890544723937 2606.03954360277 14 17 10
-885.943905819092 -226.423199279736 2613.64292109041 15 18 11
-939.249653582926 -230.346594080504 2604.75452717342 15 18 11
-930.591754174285 -229.319791478302 2614.51895829428 14 17 10
-934.938510118865 -229.330667713801 2620.39536447005 15 18 11
-940.291690515598 -229.421237165094 2625.98349960577 15 20 13
-951.804143876228 -251.724057219664 2318.97737880536 16 19 12
-930.556810886332 -249.489892290393 2335.56033858093 15 18 11
-905.420314302582 -246.922943904936 2353.55019436595 14 17 10
-906.992958880839 -246.69158096677 2360.74225288048 14 17 10
-908.560213952856 -246.4598371549 2367.92400940387 14 17 8
-933.1441428621 -248.227757258087 2366.07807287446 14 17 8
-946.257836352323 -248.994564448303 2368.81644368204 13 16 7
-947.854866942124 -248.761225206336 2376.05344258763 12 15 6
-949.446050720828 -248.52757339906 2383.2802863813 9 12 5
-945.245227948696 -247.794410930285 2392.694088284 18 21 14
-808.718202547779 -235.662425421927 2451.91244312497 20 23 16
-859.418403553438 -239.673982354786 2440.32026104508 20 23 16
-847.304352025089 -238.277777147726 2452.29949157347 23 26 19
-842.905275157317 -237.54712510433 2461.34841737689 24 27 20
-870.524879501369 -239.558983507265 2458.66687728202 23 26 19
-888.486553632154 -240.738570268107 2459.62293550306 22 25 18
-878.255881395783 -239.50864263352 2470.78593767567 22 25 18
-866.039077322382 -238.113129209234 2482.57597951776 24 27 20
-867.445514201608 -237.8802278148 2489.46231019216 24 27 20
-874.710251679562 -238.145043142552 2494.28414906644 24 27 20
-883.942263223859 -238.575373375607 2498.44428671139 23 26 19
-862.811499736971 -236.434483950858 2513.09878981948 23 26 19
-855.353057155329 -235.455385755482 2522.94009556756 24 27 20
-866.533227412517 -236.051135419468 2526.40390832038 26 29 22
-872.814763634342 -236.23210879345 2531.55747329325 24 27 20
-878.118649199492 -236.330001358398 2537.05274403606 24 27 20
-875.536213083923 -235.765298927466 2545.16279577339 22 25 18
-870.962465526158 -235.035249651782 2553.89028908673 23 26 19
-878.23544258037 -235.298399125395 2558.72727875679 24 27 20
-881.557223552283 -235.230362500706 2564.85709927187 21 24 17
-873.971631375518 -234.252632572475 2574.46464652405 18 21 14
-870.328841238277 -233.606129610422 2582.76391246726 17 20 13
-882.573276338907 -234.282006409672 2586.0457027097 16 19 12
-890.858841645101 -234.627024844154 2590.60611188591 16 19 12
-891.183803229484 -234.311038125868 2597.64319726084 16 19 12
-872.539077034547 -232.426690587261 2610.44792618906 16 19 12
-928.781408565619 -236.733029899259 2600.50038319895 16 19 12
-948.139914286997 -237.983997396256 2601.88869998137 16 19 12
-948.504500589051 -237.667156636124 2608.99942350449 17 20 13
-946.854737087694 -237.185597904901 2616.68502774394 17 20 13
-970.302193800649 -238.76492933645 2617.03471874391 15 20 13
-961.320630447112 -259.857442496821 2314.99934347767 16 19 12
-922.895843425441 -256.00394346635 2338.54621643072 19 22 15
-955.081272341455 -258.521224353993 2333.5355676368 17 20 13
-951.933965157338 -257.853044487229 2342.75263571657 16 19 12
-925.768528378216 -255.120251928111 2361.01475516596 16 19 10
-934.068344624867 -255.48448174772 2365.59559714679 16 19 10
-970.247098378507 -258.341369453107 2359.36706767585 16 19 10
-963.214235455744 -257.328517775157 2370.00174659297 13 16 7
-960.00664001114 -256.659578606177 2379.1081619151 10 13 6
-890.210818772449 -250.063479150479 2413.46086086777 14 17 10
-861.759241740985 -247.163473508739 2431.79873920898 18 21 14
-868.047069724533 -247.355480631344 2436.96055779552 20 23 16
-864.655683449365 -246.688730049932 2445.72829013762 21 24 17
-841.846965038623 -244.306051816951 2461.59903803234 21 24 17
-859.759804921571 -245.527109461691 2462.4528099982 20 23 16
-887.436431409076 -247.604586337753 2459.85641114653 19 22 15
-880.119568465948 -246.59446656643 2469.96794073724 19 22 15
-866.923433886608 -245.07039405608 2482.11027508412 22 25 18
-857.588555654161 -243.889777840727 2492.79117736024 23 26 19
-862.885133407288 -243.994257181744 2498.27102692176 24 27 20
-869.16536610521 -244.184109379575 2503.41952442577 23 26 19
-861.72927337654 -243.175200703238 2513.31090027046 23 26 19
-865.061453025903 -243.107985669558 2519.45959877821 24 27 20
-875.273102406769 -243.63945418318 2523.27625517394 25 28 21
-872.708639829826 -243.058583780133 2531.42422557627 23 26 19
-861.259506198528 -241.708530405346 2542.49768313543 24 27 20
-866.545562947445 -241.812012345996 2547.95848259269 22 25 18
-872.824349966578 -242.000699985495 2553.10467143741 22 25 18
-872.185416587151 -241.591159567958 2560.51241547233 22 25 18
-884.413179717613 -242.291847218333 2563.75658601805 19 22 15
-889.720922462741 -242.394480034627 2569.25752532339 17 20 13
-873.184006917617 -240.619553215974 2581.67589411874 17 20 13
-885.434084202225 -241.319530096499 2584.96081395931 18 21 14
-872.813629310625 -239.886929488639 2596.01962130269 16 19 12
-898.038188679262 -241.694846415235 2595.33989302087 15 18 11
-911.339533291075 -242.478800135223 2598.41823210665 16 19 12
-926.665578227571 -243.432666552802 2600.93916480607 16 19 12
-958.03634066279 -245.748635736493 2598.72033321739 16 19 12
-985.469974138017 -247.722615348372 2597.82345330868 16 19 12
-995.906417318303 -248.248275309812 2602.05529321541 17 20 13
-922.967057003353 -241.710762972286 2630.60883264322 15 20 13
-1020.58332311993 -273.076743677591 2282.54737372865 27 29 24
-979.424365193992 -268.837031123652 2307.52614870817 18 21 14
-968.69657809593 -267.439653415035 2319.94002116413 24 27 20
-993.30408121974 -269.326120123655 2318.10179242886 20 23 16
-949.037817124156 -264.823318847259 2343.78968369571 19 22 15
-904.64187242307 -260.322475432733 2369.23847992976 19 22 13
-908.113874164058 -260.257317979355 2375.6437179824 19 22 13
-951.957709644177 -263.91501606843 2366.35244687135 17 20 11
-971.846184922827 -265.354609771447 2366.54395102933 15 18 9
-932.984588136992 -261.388607643613 2389.32128330714 14 17 10
-904.625397143005 -258.398809762648 2407.85607883785 10 13 6
-868.449363942046 -254.70189155866 2429.14632624238 15 18 11
-853.456307029989 -252.954259523558 2442.28112494569 19 22 15
-857.793583893685 -252.977184548888 2448.13647403758 20 23 16
-851.460009105437 -252.026647907872 2457.92322825175 21 24 17
-857.730700009541 -252.226186095271 2463.05126387559 19 22 15
-868.873152407915 -252.867379044752 2466.4315366086 18 21 14
-874.190630981035 -252.977490708431 2471.94863707131 18 21 14
-855.126877267413 -250.878024086077 2486.16218821825 19 22 15
-851.63118488592 -250.193075410891 2494.74355517885 20 23 16
-850.073165231355 -249.684866451218 2502.60540311454 20 23 16
-861.23267623368 -250.324528658095 2506.0180142992 20 23 16
-862.606674657822 -250.080963959443 2512.84789142624 20 23 16
-871.829950164869 -250.543219360766 2516.98286557481 20 23 16
-868.287102946818 -249.85812314289 2525.47755056828 20 23 16
-866.69489289597 -249.349730436876 2533.27657139193 14 17 10
-844.388224461923 -246.989971696904 2547.94898899411 19 22 15
-858.535023903549 -247.892556407264 2550.43179940291 18 21 14
-872.709758029163 -248.794394849707 2552.96621120406 19 22 15
-883.943816285552 -249.431365253619 2556.51623361026 20 23 16
-895.197891141814 -250.067774198507 2560.10374327742 18 21 14
-919.371109221888 -251.848113420825 2559.61299506029 19 22 15
-910.812587381054 -250.723017074703 2569.59026289582 18 21 14
-873.374340954742 -247.047215483123 2588.55271998177 17 20 13
-913.523376835365 -250.23382136265 2583.18271160167 16 19 12
-902.902238754709 -248.934150765409 2593.64854913125 15 18 11
-934.546988522086 -250.994305393779 2598.35596542052 16 19 12
-939.904528044184 -251.101013233756 2603.94726462584 16 19 12
-969.326989646226 -253.31535279199 2602.40581783897 16 19 12
-925.538967522388 -249.119387278882 2622.53661330595 16 19 12
-943.944941348366 -250.367571806211 2624.28868657152 15 20 13
-1040.59729158908 -282.46041745881 2274.23582700354 28 30 25
-976.324113862073 -275.467984245433 2316.749556071 20 23 16
-958.865779799792 -273.390765862528 2331.79427665831 20 23 16
-937.519387977576 -270.948606615234 2348.25759750069 19 22 15
-926.654522771989 -269.512385494213 2360.43103937943 19 22 13
-905.18713226783 -267.071726192085 2376.67137053362 19 22 13
-936.539110993608 -269.654621239077 2372.22342695083 17 20 11
-965.077175330535 -271.961743667917 2369.02751067094 16 19 10
-949.330299604532 -270.068863129444 2382.9343778325 15 18 11
-933.531378740211 -268.176661434955 2396.74532035894 10 13 6
-856.279400410122 -260.108105209937 2441.09189189331 17 20 13
-816.999436240492 -256.030975766495 2463.13318866692 20 23 16
-865.932470262543 -260.250052929664 2452.45805737091 22 25 18
-859.587230773893 -259.272651667245 2462.23143683784 21 24 17
-853.215787734702 -258.295621526288 2471.95651159676 20 23 16
-855.588395242331 -258.138346637619 2478.48276854878 19 22 15
-870.643476338175 -259.164455275879 2480.48362460392 19 22 15
-847.623154483875 -256.640061365229 2496.00781212433 19 22 15
-849.970072746959 -256.482619675561 2502.48687203548 20 23 16
-856.232810593884 -256.68892958866 2507.59824413634 21 24 17
-867.407734067144 -257.349648755364 2511.03236514431 21 24 17
-888.424991207149 -258.918799040319 2511.14614510291 20 23 16
-891.784971006452 -258.850898429435 2517.34617931939 19 22 15
-874.463581029049 -256.874717558403 2530.49707736321 14 17 10
-857.087460696669 -254.899574381787 2543.54750849925 18 21 14
-854.468039902394 -254.287537283859 2551.60326896922 20 23 16
-870.617486739978 -255.400536687394 2553.47593382733 20 23 16
-878.880151277276 -255.786658100332 2557.98186377835 21 24 17
-881.208040497477 -255.628052538215 2564.4257715696 20 23 16
-918.271901223134 -258.644134468829 2559.77774625203 21 24 17
-927.595836582404 -259.119400148736 2564.09343549866 17 20 13
-879.217769801661 -254.336403659207 2586.53333592201 15 18 11
-911.414613634013 -256.896857058545 2583.64549764611 16 19 12
-906.771121107849 -256.103554751875 2592.26323454032 18 21 14
-936.071804613867 -258.390164113467 2590.47658682543 17 20 13
-932.430412092856 -257.687273911382 2598.79538008011 17 20 13
-934.780087812834 -257.527936205462 2605.27957738528 16 19 12
-935.121076685309 -257.187740973826 2612.35392412136 16 19 12
-956.541044240416 -258.747514509758 2613.21067745332 16 19 12
-948.849609980273 -257.683711889178 2622.64944571557 14 19 12
-919.988730798167 -254.721754497534 2638.13837373301 13 18 14
-1045.37886418571 -290.443212259768 2272.1692086344 25 27 22
-1018.53095218752 -287.363865188067 2291.39565164838 21 24 17
-1010.70912589587 -286.167716781064 2302.74920369316 17 20 13
-970.326262651604 -281.772757904524 2327.08724476974 18 21 14
-968.1462278485 -281.14219363085 2335.95668765163 18 21 14
-943.885206609534 -278.348677235675 2353.51003662694 18 21 12
-953.171065745914 -278.846613670842 2357.74887918437 19 22 15
-950.928821442692 -278.216053468653 2366.50441048018 18 21 14
-945.781009501807 -277.303516493908 2376.34577201947 16 19 12
-984.012462100643 -280.618485838524 2369.52517626631 16 19 12
-979.841198718782 -279.799028782919 2379.01979813251 10 13 6
-957.274334935771 -277.195669675904 2395.40172418052 8 11 4
-863.446608249367 -267.299921200451 2445.7660590818 19 22 15
-857.111107193255 -266.295814068115 2455.5653803228 18 21 14
-854.638407114327 -265.667229988484 2463.89646719455 21 24 17
-842.414402795919 -264.100976941844 2475.72461150458 22 25 18
-846.720823524913 -264.128819231167 2481.52173181686 22 25 18
-867.623742663461 -265.749584089115 2481.40919751544 21 24 17
-885.640224879557 -267.088116708009 2482.4182593967 20 23 16
-875.312810393425 -265.709551289113 2493.4480334833 20 23 16
-862.988741035168 -264.144076199695 2505.0919060043 21 24 17
-869.267521980506 -264.357994776291 2510.23049619959 21 24 17
-893.239846340079 -266.256039686798 2509.33537547018 20 23 16
-889.717909559144 -265.533173157277 2517.87987690236 19 22 15
-872.385475091711 -263.501048650627 2531.02728555594 15 18 11
-854.998524205685 -261.469868770757 2544.07414451316 20 23 16
-864.225479078617 -261.963633711196 2548.20641009842 22 25 18
-858.63267372697 -261.05530070581 2557.22757920782 21 24 17
-864.899775704832 -261.268294759782 2562.34496767753 22 25 18
-872.165831984186 -261.574574633949 2567.1567627982 21 24 17
-906.249635504721 -264.401686062671 2563.42959887632 19 22 15
-988.592480086957 -271.357424076492 2552.04501104848 16 19 12
-910.300448200174 -263.636508357006 2583.7996909702 16 19 12
-915.632020643908 -263.754693173667 2589.33978061641 17 20 13
-885.991992561667 -260.609263093261 2605.56568527262 17 20 13
-906.297156225031 -262.126323559986 2606.50025939238 17 20 13
-923.640138137537 -263.363085924469 2608.41603527419 17 20 13
-930.98720198527 -263.667424307492 2613.37689767683 16 19 12
-957.429093889041 -265.741252181168 2612.74079712188 16 19 12
-964.820459960906 -266.044798999789 2617.78388167107 14 19 12
-909.784863557266 -260.576869174332 2640.87515035008 16 21 17
-1055.88214356496 -299.027278313378 2267.75573650258 26 28 23
-1011.85493299314 -294.119591025954 2294.00504857879 20 22 17
-1013.57652018689 -293.859450948911 2301.47969359832 16 18 13
-1006.67886890106 -292.728257599065 2312.39813496214 17 19 14
-969.08384627173 -288.501513562473 2335.46803497893 17 19 14
-1033.10340621061 -294.527964162889 2318.15745238405 17 19 14
-948.334625953768 -285.564427819896 2359.52340007235 19 21 16
-933.572968129793 -283.661414225623 2373.13051039572 15 17 12
-950.559217454025 -284.948041032195 2374.37519475202 13 16 9
-980.124217016111 -287.489574374432 2370.88270782741 13 16 9
-975.943825325502 -286.648804486835 2380.3664460478 12 15 8
-869.19464767488 -275.572497480311 2428.47090723366 6 9 2
-816.399294119651 -269.907683946441 2455.74109356586 12 15 8
-866.274756456682 -274.475837290098 2444.57998998265 17 20 13
-857.024392493249 -273.155651730033 2455.45830086452 20 23 16
-840.932009863057 -271.160584971102 2468.76044744232 19 22 15
-846.213086703795 -271.287820771859 2474.20494465088 20 23 16
-844.672533056315 -270.739845844659 2482.11137847095 21 24 17
-864.600989960173 -272.312503853488 2482.33640085995 21 24 17
-874.795619957267 -272.9204270842 2486.0982597068 20 23 16
-868.363968027901 -271.890047773995 2495.72864257441 20 23 16
-849.161780410217 -269.607991134724 2509.74249724399 18 21 14
-858.366805991325 -270.11915292605 2513.82919926341 16 19 12
-880.365021554466 -271.881159048846 2513.57384111085 17 20 13
-882.72783779955 -271.717410480406 2520.08353267601 18 21 14
-883.116625814956 -271.361164821738 2527.25061744952 23 26 19
-873.629538575354 -270.043148195196 2537.69289884963 22 25 18
-861.144338681182 -268.437225272882 2549.05258647841 23 26 19
-857.521828970657 -267.697179790964 2557.41728204385 23 26 19
-869.731270043626 -268.49501870741 2560.59803529454 21 24 17
-892.874787695178 -270.349099733978 2560.30660818687 19 22 15
-897.198198520357 -270.377212414058 2566.13489506949 18 21 14
-888.595189920296 -269.156863073557 2576.05898824733 15 18 11
-912.822580633628 -271.105019022353 2575.61740731979 14 17 10
-903.202593752526 -269.789057678749 2585.81464399679 17 20 13
-900.537404928156 -269.145334602255 2593.79626161085 16 19 12
-928.846082128432 -271.475334260866 2592.28638022013 13 16 9
-946.208265339984 -272.7492711077 2594.22629163317 13 16 9
-892.447492716766 -267.216143743837 2617.56649626773 15 18 11
-929.860251295094 -270.407286941904 2613.50751303175 16 19 12
-964.345808321135 -273.309206722931 2610.49675054833 16 19 12
-966.715916080282 -273.144484996745 2617.02014518561 16 19 12
-1044.32223154816 -304.910281886181 2280.67991719014 20 22 17
-1035.56806867234 -303.550034291511 2292.48287978776 18 20 15
-995.184514738741 -298.908861125672 2316.89369242644 17 19 14
-1048.63691765031 -304.011167510179 2303.69090170166 16 18 13
-993.741227767717 -297.88053597511 2333.58317033697 14 16 11
-975.217343376569 -295.528122612756 2348.86570599215 13 15 10
-959.195773315257 -293.01018135659 2370.91503068872 10 12 7
-954.998493877572 -292.148726608863 2380.37443388589 9 12 5
-958.512101024428 -292.081419233936 2386.85683838776 10 13 6
-932.992265158981 -289.0368129788 2404.28530525228 9 12 5
-855.065331629288 -280.635981701961 2441.14553121963 14 17 10
-889.481690084269 -283.744534920242 2435.83056159463 21 24 17
-873.455018402322 -281.694914977653 2449.26996788009 19 22 15
-861.268011282787 -280.042542786486 2461.19205463564 19 22 15
-844.16834813239 -277.89525976866 2474.80220276361 20 23 16
-860.1815061828 -279.117600760643 2476.39132637169 21 24 17
-852.784594565233 -277.961685597109 2486.39897139142 20 23 16
-849.270988267756 -277.202175408683 2494.97031787097 19 22 15
-853.574431829943 -277.234985167622 2500.75996456344 19 22 15
-851.995701496845 -276.67357901079 2508.60022355862 18 21 14
-857.277716569635 -276.804998935062 2514.04518809206 18 21 14
-865.514010462245 -277.232914621297 2518.49004919704 19 22 15
-878.685671536613 -278.154907459537 2521.28836533389 21 24 17
-894.840260561996 -279.372905296145 2523.13891235364 23 26 19
-889.311570066917 -278.415415182957 2532.29278295266 23 26 19
-872.886389710607 -276.371103924932 2544.99816698493 24 27 20
-865.316906939392 -275.216948301284 2554.68789307852 24 27 20
-869.61038773129 -275.248549089079 2560.46008422843 22 25 18
-898.71308430955 -277.748726672153 2558.24457373518 20 23 16
-878.204306429056 -275.311400033011 2572.01686312688 17 20 13
-866.587135318515 -273.763596497123 2582.84023257327 15 18 11
-865.888228787188 -273.301858219405 2590.15387630342 17 20 13
-881.137725758462 -274.418539145805 2592.48506156677 17 20 13
-920.386971905916 -277.901372677579 2587.48589327203 16 19 12
-922.728558930625 -277.734508852881 2593.95747725653 14 17 10
-897.031066726652 -274.807953677226 2608.9089019796 14 17 10
-897.325632019253 -274.44491214338 2615.90473766188 15 18 11
-907.650882989123 -275.067206220344 2619.90301490297 16 19 12
-966.241187243684 -280.416366469641 2609.73012032458 16 19 12
-992.766793128025 -282.612101920999 2609.21132483556 17 20 13
-1013.95141408419 -309.609049881362 2284.74314863399 24 26 21
-1016.44539879926 -308.965642413399 2300.09853221328 17 19 14
-998.047743459749 -306.550510042507 2315.63208703198 19 21 16
-1009.32151985126 -307.30039865127 2319.22120142333 17 19 14
-977.115297285196 -302.982192746268 2347.99999256033 13 15 10
-973.931982900375 -302.20116866207 2357.18477148992 12 14 9
-986.157992552641 -303.051753733246 2360.38013548794 10 12 7
-979.096095301359 -301.862454477659 2371.01447651848 12 15 8
-939.133886517674 -297.207786365893 2394.08897433437 12 15 8
-964.886339790225 -299.484521286975 2392.12385205818 10 13 6
-940.854260591759 -296.089022042249 2416.62419832619 21 24 17
-878.23257438268 -289.096947352198 2447.37111406103 18 21 14
-868.965008447683 -287.707182907121 2458.23871123124 18 21 14
-857.714562078814 -286.114359391043 2469.7500927613 18 21 14
-856.183305217232 -285.539565675717 2477.68169004372 19 22 15
-853.661952111529 -284.863135900744 2485.93717910702 19 22 15
-847.210573300473 -283.779902210352 2495.54767932342 18 21 14
-848.571188517176 -283.510497861834 2502.36071282494 17 20 13
-850.90720872113 -283.342636730858 2508.82235832295 18 21 14
-863.063063832179 -284.190897847615 2511.8898984435 21 24 17
-870.324158746441 -284.530472295237 2516.68205208047 21 24 17
-883.504306121092 -285.47919033735 2519.48793923343 22 25 18
-899.668437076654 -286.731877778651 2521.34560370055 23 26 19
-898.091299647525 -286.156330459833 2529.19304488409 23 26 19
-887.602382378848 -284.667537914082 2539.95893356467 25 28 21
-877.07682754535 -283.17933125847 2550.65776714234 25 28 21
-881.385008900804 -283.213443639157 2556.45573577386 22 25 18
-871.798695015898 -281.82753394437 2566.73593818099 19 22 15
-869.135881111687 -281.15211105676 2574.73145651236 17 20 13
-887.356354870395 -282.605474128323 2576.0806598093 16 19 12
-883.692369339056 -281.828609929902 2584.38065019706 17 20 13
-907.947857080717 -283.88887704927 2583.95703061419 17 20 13
-923.265331559772 -285.036451459038 2586.40445281775 16 19 12
-907.603133718202 -283.044329320815 2598.38159855216 19 22 15
-876.866973343478 -279.534698696228 2614.81634258043 18 21 14
-873.121931435904 -278.759536441334 2622.96623946875 15 18 11
-957.07673067284 -286.415633270483 2612.220413648 15 18 11
-957.421040217822 -286.043786054356 2619.31038612979 17 20 13
-1073.96890638242 -323.138834217245 2268.39062762184 19 21 16
-1005.92001390289 -315.211258472326 2304.2413465188 18 20 15
-993.247367955463 -313.363618392345 2317.44427972654 21 23 18
-1002.59700219405 -313.92555658059 2321.7811696308 19 21 16
-987.944146169808 -311.868739497247 2335.63463826376 15 17 12
-975.165914152754 -310.021911687704 2348.64263094003 14 16 11
-978.71913695808 -309.95501889829 2355.19777118138 13 15 10
-984.201214899785 -310.09705597578 2361.00749498005 11 13 8
-988.722043896821 -310.134044641933 2367.19620065407 14 17 10
-979.704884042741 -308.706140590197 2378.53580962238 13 16 9
-965.811653379028 -306.755827439985 2391.63903616532 11 14 7
-987.751898133287 -308.674458897877 2391.22995856805 13 16 9
-941.768429570267 -303.275018679765 2416.14453984741 20 23 16
-865.51105844412 -294.638285113194 2451.91673751198 18 21 14
-854.273840937472 -293.00541921088 2463.46449092597 17 20 13
-845.922024731285 -291.686355007093 2473.8802583408 18 21 14
-855.110472208917 -292.247258179049 2477.92100767379 19 22 15
-861.381560919114 -292.494476191115 2483.03543659966 19 22 15
-860.808405218673 -292.01079578616 2490.58695748407 17 20 13
-853.364407007733 -290.796648098513 2500.52551343579 18 21 14
-847.854209785767 -289.791461902458 2509.72824400269 19 22 15
-860.008132587179 -290.663940955102 2512.78444316212 20 23 16
-873.168759503147 -291.640013149925 2515.54620266017 20 23 16
-885.369690565039 -292.511282451138 2518.68922237377 20 23 16
-890.687702127401 -292.652350234332 2524.19799393826 22 25 18
-895.023021835819 -292.689034795711 2530.0451014363 22 25 18
-890.458483934535 -291.787991399322 2538.84095454946 24 27 20
-878.940632603981 -290.158349116938 2549.87160181703 25 28 21
-866.391946166389 -288.425314299114 2561.15275137125 21 24 17
-860.752362825099 -287.421609748768 2570.11707172741 18 21 14
-876.962637100592 -288.707664614003 2572.04956787448 16 19 12
-898.183838100837 -290.513250415212 2572.46683232704 16 19 12
-935.399968744466 -293.981911030955 2567.96275911115 16 19 12
-923.796265362426 -292.353736129901 2578.8355717845 17 20 13
-914.152468745302 -290.934180420561 2589.02017104448 16 19 12
-908.477771216156 -289.930980757134 2597.91925393693 19 22 15
-874.724194954704 -286.018982579675 2615.27032296357 18 21 14
-885.018740972484 -286.679723057074 2619.20006231003 15 18 11
-928.480678088221 -290.767195233382 2613.30727116767 15 18 11
-948.911263720234 -292.46463711655 2614.41827461777 15 18 11
-940.178903838772 -291.151108947509 2624.13248807306 17 20 13
-918.306375334474 -288.489172894663 2637.57893570233 4 9 3
-1072.07918736655 -330.486640098547 2269.05035089744 23 25 20
-1029.84414070795 -325.260607660474 2294.46140926107 20 22 17
-992.276817429607 -320.573528434227 2317.72068599896 19 21 16
-964.195491834364 -316.962413257288 2336.95336993262 18 20 15
-972.54792325649 -317.433262481012 2341.59891808887 17 19 14
-967.440558587243 -316.400439680544 2351.55033778877 16 18 13
-981.581791293603 -317.514628140857 2353.95927621569 15 17 12
-989.961510731938 -317.983911555738 2358.65548287777 10 12 7
-998.353971498684 -318.452657282986 2363.37478061446 11 14 7
-983.538907066321 -316.346482811969 2376.94476124413 11 14 7
-969.643284581245 -314.348040872482 2390.05806214082 11 14 7
-950.85026843759 -311.814062049624 2404.90021605548 15 18 11
-899.467610920448 -305.248456141861 2439.27010228516 18 21 14
-836.649645994143 -297.896060107848 2469.76387773205 18 21 14
-839.972090693377 -297.830851835932 2475.89406841687 18 21 14
-857.942058793225 -299.37190344205 2476.75668060284 20 23 16
-875.950624023559 -300.912109468749 2477.69002998411 19 22 15
-871.477691206766 -299.989176021795 2486.66094434177 18 21 14
-859.140894670207 -298.21045184662 2498.34503354776 20 23 16
-843.817094444 -296.111280837855 2510.9772502678 20 23 16
-852.035454961964 -296.580181261967 2515.37680364815 20 23 16
-864.20363180294 -297.476421490908 2518.45207309319 20 23 16
-875.409139741383 -298.265117061619 2521.90395928279 21 24 17
-868.871315462632 -297.12920116011 2531.37131319287 22 25 18
-867.248451422172 -296.528167906402 2539.14181472437 22 25 18
-872.53828788722 -296.67497592645 2544.59653669609 25 28 21
-868.916195098989 -295.860327913063 2552.98493786714 26 29 22
-852.379949207886 -293.657886547273 2565.53310098169 21 24 17
-862.610916297206 -294.338824299247 2569.33983334483 18 21 14
-918.610009239502 -299.929043517809 2558.5588403167 15 18 11
-931.923103810492 -300.928176455235 2561.59408075789 17 20 13
-910.700140103196 -297.805111046954 2582.71927417624 17 20 13
-908.032044212687 -297.097784083553 2590.71467220552 16 19 12
-903.346305313406 -296.1775896621 2599.29286947573 18 21 14
-909.664976800227 -296.430149924444 2604.49320526959 17 20 13
-909.969511218449 -296.043295118718 2611.5145371469 15 18 11
-929.358855311898 -297.680630777555 2612.84338220296 15 18 11
-935.708989638302 -297.932757290641 2618.10171432915 15 18 11
-934.006760866636 -297.332936900999 2625.72638916921 16 19 12
-991.043713687198 -329.180411694892 2293.82980454153 22 24 19
-1028.69771918533 -332.066071426398 2302.99618799049 19 21 16
-955.528651078481 -323.191990959552 2340.28961002937 16 18 13
-940.796622901206 -321.035015935834 2354.02758626693 16 18 13
-956.82076500844 -322.3999252825 2355.59403822491 16 18 13
-968.058165035453 -323.213798820666 2359.09751247081 11 13 8
-969.663534085172 -322.92700320935 2366.36592278903 9 11 6
-983.828228187779 -324.069452121187 2368.80951248052 12 15 8
-978.664241127255 -323.01239959212 2378.66458392385 12 15 8
-959.908868543613 -320.416520285119 2393.59458599443 11 14 7
-943.034672184572 -318.041365455645 2407.68793452626 15 18 11
-913.473656439558 -314.238752096048 2426.37158553395 22 25 18
-874.094240476149 -309.339051692012 2448.47733689481 19 22 15
-839.472474530087 -304.990438082385 2468.59254503081 18 21 14
-857.431254158339 -306.572244499093 2469.42181949786 19 22 15
-875.428386545097 -308.153062411739 2470.32192894009 20 23 16
-869.009489308929 -306.989317684597 2480.01638006962 19 22 15
-862.564688747875 -305.825968161099 2489.66256717481 18 21 14
-855.113071438069 -304.553295235076 2499.60470999755 20 23 16
-841.740453362575 -302.62302154322 2511.54461236035 20 23 16
-846.023340756708 -302.666861656198 2517.29363969657 20 23 16
-848.339415536601 -302.491379242077 2523.72089380724 21 24 17
-861.497320646065 -303.52107727765 2526.46152097804 23 26 19
-863.821750420739 -303.345140839903 2532.90427798099 22 25 18
-865.154612655916 -303.059553576889 2539.67163948277 23 26 19
-864.502582697488 -302.554977256383 2547.08387583692 26 29 22
-851.947201727348 -300.736698108738 2558.37834770631 26 29 22
-863.166389140231 -301.546120517917 2561.84966418539 21 24 17
-892.291431673742 -304.32487146794 2559.59147904792 19 22 15
-906.559479130909 -305.461035675575 2562.22654009012 16 19 12
-915.874148440277 -306.049775208423 2566.49156762922 17 20 13
-911.239403966389 -305.107287999394 2575.17025685389 18 21 14
-905.584744050965 -304.055782976277 2584.12122326046 16 19 12
-898.906661495684 -302.895565914893 2593.33742027492 16 19 12
-923.244800711801 -305.12336972239 2593.0154299731 15 18 11
-926.581022822755 -305.055929284909 2599.17163108799 15 18 11
-936.944545870678 -305.753105678898 2603.21777895103 16 19 12
-944.310091753818 -306.122252952507 2608.19364801858 16 19 12
-941.620670891079 -305.399698694428 2616.15440470928 15 18 11
-927.829846695969 -303.476886739916 2627.32290591538 14 17 10
-1052.98862646338 -343.326027606494 2276.60686450324 26 28 23
-1017.39677337608 -338.633985374823 2299.27128475069 22 24 19
-981.698836134462 -333.943529497592 2321.73961561466 19 21 16
-956.459222823383 -330.494906028742 2339.80495937127 17 19 14
-959.031452686231 -330.316463831104 2346.70472366634 15 17 12
-935.599686568085 -327.094756025292 2363.79668661299 15 17 12
-957.417399771283 -329.170013457039 2363.11515041069 14 16 11
-970.593461588421 -330.230221393574 2365.87999610002 13 15 10
-977.993566536545 -330.613670217035 2370.91512480519 13 16 9
-982.499105728069 -330.658936103371 2377.07322060508 10 13 6
-968.587138780282 -328.564669695359 2390.18527750949 11 14 7
-959.48194699969 -327.033699683247 2401.39397384806 12 15 8
-919.237207832152 -321.902154623672 2424.09275807881 17 20 13
-898.342971812651 -319.022763170598 2439.40385729573 20 23 16
-887.129895918565 -317.269100320916 2451.03284198539 20 23 16
-884.661103801095 -316.528201220216 2459.40489182238 19 22 15
-873.381777808346 -314.775473113632 2470.91124516832 19 22 15
-865.977079539701 -313.472846744654 2480.94919253711 19 22 15
-835.028993900626 -309.473436981176 2499.25574943272 20 23 16
-848.138765595283 -310.531716223673 2501.89925550757 18 21 14
-861.273971261563 -311.589397154175 2504.58971921559 18 21 14
-859.679666664876 -310.961760784076 2512.42125113396 18 21 14
-855.117456290373 -309.997315179051 2521.23994713959 19 22 15
-859.41026451257 -310.043459790193 2527.00652767472 20 23 16
-863.705325198727 -310.08951849024 2532.77727673679 22 25 18
-870.96936478062 -310.472015340312 2537.56193847611 26 29 22
-858.441082559966 -308.610633298195 2548.91921183911 28 31 24
-858.759356663995 -308.207897291925 2555.97058931635 23 26 19
-882.893879218262 -310.496418639881 2555.25635606325 16 19 12
-914.040205440978 -313.568381951626 2552.39740189672 15 18 11
-904.452628158422 -312.043747089521 2562.7169982893 15 18 11
-889.848453603267 -309.959586694005 2574.5534244305 16 19 12
-896.152319751298 -310.22892717687 2579.72148434003 17 20 13
-895.469773278077 -309.714019197672 2587.08070221236 17 20 13
-907.78201497752 -310.654928508173 2590.40750024019 17 20 13
-901.084846272115 -309.468585175706 2599.59645107151 15 18 11
-914.421359124568 -310.52103267681 2602.65872917772 17 20 13
-954.898766422327 -314.594253738331 2597.62603165086 17 20 13
-944.18765438405 -312.960326316211 2608.02690880439 14 17 10
-940.488169118829 -312.110110750458 2616.2831627832 16 19 12
-939.794665712934 -311.595778298924 2623.62256003051 16 19 12
-932.73849730673 -336.78459192404 2317.55159021059 25 27 22
-996.544190260133 -343.997044925697 2299.49050690833 19 21 16
-1017.39363095169 -346.009822341229 2299.16223374155 19 21 16
-1001.82923200085 -343.63443701354 2313.54980837813 20 22 17
-968.91878096631 -339.181956265965 2334.72887220505 18 20 15
-977.278635027002 -339.693043235154 2339.3754673575 15 17 12
-970.237390189503 -338.357576676782 2350.0912433081 15 17 12
-972.813572960303 -338.175896619261 2356.99925141437 15 17 12
-977.318993227017 -338.224559633585 2363.15560265734 14 16 11
-983.760674280231 -338.503340025652 2368.57479475108 15 18 11
-982.461942183846 -337.859507559874 2376.95430461864 11 14 7
-979.210232430841 -336.985169668775 2386.0413534475 10 13 6
-940.980478128542 -331.962555307547 2408.183201374 10 13 6
-910.418404155291 -327.863447566388 2427.23018960002 16 19 12
-904.107726355022 -326.645380184441 2437.1395077224 20 23 16
-904.595652322312 -326.233592405437 2444.50562794813 20 23 16
-882.6214719694 -323.173691601983 2460.00009930037 19 22 15
-860.579862012905 -320.114948284639 2475.37020724485 20 23 16
-849.238245338099 -318.323195258516 2486.77373229881 21 24 17
-857.459924859008 -318.833063701164 2491.16706997711 21 24 17
-854.898645992494 -318.077193815923 2499.37352186377 18 21 14
-868.04512468278 -319.161476245823 2502.07621483716 18 21 14
-876.296776130212 -319.670278717617 2506.52499690949 19 22 15
-872.737657420464 -318.799187842275 2515.04568820842 20 23 16
-892.236651223787 -320.16000348947 2523.00425663813 24 27 20
-891.624723946118 -319.633677701395 2530.49678965596 27 30 23
-885.059443293944 -318.418228518281 2539.93705939542 27 30 23
-879.459776671897 -317.318147716662 2549.00377625684 22 25 18
-890.717898343107 -318.169945785648 2552.53395667022 15 18 11
-909.950946805573 -319.939433149459 2553.53560475865 14 17 10
-905.330652365886 -318.954230022002 2562.25371581293 13 16 9
-895.704923791915 -317.395718945877 2572.51333232617 16 19 12
-882.052781922663 -315.379254488466 2583.96505889485 18 21 14
-891.343969506857 -316.000949680492 2588.17698879623 17 20 13
-920.994722692061 -318.504253195766 2593.31341636675 14 17 10
-956.432390579258 -322.104107805168 2589.72857187066 16 19 12
-942.726189155849 -320.088818888884 2601.08051955906 15 18 11
-959.152942454644 -321.510681594265 2603.37031977218 15 18 11
-945.397351374639 -319.496571698483 2614.63107632649 17 20 13
-1013.55571876952 -352.906929072801 2300.60400821309 21 23 18
-1015.25444907576 -352.604340063416 2308.04938054726 17 19 14
-996.764475718199 -349.821652767376 2323.52367728158 17 19 14
-959.929010764101 -344.796383646758 2346.11587641229 16 18 13
-988.515912316118 -347.7997572797 2342.80040314605 15 17 12
-992.079969424518 -347.733090007088 2349.37540182715 16 18 13
-986.947128975882 -346.604051107441 2359.30940539525 18 20 15
-975.985486772421 -344.767356677595 2371.42528757031 14 17 10
-968.496755468107 -342.863930005221 2389.94905772205 10 13 6
-967.151562762798 -342.207119487114 2398.24702084033 9 12 5
-893.811037600998 -332.827689832406 2433.26227204934 22 25 18
-890.395701310585 -331.937042010804 2442.05328660457 19 22 15
-880.134562862068 -330.221622415286 2453.30675784892 19 22 15
-858.117956185501 -327.093152163393 2468.74381975096 19 22 15
-855.591933570552 -326.321349780907 2477.01940130446 19 22 15
-874.591627212954 -328.139972895587 2477.57759544025 20 23 16
-880.886361951909 -328.42714871847 2482.72349755917 21 24 17
-874.425673727859 -327.184100495485 2492.36443144878 17 20 13
-870.887969165698 -326.29437804141 2500.93011017832 17 20 13
-878.159557681744 -326.698856506161 2505.72254968865 20 23 16
-888.398057632218 -327.45596038036 2509.52073582949 22 25 18
-883.850629822589 -326.448617631091 2518.37951974768 24 27 20
-896.081725768139 -327.44030498214 2521.54180591366 26 29 22
-881.619163182835 -325.257611925968 2533.66831313362 27 30 23
-880.981070971559 -324.721139015126 2541.11577552644 25 28 21
-881.324355693597 -324.302269416308 2548.2180038012 21 24 17
-871.725994110907 -322.708806488805 2558.53846396182 15 18 11
-878.008274701573 -322.995007931268 2563.6617536497 14 17 10
-899.237142510746 -325.042175121829 2564.02047010658 14 17 10
-889.598009732445 -323.449493142516 2574.265709762 16 19 12
-883.919111934837 -322.326838535317 2583.19349447787 19 22 15
-873.217941118271 -320.618104645969 2593.63515124284 18 21 14
-906.528201063363 -324.071605123274 2590.41173054974 16 19 12
-919.867965123596 -325.177961870325 2593.46377656433 14 17 10
-958.324725002373 -329.215353267266 2588.95561784033 16 19 12
-945.619247337357 -327.272203011595 2600.01108168934 14 17 10
-944.946763419824 -326.73628924713 2607.39562756476 15 18 11
-929.151266740047 -324.443102236187 2619.21814904874 16 19 12
-1134.45630759552 -376.585348472362 2234.55313994499 26 28 23
-1071.21701319822 -368.058643068227 2268.8552563324 23 25 20
-1026.01475937479 -361.830162911964 2295.4559437759 19 21 16
-983.561121771361 -355.966034945539 2320.65686243989 15 17 12
-952.520348969961 -351.552954269121 2341.03265392655 16 18 13
-965.672342905915 -352.695109357434 2343.7285911482 17 19 14
-989.454094216964 -355.164329393601 2342.3112073686 16 18 13
-992.05276321273 -354.97709124575 2349.26173893153 15 17 12
-977.249271674395 -352.617465809105 2362.92922230987 17 19 14
-946.909850859551 -348.328277425279 2382.44287154902 11 14 7
-916.479946580574 -344.040548711011 2401.78916201334 12 15 8
-971.362078678364 -350.366191450745 2388.73271700375 10 13 6
-989.452988257403 -352.107413445007 2389.75756711954 6 9 2
-927.790845957348 -343.963354970773 2420.50038138456 12 15 8
-822.483857272258 -329.973580212906 2474.24823177829 17 20 13
-868.766589720191 -335.209986742972 2464.73818682228 17 20 13
-878.968356080595 -335.987823115274 2468.46207425142 17 20 13
-877.433252385718 -335.319951454358 2476.41458702142 18 21 14
-895.501308273095 -337.059936942867 2477.3972726337 19 22 15
-881.198303931424 -334.827127501767 2489.83230759751 17 20 13
-865.865179579022 -332.474518015109 2502.52358988313 18 21 14
-867.222446449288 -332.168223116143 2509.34155893742 21 24 17
-874.489855390249 -332.583564579178 2514.12304471334 23 26 19
-892.627016023399 -334.321458646503 2515.23395972318 25 28 21
-843.581631563872 -327.882290650155 2539.05938658799 28 31 24
-866.657122015837 -330.22123618304 2538.49703601118 27 30 23
-867.97939128553 -329.915121682007 2545.25058385174 22 25 18
-864.334012248319 -329.008127574954 2553.62342355553 19 22 15
-860.67026173695 -328.101411324727 2561.9623912135 16 19 12
-867.933017586029 -328.516217310179 2566.7354801351 15 18 11
-893.138705381373 -331.092452663064 2565.78999392393 16 19 12
-909.422858367861 -332.586860780754 2567.7957102339 17 20 13
-892.77811495059 -330.119576009301 2580.22397066544 19 22 15
-890.083756103033 -329.333469705844 2588.19425270803 19 22 15
-902.394710522534 -330.347282114567 2591.49726392762 18 21 14
-953.83483960034 -336.039074210962 2582.87546129339 16 19 12
-940.138060139853 -333.933031068207 2594.2720294116 16 19 12
-965.60340421676 -336.504106321439 2593.80565016482 15 18 11
-947.842584776399 -333.919463199828 2606.33133488004 15 18 11
-937.082477520806 -332.174973414371 2616.67534935235 17 20 13
-1159.37032981671 -387.500762542518 2224.21805307806 26 28 23
-1015.46124128126 -367.853113317702 2299.61397629645 16 18 13
-972.014934445953 -361.73788935399 2325.18000881335 15 17 12
-961.142490557424 -359.821221707413 2337.48449683073 17 19 14
-965.640263407944 -359.879343229682 2343.6244429517 18 20 15
-1000.71562784655 -363.325116174983 2345.76449416663 14 16 11
-995.585415229587 -362.148125066563 2355.71775104353 14 16 11
-933.30534617683 -353.696065061381 2387.53150731962 9 12 5
-950.351140880746 -355.356309563734 2388.77335170308 11 14 7
-982.966035305625 -358.987734067303 2384.21752158498 10 13 6
-998.159964600629 -360.399220126027 2386.35785360283 6 9 2
-972.501284486522 -356.634912673002 2403.74739003022 11 14 7
-855.143098804209 -341.292580967501 2454.77234235416 19 22 15
-840.919345955085 -339.011084146454 2467.36777658202 18 21 14
-865.74019180022 -341.655686549578 2465.69343223584 18 21 14
-883.767517594749 -343.437282772131 2466.58869455468 18 21 14
-884.195604279348 -343.002276647483 2473.85174168605 18 21 14
-873.823126813671 -341.213699717325 2484.92193591134 18 21 14
-879.132993213806 -341.394158463117 2490.40388133939 18 21 14
-876.577945000923 -340.590234377899 2498.6362434518 18 21 14
-863.172053082497 -338.43375183859 2510.58297495916 21 24 17
-856.626126017916 -337.138657011368 2520.08279060917 23 26 19
-832.277506601574 -333.631241971431 2535.57441151675 27 30 23
-858.289375263018 -336.39337385188 2533.94043223383 28 31 24
-845.743463519051 -334.361849089027 2545.31644722069 23 26 19
-855.95962399404 -335.156681203233 2549.06220131272 20 23 16
-886.048542740966 -338.407775922128 2546.31991705557 19 22 15
-902.290240179712 -339.938142807716 2548.2367363124 16 19 12
-861.831632767797 -334.469474914749 2568.52825432693 16 19 12
-887.035774452427 -337.104699177699 2567.56218531845 16 19 12
-903.31534997606 -338.634260477684 2569.54891153172 17 20 13
-906.638667933546 -338.568096388158 2575.68099573222 17 20 13
-889.952132169268 -336.048306738798 2588.04818175461 18 21 14
-909.277505387728 -337.945094389773 2589.18134999165 18 21 14
-947.701955866101 -342.170977442044 2584.55658070559 17 20 13
-940.016334834581 -340.755527973482 2594.11178822959 17 20 13
-932.302367626489 -339.340739152831 2603.61415905517 14 17 10
-951.746638402662 -341.235520080813 2604.96660502896 15 18 11
-948.043149551663 -340.311432255873 2613.23771064121 16 19 12
-993.384667408709 -372.297578139906 2308.43380659943 21 23 18
-1008.50177299837 -373.745668578443 2310.42183811101 17 19 14
-984.202068039761 -370.022793420425 2328.18351859422 18 20 15
-1027.26677921552 -375.126152421518 2319.13935428643 19 21 16
-1020.27171141175 -373.672521862358 2329.97609688427 12 14 9
-1029.67014121842 -374.36168779808 2334.36447064352 9 11 6
-974.899889744366 -366.163665904387 2371.45405369215 10 13 6
-974.546683264714 -365.593342238834 2379.43615673825 12 15 8
-998.462260003229 -368.171019449692 2378.23178268389 11 14 7
-1006.87211410767 -368.732890507712 2382.95556941709 10 13 6
-921.350644551202 -356.640611082211 2430.22296596688 19 22 15
-879.870059911852 -350.786352274515 2452.98093986644 18 21 14
-893.994899568273 -352.10515133236 2455.29769349163 21 24 17
-901.29521387572 -352.542613742814 2460.13304599341 20 23 16
-870.37774663989 -348.075243021662 2478.63714575349 17 20 13
-861.944137702803 -346.501267408862 2488.97863446328 21 24 17
-870.186224081701 -347.064722630029 2493.39338938936 19 20 12
-872.536682720829 -346.873704070594 2499.88855373096 20 21 13
-866.015994275413 -345.551659708021 2509.44289209786 24 25 17
-844.669424836235 -342.345666816345 2524.02078797055 26 27 19
-849.932516232681 -342.532028198644 2529.41442635196 27 28 20
-856.189653271114 -342.843819004844 2534.48377720085 27 28 20
-877.311733051086 -345.038533736136 2534.6022245796 24 25 17
-877.652232078001 -344.596298193667 2541.70635608893 20 21 13
-894.867452989689 -346.287701567549 2543.24993176065 19 20 12
-875.326238006318 -343.335657547571 2556.84173276566 17 18 10
-880.617083177349 -343.521069892919 2562.28720503501 19 20 12
-897.876362663153 -345.211448249087 2563.91262494086 18 21 12
-903.192643531272 -345.396289919173 2569.40454546189 18 21 12
-904.515575121399 -345.079622089548 2576.16298928443 18 21 12
-899.82834839432 -344.011014630388 2584.7830811205 18 21 12
-872.07187328525 -340.060501304915 2600.48518567888 19 22 13
-887.380994703679 -341.499186913888 2602.82970176205 18 21 14
-918.796032244082 -344.941745368102 2600.35351084001 18 21 14
-916.07982284165 -344.12473187213 2608.29340442403 14 17 10
-940.543904318291 -346.688936437187 2608.10238627887 15 18 11
-944.891224179691 -346.748463595401 2613.96469499077 16 19 12
-996.950835637002 -381.702429189618 2282.55519415905 19 21 16
-1006.30058669095 -382.411201347373 2286.84814281512 23 25 20
-1021.41711179122 -383.892211091084 2288.82520716676 18 20 15
-1001.04833323582 -380.606386299315 2305.22544578222 20 22 17
-998.877304112399 -379.768254443284 2314.17387173006 19 21 16
-1030.37648000868 -383.436746482149 2309.67018849386 17 19 14
-1004.12482535064 -379.379089801509 2328.17215233191 13 15 10
-1024.11517930541 -381.501008136913 2328.34584043075 12 14 9
-1020.95687633912 -380.533202353543 2337.63278913987 11 13 8
-999.39507015553 -377.120595035642 2353.99175806602 10 12 7
-994.237485599513 -375.895949868082 2363.90900354727 11 14 7
-998.758710839859 -375.957660539719 2370.09049930887 14 17 10
-997.452860259769 -375.247469511675 2378.47737666079 14 17 10
-997.106724177382 -374.665862460374 2386.47537236546 12 15 8
-885.189252860457 -358.850888182528 2443.41882055915 20 23 16
-878.804009471577 -357.500936474592 2453.2306593954 19 22 15
-892.92967345533 -358.849183308501 2455.54057778109 21 24 17
-883.581520168051 -357.113941591384 2466.36385247952 21 24 17
-866.355311352427 -354.351811501458 2479.92615764378 18 21 14
-856.9291520228 -352.617735037696 2490.6056146007 22 25 18
-856.317281707867 -352.039528713534 2498.11385396236 20 21 13
-857.663415536748 -351.71809385145 2504.91640447746 21 22 14
-858.018498671953 -351.268180379027 2512.04966773586 25 26 18
-858.365550730649 -350.818362540941 2519.16813162196 26 27 19
-850.798496214732 -349.342499247887 2528.95906804777 28 29 21
-856.066877121572 -349.534206143451 2534.36133153721 26 27 19
-865.303725112828 -350.238591153182 2538.44795019791 21 22 14
-880.508662783713 -351.711811967849 2540.58996367262 20 21 13
-857.993859884469 -348.313980111029 2555.19175470164 19 20 12
-856.300712416494 -347.608401027723 2562.86493559903 18 19 11
-873.518853657893 -349.337350024331 2564.40259152308 20 21 13
-888.777912620045 -350.809307816747 2566.64502797529 17 20 11
-893.08355082133 -350.87204940072 2572.42970987349 17 20 11
-890.392212485346 -350.038372175899 2580.42035701752 18 21 12
-881.678212197463 -348.436922615384 2590.25492118763 19 22 13
-867.920923828467 -346.196168768775 2601.58071276747 19 22 13
-906.313924651056 -350.610682847258 2596.84137647857 19 22 13
-915.650947244928 -351.313138252961 2601.11331900282 13 16 7
-912.927868526443 -350.480516626432 2609.04476811533 19 22 13
-932.356119811344 -352.46169869376 2610.34176866832 13 16 7
-956.869754309381 -355.081624688218 2610.22513094121 14 17 8
-991.92985338301 -387.766219234149 2292.64668820909 24 26 21
-989.768879851682 -386.912781845975 2301.61821092154 20 22 17
-1027.92148669674 -391.581348065916 2294.24554813427 22 24 19
-1022.89828940704 -390.332294381096 2304.41729644399 17 19 14
-991.855715281009 -385.534686049695 2324.90541059849 15 17 12
-978.073527653313 -383.103754684597 2338.3579018655 13 15 10
-976.79489832287 -382.381449426995 2346.79798281751 14 16 11
-988.069619104495 -383.366590241588 2350.31859302401 15 17 12
-990.65314685395 -383.169132789196 2357.24435023804 15 17 12
-1004.86472708825 -384.547082641087 2359.70335193466 14 17 10
-996.78185771982 -382.904701018256 2370.71048575817 14 17 10
-987.69563170107 -381.131241588454 2382.02698530609 13 16 9
-986.360557853145 -380.408162688608 2390.36399140054 11 14 7
