ply
format ascii 1.0
comment KinectMotionCapture
element vertex 751
property float x
property float y
property float z
property uchar red
property uchar green
property uchar blue
end_header
-764.22256767843 477.353955566255 2023.28523000303 223 229 229
-764.091429056422 481.465219554996 2043.90891905993 229 233 234
-761.858512169233 484.360069669387 2058.80489099255 238 238 240
-762.211989180274 488.883853150629 2081.41724733033 246 244 247
-835.060545350234 558.033114158919 2415.35496514908 251 249 250
-833.239932180882 561.988216882932 2435.51441920735 243 243 243
-828.817911189873 564.31396062528 2447.96291186936 234 234 232
-796.37440820883 418.760038996955 1755.45667230789 88 92 93
-820.101311028374 434.2869734141 1830.13800876254 111 116 112
-817.805068999872 436.518383196677 1841.80700844711 121 126 120
-815.45755604692 438.751260757788 1853.49474753022 115 117 112
-809.284577762357 438.996916925701 1855.75615751396 122 125 118
-806.110431734207 440.833949075104 1865.58126379374 129 131 126
-801.405956984301 441.875823343905 1871.63566647667 127 129 126
-796.311188129267 442.718696499776 1876.7503064761 122 126 125
-791.935414626147 443.96029788018 1883.76715992408 130 134 137
-787.898532370755 445.401731928977 1891.742261081 129 134 137
-783.468929968724 446.64442464253 1898.7787549323 142 147 150
-779.013623543117 447.887480528999 1905.82436111739 143 147 150
-777.388597871963 450.728618748369 1920.49541069396 160 165 168
-774.27942200503 452.772661565486 1931.37908639713 158 163 166
-772.531681662551 455.61746417448 1946.09499930632 145 150 153
-769.320264352495 457.664371256489 1957.01603927876 199 204 207
-767.103056652406 460.312744687549 1970.82089587172 202 207 210
-765.168811216016 463.163228297488 1985.60500172621 207 212 215
-763.509863795084 466.216002512999 2001.37115516494 224 229 232
-764.152970598161 470.673454594463 2023.87301900709 231 236 239
-763.006196742506 474.132398563607 2041.61683918654 228 233 236
-760.441837107403 476.791407484957 2055.54888588457 220 224 225
-758.810451799558 480.05439502657 2072.38718783585 201 205 206
-763.351079917405 487.134178243335 2107.53704319446 242 246 247
-826.619277794852 545.083862428068 2390.77901255967 250 251 253
-830.864858542262 552.811897612849 2429.28515867728 250 251 253
-826.039103569493 560.028352680679 2466.78192863406 242 244 241
-819.340273131511 431.017454919227 1846.16744710713 52 58 56
-819.63666801157 434.596496187311 1864.46252765791 114 120 116
-815.318904502556 435.824336939993 1871.45726563517 117 122 118
-812.474180594211 437.837870184503 1882.24229970921 114 119 115
-807.72268597897 438.870849034319 1888.31336960671 113 117 116
-804.059334313505 440.493464571047 1897.23323404786 112 116 117
-799.258955466538 441.527176544623 1903.32186643267 118 121 126
-794.802511052538 442.757890118076 1910.36695484445 123 127 130
-789.596624211084 443.595577635019 1915.52157691658 128 133 136
-784.73476961897 444.630189685892 1921.63286796582 130 136 136
-782.350071735101 447.044056151747 1934.4143298701 145 151 151
-778.846313285781 448.868257340051 1944.35797429915 143 149 149
-776.356860844942 451.285072595817 1957.17797426414 143 149 149
-773.112760606795 453.308913955759 1968.10889452093 161 167 167
-770.862554869237 455.926167095771 1981.92364676972 179 185 185
-766.83079496125 457.557940020093 1990.97805870027 180 186 186
-763.787769136923 459.783280540795 2002.91793504742 186 192 192
-763.744091497287 463.789100390921 2023.50214462149 201 207 207
-763.60337071592 467.79823641894 2044.12186382428 207 213 213
-761.696501142635 470.821051958323 2059.97558195632 195 201 199
-759.05569677139 473.450056723988 2073.93314003637 178 184 182
-759.969470042054 478.259859252967 2098.49661277017 247 253 253
-766.962677822481 486.838576911717 2141.40140933934 250 254 255
-805.989273097564 519.888165943368 2304.64316412432 251 255 255
-815.319645817622 530.482182644549 2357.51741802629 248 252 255
-821.541091716196 539.298573270516 2401.78736801783 243 247 248
-826.916332581058 547.725421709702 2444.20227202196 242 244 243
-823.379260341981 550.594477837938 2459.57014637332 241 243 242
-816.385051231787 551.278108035327 2464.29609867168 241 243 240
-812.674338477787 428.109233201655 1865.43617285488 103 108 104
-813.963152790847 432.227327186962 1886.61126556176 118 123 119
-813.661644148049 435.574271143642 1904.03951856612 111 115 114
-810.692078401167 437.567314302799 1914.86836635881 107 111 114
-805.842117373037 438.592350100292 1920.97461348599 122 125 130
-800.242835755991 439.229563474192 1925.19023401689 119 123 126
-794.995084462722 440.060788063996 1930.35957937839 126 130 133
-791.168782316074 441.668809696576 1939.33754871549 126 132 132
-787.306644563572 443.277636320225 1948.32859921185 141 147 147
-783.408783673789 444.887488055678 1957.33296091713 140 146 146
-781.935874238943 447.859577870506 1973.02517769683 145 151 151
-780.39139674268 450.833869154825 1988.74356394533 155 161 161
-777.736053998343 453.226393033166 2001.62175095903 166 172 172
-772.617423014827 454.256926502552 2007.82603077887 163 169 169
-767.478310100764 455.287797713146 2014.03752363113 165 171 171
-765.029028196231 457.878707833931 2027.92262010471 188 194 194
-764.199509157537 461.446904256265 2046.62596920432 204 210 210
-762.615849829896 464.627572028627 2063.44071935663 194 200 198
-759.300146860068 466.834091012936 2075.478249436 184 190 188
-757.576238768401 470.019035190655 2092.34453419811 249 255 255
-760.991618765499 476.333895611181 2124.64559679304 251 255 255
-782.037786380327 493.41076100933 2210.01765884135 247 251 252
-795.58525517834 506.199079689571 2274.32493902606 252 255 255
-804.34920860836 516.258343995995 2325.23127962542 248 252 255
-810.331717430654 524.759885509864 2368.4977323242 247 251 252
-815.786555489327 533.072929949863 2410.87487467987 247 248 250
-818.857608935514 540.020876858898 2446.54898875107 244 246 245
-815.284931666359 542.855533816431 2461.92720427462 237 239 236
-820.393317626017 422.276664469056 1867.52453671592 75 80 74
-804.377326460017 417.563566929472 1845.25564042732 61 66 60
-809.834576893392 423.725603690067 1876.80353832749 78 83 77
-823.685405531423 434.286209509631 1930.16593240171 125 129 128
-821.381049776666 436.640109915786 1942.91393276358 124 128 129
-818.286771559015 438.613253452323 1953.7865918221 113 117 120
-811.140645396851 438.483499538607 1954.2401452108 118 119 123
-805.45100496137 439.118289085617 1958.48841361221 112 116 117
-798.314954127859 438.987129031159 1958.93820016007 119 123 124
-794.041051861303 440.387669821377 1966.99658843181 129 133 134
-789.382443319763 441.597222966055 1974.11353407514 134 138 139
-790.320512418613 445.875925845896 1996.49474012539 138 142 143
-787.662969462833 448.239401159972 2009.37178910323 138 142 143
-784.949125373505 450.60437587645 2022.2691532243 156 160 161
-778.054458914622 450.665887972593 2023.71232942268 153 157 158
-773.211885475017 451.879772254416 2030.89644321339 157 161 162
-769.35973458023 453.671125002815 2040.96444753957 180 184 185
-769.835404990337 457.964445114945 2063.51476329209 199 203 204
-767.20238941207 460.528948575416 2077.46462468466 180 186 184
-762.522472754775 461.93975914722 2085.67130810362 186 192 190
-757.811929745318 463.35118481585 2093.88891133126 242 248 248
-759.913452711632 468.811602193658 2122.33665348488 247 251 254
-775.454673173033 482.377623043665 2191.31124317908 242 246 249
-789.360451821133 495.184573341674 2256.55604365662 249 253 255
-797.843634797516 504.914365789312 2306.47298329065 249 253 255
-803.551753770854 513.107684302942 2348.74931997112 249 253 254
-805.606950053725 519.182482594562 2380.45991908196 250 251 253
-808.130103304884 525.649085997271 2414.16342095378 247 249 248
-794.05796087431 526.792189411028 2422.56253076592 241 243 240
-832.06042400751 435.550241292453 1970.95045858977 127 129 126
-831.086972973805 438.633276444352 1987.53613061573 118 120 119
-826.396697272256 439.832679092611 1994.66407056164 118 119 121
-819.873467335128 440.089165135601 1997.05355725564 114 118 119
-811.19674992582 439.212202850192 1993.74012029984 120 124 125
-802.90696518678 438.522284019661 1991.36676513868 125 129 130
-799.949654296941 440.666069384795 2003.26959886969 130 134 135
-798.697228173166 443.756731952843 2019.95720852336 134 138 139
-795.973424429526 446.092915495233 2032.8560190208 135 139 140
-790.424488453583 446.916437379163 2038.13421490688 141 145 146
-783.486009221042 446.982341578578 2039.59364132249 141 145 146
-778.939724137188 448.374054042451 2047.75033038962 142 146 147
-776.055047225291 450.714321332733 2060.7079002759 141 145 146
-774.12189889188 453.625194003349 2076.56272020017 140 144 145
-769.117291049252 454.830211418658 2083.80529246064 142 148 148
-763.425639199646 455.655916398696 2089.13550710132 196 202 202
-759.031666251136 457.241519120272 2098.31804101667 233 239 239
-759.812801679176 461.869333834112 2122.91597478857 247 251 254
-774.370467916876 474.678948515486 2188.9909315982 238 242 245
-785.705891859953 485.78831669288 2246.50859467651 242 246 249
-794.206162362792 495.385117096471 2296.40929130837 244 248 251
-799.932663285092 503.467069855881 2338.67054641246 245 249 252
-801.069305209742 508.888268929907 2367.4656526952 250 251 253
-801.757905173255 514.123443099763 2395.34295733488 250 252 251
-804.160618190789 520.507510010982 2429.08399215656 245 247 246
-801.516393973429 523.843357117434 2447.36235012823 242 244 241
-838.876614215559 428.841566967559 1970.10081299298 85 88 77
-826.126751804536 425.940863943092 1956.38172658305 119 122 115
-841.677262804854 437.343281557497 2015.58992430373 126 128 123
-834.725858697267 437.416896655901 2017.05462861148 118 120 119
-831.031187387409 439.163862568388 2027.06206563274 114 118 119
-824.066759313862 439.236809317115 2028.53119730312 119 123 124
-819.600763225433 440.612520763361 2036.65750706067 119 123 124
-811.567770357603 440.125794442101 2035.27299151101 126 130 131
-805.661571631811 440.756065108769 2039.59960271528 130 134 135
-801.487848353787 442.318754001834 2048.70063707429 132 136 137
-795.548434220793 442.949310395209 2053.03933824192 134 138 139
-788.912063441453 443.206168626852 2055.46996133507 134 138 139
-784.320840830903 444.583379658889 2063.64188373705 139 143 144
-780.713886803906 446.521877040942 2074.69845736795 138 142 143
-777.060915014785 448.461531487546 2085.7715839771 137 141 142
-770.36349236505 448.718572299746 2088.22440328353 135 141 141
-764.327451747767 449.349437303032 2092.59849007202 203 209 209
-760.249730503716 451.103929403676 2102.74567138252 233 239 239
-761.664831235144 456.045017309815 2129.27001118897 248 252 255
-773.286832919409 466.990077757988 2186.67115253108 235 239 242
-788.142040552383 480.009020934717 2254.78716232717 235 239 242
-796.92866864622 489.662446418461 2305.65464318238 241 245 248
-798.838976914924 495.381381000797 2336.32447882738 243 247 250
-799.037604891909 500.165999025787 2362.21244672966 249 250 252
-797.873235265204 504.202846221484 2384.27299739507 252 254 253
-799.990635205061 510.311526933041 2417.03010830142 246 248 247
-797.373980058992 513.603167359021 2435.29536823477 242 244 241
-845.299302827875 432.411591829261 2025.6349331071 130 133 122
-839.41042893252 433.038743788999 2029.95501423843 125 128 121
-833.872428528152 433.848915540165 2035.22822953184 120 125 121
-829.7533347514 435.392808599549 2044.30774246054 120 124 123
-827.022571631008 437.671663782955 2057.20501034994 116 120 119
-822.821575053464 439.217566690457 2066.31443328823 120 124 123
-812.970151050533 437.825052507921 2060.18898912188 122 126 125
-807.345047314051 438.63582945156 2065.4938979897 128 132 131
-800.667212748294 438.894903669325 2067.93975363329 124 128 127
-795.019151189872 439.705505905859 2073.25299075806 125 129 128
-787.652317270111 439.595408370974 2073.78796436357 133 137 136
-782.662774516288 440.774051063517 2081.02307289657 130 134 133
-776.305381047907 441.215680655826 2084.43283058746 131 135 134
-769.942974772432 441.65697018946 2087.84438396145 146 152 152
-764.23652850114 442.466936147655 2093.17878643679 146 152 152
-761.466037789779 444.938373116197 2107.17157569259 215 220 223
-763.839938457451 450.366753239919 2136.58449177378 241 245 248
-775.431765262756 461.158872748808 2193.98505714452 220 224 227
-792.176361506663 475.104830550077 2267.88411756692 214 217 222
-797.424125584653 482.589886016036 2308.14091211116 235 239 242
-797.745924548386 487.305658389458 2333.97918715924 233 237 240
-796.69497537276 491.284609061416 2355.9939052249 242 243 247
-795.23198552117 495.081620307103 2377.07779497917 250 251 253
-796.131943873186 500.364664783158 2405.94872761259 248 250 249
-794.454886496381 504.168493763167 2427.11091054689 246 248 247
-875.570648234836 433.382018251353 2064.84114015318 83 88 66
-841.545745622032 427.320315832185 2036.21411124602 122 125 116
-837.071799456618 428.665013699984 2044.34096954108 125 127 124
-831.13342222438 429.28753592891 2048.67894207844 121 123 122
-827.6758196198 431.175472982967 2059.67743587127 119 121 120
-821.698919305778 431.798382958101 2064.02918024177 116 118 117
-815.01030722275 432.058950311064 2066.47906442157 117 119 118
-809.366299430179 432.862426552425 2071.79029099325 125 127 126
-804.398275417655 434.028317887577 2079.01661884913 125 127 126
-798.032321023805 434.46932922401 2082.42944039735 126 128 127
-790.299212894579 434.184422728155 2082.01774932569 132 134 133
-783.257475574497 434.261151322128 2083.51551000017 137 139 138
-777.22711413628 434.882101112249 2087.8865309057 143 145 144
-771.186706952633 435.502953399129 2092.2614487563 144 150 150
-767.448278622534 437.396089016757 2103.36236932139 145 151 151
-765.630375696416 440.381946255511 2120.24753020406 183 188 191
-770.890151827572 447.374243433887 2158.32966844373 220 223 228
-782.413445839278 458.014980640687 2215.74371231567 211 214 219
-794.925795550348 469.395102182061 2277.12066209233 217 220 225
-799.188570179235 476.229095262421 2314.48629357994 231 234 239
-798.228135196468 480.15126913804 2336.46384054018 229 233 236
-795.916095179048 483.346679307175 2354.61116163109 240 241 245
-793.212723744378 486.362125947126 2371.82053334903 248 249 251
-792.584032610294 490.658441329833 2395.83914166487 247 249 248
-789.709956543713 493.679024707906 2413.11067005615 246 248 247
-789.781416124494 498.530579260468 2440.11670402308 241 243 242
-846.041125085268 426.272886003787 2068.63408346279 149 151 148
-835.736189148438 424.756315972925 2061.59750076413 130 132 131
-828.683745699657 424.84031144275 2063.09969967461 133 135 134
-822.6957596119 425.458175895376 2067.4550912303 132 134 133
-815.295247287443 425.362601385618 2068.0036515557 132 134 133
-809.29700912357 425.979615915784 2072.36270394765 133 135 134
-803.288648315307 426.596655051761 2076.72569043825 138 140 139
-798.298873617601 427.749342197131 2083.95892485769 140 142 141
-790.900932303131 427.651358377064 2084.50611494704 137 139 138
-784.864593863221 428.267644813485 2088.87920996953 156 158 157
-779.153347331924 429.062731751983 2094.2142339138 155 157 156
-775.422974569185 430.931864595995 2105.3101622359 151 155 156
-773.297516375146 433.6977270167 2121.22416860497 140 145 148
-774.04878708761 438.078734934878 2145.81433138273 182 187 190
-780.208041292851 445.511778022689 2186.80257915368 211 214 219
-789.387643246762 454.745905212616 2237.49564112176 206 209 214
-795.112648556343 462.194311503942 2278.64282700272 217 220 225
-799.046600272238 468.751984841622 2315.04052720011 223 226 231
-797.764971134225 472.440491415037 2336.05033494544 223 226 231
-794.200814673421 474.873746777961 2350.32861191058 236 237 241
-791.814332418847 478.02817653995 2368.49988862473 247 248 250
-790.267785128161 481.724998060967 2389.60683276511 247 248 250
-788.319761311039 485.24482696036 2409.77948348614 247 249 248
-784.770019534446 487.866582934948 2425.13330196477 240 242 241
-850.719589850021 425.232937479965 2102.05465462766 134 136 135
-837.512465406443 422.341721337882 2087.43586824937 135 137 136
-827.927210177466 421.201594041641 2082.29931420266 135 137 136
-820.135069462821 420.93739615393 2081.91063438378 139 141 140
-812.358351965649 420.671986293654 2081.51651359077 138 140 139
-806.323475471536 421.284537070842 2085.88854126673 139 141 140
-800.963973130244 422.248807431791 2092.17508473405 139 141 140
-795.243878741285 423.037213038219 2097.51281932012 144 146 145
-789.170891509537 423.649572097278 2101.89893389811 142 144 143
-786.103534625421 425.847622727008 2114.9121478046 139 141 140
-784.310241701216 428.752704983123 2131.78252665319 146 150 153
-785.410106134756 433.247636217059 2157.32118417437 141 146 149
-785.7325797363 437.393868312327 2180.98287459759 184 189 192
-792.115081446954 444.899223431306 2222.96202046154 204 207 212
-796.676624801653 451.528532592693 2260.20365432243 195 198 203
-800.734538783492 457.987328907174 2296.54885394398 209 212 217
-800.807343526163 462.329523909104 2321.38260039148 219 222 227
-798.245622275369 465.259648841588 2338.53381331369 221 224 229
-793.735065727342 467.129542377748 2349.91352340504 234 235 239
-791.035930687295 470.063654264899 2367.11521904474 245 246 248
-788.874324465907 473.354588871971 2386.28164559691 246 247 249
-786.626095664906 476.648194198155 2405.47974689533 245 247 246
-783.083909848611 479.234519275724 2420.82814669207 240 242 241
-928.704822833145 440.921321600448 2223.16565655603 95 97 86
-935.073445862717 451.314668762538 2282.43392000269 205 207 206
-842.680013873843 421.52393642253 2122.82861201169 121 123 122
-830.924823204705 419.369914986772 2112.00438533937 127 129 128
-820.979793837419 418.077652163868 2105.92051564237 128 130 129
-813.151887076494 417.821865495813 2105.54571991648 124 126 125
-808.080075787741 418.950557245547 2112.80669651411 127 129 128
-803.322854249538 420.25314613058 2121.03330220036 136 138 137
-799.209939818562 421.903025010885 2131.18512297754 128 130 129
-796.73090293571 424.421597800417 2146.14212882246 131 133 132
-797.841668123066 428.852011521474 2171.67221204629 138 142 141
-798.499941316651 433.112666946418 2196.28708352733 156 161 164
-799.367963240813 437.551151888015 2221.905719176 197 202 205
-804.65924317494 444.428414729898 2261.03403330874 197 202 205
-804.279974933879 448.35440896633 2283.86751936133 192 195 200
-806.030559051211 453.502495608413 2313.48550685752 209 212 217
-802.248708676267 455.69415416082 2326.75809509445 217 220 225
-798.410797483367 457.887064516282 2340.05089247717 218 221 226
-792.645367511622 459.035300846994 2347.56536146064 232 233 237
-790.876436802085 462.452297879356 2367.66543640663 244 245 247
-789.322596185929 466.046677472384 2388.76730107899 244 245 247
-786.759155773647 469.120064926514 2406.99675856585 245 247 246
-782.605767767807 471.321969688814 2420.40485916463 239 241 240
-953.991046930428 448.915176389518 2310.57829845129 83 85 80
-941.879473615714 446.999997107037 2300.96813623716 198 199 201
-926.591134166972 443.552993265401 2282.79686479943 197 198 200
-878.945514516188 428.312598412173 2199.76154496629 142 146 147
-859.535142637018 422.633943761155 2169.05333278628 128 132 133
-845.555590563148 419.501279761533 2152.56361396763 118 122 123
-835.501471422944 418.237577491741 2146.52153562127 114 118 119
-827.908498183641 418.164591266819 2147.14172854696 121 125 124
-822.380391962417 419.113714492788 2153.48838926016 126 128 127
-818.531352838167 420.916187727484 2164.62265825913 127 129 128
-814.63635969109 422.719861396293 2175.77371465503 131 133 132
-812.369237078526 425.378780500491 2191.73086967822 135 137 136
-812.688384216261 429.407289463832 2215.38488633237 137 139 138
-811.906072071455 432.926389936772 2236.20049150169 162 166 165
-812.989429924526 437.475297847099 2262.81602965257 163 164 166
-812.322330435705 441.172514302092 2284.67002341519 176 177 179
-809.943272157883 444.016401925064 2301.74861558205 194 195 197
-809.404192613744 447.891068869578 2324.63604005128 193 194 198
-804.955545516425 449.711080056624 2335.98949241132 211 212 216
-799.518118362145 451.017338630529 2344.46326492127 217 218 220
-793.426862933281 451.98101290545 2351.01589109549 226 227 229
-790.407392779725 454.662605529313 2367.24811298759 241 242 246
-788.236567632839 457.861952350805 2386.41097867693 244 245 249
-783.850557496624 459.860063633696 2398.82166685077 247 248 250
-778.509176181321 461.343222046409 2408.34070021848 237 241 242
-954.630193160996 441.616420294831 2312.99529283788 117 119 114
-943.237845454408 440.070614861363 2305.28479127182 197 198 200
-929.380440926883 437.352084403791 2290.9153054796 198 202 205
-907.389419683353 430.782972633461 2254.6777076818 156 162 162
-888.803850926699 425.711067469797 2226.91577109288 144 150 150
-872.144483805286 421.469349341797 2203.84964754242 134 138 139
-857.372960393194 418.059138679649 2185.49337353398 125 129 130
-845.49324026625 415.98513849351 2174.72043082138 120 124 125
-840.581920577949 417.262320075441 2183.00085482578 119 123 122
-836.666889189233 419.043611194677 2194.1575030683 126 128 127
-832.02639150108 420.490207028145 2203.41912038798 128 130 129
-827.687390289997 422.105613826805 2213.65074031459 130 132 131
-824.311316628209 424.226401782046 2226.77029302793 138 140 139
-822.539406084018 427.189829730417 2244.70386136794 141 143 142
-821.674273055288 430.660760020501 2265.54617826272 155 157 156
-819.077378131587 433.292726929744 2281.62111836481 163 165 164
-816.084698947088 435.758243950785 2296.76074660501 171 173 172
-812.3820427517 437.88851989309 2309.99967490121 179 180 182
-810.219701374142 440.86387156481 2328.07600108937 191 192 194
-805.12535789948 442.322368295723 2337.50341556893 212 213 215
-799.367222939695 443.44386480827 2345.01347074387 217 218 220
-793.272127935654 444.396685736376 2351.56641877235 225 226 228
-789.938243825386 446.871607139205 2366.83072915147 237 238 242
-787.151208017443 449.686715692798 2384.05538344966 241 242 246
-781.248466999929 450.811257038186 2391.61795486822 244 245 249
-774.717810496364 451.597455628754 2397.25003058787 236 240 241
-955.268307338503 434.300136735009 2315.41133973287 178 180 175
-944.232080658578 432.948639520728 2308.65291743201 196 200 201
-932.526827179392 431.265779602806 2299.979209067 195 199 202
-913.375974215247 426.124581387 2271.35062264548 167 173 173
-896.878285384784 422.128614456265 2249.31085385788 142 148 148
-882.980061719986 419.279917895646 2233.87956740814 139 143 144
-869.528887401059 416.591783143837 2219.36477632992 130 134 135
-856.517015105077 414.064348013625 2205.76905160951 123 127 128
-850.141049946364 414.668492622161 2210.26437534788 126 130 129
-845.123458605739 415.933020144643 2218.58271137081 128 132 131
-840.414773602037 417.363283797538 2227.86787141386 133 135 134
-834.996381824814 418.463701338593 2235.25289468965 135 137 136
-829.886941833783 419.729972337559 2243.60473432468 141 143 142
-829.393407497209 423.314105529915 2265.38713303659 143 145 144
-826.821669101643 425.907869370147 2281.45005034471 150 152 151
-823.524968853475 428.172323738245 2295.61841411901 165 167 166
-817.573255122267 429.11185891908 2302.11826391562 172 174 173
-813.531275378682 431.047156480053 2314.39921353232 179 180 182
-810.076514288709 433.31571748107 2328.6250622931 206 207 209
-804.978003903133 434.755485429595 2338.0528319566 211 212 214
-799.215850973651 435.863693940908 2345.56309010466 216 217 219
-793.117004606196 436.8057634872 2352.11658993542 222 223 227
-788.542406348732 438.580077953315 2363.5123571914 232 233 237
-785.147381382451 441.021538612288 2378.79635767306 235 236 240
-780.167339632505 442.631938245897 2389.26025959752 237 238 242
-774.243208792053 443.743128503465 2396.82984968639 235 239 240
-976.555562205412 432.484973226983 2349.13866854626 90 93 82
-949.700504734724 424.22022062945 2301.74072689761 177 182 178
-941.600589572594 424.187532302371 2302.54815140253 197 201 202
-933.870646369091 424.315513735029 2304.29983022817 203 207 210
-918.642076339723 421.044055426258 2286.12008750655 173 179 179
-903.880745225499 417.929584641139 2268.84898053694 145 151 151
-890.283503328393 415.296407821248 2254.39140795908 141 145 146
-876.778336416662 412.65897750115 2239.90006014783 134 138 139
-864.059382500164 410.341852609171 2227.28033166052 129 133 134
-856.245617847145 410.293587940769 2227.98235737418 129 133 132
-851.519834683474 411.706177842084 2237.27239630808 130 134 133
-844.043076924796 411.819381151834 2238.9309683204 135 137 136
-839.266274490605 413.232714374321 2248.23960055605 137 139 138
-833.785222276262 414.32152654059 2255.64651507776 143 145 144
-833.918076215785 418.178614676958 2279.35503076657 145 147 146
-831.30514661803 420.736053795507 2295.4301736271 151 152 154
-826.987723400148 422.480546253781 2306.73024941502 162 163 165
-820.356029796393 423.084368953405 2311.31871891792 173 174 176
-815.643262179689 424.667112621385 2321.68342342567 185 186 188
-810.251944899318 425.924271281854 2330.13699212517 201 202 204
-804.197377660637 426.855260690451 2336.67356767149 208 209 213
-798.436497321187 427.949768399318 2344.18258399762 213 214 218
-793.584056848364 429.53546951561 2354.59826004353 221 222 226
-790.5432892272 432.104329075637 2370.82971421573 232 233 237
-785.900524343219 433.856295814545 2382.24856279538 234 235 239
-781.515621985463 435.773254167552 2394.65272535356 235 236 240
-775.875801258813 437.035658328987 2403.19698046893 234 238 239
-773.190528701246 439.939320211614 2421.45789808411 233 237 238
-962.131214179215 418.528238514013 2312.7943292757 184 186 181
-951.433756167988 417.391393481097 2306.99557168252 200 205 201
-941.506810499451 416.570034570827 2303.07402873095 191 195 198
-932.694727563794 416.22368900556 2301.98317781345 191 195 198
-920.331471756984 414.28453360088 2291.39609602636 174 180 180
-909.103515056159 412.819785203684 2283.63198091712 150 156 156
-896.875758763563 410.874143235756 2272.99517764634 138 144 144
-882.622718829931 407.968400366849 2256.62194879951 137 141 142
-870.553569702106 406.015428305593 2245.92696452213 136 140 141
-861.999706020562 405.655239373915 2244.74124834822 129 133 132
-856.200764214054 406.571653060517 2251.18384581366 130 134 133
-849.363666702714 407.008626330724 2254.76754667144 137 139 138
-844.541681921233 408.4048474074 2264.09130421193 140 142 141
-840.352272341832 410.121945398855 2275.34280088124 147 149 148
-837.443215013113 412.480633663013 2290.44398576056 150 152 151
-833.151742479451 414.200410288158 2301.73276784126 151 152 154
-827.834926781612 415.440259454708 2310.15770698375 157 158 160
-822.163811067623 416.520241931718 2317.63301249846 159 160 162
-817.109962229969 417.921713287307 2327.04141110002 175 176 178
-811.064165123356 418.842057473726 2333.57399692898 183 184 188
-804.049558365792 419.280475611229 2337.22255688498 207 208 212
-798.912030240909 420.683311620369 2346.6614622794 210 211 215
-795.60563455713 423.052287904686 2361.90779135249 215 216 220
-792.233051943555 425.423136252005 2377.17830987294 224 225 229
-787.264316642721 426.990395327327 2387.6348487158 228 229 233
-782.861899729112 428.881001630264 2400.04338666561 234 235 239
-778.408701278325 430.772937482015 2412.47047577153 233 237 238
-769.131615798371 430.083980284148 2409.38936036637 231 235 236
-972.785887796952 411.970497968005 2319.09461951391 97 101 87
-963.142500263985 411.328609932702 2316.15014684436 203 205 200
-952.070992231413 410.060315825631 2309.4108213912 189 194 190
-942.136897082829 409.258233371878 2305.49333055365 202 206 209
-933.31718187902 408.923024526105 2304.40609300906 198 202 205
-922.732830625144 407.804210162024 2298.56759992603 175 181 181
-912.194469493119 406.682943363922 2292.71221186454 153 159 159
-900.646566091394 405.089441462517 2283.98832881748 141 147 147
-888.461287646407 403.179313449286 2273.33851702878 138 142 143
-879.468624035509 402.677461869317 2271.23498843763 141 145 146
-871.534105687303 402.644695325051 2271.9820578618 132 136 135
-865.659834377581 403.55320087242 2278.45168298823 133 137 136
-857.730536743821 403.51897970563 2279.19674577719 138 140 139
-853.513426396979 405.213339540129 2290.45659154535 140 142 141
-846.912507401028 405.807516848372 2295.03289741208 146 148 147
-840.301563633629 406.401595833679 2299.61309254138 148 150 149
-833.022791090701 406.68028474568 2302.27877147997 149 150 152
-827.375622744592 407.746481812375 2309.74408158012 158 159 161
-822.350627063271 409.128529430017 2319.14078549963 156 157 159
-817.932270363819 410.826956648526 2330.47380421075 175 176 178
-811.237849995615 411.421082225125 2335.08433303942 190 191 195
-804.217327627991 411.856946307371 2338.73459534591 209 210 214
-799.386527609085 413.399267961149 2349.13938985775 211 212 216
-797.313570216888 416.366229915856 2368.24916270715 213 214 218
-793.92039997822 418.702806811912 2383.52457564922 220 221 225
-788.626097335945 420.090807550896 2393.01932376857 224 225 229
-783.902898387721 421.796549281009 2404.46390931368 234 235 239
-779.434737209918 423.661914249635 2416.89443012468 228 232 235
-769.250810079312 422.513634673022 2410.90822472263 227 231 232
-976.762806046128 405.9571609708 2329.99563195419 148 151 142
-964.15244292489 404.106046835645 2319.50472208353 167 172 168
-952.342723320408 402.558389121087 2310.8794257124 194 198 197
-940.956124288966 401.161119572309 2303.17804270647 195 200 203
-930.344636452473 400.068423389616 2297.35163432676 188 193 196
-921.563188823514 399.741975600685 2296.25089946558 175 181 181
-910.676534723766 398.490992489463 2289.44571577882 157 163 163
-900.896188921805 397.69921848887 2285.47313981892 141 147 147
-891.850004744184 397.21351281308 2283.39027549385 130 134 135
-885.602200223469 397.959298052214 2288.91653121388 132 136 137
-878.994964425023 398.550804189411 2293.49493066805 130 134 133
-871.011700092805 398.524812273367 2294.26047680062 131 135 134
-863.038647493616 398.497720336275 2295.02197532348 137 139 138
-856.085035728699 398.933172869841 2298.6478954432 139 141 140
-849.126485382974 399.368328304447 2302.27584182346 142 144 143
-841.83164680367 399.6483597238 2304.94745945075 142 144 143
-833.550876757153 399.463167382906 2304.74227811302 147 148 150
-828.220832750557 400.671183179363 2313.16987602351 161 162 164
-823.183841729841 402.034656688405 2322.56928254888 175 176 178
-818.432241211526 403.554125578926 2332.94332232513 190 191 195
-811.410729472338 403.987944012136 2336.59378975997 204 205 209
-804.384436454386 404.42139964692 2340.24622134448 195 196 200
-800.173317300384 406.253136486986 2352.58081183916 199 200 204
-798.08680154644 409.174654285415 2371.6920821164 211 212 217
-793.756050229748 411.009696838554 2384.07038888983 222 223 228
-788.457502954608 412.378925972053 2393.5652628961 217 218 223
-783.123471166513 413.748886823517 2403.07308496781 237 238 242
-779.256820957288 415.899063278465 2417.43991051609 227 231 234
-770.561247074031 415.55513193104 2416.30690964101 228 232 233
-978.518999266331 398.974508040745 2335.23053472547 172 175 166
-965.89489648554 397.161805856588 2324.74751523215 196 201 197
-952.249305550544 394.893473987006 2311.40159404703 202 208 206
-941.223163281761 393.676944041313 2304.64969119683 182 187 190
-929.529589511571 392.15590648701 2295.98394891066 202 207 210
-920.394177501638 391.689111902187 2293.93493127998 177 183 183
-908.805376796131 390.162729068906 2285.23071769488 165 171 171
-900.793651800975 390.145769836291 2286.00728618551 150 156 156
-893.141030504843 390.27896126008 2287.73100985531 132 136 137
-887.918710081709 391.471452202121 2296.11829636737 130 134 135
-881.634041625026 392.209924015908 2301.65739433012 128 132 131
-873.627408223378 392.190278309179 2302.4316558496 129 133 132
-865.292407767392 392.017791914916 2302.24739144543 134 136 135
-855.964141516619 391.388600245272 2299.18938134092 135 137 136
-848.668600334309 391.669195090172 2301.86129676162 139 141 140
-842.36645690823 392.40525315537 2307.40656191583 141 143 142
-836.049117803961 393.141309572038 2312.9573481062 149 150 152
-830.694441760759 394.333924954936 2321.39247946959 159 160 164
-824.985944999487 395.374932625435 2328.87842621121 167 168 172
-818.931166023517 396.263767590655 2335.41189806957 207 208 212
-811.264716355058 396.390279981564 2337.14039646791 205 206 210
-804.550778334723 396.973628967554 2341.75694937636 191 192 197
-800.645596623456 398.931304528007 2355.05669412903 206 207 212
-798.237487203316 401.65453075256 2373.20329380914 215 216 221
-793.899442651344 403.462821790958 2385.58223204434 216 217 222
-788.899554413521 404.966327288599 2396.0452796099 227 228 233
-782.647319170676 405.858472305651 2402.65074449407 226 227 231
-779.078519860028 408.129438435322 2417.98501963655 224 228 231
-770.976184247041 408.103097648648 2418.79380251423 227 231 232
-979.534537745689 391.662338905573 2338.57631587498 210 215 208
-968.00210076425 390.331690479475 2330.93294794324 197 202 198
-954.704950885654 388.258026525798 2318.54192358462 191 197 197
-942.574412943441 386.624970958235 2308.95993861668 195 200 203
-928.714863433091 384.247472431829 2294.61670927581 195 200 203
-918.869147408949 383.497438323699 2290.67103411411 178 184 184
-907.997301866464 382.300009114336 2283.86451064978 169 175 175
-900.339247976278 382.436853168851 2285.59073808709 158 164 164
-892.337393488243 382.424226470266 2286.36379284316 139 143 144
-886.077236269737 383.154236813155 2291.89334652108 133 137 138
-879.458045602592 383.735358034524 2296.47556037478 126 130 129
-872.146307350124 384.018431993156 2299.15354785244 128 132 131
-864.495972234961 384.151891380708 2300.87646108513 131 133 132
-856.51490887725 384.135401297054 2301.64192444943 132 134 133
-849.211110937351 384.416318828532 2304.31686420746 138 140 139
-843.231149255944 385.293892559995 2310.82230245491 142 144 143
-837.230860267722 386.171784298463 2317.33515037044 153 154 158
-832.187715112822 387.498218854682 2326.73399827574 164 165 169
-825.815958569251 388.227052344849 2332.30401138409 178 179 183
-819.429062275289 388.955822448881 2337.87952054974 212 213 217
-811.436343357239 388.935513839358 2338.6486763977 197 198 202
-805.978772382537 390.113437535859 2347.12033914791 193 194 199
-801.116829916454 391.59206475386 2357.53164303345 206 207 212
-799.008318583474 394.422434545795 2376.64402786794 213 214 219
-793.118339305911 395.453099823254 2384.19487936789 216 217 222
-787.813837124025 396.784746251061 2393.68908134025 227 228 233
-781.565580250314 397.66594320911 2400.29252899022 222 223 227
-777.69894712252 399.751161606174 2414.65419283772 224 228 231
-770.497087429683 400.181712146828 2418.37019519454 230 232 231
-985.083723541066 382.869352062995 2331.63016412524 196 201 194
-976.488002814211 382.730770343749 2331.5429330433 188 193 187
-967.540819561477 382.4457566968 2330.50554243054 202 206 205
-956.065762597666 381.141972942117 2322.84360747113 194 200 200
-943.92390212037 379.544555026875 2313.26842532317 191 196 199
-930.412804153412 377.361724006528 2299.88008896756 193 198 201
-919.126829295097 376.048644977521 2292.14875203506 176 182 182
-909.312212715706 375.315751120851 2288.19281623126 169 175 175
-900.587201152627 375.01822965771 2287.07401287065 162 166 167
-892.928709966269 375.157175117596 2288.80055774848 156 160 161
-885.62143923122 375.441325067993 2291.47700319458 148 152 153
-877.62702895364 375.432516516889 2292.24764127474 139 143 142
-871.006995552243 376.007775039237 2296.82971897544 138 142 141
-865.053631955335 376.875436049861 2303.3247452093 136 138 137
-858.072222289214 377.303875914209 2306.96023623338 137 139 138
-850.752498108452 377.585475419136 2309.6410140488 146 148 147
-843.763734324072 378.012997965037 2313.27936219233 150 152 151
-837.754558839683 378.880279458586 2319.79463834573 155 156 160
-831.725084010967 379.747818314462 2326.31730943164 184 185 189
-825.352267894788 380.468534609217 2331.88709506716 208 209 213
-818.323243621711 380.895202660849 2335.53975257999 194 195 199
-811.289396121906 381.321509553446 2339.19438960745 184 185 189
-806.14311738889 382.630595607418 2348.6294008426 204 205 210
-801.274132811876 384.08777530336 2359.04139083647 205 206 211
-797.916024435492 386.282915949055 2374.29339289629 209 210 215
-792.337586536043 387.44745954174 2382.80796158916 221 222 227
-787.339091022593 388.907735509558 2393.2672413886 221 222 227
-781.694829714159 390.073541439679 2401.80582144329 222 223 228
-778.120696184476 392.274385289519 2417.13674386988 222 226 229
-770.612901390663 392.554640306654 2419.88575335816 229 231 230
-894.833143754652 332.030950069589 2044.86221670567 107 112 92
-979.048971058037 372.82818410866 2317.06557908961 169 174 167
-973.443503273907 373.83564121852 2324.51130578601 192 197 191
-965.247282683402 373.845842226699 2325.35695773859 194 198 197
-955.241688245668 373.141777500886 2321.472840872 183 189 189
-943.103852941816 371.579337874436 2311.89883539512 200 205 208
-931.391204460574 370.156591738874 2303.24743991232 184 189 192
-920.096158894581 368.873702689775 2295.52167659075 178 184 184
-910.979147274049 368.446042876939 2293.46867188338 172 178 178
-902.238841278594 368.160017134124 2292.35629293488 167 173 173
-894.564576913617 368.302318419351 2294.08882200324 160 164 165
-885.857530241669 368.013742262752 2292.96416626068 156 160 161
-877.514369557467 367.867195774544 2292.78456967596 148 152 151
-870.890800968833 368.437186929176 2297.36728010639 144 148 147
-865.272001185333 369.437707399701 2304.81758174358 139 141 140
-859.627626280854 370.438586005434 2312.27694849929 140 142 141
-852.958338634141 371.008504131023 2316.87651917557 148 150 149
-845.948288812183 371.434192424951 2320.52220863345 150 152 151
-838.605251988334 371.715392882272 2323.21142669882 165 166 170
-831.587857723399 372.140236722762 2326.85972095329 202 203 207
-825.211433698617 372.852994966793 2332.43021702985 213 214 218
-819.14031526758 373.709999046499 2338.96747823997 180 181 185
-812.731091376972 374.422907673527 2344.54990308621 186 187 192
-807.567759899403 375.713722682395 2353.98973164434 207 208 213
-802.368898468072 377.005330736986 2363.44252940555 209 210 215
-797.754814480567 378.586989742746 2374.83810714798 213 214 219
-792.172204666799 379.735392861202 2383.35271952419 222 223 228
-787.169367335115 381.174326600342 2393.81222086927 222 223 228
-782.125906041888 382.614027950559 2404.28628603741 222 223 228
-778.241547641435 384.635073408958 2418.64980249669 221 225 228
-771.025414079743 385.060716713957 2422.37036652208 228 230 229
-896.952802885851 323.12278416507 2031.68679376506 113 118 98
-895.936281358334 325.480420200955 2048.23363670249 114 118 103
-982.675324030106 366.496811203103 2327.00315820051 205 207 204
-973.720808747502 366.234402360001 2325.97039146334 204 206 205
-964.786599744127 365.970544846304 2324.93013738783 192 196 197
-954.054053349805 365.005627653636 2319.15710095205 192 196 199
-942.645173840182 363.758213927439 2311.47537444695 191 194 199
-931.292418110238 362.507905867954 2303.77278337766 186 190 193
-920.35200070474 361.395099913033 2296.99755960602 173 179 179
-911.230177674195 360.981311374397 2294.94760397964 170 176 176
-903.186607496193 360.987108613207 2295.73720572797 165 171 171
-896.54678515088 361.554088634376 2300.32584886903 156 160 161
-887.47602270248 361.136412602628 2298.25679339278 154 158 159
-879.46071318828 361.13942422853 2299.03617110695 158 162 161
-871.796268238618 361.282129621632 2300.76490859829 151 155 154
-866.503959712663 362.410479063435 2309.17278483785 143 145 144
-860.174328410431 363.116525324383 2314.7257729312 143 145 144
-853.829452479434 363.822333642416 2320.28428201752 152 154 153
-846.147594585695 363.963383345819 2322.01947566619 159 161 160
-839.126729022348 364.386159431004 2325.6688751583 178 182 181
-832.426312143631 364.94996925503 2330.2792953725 205 209 210
-827.006918590011 366.079593156522 2338.73344253524 175 179 180
-820.276144494201 366.643352488686 2343.35463455151 190 194 195
-814.170690301196 367.49033774752 2349.90336099212 207 211 212
-807.729980547536 368.195603662251 2355.49664918 206 210 213
-803.149404874749 369.752370574974 2366.87817394514 211 215 218
-798.523070930658 371.310211167819 2378.27640541955 216 220 223
-794.158391283748 373.011277860663 2390.65693093691 211 215 218
-788.523521319852 374.144975620315 2399.18967615071 220 224 227
-782.85822424816 375.279102034435 2407.73325471285 221 225 228
-777.762208909499 376.698630740406 2418.22514698638 223 224 226
-769.653826013601 376.694276411648 2419.03753167714 229 231 230
-902.264087019704 318.091184260671 2045.37697761699 114 118 101
-998.665358109585 361.585105699111 2346.42216643924 106 109 100
-986.29820723499 360.104698206923 2336.93766937655 204 206 203
-974.734706465628 358.894963043541 2329.3147111843 202 204 203
-964.691919994631 358.230941445317 2325.44712889804 191 195 196
-954.684813731685 357.564870340101 2321.56642801368 192 196 199
-943.269428460424 356.347605903703 2313.88934010815 191 194 199
-931.551738811706 354.989968314319 2305.2446888146 185 189 192
-920.607209164846 353.90435961742 2298.47301125122 177 183 183
-912.540383061172 353.917140022926 2299.27158964179 172 178 178
-904.834583397537 354.066688493408 2301.01612348014 166 172 172
-897.482062195579 354.353142867268 2303.70918399265 159 163 164
-888.401367405547 353.949478691613 2301.6450488313 157 161 162
-880.032419983478 353.820257198357 2301.47612873538 158 162 161
-873.381464095879 354.38030159557 2306.06803950131 153 157 156
-867.73432369178 355.355012218738 2313.52669095608 146 148 147
-861.390842175105 356.053262506321 2319.08412313383 145 147 146
-853.700667438135 356.19792628823 2320.82235698673 161 163 162
-847.006710348391 356.757315023581 2325.4300965388 172 174 173
-840.630362517246 357.455063220591 2330.99943239935 187 191 190
-834.563978931074 358.29152920982 2337.53316932553 188 192 193
-827.509509369478 358.711747719056 2341.19458543898 160 164 165
-820.450234056651 359.131544834425 2344.85797017275 191 195 196
-814.021003712646 359.828977685556 2350.44649644284 198 202 203
-808.836374857658 361.082750043835 2359.89126821086 202 206 207
-804.865680031484 362.894000888142 2373.20351405458 212 216 217
-799.599762957073 364.149759075771 2382.67797071944 205 209 212
-794.605655767557 365.545593390734 2393.13104815564 221 225 228
-788.352180526259 366.384309296605 2399.73293226605 217 221 224
-783.287082525143 367.781681142053 2410.211665034 221 225 228
-778.481094659986 369.319565888375 2421.67366582425 220 221 223
-769.768283255632 369.041577050251 2420.55190345556 230 232 231
-994.080061343736 349.165941180739 2314.08534474468 107 110 99
-992.970055202028 351.742782071808 2332.81580598444 168 171 164
-984.722221966884 351.772508427689 2333.68168396776 203 205 202
-974.273148450888 350.995224047082 2328.88636462236 197 199 198
-964.596830930859 350.484565128668 2325.9637581002 190 194 195
-954.587691088825 349.837510990958 2322.08523095205 193 197 200
-942.088358329196 348.246156438592 2311.57383316192 189 192 197
-930.018857739859 346.786095672924 2301.98272376551 182 185 190
-920.861698687705 346.401439287225 2299.94780511026 174 180 180
-913.495858410971 346.689664779782 2302.64583857657 169 175 175
-906.831141923569 347.247328920809 2307.24256949104 166 172 172
-899.112107666783 347.399478934388 2308.99210824468 168 172 173
-889.325275229488 346.739508504772 2305.03183391291 166 170 171
-880.603094719971 346.483443599545 2303.91512988772 156 160 159
-873.262894776718 346.767689435973 2306.60354698655 152 156 155
-867.611736391637 347.728873850898 2314.06238344544 150 152 151
-860.929430151417 348.283638623075 2318.66554092093 154 156 155
-852.906188556799 348.295311198651 2319.44819983503 178 180 179
-846.213895146225 348.849215695449 2324.05492111543 188 190 189
-840.166604389762 349.674692587722 2330.58089175464 188 192 191
-834.423995803507 350.63641386989 2338.07299601346 145 149 150
-826.721394810823 350.781847356709 2339.81605717244 152 156 157
-819.344023499404 351.062722205607 2342.51772567888 188 192 193
-813.236159770005 351.888184306814 2349.06570363794 186 190 191
-808.996720289642 353.53218899325 2361.39641927996 209 213 214
-805.642992332682 355.587032913925 2376.63624415697 206 210 211
-799.745917996937 356.551025492678 2384.18489730167 202 206 209
-794.744768702132 357.925531389089 2394.63866983068 225 229 232
-789.094047858732 359.027333308366 2403.17476767218 218 222 225
-784.922801780153 360.814085337881 2416.55803284279 225 229 232
-780.3962667548 362.465439281507 2428.99361559122 221 222 224
-771.663100611545 362.19902482442 2427.88012216911 233 235 234
-893.166667773049 249.764474664461 1647.80595174706 200 211 194
-992.134515733464 343.683185083233 2331.44472315112 193 196 189
-983.147076360559 343.455114246874 2330.42650982985 201 203 200
-974.179915304395 343.225655384597 2329.4008239058 195 197 196
-963.769767002106 342.467931106947 2324.59283740944 190 194 197
-953.400490780127 341.707881172946 2319.77007938214 194 198 201
-941.268580310027 340.28610970084 2310.20453482753 188 191 196
-930.635623535476 339.389179492764 2304.40044346941 182 185 190
-921.471002755732 339.018332995372 2302.36927791814 177 182 185
-914.096913589473 339.306940418873 2305.07033733309 174 180 180
-906.722782007257 339.59489442957 2307.7713628583 173 179 179
-899.348634884822 339.882253528982 2310.47234914286 174 178 179
-890.593132565259 339.638998091166 2309.36846437216 170 174 175
-881.515478507438 339.261656105884 2307.3052104499 158 162 163
-874.16446472862 339.546324563365 2309.99758850873 154 158 159
-867.826467171889 340.22881749348 2315.5518392401 154 156 155
-861.473204023696 340.911311507382 2321.11163661592 162 164 163
-853.442041511937 340.928712863838 2321.89760574235 179 181 180
-847.071121710118 341.610705889233 2327.46378064314 182 184 183
-840.357630310096 342.159424097453 2332.07781263542 169 173 172
-833.958810739923 342.841211038309 2337.65385471515 157 161 162
-825.933567088437 342.855985310993 2338.43772938495 189 193 194
-819.517360848091 343.537306572569 2344.02030786391 192 196 197
-813.720331041921 344.485790337912 2351.5311866039 199 203 204
-810.100263317598 346.370554728442 2365.78839371105 196 200 201
-804.858803632945 347.588018066721 2375.2510746802 189 193 194
-798.653396300725 348.404548220998 2381.8338199637 211 215 218
-793.348623099244 349.623294910054 2391.31960194208 207 211 214
-788.617150053632 351.110923774102 2402.75073681346 211 215 218
-785.047196028809 353.13640270417 2418.06690910573 209 213 216
-780.812610578505 354.895199130603 2431.47107855387 231 232 234
-773.258617104905 355.177497869484 2434.23702795956 227 229 228
-989.779232426367 332.242501789765 2304.77132782612 117 120 111
-993.165793976092 336.27106830826 2334.77724424451 205 208 201
-984.168175744052 336.054233716024 2333.76357707759 197 199 198
-975.559006008381 335.964831475753 2333.68494319585 192 194 193
-963.674156686645 334.713178349041 2325.10902398604 193 197 200
-952.213741040455 333.587597079642 2317.45521494818 195 199 202
-939.006841749912 331.813121802952 2305.0537191198 186 190 193
-929.461461009124 331.328014886118 2302.08546628782 184 188 191
-921.368412595743 331.358659584868 2302.89517442297 182 187 190
-914.344016847465 331.776928589774 2306.54551649743 179 184 187
-906.96419519871 332.06510497688 2309.24862621617 173 177 180
-900.279843188697 332.612148406895 2313.85194440906 173 177 178
-891.169029125054 332.250348951129 2311.80165716563 168 172 173
-882.769086804302 332.146635945155 2311.64592333651 161 165 166
-873.704524624789 331.78182416727 2309.57885806735 158 162 163
-867.365477985263 332.456259043877 2315.1328819769 158 160 159
-861.34606770557 333.26087510671 2321.64714860897 166 168 167
-854.973959019799 333.935351508998 2327.21318833473 175 177 176
-847.926997847533 334.349023633495 2330.87138243318 171 173 172
