ply
format ascii 1.0
comment KinectMotionCapture
element vertex 754
property float x
property float y
property float z
property uchar red
property uchar green
property uchar blue
end_header
-85.7588350772858 508.214950561523 2193.00007820129 133 106 97
-80.1371335983276 510.53923368454 2203.00006866455 163 139 129
-74.4269490242004 512.631237506866 2211.99989318848 241 218 210
-1039.14666175842 557.664930820465 2444.9999332428 117 113 110
-1026.12769603729 554.223537445068 2430.0000667572 243 242 240
-1016.13032817841 552.3801445961 2421.99993133545 222 221 219
-1005.76293468475 550.31019449234 2413.00010681152 216 215 213
-995.033323764801 548.013627529144 2403.00011634827 222 221 219
-984.772264957428 545.946419239044 2394.00005340576 222 221 219
-975.380122661591 544.33673620224 2387.00008392334 204 203 201
-966.02863073349 542.728245258331 2380.00011444092 218 216 217
-955.105245113373 540.20893573761 2368.99995803833 228 228 228
-944.244027137756 537.690877914429 2358.00004005432 229 229 229
-935.035824775696 536.086201667786 2351.0000705719 225 225 225
-925.867915153503 534.482657909393 2344.00010108948 216 217 219
-917.132496833801 533.108234405518 2338.00005912781 219 220 222
-908.821165561676 531.962931156158 2332.99994468689 218 219 221
-901.312649250031 531.274735927582 2329.99992370605 213 215 214
-894.206523895264 530.815660953522 2328.00006866455 210 210 208
-887.112975120544 530.357539653778 2325.99997520447 212 212 210
-880.789339542389 530.356407165527 2325.99997520447 211 211 209
-874.843180179596 530.584275722504 2326.99990272522 182 182 180
-868.520021438599 530.585110187531 2326.99990272522 167 167 165
-862.198352813721 530.586898326874 2326.99990272522 180 180 178
-853.671252727509 529.221475124359 2321.00009918213 196 196 194
-843.717634677887 526.944816112518 2311.00010871887 195 195 193
-834.906876087189 525.353014469147 2303.99990081787 182 182 180
-827.574014663696 524.674236774445 2301.00011825562 204 204 202
-820.258617401123 523.996233940125 2298.00009727478 204 204 202
-811.897754669189 522.634863853455 2292.00005531311 210 210 208
-804.625153541565 521.958410739899 2289.00003433228 208 208 206
-797.369837760925 521.282732486725 2286.00001335144 206 206 204
-789.785623550415 520.379662513733 2282.00006484985 206 206 204
-782.224059104919 519.477367401123 2278.00011634827 205 205 203
-775.706827640533 519.259810447693 2276.99995040894 187 187 185
-769.196033477783 519.04296875 2276.00002288818 191 191 189
-761.685431003571 518.142580986023 2272.0000743866 196 196 194
-755.527555942535 518.155157566071 2272.0000743866 195 195 193
-749.70006942749 518.396377563477 2273.00000190735 199 199 197
-743.867695331573 518.638253211975 2273.9999294281 192 192 190
-737.381637096405 518.424570560455 2273.00000190735 194 194 192
-731.544852256775 518.667638301849 2273.9999294281 202 202 200
-725.703239440918 518.911361694336 2275.00009536743 203 203 201
-721.121609210968 520.067989826202 2279.99997138977 176 176 174
-715.886116027832 520.769059658051 2282.99999237061 193 193 191
-709.702134132385 520.786285400391 2282.99999237061 191 191 189
-702.285826206207 519.891619682312 2279.00004386902 173 173 171
-695.502281188965 519.453585147858 2276.99995040894 189 189 187
-689.032554626465 519.244194030762 2276.00002288818 175 175 173
-681.968331336975 518.579006195068 2273.00000190735 188 188 186
-675.217688083649 518.14216375351 2270.99990844727 190 190 188
-669.0673828125 518.162250518799 2270.99990844727 181 183 180
-662.917077541351 518.182694911957 2270.99990844727 188 190 187
-656.766772270203 518.203556537628 2270.99990844727 185 187 184
-650.330007076263 517.996549606323 2269.99998092651 173 175 172
-643.898665904999 517.790019512177 2269.00005340576 176 178 175
-637.75360584259 517.811894416809 2269.00005340576 191 193 190
-631.608426570892 517.834186553955 2269.00005340576 188 190 187
-625.46318769455 517.856776714325 2269.00005340576 173 175 172
-619.590640068054 518.107891082764 2269.99998092651 169 171 168
-613.172113895416 517.902851104736 2269.00005340576 173 175 172
-606.758713722229 517.698109149933 2267.99988746643 185 187 184
-600.350558757782 517.493546009064 2266.99995994568 193 193 191
-593.423306941986 516.832709312439 2263.99993896484 191 191 189
-586.5119099617 516.172051429749 2260.99991798401 188 188 186
-580.12992143631 515.968084335327 2259.99999046326 179 179 177
-573.752999305725 515.76441526413 2259.0000629425 178 178 176
-567.883610725403 516.017496585846 2259.99999046326 178 178 176
-561.262726783752 515.585780143738 2257.99989700317 187 187 185
-553.914725780487 514.469146728516 2253.00002098084 195 195 193
-547.322809696198 514.037609100342 2250.99992752075 186 186 184
-540.500938892365 513.377845287323 2247.99990653992 184 184 182
-534.645676612854 513.631701469421 2249.00007247925 172 172 170
-528.314471244812 513.428807258606 2247.99990653992 156 158 155
-523.149728775024 514.368116855621 2252.00009346008 157 159 156
-517.274081707001 514.622330665588 2253.00002098084 153 155 152
-511.619210243225 515.105009078979 2255.00011444092 148 150 147
-505.728840827942 515.359401702881 2256.00004196167 156 158 155
-498.503655195236 514.243125915527 2250.99992752075 165 167 164
-490.430146455765 512.212991714478 2242.00010299683 178 180 177
-482.188701629639 509.954154491425 2232.00011253357 187 189 186
-475.280910730362 509.066045284271 2227.9999256134 198 200 197
-469.236582517624 509.091734886169 2227.9999256134 199 201 198
-463.607549667358 509.57465171814 2230.00001907349 194 196 193
-458.172112703323 510.285973548889 2233.00004005432 182 182 180
-451.302498579025 509.397566318512 2229.00009155273 192 192 190
-445.652365684509 509.880304336548 2230.99994659424 195 195 193
-439.399749040604 509.677410125732 2230.00001907349 141 141 139
-434.123396873474 510.617196559906 2233.99996757507 159 159 157
-427.675098180771 510.185599327087 2232.00011253357 187 187 185
-421.614736318588 510.211050510406 2232.00011253357 202 202 200
-415.553659200668 510.236382484436 2232.00011253357 186 186 184
-409.308344125748 510.032892227173 2230.99994659424 176 176 174
-403.067916631699 509.829342365265 2230.00001907349 180 180 178
-396.832168102264 509.625673294067 2229.00009155273 170 170 168
-391.127079725266 510.107696056366 2230.99994659424 162 164 161
-384.719997644424 509.675025939941 2229.00009155273 155 157 154
-378.492951393127 509.470760822296 2227.9999256134 161 163 160
-372.270673513412 509.266376495361 2226.99999809265 155 157 154
-366.21755361557 509.290456771851 2226.99999809265 153 155 152
-360.16371846199 509.314298629761 2226.99999809265 151 153 150
-354.268133640289 509.56666469574 2227.9999256134 157 159 156
-348.522812128067 510.047614574432 2230.00001907349 159 161 158
-342.765778303146 510.528326034546 2232.00011253357 163 165 162
-336.3938331604 510.093867778778 2230.00001907349 165 167 164
-329.883903264999 509.430408477783 2226.99999809265 166 168 165
-323.535025119781 508.995413780212 2224.99990463257 161 163 160
-317.48166680336 509.017586708069 2224.99990463257 161 163 160
-311.287730932236 508.810818195343 2223.99997711182 157 159 156
-305.098503828049 508.603751659393 2223.00004959106 156 158 155
-298.913985490799 508.39626789093 2221.99988365173 152 154 151
-293.129682540894 508.875012397766 2223.99997711182 148 150 147
-287.333846092224 509.353518486023 2226.0000705719 114 116 113
-281.4000248909 509.602785110474 2226.99999809265 108 110 107
-275.460124015808 509.8517537117 2227.9999256134 129 131 128
-269.393235445023 509.871661663055 2227.9999256134 140 142 139
-263.443917036057 510.120153427124 2229.00009155273 146 148 145
-257.373005151749 510.139346122742 2229.00009155273 184 185 180
-251.188695430756 509.929299354553 2227.9999256134 159 160 155
-245.11930346489 509.947896003723 2227.9999256134 145 146 141
-239.156559109688 510.194957256317 2229.00009155273 156 158 155
-233.18774998188 510.441601276398 2230.00001907349 143 145 142
-227.11107134819 510.459065437317 2230.00001907349 150 152 149
-220.835566520691 510.018229484558 2227.9999256134 138 140 137
-214.377611875534 509.119212627411 2223.99997711182 140 141 136
-208.128243684769 508.67760181427 2221.99988365173 134 135 130
-201.98018848896 508.464455604553 2220.99995613098 131 130 125
-196.366310119629 509.624600410461 2226.0000705719 76 73 66
-190.98111987114 511.471152305603 2233.99996757507 102 93 78
-184.062108397484 509.196281433105 2223.99997711182 124 111 94
-177.037045359612 506.462931632996 2211.99989318848 140 123 105
-170.386210083961 504.644870758057 2203.9999961853 144 126 106
-164.225980639458 504.200041294098 2201.99990272522 157 132 112
-158.219963312149 504.212856292725 2201.99990272522 165 140 120
-152.213498950005 504.225194454193 2201.99990272522 169 142 123
-145.941004157066 503.32111120224 2197.99995422363 169 144 124
-139.689952135086 502.416551113129 2194.00000572205 149 127 106
-133.338451385498 501.053512096405 2187.99996376038 144 123 104
-127.310380339623 500.835001468658 2187.00003623962 146 125 106
-121.509321033955 501.531958580017 2190.00005722046 140 121 104
-115.638799965382 501.99955701828 2191.99991226196 143 124 107
-109.807029366493 502.695679664612 2194.9999332428 114 92 78
-104.1005179286 504.078567028046 2200.99997520447 98 74 62
-98.4500721096992 505.918979644775 2209.00011062622 85 58 49
-92.6301404833794 507.071852684021 2213.99998664856 77 50 41
-87.0173126459122 509.59849357605 2224.99990463257 113 88 81
-81.8171352148056 515.10226726532 2249.00007247925 251 228 222
-1060.25099754334 555.106461048126 2463.00005912781 219 216 211
-1047.52361774445 551.92893743515 2448.99988174438 248 244 243
-1033.60104560852 548.077046871185 2431.99992179871 255 251 252
-1022.3081111908 545.578837394714 2421.0000038147 210 208 209
-1011.49785518646 543.307542800903 2411.00001335144 219 217 220
-1001.57856941223 541.488349437714 2403.00011634827 235 233 234
-991.291522979736 539.445102214813 2394.00005340576 215 213 214
-981.879234313965 537.854015827179 2387.00008392334 200 198 199
-972.915947437286 536.489427089691 2381.00004196167 206 204 205
-963.176250457764 534.675538539886 2372.99990653992 219 217 218
-952.27313041687 532.186925411224 2361.99998855591 222 222 222
-942.233085632324 530.150175094604 2352.9999256134 227 228 230
-933.039605617523 528.565168380737 2345.99995613098 221 222 224
-925.466418266296 527.88257598877 2342.99993515015 211 212 214
-916.73481464386 526.525139808655 2336.99989318848 209 210 212
-909.206569194794 525.844812393188 2334.00011062622 195 199 200
-901.309370994568 524.940013885498 2329.99992370605 192 194 193
-894.204258918762 524.487018585205 2328.00006866455 183 183 181
-885.967433452606 523.359000682831 2322.99995422363 200 200 198
-879.652976989746 523.358523845673 2322.99995422363 202 202 200
-873.339951038361 523.358941078186 2322.99995422363 174 174 172
-867.775082588196 523.810923099518 2325.00004768372 157 157 155
-861.830234527588 524.03849363327 2325.99997520447 182 182 180
-853.306710720062 522.689878940582 2319.9999332428 192 192 190
-843.356788158417 520.440936088562 2309.99994277954 196 196 194
-834.54954624176 518.868684768677 2302.99997329712 192 192 190
-826.860547065735 517.973184585571 2299.00002479553 216 216 214
-819.194376468658 517.078459262848 2295.00007629395 213 213 211
-811.196744441986 515.9592628479 2289.99996185303 202 202 200
-803.578794002533 515.066027641296 2286.00001335144 202 202 200
-795.983612537384 514.173567295074 2282.00006484985 203 203 201
-788.410842418671 513.281762599945 2278.00011634827 202 202 200
-781.890988349915 513.066649436951 2276.99995040894 196 196 194
-776.058673858643 513.30292224884 2278.00011634827 187 187 185
-769.207775592804 512.86381483078 2276.00002288818 190 190 188
-761.697888374329 511.974692344666 2272.0000743866 191 191 189
-755.208015441895 511.762201786041 2270.99990844727 186 186 184
-749.713659286499 512.226402759552 2273.00000190735 196 196 194
-743.881940841675 512.46589422226 2273.9999294281 196 196 194
-736.747622489929 511.804580688477 2270.99990844727 195 195 193
-730.595231056213 511.819839477539 2270.99990844727 200 200 198
-725.081264972687 512.286484241486 2273.00000190735 197 197 195
-720.821917057037 513.655245304108 2279.00004386902 179 179 177
-715.903222560883 514.573812484741 2282.99999237061 171 171 169
-709.719777107239 514.591336250305 2282.99999237061 190 190 188
-702.612161636353 513.93324136734 2279.99997138977 183 183 181
-695.52093744278 513.275504112244 2276.99995040894 193 193 191
-689.051568508148 513.069033622742 2276.00002288818 180 180 178
-682.587921619415 512.863039970398 2275.00009536743 187 187 185
-675.832331180573 512.431979179382 2273.00000190735 187 187 185
-669.676959514618 512.452244758606 2273.00000190735 177 179 176
-662.937760353088 512.021958827972 2270.99990844727 179 181 178
-657.366335391998 512.494027614594 2273.00000190735 182 184 181
-650.637984275818 512.064456939697 2270.99990844727 176 178 175
-644.771814346313 512.31175661087 2272.0000743866 174 176 173
-638.337910175323 512.108385562897 2270.99990844727 180 182 179
-632.187724113464 512.130856513977 2270.99990844727 188 190 187
-625.761687755585 511.928141117096 2269.99998092651 187 189 186
-619.613885879517 511.951208114624 2269.99998092651 178 180 177
-613.465785980225 511.974573135376 2269.99998092651 175 177 174
-607.050061225891 511.772692203522 2269.00005340576 179 181 178
-600.1096367836 511.119902133942 2266.00003242493 175 175 173
-593.185365200043 510.467290878296 2263.00001144409 176 176 174
-586.276888847351 509.814858436584 2259.99999046326 177 177 175
-579.641044139862 509.388148784637 2257.99989700317 178 178 176
-574.03165102005 509.864032268524 2259.99999046326 177 177 175
-567.657232284546 509.66340303421 2259.0000629425 181 181 179
-561.287760734558 509.462714195251 2257.99989700317 178 178 176
-553.939938545227 508.359789848328 2253.00002098084 175 175 173
-547.348141670227 507.933795452118 2250.99992752075 173 173 171
-540.766835212708 507.507920265198 2249.00007247925 178 178 176
-535.146653652191 507.984757423401 2250.99992752075 168 168 166
-529.045164585114 508.010387420654 2250.99992752075 156 158 155
-523.640096187592 508.713245391846 2253.99994850159 160 162 159
-517.529487609863 508.739113807678 2253.99994850159 158 160 157
-511.872053146362 509.216547012329 2256.00004196167 146 148 145
-506.651520729065 510.145425796509 2259.99999046326 146 148 145
-500.301480293274 509.945809841156 2259.0000629425 150 152 149
-492.643684148788 508.391737937927 2252.00009346008 161 163 160
-483.510822057724 505.257070064545 2237.99991607666 169 171 168
-475.520074367523 503.251075744629 2229.00009155273 186 188 185
-469.262421131134 503.051102161407 2227.9999256134 194 196 193
-463.217496871948 503.076910972595 2227.9999256134 195 197 194
-457.582294940948 503.554284572601 2230.00001907349 192 192 190
-450.720757246017 502.676784992218 2226.0000705719 188 188 186
-445.278584957123 503.379940986633 2229.00009155273 200 200 198
-439.819484949112 504.083096981049 2232.00011253357 129 129 127
-435.120701789856 505.689740180969 2239.00008201599 133 133 131
-429.04195189476 505.715310573578 2239.00008201599 169 169 167
-422.206789255142 504.837274551392 2234.99989509583 210 210 208
-415.392726659775 503.959059715271 2230.99994659424 199 199 197
-409.150093793869 503.758370876312 2230.00001907349 168 168 166
-403.273642063141 504.009306430817 2230.99994659424 176 176 174
-397.391110658646 504.260241985321 2232.00011253357 175 175 173
-391.502439975739 504.510939121246 2233.00004005432 166 168 165
-385.089695453644 504.083693027496 2230.99994659424 154 156 153
-378.857135772705 503.882229328156 2230.00001907349 162 164 161
-372.963517904282 504.132390022278 2230.99994659424 153 155 152
-367.063790559769 504.3825507164 2232.00011253357 148 150 147
-360.834419727325 504.180431365967 2230.99994659424 145 147 144
-354.927808046341 504.430174827576 2232.00011253357 148 150 147
-349.015057086945 504.679679870605 2233.00004005432 150 152 149
-343.249678611755 505.1549077034 2234.99989509583 157 159 156
-336.718499660492 504.499971866608 2232.00011253357 161 163 160
-330.499112606049 504.296720027924 2230.99994659424 166 168 165
-324.139088392258 503.867208957672 2229.00009155273 166 168 165
-318.074584007263 503.889441490173 2229.00009155273 160 162 159
-311.869442462921 503.685295581818 2227.9999256134 157 159 156
-305.669009685516 503.480911254883 2226.99999809265 163 165 162
-299.338817596436 503.050148487091 2224.99990463257 147 149 146
-293.54602098465 503.523409366608 2226.99999809265 130 132 129
-287.870854139328 504.222631454468 2230.00001907349 114 116 113
-282.178580760956 504.921495914459 2233.00004005432 116 118 115
-276.098430156708 504.941701889038 2233.00004005432 116 118 115
-270.138502120972 505.187690258026 2233.99996757507 124 126 123
-263.936072587967 504.981219768524 2233.00004005432 131 133 130
-257.738471031189 504.774272441864 2232.00011253357 173 174 169
-251.545637845993 504.566967487335 2230.99994659424 169 170 165
-245.467692613602 504.58550453186 2230.99994659424 147 147 145
-239.496424794197 504.829823970795 2232.00011253357 127 129 126
-233.728215098381 505.526125431061 2234.99989509583 106 108 107
-227.63754427433 505.54358959198 2234.99989509583 126 128 127
-221.447139978409 505.334436893463 2233.99996757507 125 127 124
-214.779615402222 503.993809223175 2227.9999256134 133 133 131
-208.518952131271 503.557682037354 2226.0000705719 126 125 121
-202.45049893856 503.573477268219 2226.0000705719 134 131 126
-196.910873055458 504.946291446686 2232.00011253357 99 96 91
-191.33797287941 506.318747997284 2237.99991607666 93 85 74
-184.655860066414 504.749655723572 2230.99994659424 105 95 83
-177.531182765961 501.822590827942 2217.99993515015 109 95 82
-170.863494277 500.026285648346 2210.00003814697 116 100 87
-164.611890912056 499.360680580139 2207.00001716614 114 95 81
-158.448070287704 498.920917510986 2204.99992370605 112 93 79
-152.294725179672 498.480707406998 2203.00006866455 103 84 70
-146.151840686798 498.039960861206 2200.99997520447 86 66 55
-140.083149075508 497.825086116791 2200.00004768372 75 58 48
-134.019508957863 497.609734535217 2198.99988174438 80 66 55
-128.193825483322 498.299121856689 2201.99990272522 81 67 56
-122.462391853333 499.44069981575 2207.00001716614 48 35 26
-116.703294217587 500.581800937653 2211.99989318848 48 38 28
-111.066684126854 502.401471138 2220.00002861023 40 25 18
-105.764470994473 506.031155586243 2236.00006103516 50 33 26
-100.018054246902 507.849991321564 2243.99995803833 65 48 41
-94.102144241333 508.989453315735 2249.00007247925 55 36 32
-88.1586670875549 510.128438472748 2253.99994850159 58 38 37
-82.4059247970581 512.624979019165 2265.00010490417 60 45 42
-1074.58531856537 548.89053106308 2464.99991416931 86 81 77
-1063.0704164505 546.416938304901 2453.9999961853 248 245 240
-1054.20196056366 545.280992984772 2448.99988174438 255 254 251
-1041.51439666748 542.142689228058 2434.99994277954 245 241 240
-1030.18164634705 539.673864841461 2424.00002479553 231 227 228
-1020.17867565155 537.874460220337 2415.99988937378 218 216 217
-1009.3834400177 535.631239414215 2405.99989891052 211 209 210
-999.479115009308 533.83457660675 2398.00000190735 215 213 214
-989.207088947296 531.816780567169 2388.99993896484 205 203 204
-980.632305145264 530.690729618073 2384.0000629425 196 194 195
-971.269965171814 529.120683670044 2377.00009346008 206 204 205
-961.948156356812 527.551829814911 2369.99988555908 226 224 225
-951.860785484314 525.539100170136 2361.00006103516 227 227 227
-942.224979400635 523.750126361847 2352.9999256134 218 220 219
-932.237207889557 521.739721298218 2344.00010108948 213 215 214
-924.670696258545 521.065950393677 2341.00008010864 207 209 208
-916.337788105011 519.948065280914 2335.99996566772 206 207 209
-908.813178539276 519.27638053894 2332.99994468689 197 198 200
-900.919854640961 518.383204936981 2328.9999961853 193 195 194
-894.202589988709 518.158793449402 2328.00006866455 188 188 186
-885.966777801514 517.044901847839 2322.99995422363 207 207 205
-878.895878791809 516.599893569946 2321.00009918213 208 208 206
-872.965216636658 516.823410987854 2322.00002670288 176 176 174
-868.150353431702 517.715573310852 2325.99997520447 157 157 155
-862.574279308319 518.163561820984 2328.00006866455 188 188 186
-853.310644626617 516.386687755585 2319.9999332428 194 194 192
-842.996418476105 513.942778110504 2309.00001525879 196 196 194
-833.8303565979 512.167453765869 2301.00011825562 190 190 188
-825.428247451782 510.838091373444 2295.00007629395 207 207 205
-817.059814929962 509.5095038414 2289.00003433228 204 204 202
-809.787690639496 508.849442005157 2286.00001335144 202 202 200
-802.53279209137 508.190035820007 2282.99999237061 202 202 200
-795.644044876099 507.754027843475 2280.99989891052 204 204 202
-788.767039775848 507.318735122681 2279.00004386902 202 202 200
-782.24515914917 507.106781005859 2278.00011634827 194 194 192
-775.729298591614 506.895363330841 2276.99995040894 186 186 184
-768.205940723419 506.016850471497 2273.00000190735 189 189 187
-760.704755783081 505.1389336586 2269.00005340576 191 191 189
-754.888713359833 505.374729633331 2269.99998092651 184 184 182
-749.397873878479 505.833923816681 2272.0000743866 192 192 190
-743.569374084473 506.070911884308 2273.00000190735 196 196 194
-736.438393592834 505.418062210083 2269.99998092651 194 194 192
-729.967534542084 505.210995674133 2269.00005340576 197 197 195
-724.140465259552 505.449771881104 2269.99998092651 202 202 200
-720.206201076508 507.025122642517 2276.99995040894 182 182 180
-715.607047080994 508.155822753906 2282.00006484985 161 161 159
-710.359573364258 508.841753005981 2285.00008583069 188 188 186
-703.555107116699 508.414685726166 2282.99999237061 191 191 189
-696.456134319305 507.765352725983 2279.99997138977 191 191 189
-689.676403999329 507.339119911194 2278.00011634827 180 180 178
-683.20769071579 507.136046886444 2276.99995040894 189 189 187
-676.149845123291 506.487965583801 2273.9999294281 182 182 180
-670.28683423996 506.73121213913 2275.00009536743 177 179 176
-663.250744342804 506.083905696869 2272.0000743866 176 178 175
-657.387733459473 506.327867507935 2273.00000190735 181 183 180
-650.373220443726 505.681157112122 2269.99998092651 178 180 177
-644.793927669525 506.14869594574 2272.0000743866 174 176 173
-638.360202312469 505.948185920715 2270.99990844727 175 177 174
-632.210433483124 505.97083568573 2270.99990844727 186 188 185
-625.784695148468 505.770981311798 2269.99998092651 189 191 188
-619.364202022552 505.571365356445 2269.00005340576 180 182 179
-613.489329814911 505.817711353302 2269.99998092651 173 175 172
-607.073783874512 505.618631839752 2269.00005340576 165 167 164
-600.398540496826 505.196988582611 2266.99995994568 159 159 157
-593.209624290466 504.329800605774 2263.00001144409 167 167 165
-586.820125579834 504.131376743317 2262.00008392334 173 173 171
-580.435812473297 503.933072090149 2260.99991798401 180 180 178
-574.310600757599 503.957867622375 2260.99991798401 179 179 177
-567.93349981308 503.759980201721 2259.99999046326 174 174 172
-561.561584472656 503.562271595001 2259.0000629425 173 173 171
-554.702877998352 502.918779850006 2256.00004196167 168 168 166
-548.346221446991 502.721309661865 2255.00011444092 161 161 159
-541.754126548767 502.300918102264 2253.00002098084 165 165 163
-535.647809505463 502.326548099518 2253.00002098084 171 171 169
-529.541015625 502.352297306061 2253.00002098084 162 164 161
-523.898363113403 502.824127674103 2255.00011444092 153 155 152
-517.78507232666 502.85005569458 2255.00011444092 157 159 156
-511.671185493469 502.876043319702 2255.00011444092 154 156 153
-506.229281425476 503.571152687073 2257.99989700317 147 149 146
-500.327587127686 503.820300102234 2259.0000629425 143 145 142
-494.638651609421 504.292547702789 2260.99991798401 149 151 148
-486.345499753952 502.088248729706 2250.99992752075 151 153 150
-478.319406509399 500.106871128082 2242.00010299683 157 159 156
-470.973283052444 498.794376850128 2236.00006103516 167 169 166
-464.074999094009 497.927963733673 2232.00011253357 183 185 182
-457.813292741776 497.730672359467 2230.99994659424 198 198 196
-450.948923826218 496.864020824432 2226.99999809265 193 193 191
-445.304274559021 497.336000204086 2229.00009155273 185 185 183
-440.239191055298 498.477280139923 2233.99996757507 159 159 157
-435.53501367569 500.064849853516 2240.9999370575 123 123 121
-430.025637149811 500.760018825531 2243.99995803833 105 105 103
-423.176825046539 499.892920255661 2240.00000953674 176 176 174
-416.162759065628 498.802453279495 2234.99989509583 206 206 204
-409.358650445938 497.934907674789 2230.99994659424 191 191 189
-403.479486703873 498.183250427246 2232.00011253357 183 183 181
-397.772073745728 498.654544353485 2233.99996757507 183 183 181
-391.702502965927 498.679339885712 2233.99996757507 177 179 176
-385.632127523422 498.704016208649 2233.99996757507 146 148 145
-379.730939865112 498.951703310013 2234.99989509583 158 160 157
-373.823642730713 499.199390411377 2236.00006103516 155 157 154
-367.910146713257 499.446749687195 2236.99998855591 159 161 158
-361.666977405548 499.247431755066 2236.00006103516 154 156 153
-355.587542057037 499.271154403687 2236.00006103516 147 149 146
-349.507421255112 499.294698238373 2236.00006103516 143 145 142
-343.733638525009 499.764531850815 2237.99991607666 138 140 137
-337.495714426041 499.564290046692 2236.99998855591 139 141 138
-331.262499094009 499.363839626312 2236.00006103516 155 157 154
-324.597746133804 498.493045568466 2232.00011253357 158 160 157
-318.667501211166 498.738646507263 2233.00004005432 158 160 157
-312.591195106506 498.760640621185 2233.00004005432 152 154 151
-306.514114141464 498.782336711884 2233.00004005432 148 150 147
-300.301879644394 498.580425977707 2232.00011253357 126 128 125
-294.35795545578 498.824924230576 2233.00004005432 115 117 114
-288.536995649338 499.292522668839 2234.99989509583 112 114 111
-282.578110694885 499.536514282227 2236.00006103516 119 121 118
-276.489436626434 499.556690454483 2236.00006103516 107 109 106
-270.521014928818 499.800026416779 2236.99998855591 112 114 111
-264.546483755112 500.043034553528 2237.99991607666 122 124 121
-258.450388908386 500.06228685379 2237.99991607666 151 151 149
-252.240866422653 499.857723712921 2236.99998855591 153 153 151
-246.256247162819 500.099718570709 2237.99991607666 139 139 137
-240.372836589813 500.564813613892 2240.00000953674 120 122 121
-234.791666269302 501.699984073639 2244.99988555908 97 99 98
-228.571519255638 501.49405002594 2243.99995803833 111 113 112
-222.356185317039 501.287639141083 2243.00003051758 118 120 119
-215.663701295853 499.963372945786 2236.99998855591 124 124 122
-209.378063678741 499.532550573349 2234.99989509583 116 115 111
-203.375637531281 499.771922826767 2236.00006103516 121 118 113
-197.45546579361 500.234425067902 2237.99991607666 122 117 113
-191.865831613541 501.590609550476 2243.99995803833 84 75 66
-185.497999191284 500.934720039368 2240.9999370575 93 83 73
-178.825825452805 499.384164810181 2233.99996757507 88 76 64
-172.268643975258 498.056650161743 2227.9999256134 91 77 66
-165.967509150505 497.399270534515 2224.99990463257 85 68 58
-159.682258963585 496.741443872452 2221.99988365173 83 65 53
-153.274685144424 495.63604593277 2217.00000762939 79 62 52
-147.159591317177 495.424419641495 2216.00008010864 81 64 56
-141.622632741928 497.224420309067 2223.99997711182 72 58 49
-135.919705033302 498.576939105988 2230.00001907349 51 41 32
-130.474761128426 501.046895980835 2240.9999370575 46 35 29
-101.630851626396 509.813785552979 2279.99997138977 28 13 10
-95.2396020293236 508.927345275879 2276.00002288818 41 26 23
-88.9481380581856 508.487582206726 2273.9999294281 34 18 18
-82.7764868736267 508.718192577362 2275.00009536743 34 23 21
-1089.3919467926 542.88637638092 2467.99993515015 146 145 143
-1079.99658584595 541.540443897247 2461.99989318848 236 235 233
-1070.20151615143 539.976060390472 2454.99992370605 247 246 244
-1060.01532077789 538.19340467453 2447.00002670288 232 231 229
-1050.736784935 536.852061748505 2440.99998474121 234 233 231
-1038.92815113068 534.192681312561 2428.99990081787 228 227 225
-1028.46312522888 532.194554805756 2420.00007629395 203 202 200
-1018.4725522995 530.417799949646 2411.99994087219 208 207 205
-1008.10897350311 528.422594070435 2403.00011634827 209 208 206
-998.630881309509 526.868462562561 2395.99990844727 199 198 196
-988.779783248901 525.095760822296 2388.00001144409 206 206 204
-980.208814144135 523.984014987946 2382.99989700317 197 197 195
-970.441877841949 522.213935852051 2375 206 206 204
-960.314929485321 520.22510766983 2365.9999370575 225 225 223
-950.239777565002 518.23765039444 2357.00011253357 228 228 226
-941.016376018524 516.690909862518 2349.99990463257 219 219 217
-931.037962436676 514.705657958984 2341.00008010864 216 216 214
-922.690510749817 513.600945472717 2335.99996566772 209 209 207
-913.980066776276 512.27742433548 2329.99992370605 207 207 205
-907.641410827637 512.274146080017 2329.99992370605 199 199 197
-900.144159793854 511.612296104431 2326.99990272522 196 196 194
-894.58554983139 512.050688266754 2328.9999961853 186 185 183
-886.729419231415 511.170923709869 2325.00004768372 204 203 201
-879.275381565094 510.511934757233 2322.00002670288 202 201 199
-872.966945171356 510.513424873352 2322.00002670288 172 171 169
-867.406487464905 510.955572128296 2323.99988174438 155 154 152
-861.466288566589 511.17879152298 2325.00004768372 184 183 181
-851.843774318695 509.204149246216 2315.99998474121 196 195 193
-842.271387577057 507.230341434479 2306.99992179871 195 194 192
-833.836376667023 505.917012691498 2301.00011825562 201 200 198
-825.434982776642 504.604339599609 2295.00007629395 206 205 203
-817.067325115204 503.292441368103 2289.00003433228 204 203 201
-809.441685676575 502.421081066132 2285.00008583069 200 200 198
-801.48720741272 501.330494880676 2279.99997138977 202 202 200
-794.258534908295 500.680446624756 2276.99995040894 201 201 199
-786.70072555542 499.811083078384 2273.00000190735 197 197 195
-781.2260389328 500.261843204498 2275.00009536743 189 189 187
-775.059878826141 500.273525714874 2275.00009536743 182 182 180
-768.556356430054 500.065803527832 2273.9999294281 194 194 192
-761.388301849365 499.419003725052 2270.99990844727 195 195 193
-755.235016345978 499.432563781738 2270.99990844727 182 182 180
-749.741971492767 499.88654255867 2273.00000190735 181 181 179
-743.584334850311 499.901324510574 2273.00000190735 187 187 185
-736.129343509674 499.036878347397 2269.00005340576 197 198 193
-729.661762714386 498.832762241364 2267.99988746643 200 201 196
-723.838031291962 499.069154262543 2269.00005340576 193 194 189
-719.590783119202 500.40590763092 2275.00009536743 191 192 187
-714.997529983521 501.523196697235 2279.99997138977 181 182 177
-710.066854953766 502.421140670776 2283.99991989136 175 176 171
-703.573703765869 502.219676971436 2282.99999237061 187 188 183
-697.086215019226 502.018749713898 2282.00006484985 166 167 162
-689.998745918274 501.378178596497 2279.00004386902 177 178 173
-684.127926826477 501.618087291718 2279.99997138977 177 178 173
-677.062332630157 500.978350639343 2276.99995040894 175 176 171
-670.602262020111 500.779032707214 2276.00002288818 178 178 176
-663.563787937164 500.139951705933 2273.00000190735 167 167 165
-657.987773418427 500.601530075073 2275.00009536743 171 171 169
-651.254594326019 500.18322467804 2273.00000190735 173 173 171
-645.099878311157 500.205338001251 2273.00000190735 176 176 174
-638.101756572723 499.567598104477 2269.99998092651 170 170 168
-632.233262062073 499.810427427292 2270.99990844727 178 178 176
-625.807881355286 499.613463878632 2269.99998092651 192 192 190
-619.660615921021 499.636799097061 2269.99998092651 189 189 187
-613.513052463531 499.660462141037 2269.99998092651 180 180 178
-607.365310192108 499.68433380127 2269.99998092651 165 165 163
-601.217269897461 499.708443880081 2269.99998092651 165 165 163
-593.758285045624 498.632162809372 2265.00010490417 166 166 164
-587.363600730896 498.436510562897 2263.99993896484 167 167 165
-580.717325210571 498.020946979523 2262.00008392334 172 172 170
-575.097560882568 498.486161231995 2263.99993896484 177 177 175
-568.210005760193 497.850716114044 2260.99991798401 173 173 171
-561.338245868683 497.215360403061 2257.99989700317 177 177 175
-554.728269577026 496.800363063812 2256.00004196167 169 169 167
-548.614919185638 496.825844049454 2256.00004196167 159 159 157
-542.741656303406 497.071713209152 2256.99996948242 154 154 152
-536.386847496033 496.877163648605 2256.00004196167 161 161 159
-530.036926269531 496.68276309967 2255.00011444092 161 163 160
-523.924350738525 496.708691120148 2255.00011444092 149 151 148
-518.040657043457 496.954888105392 2256.00004196167 152 154 151
-512.151002883911 497.201234102249 2256.99996948242 159 161 158
-506.479680538177 497.667998075485 2259.0000629425 145 147 144
-501.018285751343 498.355120420456 2262.00008392334 136 138 135
-495.540052652359 499.042361974716 2265.00010490417 142 144 141
-489.180535078049 498.848289251328 2263.99993896484 155 157 154
-482.185781002045 497.993141412735 2259.99999046326 141 143 140
-473.737567663193 495.595425367355 2249.00007247925 147 149 146
-465.764254331589 493.638098239899 2240.00000953674 155 157 154
-458.044350147247 491.901010274887 2232.00011253357 167 167 165
-451.582193374634 491.486012935638 2230.00001907349 161 161 159
-445.329964160919 491.29131436348 2229.00009155273 173 173 171
-440.461933612823 492.639422416687 2234.99989509583 181 181 179
-435.755103826523 494.208157062531 2242.00010299683 139 139 137
-430.817842483521 495.556443929672 2247.99990653992 114 114 112
-424.335867166519 495.1411485672 2246.00005149841 117 117 115
-417.677819728851 494.505226612091 2243.00003051758 162 162 160
-411.035269498825 493.869096040726 2240.00000953674 201 201 199
-404.589146375656 493.45326423645 2237.99991607666 185 185 183
-398.153126239777 493.03725361824 2236.00006103516 176 176 174
-391.902565956116 492.84154176712 2234.99989509583 173 175 174
-386.347234249115 493.527799844742 2237.99991607666 141 145 144
-380.604952573776 493.993312120438 2240.00000953674 149 153 152
-374.683827161789 494.238197803497 2240.9999370575 156 160 159
-368.427604436874 494.041860103607 2240.00000953674 161 165 164
-362.014293670654 493.624657392502 2237.99991607666 159 163 162
-355.92919588089 493.648380041122 2237.99991607666 148 152 151
-349.687069654465 493.451327085495 2236.99998855591 145 149 148
-343.910455703735 493.91582608223 2239.00008201599 137 141 140
-338.12215924263 494.379997253418 2240.9999370575 137 141 140
-332.174152135849 494.62354183197 2242.00010299683 139 143 142
-325.492739677429 493.763566017151 2237.99991607666 140 142 141
-319.1177546978 493.344575166702 2236.00006103516 143 143 143
-313.033014535904 493.366569280624 2236.00006103516 114 114 114
-307.496577501297 494.270890951157 2240.00000953674 100 100 100
-301.803171634674 494.954347610474 2243.00003051758 105 105 105
-295.565366744995 494.754880666733 2242.00010299683 109 109 109
-289.461433887482 494.775772094727 2242.00010299683 112 112 112
-283.230394124985 494.575649499893 2240.9999370575 118 118 118
-277.127802371979 494.595885276794 2240.9999370575 125 125 125
-271.024525165558 494.615793228149 2240.9999370575 116 116 116
-264.920502901077 494.635313749313 2240.9999370575 124 124 124
-258.815884590149 494.654566049576 2240.9999370575 129 127 128
-252.823412418365 494.894236326218 2242.00010299683 110 108 109
-247.264951467514 496.016442775726 2246.99997901917 102 100 103
-241.571336984634 496.91766500473 2250.99992752075 99 97 100
-235.959872603416 498.039394617081 2256.00004196167 243 241 244
-223.860174417496 498.515605926514 2257.99989700317 170 168 171
-217.222779989243 497.428447008133 2253.00002098084 84 82 85
-210.98680794239 497.224032878876 2252.00009346008 98 96 97
-1097.90754318237 537.057876586914 2471.99988365173 193 192 188
-1089.36548233032 536.162197589874 2467.99993515015 225 224 222
-1079.09429073334 534.399092197418 2460.00003814697 242 241 239
-1069.30637359619 532.854795455933 2453.00006866455 242 241 239
-1058.69364738464 530.877530574799 2444.00000572205 237 236 234
-1048.13361167908 528.901875019073 2434.99994277954 215 214 212
-1037.19818592072 526.710510253906 2424.99995231628 218 217 215
-1027.59540081024 525.172114372253 2417.99998283386 191 190 188
-1018.03386211395 523.63520860672 2411.00001335144 202 201 199
-1007.67433643341 521.665215492249 2401.99995040894 208 207 205
-997.783601284027 519.913792610168 2394.00005340576 195 194 192
-987.939059734344 518.163621425629 2385.99991798401 201 201 199
-978.552162647247 516.631901264191 2378.99994850159 203 203 201
-968.797385692596 514.884352684021 2371.00005149841 206 206 204
-959.088504314423 513.137876987457 2362.99991607666 224 224 222
-949.425518512726 511.392652988434 2355.00001907349 222 222 220
-939.808368682861 509.648501873016 2346.99988365173 214 214 212
-930.23693561554 507.905542850494 2338.99998664856 212 212 210
-921.896040439606 506.815075874329 2334.00011062622 206 206 204
-913.1920337677 505.508482456207 2328.00006866455 204 204 202
-906.470239162445 505.288600921631 2326.99990272522 197 197 195
-899.755775928497 505.069732666016 2325.99997520447 194 194 192
-894.2009806633 505.503356456757 2328.00006866455 183 182 180
-887.111186981201 505.069196224213 2325.99997520447 202 201 199
-879.276633262634 504.201710224152 2322.00002670288 201 200 198
-873.345077037811 504.420876502991 2322.99995422363 172 171 169
-867.03634262085 504.423797130585 2322.99995422363 156 155 153
-861.099660396576 504.644751548767 2323.99988174438 183 182 180
-851.112961769104 502.477884292603 2313.99989128113 197 196 194
-842.276930809021 500.963270664215 2306.99992179871 201 200 198
-833.842813968658 499.666720628738 2301.00011825562 207 206 204
-825.442254543304 498.370796442032 2295.00007629395 204 203 201
-817.075252532959 497.075587511063 2289.00003433228 201 200 198
-808.741807937622 495.781153440475 2282.99999237061 203 203 201
-801.145136356354 494.921743869781 2279.00004386902 205 205 203
-794.268548488617 494.497269392014 2276.99995040894 203 203 201
-787.40382194519 494.073569774628 2275.00009536743 199 199 197
-781.237542629242 494.084924459457 2275.00009536743 190 190 188
-774.049818515778 493.44527721405 2272.0000743866 182 182 180
-767.555117607117 493.240624666214 2270.99990844727 194 194 192
-760.060608386993 492.38508939743 2266.99995994568 195 195 193
-754.583895206451 492.833286523819 2269.00005340576 181 181 179
-749.42672252655 493.499398231506 2272.0000743866 176 176 174
-743.272423744202 493.51441860199 2272.0000743866 181 181 179
-736.469507217407 493.095546960831 2269.99998092651 187 188 183
-729.999840259552 492.894500494003 2269.00005340576 187 188 183
-723.854899406433 492.911159992218 2269.00005340576 190 191 186
-718.659222126007 493.58007311821 2272.0000743866 193 194 189
-714.074671268463 494.683980941772 2276.99995040894 186 187 182
-709.463477134705 495.78857421875 2282.00006484985 162 163 158
-703.900814056396 496.241837739944 2283.99991989136 181 182 177
-696.800053119659 495.609223842621 2280.99989891052 172 173 168
-690.018475055695 495.194345712662 2279.00004386902 168 169 164
-683.848023414612 495.214402675629 2279.00004386902 181 182 177
-677.380263805389 495.017647743225 2278.00011634827 176 177 172
-670.917928218842 494.821190834045 2276.99995040894 182 182 180
-664.460957050323 494.625121355057 2276.00002288818 166 166 164
-659.16633605957 495.298773050308 2279.00004386902 167 167 165
-652.136206626892 494.66872215271 2276.00002288818 169 169 167
-645.689964294434 494.473725557327 2275.00009536743 172 172 170
-638.405442237854 493.626832962036 2270.99990844727 167 167 165
-633.091509342194 494.30188536644 2273.9999294281 168 168 166
-626.933872699738 494.32510137558 2273.9999294281 179 179 177
-620.503127574921 494.131237268448 2273.00000190735 187 187 185
-613.807141780853 493.720173835754 2270.99990844727 189 189 187
-607.389390468597 493.526816368103 2269.99998092651 180 180 178
-601.506471633911 493.768453598022 2270.99990844727 174 174 172
-595.093488693237 493.575513362885 2269.99998092651 162 162 160
-588.425993919373 493.16531419754 2267.99988746643 161 161 159
-581.769168376923 492.75529384613 2266.00003242493 165 165 163
-575.376689434052 492.562860250473 2265.00010490417 162 162 160
-568.989157676697 492.370575666428 2263.99993896484 162 162 160
-561.860859394073 491.52597784996 2259.99999046326 167 167 165
-554.999589920044 490.898907184601 2256.99996948242 158 158 156
-549.126863479614 491.141974925995 2257.99989700317 148 148 146
-543.488800525665 491.602748632431 2259.99999046326 143 143 141
-537.601411342621 491.846024990082 2260.99991798401 143 143 141
-531.238079071045 491.654396057129 2259.99999046326 141 143 140
-524.879634380341 491.462886333466 2259.0000629425 147 149 146
-518.755674362183 491.488963365555 2259.0000629425 153 155 152
-512.631058692932 491.515100002289 2259.0000629425 135 137 134
-506.730020046234 491.758793592453 2259.99999046326 133 135 132
-501.266002655029 492.437809705734 2263.00001144409 147 149 146
-496.003895998001 493.33456158638 2266.99995994568 132 134 131
-490.287214517593 493.796169757843 2269.00005340576 147 149 146
-483.918964862823 493.604868650436 2267.99988746643 156 158 155
-476.080864667892 491.889953613281 2259.99999046326 147 149 146
-468.493491411209 490.392565727234 2253.00002098084 138 140 137
-460.738122463226 488.677233457565 2244.99988555908 140 140 138
-453.633040189743 487.614780664444 2240.00000953674 140 140 138
-446.554332971573 486.552059650421 2234.99989509583 136 136 134
-441.078871488571 487.230896949768 2237.99991607666 182 182 180
-435.780763626099 488.127529621124 2242.00010299683 195 195 193
-430.843472480774 489.45951461792 2247.99990653992 166 166 164
-425.117135047913 489.920556545258 2250 108 108 106
-419.192910194397 490.163773298264 2250.99992752075 97 97 95
-413.079053163528 490.189164876938 2250.99992752075 108 108 106
-406.783699989319 489.996701478958 2250 107 107 105
-399.958729743958 489.150643348694 2246.00005149841 158 158 156
-393.330156803131 488.522171974182 2243.00003051758 179 181 180
-387.06237077713 488.32905292511 2242.00010299683 149 153 152
-381.47896528244 489.006996154785 2244.99988555908 159 163 162
-375.544130802155 489.24919962883 2246.00005149841 161 165 164
-368.780612945557 488.402038812637 2242.00010299683 162 166 165
-362.038105726242 487.554550170898 2237.99991607666 166 170 169
-355.952829122543 487.578272819519 2237.99991607666 163 167 166
-350.023150444031 487.819641828537 2239.00008201599 155 159 158
-344.394445419312 488.496571779251 2242.00010299683 136 140 139
-338.748663663864 489.173173904419 2244.99988555908 130 134 133
-332.78951048851 489.413976669312 2246.00005149841 137 141 140
-326.242387294769 488.782823085785 2243.00003051758 150 150 150
-319.996297359467 488.587230443954 2242.00010299683 136 136 136
-314.034879207611 488.827109336853 2243.00003051758 106 106 106
-308.341890573502 489.50269818306 2246.00005149841 99 99 99
-302.90099978447 490.613877773285 2250.99992752075 100 100 100
-296.772956848145 490.63515663147 2250.99992752075 102 102 102
-290.902435779572 491.092026233673 2253.00002098084 117 117 117
-284.388303756714 490.45866727829 2250 120 120 120
-278.260886669159 490.478932857513 2250 123 123 123
-272.011816501617 490.280896425247 2249.00007247925 128 128 128
-265.767484903336 490.08247256279 2247.99990653992 128 128 128
-259.758949279785 490.319758653641 2249.00007247925 132 130 133
-254.08262014389 491.210758686066 2253.00002098084 132 130 133
-249.044165015221 493.409663438797 2263.00001144409 99 97 100
-1112.7907037735 531.022191047668 2474.99990463257 198 197 193
-1104.65931892395 530.349850654602 2471.99988365173 239 238 234
-1094.77186203003 528.820991516113 2464.99991416931 208 207 205
-1085.36767959595 527.508139610291 2459.00011062622 219 218 216
-1075.56104660034 525.982260704041 2451.99990272522 232 231 229
-1066.23256206512 524.672627449036 2446.00009918213 225 224 222
-1056.93995952606 523.364305496216 2440.00005722046 214 213 211
-1047.25313186646 521.843016147614 2433.00008773804 213 212 210
-1037.60766983032 520.323157310486 2426.00011825562 195 194 192
-1028.42843532562 519.01912689209 2420.00007629395 182 181 179
-1018.4406042099 517.28755235672 2411.99994087219 196 195 193
-1008.07964801788 515.342831611633 2403.00011634827 204 203 201
-998.187363147736 513.613939285278 2394.99998092651 198 197 195
-987.927377223969 511.671781539917 2385.99991798401 185 185 183
-978.130400180817 509.945452213287 2378.00002098084 208 208 206
-967.562079429626 507.791340351105 2368.00003051758 210 210 208
-956.645011901855 505.42414188385 2357.00011253357 220 220 218
-946.999490261078 503.701210021973 2348.99997711182 213 213 211
-937.399804592133 501.97958946228 2341.00008010864 210 210 208
-929.038822650909 500.902235507965 2335.99996566772 207 207 205
-920.707225799561 499.826014041901 2331.00008964539 201 201 199
-913.189113140106 499.179542064667 2328.00006866455 199 199 197
-906.468331813812 498.962968587875 2326.99990272522 190 190 188
-899.754762649536 498.747378587723 2325.99997520447 186 186 184
-894.200801849365 499.175995588303 2328.00006866455 181 180 178
-887.112021446228 498.747825622559 2325.99997520447 200 199 197
-879.65714931488 498.106211423874 2322.99995422363 199 198 196
-873.723745346069 498.323142528534 2323.99988174438 168 167 165
-867.41316318512 498.326510190964 2323.99988174438 151 150 148
-860.363006591797 497.901916503906 2322.00002670288 185 184 182
-850.750386714935 495.977133512497 2312.99996376038 196 195 193
-841.55285358429 494.267553091049 2305.0000667572 196 195 193
-832.76242017746 492.773175239563 2298.00009727478 199 198 196
-824.011087417603 491.279542446136 2290.99988937378 196 195 193
-816.726624965668 490.644365549088 2288.00010681152 197 196 194
-808.396697044373 489.366620779037 2282.00006484985 198 198 196
-801.154911518097 488.732844591141 2279.00004386902 199 199 197
-793.930292129517 488.099783658981 2276.00002288818 198 198 196
-786.722719669342 487.467348575592 2273.00000190735 196 196 194
-780.562400817871 487.478941679001 2273.00000190735 192 192 190
-774.062275886536 487.276762723923 2272.0000743866 191 191 189
-767.906248569489 487.289667129517 2272.0000743866 196 196 194
-760.409533977509 486.445218324661 2267.99988746643 194 194 192
-754.598140716553 486.673831939697 2269.00005340576 187 187 185
-749.111711978912 487.117528915405 2270.99990844727 176 176 174
-742.960691452026 487.13281750679 2270.99990844727 171 171 169
-736.809968948364 487.148642539978 2270.99990844727 172 173 168
-730.65972328186 487.165033817291 2270.99990844727 171 172 167
-724.828958511353 487.396508455276 2272.0000743866 187 188 183
-718.676805496216 487.413972616196 2272.0000743866 195 196 191
-713.779270648956 488.290041685104 2276.00002288818 191 192 187
-709.171175956726 489.381164312363 2280.99989891052 154 155 150
-703.611731529236 489.829301834106 2282.99999237061 170 171 166
-696.514189243317 489.204972982407 2279.99997138977 186 187 182
-690.038502216339 489.010274410248 2279.00004386902 168 169 164
-684.168457984924 489.24508690834 2279.99997138977 179 180 175
-678.29304933548 489.480316638947 2280.99989891052 185 186 181
-671.823024749756 489.286810159683 2279.99997138977 183 183 181
-665.650248527527 489.308267831802 2279.99997138977 170 170 168
-660.055994987488 489.759266376495 2282.00006484985 167 167 165
-653.591096401215 489.566802978516 2280.99989891052 163 163 161
-646.847784519196 489.160090684891 2279.00004386902 166 166 164
-639.55283164978 488.32431435585 2275.00009536743 164 164 162
-633.393049240112 488.347351551056 2275.00009536743 164 164 162
-627.23308801651 488.370686769485 2275.00009536743 172 172 170
