ply
format ascii 1.0
comment KinectMotionCapture
element vertex 750
property float x
property float y
property float z
property uchar red
property uchar green
property uchar blue
end_header
-898.758769035339 348.71044754982 2424.99995231628 154 154 152
-892.930865287781 349.009424448013 2427.00004577637 158 158 156
-886.362671852112 349.021285772324 2427.00004577637 159 159 157
-879.432737827301 348.889887332916 2426.00011825562 161 161 159
-872.149288654327 348.615139722824 2424.00002479553 168 168 166
-865.591645240784 348.628491163254 2424.00002479553 170 170 168
-859.388828277588 348.786205053329 2424.99995231628 164 164 162
-854.939997196198 349.663585424423 2430.99999427795 169 169 167
-850.459158420563 350.54150223732 2437.00003623962 170 170 168
-845.599949359894 351.276040077209 2441.99991226196 170 170 168
-839.340150356293 351.435750722885 2443.00007820129 172 172 170
-833.756983280182 351.883560419083 2446.00009918213 174 174 172
-828.157901763916 352.331846952438 2448.99988174438 173 173 171
-822.878420352936 352.924525737762 2453.00006866455 172 172 170
-817.244827747345 353.373676538467 2456.00008964539 176 176 174
-811.265110969543 353.679358959198 2457.99994468689 182 182 180
-806.257009506226 354.417234659195 2463.00005912781 184 184 182
-801.22172832489 355.155467987061 2467.99993515015 182 184 181
-797.125518321991 356.325894594193 2476.0000705719 180 182 179
-792.347490787506 357.20893740654 2482.00011253357 179 181 178
-787.537038326263 358.092397451401 2487.99991607666 182 184 181
-781.752645969391 358.5444688797 2490.9999370575 185 187 184
-777.507603168488 359.716683626175 2499.00007247925 186 188 185
-775.378048419952 361.896932125092 2513.99993896484 185 187 184
-775.918781757355 365.373402833939 2538.00010681152 185 187 184
-774.208188056946 367.842733860016 2555.0000667572 185 187 184
-769.40244436264 368.872910737991 2562.00003623962 186 188 185
-765.153765678406 370.191395282745 2571.00009918213 187 189 186
-763.510227203369 372.806310653687 2588.99998664856 188 190 187
-764.106452465057 376.573771238327 2615.00000953674 188 188 188
-763.982772827148 380.053967237473 2638.99993896484 181 181 181
-762.294828891754 382.814645767212 2657.99999237061 188 188 188
-761.355876922607 386.008054018021 2680.0000667572 183 183 183
-971.845507621765 342.317193746567 2427.00004577637 192 192 190
-963.273644447327 341.616719961166 2421.99993133545 192 192 190
-955.915868282318 341.340094804764 2420.00007629395 185 185 183
-948.178052902222 340.922951698303 2417.00005531311 183 183 181
-940.847754478455 340.647578239441 2414.99996185303 185 185 183
-934.303283691406 340.654879808426 2414.99996185303 190 190 190
-928.528666496277 340.944945812225 2417.00005531311 193 193 191
-921.981692314148 340.953469276428 2417.00005531311 161 161 159
-915.057003498077 340.821474790573 2415.99988937378 152 152 150
-909.267067909241 341.113328933716 2417.99998283386 164 164 162
-904.587507247925 341.828972101212 2423.00009727478 163 163 161
-899.511158466339 342.404067516327 2427.00004577637 157 157 155
-893.31042766571 342.55650639534 2427.99997329712 155 155 153
-886.009633541107 342.286258935928 2426.00011825562 156 156 154
-879.082918167114 342.157542705536 2424.99995231628 169 169 167
-872.162401676178 342.029303312302 2424.00002479553 174 174 172
-865.605235099792 342.042654752731 2424.00002479553 173 173 171
-859.4029545784 342.197597026825 2424.99995231628 175 175 173
-854.602873325348 342.917561531067 2430.0000667572 173 173 171
-850.474178791046 343.920201063156 2437.00003623962 173 173 171
-845.61550617218 344.641119241714 2441.99991226196 174 174 172
-840.043187141418 345.08028626442 2444.9999332428 175 175 173
-834.455072879791 345.519870519638 2447.99995422363 175 175 173
-828.512907028198 345.818817615509 2450.00004768372 172 172 170
-822.895646095276 346.259295940399 2453.00006866455 177 177 175
-817.595303058624 346.841394901276 2457.00001716614 179 179 177
-811.613440513611 347.141623497009 2459.00011062622 183 183 181
-806.930184364319 348.006874322891 2464.99991416931 184 184 182
-802.214622497559 348.872631788254 2470.99995613098 179 181 178
-798.110604286194 350.021183490753 2479.00009155273 179 181 178
-792.686402797699 350.605398416519 2483.00004005432 181 183 180
-787.240564823151 351.189970970154 2486.99998855591 184 186 183
-781.459152698517 351.633757352829 2490.00000953674 185 187 184
-776.594877243042 352.501541376114 2496.00005149841 184 186 183
-774.165391921997 354.499608278275 2509.99999046326 185 187 184
-774.411737918854 357.769370079041 2532.99999237061 185 187 184
-773.624181747437 360.616028308868 2552.99997329712 185 187 184
-768.82416009903 361.626923084259 2559.99994277954 186 188 185
-764.283657073975 362.779498100281 2568.00007820129 187 189 186
-762.353718280792 365.203946828842 2585.00003814697 188 190 187
-762.37678527832 368.61789226532 2608.99996757507 188 188 188
-761.401236057281 371.608644723892 2630.00011444092 185 185 185
-759.737968444824 374.31737780571 2648.9999294281 190 190 190
-758.823752403259 377.450615167618 2671.0000038147 180 180 180
-972.650766372681 335.998803377151 2428.99990081787 189 189 187
-964.074373245239 335.312128067017 2424.00002479553 190 190 188
-956.71159029007 335.040986537933 2421.99993133545 184 184 182
-948.576807975769 334.493905305862 2417.99998283386 185 185 183
-941.2442445755 334.223985671997 2415.99988937378 190 190 188
-934.310972690582 334.09309387207 2414.99996185303 194 194 194
-928.921163082123 334.516137838364 2417.99998283386 190 190 188
-922.75333404541 334.663063287735 2418.99991035461 159 159 157
-916.581451892853 334.810614585876 2420.00007629395 161 161 159
-910.78120470047 335.097044706345 2421.99993133545 164 164 162
-905.717968940735 335.660755634308 2426.00011825562 160 160 158
-899.892866611481 335.948348045349 2427.99997329712 160 160 158
-893.322050571442 335.959702730179 2427.99997329712 158 158 156
-885.656356811523 335.556447505951 2424.99995231628 159 159 157
-879.095494747162 335.568845272064 2424.99995231628 178 178 176
-872.175455093384 335.443288087845 2424.00002479553 182 182 180
-866.333067417145 335.733443498611 2426.00011825562 174 174 172
-860.480308532715 336.024016141891 2427.99997329712 172 172 170
-855.320751667023 336.591899394989 2431.99992179871 171 171 169
-850.838184356689 337.437063455582 2437.99996376038 171 171 169
-845.977365970612 338.144421577454 2443.00007820129 172 172 170
-840.746283531189 338.713705539703 2447.00002670288 170 170 168
-834.812223911285 339.006662368774 2448.99988174438 168 168 166
-828.867852687836 339.300036430359 2450.99997520447 174 174 172
-822.912871837616 339.593887329102 2453.00006866455 180 180 178
-817.280113697052 340.026557445526 2456.00008964539 183 183 181
-812.291383743286 340.736478567123 2460.99996566772 182 182 180
-807.603240013123 341.585367918015 2467.00000762939 179 179 177
-802.882730960846 342.434674501419 2473.00004959106 175 177 174
-797.80775308609 343.145877122879 2477.9999256134 177 179 176
-792.067408561707 343.580573797226 2480.99994659424 183 185 182
-786.310851573944 344.015657901764 2483.99996757507 184 186 183
-780.537843704224 344.451069831848 2486.99998855591 183 185 182
-775.99310874939 345.440864562988 2493.99995803833 182 184 181
-773.87797832489 347.539186477661 2509.0000629425 185 187 184
-774.738788604736 351.023226976395 2533.99991989136 185 187 184
-773.949146270752 353.815376758575 2553.99990081787 186 188 185
-768.546044826508 354.529976844788 2559.00001525879 186 188 185
-764.008462429047 355.660498142242 2566.99991226196 188 190 187
-761.491775512695 357.761383056641 2582.00001716614 189 191 188
-760.646760463715 360.694110393524 2602.9999256134 187 187 187
-759.687840938568 363.6274933815 2624.00007247925 188 188 188
-758.041203022003 366.284251213074 2642.99988746643 190 190 190
-760.268926620483 370.881944894791 2676.00011825562 179 179 179
-972.655475139618 329.398304224014 2428.99990081787 193 193 191
-964.477300643921 328.860938549042 2424.99995231628 194 194 192
-957.507610321045 328.731030225754 2424.00002479553 187 187 185
-950.544893741608 328.601717948914 2423.00009727478 189 189 187
-942.809998989105 328.201800584793 2420.00007629395 194 194 192
-935.092449188232 327.802449464798 2417.00005531311 185 185 185
-928.545296192169 327.810496091843 2417.00005531311 172 172 170
-922.762274742126 328.090399503708 2418.99991035461 177 177 175
-916.590869426727 328.235238790512 2420.00007629395 180 180 178
-911.167323589325 328.651934862137 2423.00009727478 161 161 159
-905.728578567505 329.069197177887 2426.00011825562 158 158 156
-899.903953075409 329.351305961609 2427.99997329712 164 164 162
-893.333673477173 329.362660646439 2427.99997329712 159 159 157
-885.668575763702 328.967571258545 2424.99995231628 161 161 159
-878.74561548233 328.844279050827 2424.00002479553 183 183 181
-872.548401355743 328.992754220963 2424.99995231628 184 184 182
-866.703629493713 329.277396202087 2427.00004577637 171 171 169
-861.557424068451 329.83386516571 2430.99999427795 167 167 165
-855.687022209167 330.119460821152 2433.00008773804 169 169 167
-850.504159927368 330.676883459091 2437.00003623962 170 170 168
-845.300197601318 331.234782934189 2440.99998474121 170 170 168
-839.731454849243 331.657469272614 2444.00000572205 169 169 167
-834.487676620483 332.216262817383 2447.99995422363 168 168 166
-828.884541988373 332.639783620834 2450.99997520447 179 179 177
-823.265373706818 333.063751459122 2453.9999961853 182 182 180
-817.297518253326 333.352416753769 2456.00008964539 179 179 177
-812.309265136719 334.04865860939 2460.99996566772 178 178 176
-807.94882774353 335.016787052155 2467.99993515015 175 175 173
-803.225994110107 335.849642753601 2473.99997711182 178 180 177
-797.826766967773 336.411386728287 2477.9999256134 180 182 179
-792.086720466614 336.837738752365 2480.99994659424 184 186 183
-786.330461502075 337.264478206635 2483.99996757507 184 186 183
-780.243992805481 337.555766105652 2486.00006103516 184 186 183
-775.391161441803 338.390529155731 2492.00010299683 184 186 183
-773.281812667847 340.447843074799 2506.99996948242 186 188 185
-773.842811584473 343.727946281433 2530.99989891052 186 188 185
-772.758603096008 346.329629421234 2549.99995231628 186 188 185
-768.267691135406 347.437858581543 2558.00008773804 187 189 186
-764.030754566193 348.682254552841 2566.99991226196 188 190 187
-760.924458503723 350.470364093781 2579.99992370605 189 191 188
-760.08540391922 353.345811367035 2601.0000705719 188 186 187
-759.71120595932 356.493502855301 2624.00007247925 183 183 183
-758.925437927246 359.505951404572 2645.99990844727 185 185 185
-761.713624000549 364.285379648209 2680.99999427795 181 181 181
-972.259879112244 322.664946317673 2427.99997329712 201 201 199
-964.880585670471 322.404384613037 2426.00011825562 200 200 198
-957.908630371094 322.277247905731 2424.99995231628 189 189 187
-950.159251689911 321.884989738464 2421.99993133545 189 189 187
-942.427515983582 321.493268013 2418.99991035461 191 191 189
-935.100317001343 321.235030889511 2417.00005531311 175 175 175
-928.937792778015 321.37605547905 2417.99998283386 168 168 166
-922.771215438843 321.517676115036 2418.99991035461 167 167 165
-916.979134082794 321.792751550674 2421.0000038147 166 166 164
-911.929368972778 322.334200143814 2424.99995231628 162 162 160
-906.859159469604 322.876185178757 2428.99990081787 160 160 158
-900.656461715698 323.020040988922 2430.0000667572 159 159 157
-893.713235855103 322.898417711258 2428.99990081787 165 165 163
-886.776387691498 322.777360677719 2427.99997329712 174 174 172
-879.483222961426 322.523802518845 2426.00011825562 187 187 185
-872.921347618103 322.536587715149 2426.00011825562 181 181 179
-866.717159748077 322.682768106461 2427.00004577637 173 173 171
-861.925780773163 323.361217975616 2431.99992179871 172 172 170
-856.404781341553 323.774307966232 2434.99994277954 173 173 171
-851.217031478882 324.320763349533 2438.99989128113 171 171 169
-845.315456390381 324.601799249649 2440.99998474121 168 168 166
-840.090692043304 325.149148702621 2444.9999332428 172 172 170
-833.822131156921 325.29804110527 2446.00009918213 176 176 174
-828.562915325165 325.846284627914 2450.00004768372 181 181 179
-822.946846485138 326.261937618256 2453.00006866455 178 178 176
-816.981971263886 326.544940471649 2454.99992370605 171 171 169
-811.996877193451 327.227473258972 2460.00003814697 176 176 174
-807.312190532684 328.043431043625 2466.00008010864 181 181 179
-802.919805049896 328.992813825607 2473.00004959106 182 184 181
-796.879649162292 329.277396202087 2474.99990463257 183 185 182
-791.467428207397 329.828470945358 2479.00009155273 182 184 181
-785.716831684113 330.246806144714 2482.00011253357 181 183 180
-779.636025428772 330.532431602478 2483.99996757507 181 183 180
-775.72238445282 331.749886274338 2493.00003051758 186 188 185
-773.610711097717 333.766222000122 2507.99989700317 186 188 185
-774.169564247131 336.980879306793 2532.00006484985 186 188 185
-771.567702293396 338.865220546722 2546.0000038147 186 188 185
-767.988920211792 340.350687503815 2556.99992179871 187 189 186
-764.05268907547 341.703504323959 2566.99991226196 189 191 188
-761.241853237152 343.589186668396 2581.00008964539 189 191 188
-760.692477226257 346.540361642838 2602.9999256134 194 194 192
-760.603010654449 349.758476018906 2627.00009346008 180 178 179
-759.80943441391 352.71081328392 2648.9999294281 180 180 180
-762.305855751038 357.261687517166 2683.00008773804 189 189 189
-974.267065525055 316.718012094498 2433.00008773804 203 204 199
-966.874718666077 316.462993621826 2430.99999427795 196 197 192
-959.099888801575 316.078335046768 2427.99997329712 192 192 190
-950.558364391327 315.433949232101 2423.00009727478 194 194 194
-942.045271396637 314.790040254593 2417.99998283386 189 189 189
-935.495018959045 314.797639846802 2417.99998283386 170 170 170
-929.714739322662 315.066277980804 2420.00007629395 172 172 170
-923.543095588684 315.205156803131 2421.0000038147 168 169 164
-916.988670825958 315.214425325394 2421.0000038147 165 166 161
-912.315607070923 315.875262022018 2426.00011825562 160 161 156
-906.86970949173 316.276162862778 2428.99990081787 165 166 161
-901.038110256195 316.547453403473 2430.99999427795 164 165 160
-893.724799156189 316.298335790634 2428.99990081787 172 173 168
-886.788427829742 316.179931163788 2427.99997329712 181 182 177
-879.858255386353 316.061973571777 2427.00004577637 188 189 184
-873.294055461884 316.074669361115 2427.00004577637 183 184 179
-867.087721824646 316.218107938766 2427.99997329712 170 171 166
-862.294256687164 316.882938146591 2433.00008773804 170 170 168
-856.770873069763 317.287772893906 2436.00010871887 173 173 171
-851.929724216461 317.953497171402 2440.99998474121 169 169 167
-845.676958560944 318.098694086075 2441.99991226196 168 168 166
-840.449929237366 318.635135889053 2446.00009918213 180 180 178
-833.497107028961 318.520575761795 2444.9999332428 182 182 180
-828.579306602478 319.188088178635 2450.00004768372 178 178 176
-822.628080844879 319.465130567551 2451.99990272522 177 177 175
-817.664802074432 320.13350725174 2457.00001716614 182 182 180
-812.014400959015 320.541620254517 2460.00003814697 185 185 183
-806.675314903259 321.080505847931 2463.99998664856 186 186 184
-802.288591861725 322.010666131973 2470.99995613098 188 188 186
-796.898245811462 322.550237178802 2474.99990463257 188 188 186
-792.12486743927 323.35090637207 2480.99994659424 189 189 187
-786.369144916534 323.76092672348 2483.99996757507 188 188 186
-780.597150325775 324.171245098114 2486.99998855591 188 188 186
-776.364624500275 325.233668088913 2494.99988555908 191 191 189
-773.014068603516 326.687574386597 2506.00004196167 189 191 188
-772.967278957367 329.576045274735 2528.00011634827 186 188 185
-769.770383834839 331.161230802536 2539.99996185303 187 189 186
-767.109274864197 333.00769329071 2553.99990081787 189 191 188
-763.181447982788 334.332972764969 2563.99989128113 192 194 191
-760.379076004028 336.180359125137 2578.00006866455 192 194 191
-760.714948177338 339.462637901306 2602.9999256134 187 189 188
-760.625898838043 342.615187168121 2627.00009346008 184 184 184
-760.119616985321 345.637887716293 2650.00009536743 178 180 179
-761.47723197937 349.574208259583 2680.0000667572 185 187 186
-975.473523139954 310.489028692245 2436.00010871887 198 199 194
-968.471229076386 310.366928577423 2434.99994277954 192 193 188
-960.291266441345 309.863090515137 2430.99999427795 188 188 186
-950.172781944275 308.72243642807 2421.99993133545 188 188 188
-942.052602767944 308.219701051712 2417.99998283386 184 184 184
-935.889899730682 308.354824781418 2418.99991035461 177 177 175
-930.49144744873 308.745473623276 2421.99993133545 176 176 174
-924.696624279022 309.009164571762 2424.00002479553 179 180 175
-918.134570121765 309.018462896347 2424.00002479553 172 173 168
-913.077771663666 309.538185596466 2427.99997329712 170 171 166
-907.627105712891 309.931010007858 2430.99999427795 174 175 170
-901.419818401337 310.069292783737 2431.99992179871 168 169 164
-894.472241401672 309.953063726425 2430.99999427795 181 182 177
-886.800348758698 309.582322835922 2427.99997329712 188 189 184
-879.870712757111 309.467047452927 2427.00004577637 185 186 181
-873.666763305664 309.607177972794 2427.99997329712 178 179 174
-867.815315723419 309.875339269638 2430.0000667572 169 170 165
-862.307965755463 310.271471738815 2433.00008773804 168 168 166
-856.785178184509 310.668021440506 2436.00010871887 172 172 170
-851.944446563721 311.320066452026 2440.99998474121 175 175 173
-846.038341522217 311.589956283569 2443.00007820129 180 180 178
-840.465486049652 311.987847089767 2446.00009918213 182 182 180
-833.513021469116 311.875849962235 2444.9999332428 178 178 176
-827.919125556946 312.274485826492 2447.99995422363 168 168 166
-821.97368144989 312.545955181122 2450.00004768372 168 168 166
-817.016243934631 313.200563192368 2454.99992370605 170 170 168
-812.361836433411 313.983112573624 2460.99996566772 171 171 169
-806.693017482758 314.383298158646 2463.99998664856 171 171 169
-801.657378673553 315.039068460464 2469.00010108948 176 176 174
-795.950651168823 315.439939498901 2471.99988365173 178 178 176
-791.505038738251 316.351711750031 2479.00009155273 181 181 179
-786.071717739105 316.880911588669 2483.00004005432 182 182 180
-780.616462230682 317.410469055176 2486.99998855591 184 184 182
-776.695489883423 318.578571081162 2496.00005149841 188 188 186
-773.342549800873 320.002317428589 2506.99996948242 188 190 187
-773.293435573578 322.830706834793 2529.00004386902 186 188 185
-770.397365093231 324.510723352432 2542.00005531311 186 188 185
-768.031477928162 326.446503400803 2556.99992179871 188 190 187
-763.500571250916 327.489048242569 2565.00005722046 191 193 190
-760.105729103088 329.04264330864 2576.99990272522 191 193 190
-760.444939136505 332.256704568863 2601.99999809265 191 193 192
-760.937988758087 335.599094629288 2628.00002098084 190 192 191
-760.142505168915 338.431239128113 2650.00009536743 189 191 190
-758.943438529968 341.136246919632 2671.0000038147 182 184 183
-969.670116901398 304.12432551384 2437.99996376038 193 194 189
-961.087644100189 303.506702184677 2433.00008773804 190 190 188
-952.141225337982 302.764803171158 2427.00004577637 190 190 190
-942.83926486969 301.898747682571 2420.00007629395 185 185 185
-936.284780502319 301.906436681747 2420.00007629395 175 175 173
-930.499911308289 302.164137363434 2421.99993133545 171 171 169
-925.468564033508 302.67196893692 2426.00011825562 175 176 171
-919.280409812927 302.806049585342 2427.00004577637 166 167 162
-913.839995861053 303.190112113953 2430.0000667572 166 167 162
-907.637596130371 303.325176239014 2430.99999427795 173 174 169
-901.060223579407 303.335934877396 2430.99999427795 180 181 176
-894.483745098114 303.347200155258 2430.99999427795 185 186 181
-887.177526950836 303.109288215637 2428.99990081787 190 191 186
-880.245625972748 302.996665239334 2427.99997329712 183 184 179
-873.679637908936 303.009241819382 2427.99997329712 176 177 172
-868.185698986053 303.396612405777 2430.99999427795 171 172 167
-862.67614364624 303.784489631653 2434.00001525879 173 173 171
-857.150971889496 304.17275428772 2437.00003623962 174 174 172
-851.610004901886 304.561465978622 2440.00005722046 178 178 176
-846.053302288055 304.950654506683 2443.00007820129 182 182 180
-840.137124061584 305.215328931808 2444.9999332428 174 174 172
-833.869636058807 305.35563826561 2446.00009918213 167 167 165
-827.93515920639 305.621087551117 2447.99995422363 169 169 167
-821.990132331848 305.88698387146 2450.00004768372 171 171 169
-817.032873630524 306.527763605118 2454.99992370605 177 177 175
-812.379002571106 307.293862104416 2460.99996566772 180 180 178
-806.710481643677 307.685673236847 2463.99998664856 181 181 179
-801.025807857513 308.077871799469 2467.00000762939 182 182 180
-795.324921607971 308.470398187637 2470.00002861023 184 184 182
-790.565609931946 309.237957000732 2476.0000705719 187 187 185
-785.773932933807 310.005873441696 2482.00011253357 188 188 186
-780.949413776398 310.774147510529 2487.99991607666 189 189 187
-777.337253093719 312.042474746704 2497.99990653992 192 192 190
-773.979306221008 313.436061143875 2509.0000629425 189 191 188
-773.313641548157 315.95453619957 2529.00004386902 188 190 187
-771.02392911911 317.848801612854 2543.99991035461 188 190 187
-768.352746963501 319.61864233017 2558.00008773804 190 192 189
-763.224005699158 320.389211177826 2563.99989128113 192 194 191
-759.53733921051 321.784973144531 2575.00004768372 191 193 190
-759.005427360535 324.555784463882 2596.99988365173 186 188 187
-760.381162166595 328.202039003372 2625.99992752075 189 191 190
-759.591460227966 330.974012613297 2648.00000190735 189 191 190
-756.693243980408 332.871586084366 2663.00010681152 185 187 186
-969.67601776123 297.499299049377 2437.99996376038 194 195 190
-961.489021778107 297.017365694046 2434.00001525879 194 194 192
-953.325092792511 296.535909175873 2430.0000667572 192 192 192
-944.405138492584 295.810908079147 2424.00002479553 181 181 181
-937.453508377075 295.696616172791 2423.00009727478 166 166 166
-931.661009788513 295.948892831802 2424.99995231628 175 175 173
-927.384972572327 296.689927577972 2430.99999427795 170 171 166
-920.804917812347 296.699196100235 2430.99999427795 164 165 160
-914.602041244507 296.831041574478 2431.99992179871 165 166 161
-907.274782657623 296.597182750702 2430.0000667572 178 179 174
-901.071310043335 296.729952096939 2430.99999427795 187 188 183
-894.127249717712 296.619057655334 2430.0000667572 189 190 185
-886.824131011963 296.386510133743 2427.99997329712 189 190 185
-879.895389080048 296.27650976181 2427.00004577637 180 181 176
-873.332560062408 296.288967132568 2427.00004577637 176 177 172
-867.841839790344 296.668142080307 2430.0000667572 175 176 171
-862.335324287415 297.047704458237 2433.00008773804 174 174 172
-856.813192367554 297.42768406868 2436.00010871887 174 174 172
-850.926280021667 297.685980796814 2437.99996376038 177 177 175
-845.721662044525 298.188894987106 2441.99991226196 178 178 176
-839.808642864227 298.44805598259 2444.00000572205 173 173 171
-833.885192871094 298.707574605942 2446.00009918213 173 173 171
-827.951192855835 298.967450857162 2447.99995422363 182 182 180
-822.677373886108 299.471944570541 2451.99990272522 181 181 179
-817.382395267487 299.976855516434 2456.00008964539 177 177 175
-812.395989894867 300.604254007339 2460.99996566772 175 175 173
-807.055234909058 301.109880208969 2464.99991416931 174 174 172
-801.368117332459 301.493734121323 2467.99993515015 178 178 176
-795.664846897125 301.8778860569 2470.99995613098 180 180 178
-790.264666080475 302.384555339813 2474.99990463257 183 183 181
-784.842669963837 302.891552448273 2479.00009155273 183 183 181
-779.712855815887 303.521066904068 2483.99996757507 183 183 181
-776.42285823822 304.884046316147 2494.99988555908 185 185 183
-774.307370185852 306.736350059509 2509.99999046326 185 187 184
-773.639380931854 309.200137853622 2529.99997138977 185 187 184
-770.438194274902 310.686707496643 2542.00005531311 186 188 185
-767.171859741211 312.173664569855 2553.99990081787 187 189 186
-762.649595737457 313.172101974487 2562.00003623962 188 190 187
-757.788598537445 314.048618078232 2569.00000572205 188 190 187
-756.981134414673 316.637009382248 2589.99991416931 186 188 187
-758.086621761322 320.081800222397 2618.00003051758 186 188 187
-758.179426193237 323.160320520401 2642.99988746643 188 190 189
-754.158318042755 324.527591466904 2654.00004386902 186 188 187
-970.875203609467 291.232168674469 2440.99998474121 194 195 190
-961.100399494171 290.283858776093 2433.00008773804 196 196 194
-953.33206653595 289.932638406754 2430.0000667572 190 190 190
-944.802165031433 289.343267679214 2424.99995231628 177 177 177
-938.622117042542 289.470344781876 2426.00011825562 172 172 172
-933.206260204315 289.836525917053 2428.99990081787 178 178 176
-928.157091140747 290.322601795197 2433.00008773804 171 171 169
-921.572148799896 290.331870317459 2433.00008773804 168 168 166
-914.988100528717 290.341556072235 2433.00008773804 165 165 163
-906.911790370941 289.874404668808 2428.99990081787 178 178 176
-900.340795516968 289.8850440979 2428.99990081787 190 190 188
-893.034696578979 289.657443761826 2427.00004577637 190 190 188
-886.470794677734 289.66897726059 2427.00004577637 188 188 186
-879.182398319244 289.442181587219 2424.99995231628 179 179 177
-872.985363006592 289.573907852173 2426.00011825562 176 176 174
-867.85489320755 290.06415605545 2430.0000667572 174 174 172
-862.703204154968 290.554791688919 2434.00001525879 176 176 174
-857.178807258606 290.926516056061 2437.00003623962 176 176 174
-851.289570331573 291.179239749908 2438.99989128113 175 175 173
-845.73632478714 291.551768779755 2441.99991226196 171 171 169
-840.167284011841 291.924685239792 2444.9999332428 170 170 168
-834.241449832916 292.178601026535 2447.00002670288 175 175 173
-828.643262386322 292.552262544632 2450.00004768372 179 179 177
-823.029041290283 292.926281690598 2453.00006866455 178 178 176
-817.398846149445 293.300718069077 2456.00008964539 175 175 173
-812.082648277283 293.794900178909 2460.00003814697 174 174 172
-807.072341442108 294.408857822418 2464.99991416931 176 176 174
-801.710247993469 294.903755187988 2469.00010108948 176 176 174
-796.648621559143 295.518428087235 2473.99997711182 179 179 177
-791.240513324738 296.013981103897 2477.9999256134 186 186 184
-785.17758846283 296.270936727524 2480.00001907349 187 187 185
-779.731333255768 296.767145395279 2483.99996757507 190 190 188
-776.130616664886 297.980487346649 2493.99995803833 192 192 190
-774.018108844757 299.791723489761 2509.0000629425 187 189 186
-772.130012512207 301.722854375839 2525.00009536743 186 188 185
-768.942713737488 303.176462650299 2536.99994087219 187 189 186
-765.389800071716 304.510980844498 2548.00009727478 188 190 187
-761.77704334259 305.845856666565 2559.00001525879 188 190 187
-756.924450397491 306.702971458435 2565.99998474121 187 189 186
-755.540907382965 308.994889259338 2585.00003814697 192 194 193
-755.791544914246 312.004446983337 2609.99989509583 185 187 186
-755.906462669373 315.014630556107 2634.99999046326 189 191 190
-753.043949604034 316.829800605774 2650.00009536743 181 183 182
-971.278727054596 284.715414047241 2441.99991226196 191 192 187
-961.106836795807 283.672332763672 2433.00008773804 198 198 196
-953.731238842011 283.445835113525 2430.99999427795 184 184 184
-945.588827133179 282.986670732498 2427.00004577637 180 180 180
-939.017057418823 282.994449138641 2427.00004577637 181 181 181
-933.214664459229 283.235818147659 2428.99990081787 173 173 171
-928.166031837463 283.711016178131 2433.00008773804 172 172 170
-921.960353851318 283.836841583252 2434.00001525879 171 171 169
-915.374159812927 283.846497535706 2434.00001525879 168 168 166
-907.668948173523 283.506780862808 2430.99999427795 188 188 186
-901.093006134033 283.517360687256 2430.99999427795 191 191 189
-893.413901329041 283.178478479385 2427.99997329712 189 189 187
-886.482417583466 283.073276281357 2427.00004577637 185 185 183
-878.832101821899 282.735198736191 2424.00002479553 177 177 175
-872.997879981995 282.980680465698 2426.00011825562 173 173 171
-867.153346538544 283.226579427719 2427.99997329712 169 169 167
-862.716495990753 283.939570188522 2434.00001525879 174 174 172
-856.840789318085 284.18630361557 2436.00010871887 164 164 162
-850.954651832581 284.433424472809 2437.99996376038 159 159 157
-845.404446125031 284.797638654709 2440.99998474121 163 163 161
-839.838445186615 285.162210464478 2444.00000572205 181 181 179
-834.597527980804 285.643875598907 2447.99995422363 182 182 180
-828.997015953064 286.009162664413 2450.99997520447 181 181 179
-823.380410671234 286.374866962433 2453.9999961853 181 181 179
-817.747890949249 286.740928888321 2457.00001716614 177 177 175
-812.09921836853 287.107288837433 2460.00003814697 178 178 176
-806.761682033539 287.590712308884 2463.99998664856 180 180 178
-801.72735452652 288.191229104996 2469.00010108948 181 181 179
-796.666026115417 288.792043924332 2473.99997711182 183 183 181
-790.939033031464 289.159774780273 2476.99999809265 186 186 184
-784.562408924103 289.294242858887 2477.9999256134 186 186 184
-779.121935367584 289.779335260391 2482.00011253357 186 186 184
-774.904429912567 290.73166847229 2490.00000953674 186 186 184
-772.803127765656 292.501777410507 2505.00011444092 187 189 186
-770.314574241638 294.155538082123 2519.00005340576 186 188 185
-767.749845981598 295.809715986252 2532.99999237061 187 189 186
-764.208137989044 297.113955020905 2543.99991035461 188 190 187
-760.606527328491 298.418611288071 2555.0000667572 188 190 187
-756.060063838959 299.373179674149 2562.99996376038 187 189 186
-754.392504692078 301.496207714081 2581.00008964539 193 195 194
-754.654467105865 304.437428712845 2605.99994659424 184 186 185
-755.641102790833 307.729691267014 2634.0000629425 190 192 191
-753.634095191956 309.854239225388 2651.99995040894 178 180 179
-972.477912902832 278.420954942703 2444.9999332428 195 196 191
-961.508274078369 277.174592018127 2434.00001525879 189 189 187
-953.738272190094 276.839643716812 2430.99999427795 175 175 175
-945.59633731842 276.391357183456 2427.00004577637 178 178 178
-939.798712730408 276.626825332642 2428.99990081787 181 181 181
-933.607399463654 276.748955249786 2430.0000667572 168 168 166
-928.175032138824 277.099311351776 2433.00008773804 171 171 169
-921.969771385193 277.222365140915 2434.00001525879 170 170 168
-915.760040283203 277.345836162567 2434.99994277954 173 173 171
-908.42604637146 277.128100395203 2433.00008773804 189 189 187
-901.103734970093 276.910811662674 2430.99999427795 189 189 187
-893.05716753006 276.466071605682 2427.00004577637 187 187 185
-887.224435806274 276.705175638199 2428.99990081787 185 185 183
-879.931688308716 276.489049196243 2427.00004577637 178 178 176
-874.08971786499 276.728987693787 2428.99990081787 175 175 173
-868.237614631653 276.969373226166 2430.99999427795 170 170 168
-863.438546657562 277.5519490242 2436.00010871887 165 165 163
-857.206106185913 277.679175138474 2437.00003623962 165 165 163
-851.666629314423 278.034657239914 2440.00005722046 165 165 163
-845.072388648987 278.048664331436 2440.00005722046 171 171 169
-839.853167533875 278.518885374069 2444.00000572205 184 184 182
-834.271669387817 278.875470161438 2447.00002670288 184 184 182
-829.350531101227 279.460370540619 2451.99990272522 181 181 179
-823.731541633606 279.817670583725 2454.99992370605 179 179 177
-817.763864994049 280.061364173889 2457.00001716614 178 178 176
-812.115430831909 280.41934967041 2460.00003814697 179 179 177
-806.450963020325 280.777662992477 2463.00005912781 181 181 179
-801.094889640808 281.250327825546 2467.00000762939 184 184 184
-795.717179775238 281.723260879517 2470.99995613098 185 185 185
-790.317833423615 282.196521759033 2474.99990463257 188 188 188
-784.896850585938 282.670170068741 2479.00009155273 190 190 190
-779.453814029694 283.144026994705 2483.00004005432 192 192 192
-774.922788143158 283.960342407227 2490.00000953674 192 192 192
-771.896243095398 285.347193479538 2502.00009346008 187 189 188
-769.416093826294 286.962568759918 2516.00003242493 190 192 191
-766.556859016418 288.464307785034 2529.00004386902 190 192 191
-763.626933097839 289.966404438019 2542.00005531311 189 191 190
-760.328710079193 291.354864835739 2553.99990081787 189 191 190
-756.080090999603 292.401403188705 2562.99996376038 191 193 192
-753.828346729279 294.246941804886 2578.9999961853 182 184 183
-754.964828491211 297.462105751038 2607.00011253357 187 189 188
-755.662322044373 300.563752651215 2634.0000629425 187 189 188
-755.076467990875 303.209543228149 2657.00006484985 181 183 182
-972.881734371185 271.88777923584 2446.00009918213 200 201 196
-961.119830608368 270.448982715607 2433.00008773804 177 177 175
-953.352928161621 270.122230052948 2430.0000667572 176 176 176
-945.603787899017 269.795954227448 2427.00004577637 186 186 186
-940.967381000519 270.359456539154 2431.99992179871 166 166 166
-934.768438339233 270.478785037994 2433.00008773804 165 165 163
-929.328382015228 270.82097530365 2436.00010871887 168 168 166
-921.979129314423 270.607709884644 2434.00001525879 166 166 164
-915.769875049591 270.728409290314 2434.99994277954 180 180 178
-908.436357975006 270.516037940979 2433.00008773804 188 188 186
-901.114344596863 270.303994417191 2430.99999427795 185 185 183
-893.436133861542 269.981235265732 2427.99997329712 184 184 182
-887.235999107361 270.103633403778 2428.99990081787 182 182 180
-881.393730640411 270.337611436844 2430.99999427795 176 176 174
-875.541388988495 270.572006702423 2433.00008773804 173 173 171
-869.321703910828 270.695596933365 2434.00001525879 168 168 166
-863.806009292603 271.042019128799 2437.00003623962 160 160 158
-857.571184635162 271.166324615479 2437.99996376038 168 168 166
-851.680457592011 271.402269601822 2440.00005722046 173 173 171
-845.779120922089 271.638542413712 2441.99991226196 180 180 178
-839.52397108078 271.763950586319 2443.00007820129 186 186 184
-833.945512771606 272.112190723419 2446.00009918213 183 183 181
-828.689277172089 272.572010755539 2450.00004768372 181 181 179
-823.747098445892 273.143440485001 2454.99992370605 180 180 178
-817.446768283844 273.270219564438 2456.00008964539 181 181 179
-811.801373958588 273.619771003723 2459.00011062622 183 183 181
-806.139826774597 273.969680070877 2461.99989318848 185 185 183
-801.1115193367 274.542480707169 2467.00000762939 191 191 191
-795.090138912201 274.781733751297 2469.00010108948 190 190 190
-789.37703371048 275.1325070858 2471.99988365173 189 189 189
-783.964395523071 275.59494972229 2476.0000705719 189 189 189
-778.52988243103 276.057660579681 2480.00001907349 189 189 189
-774.629712104797 277.077227830887 2489.00008201599 189 189 189
-771.606028079987 278.43114733696 2500.99992752075 187 189 188
-770.046353340149 280.342131853104 2517.99988746643 189 191 190
-766.878843307495 281.696885824203 2529.99997138977 189 191 190
-763.94659280777 283.163279294968 2542.99998283386 189 191 190
-759.752810001373 284.184724092484 2552.00004577637 190 192 191
-755.804836750031 285.317808389664 2562.00003623962 191 193 192
-753.848493099213 287.23081946373 2578.9999961853 183 185 184
-755.564391613007 290.592223405838 2608.99996757507 186 188 187
-755.683183670044 293.397307395935 2634.0000629425 186 188 187
-754.245102405548 295.645952224731 2654.00004386902 185 187 186
-1001.54042243958 271.198898553848 2500.99992752075 180 181 176
-974.080860614777 265.56596159935 2448.99988174438 201 202 197
-962.706387042999 264.270961284637 2437.00003623962 178 178 176
-954.536914825439 263.843923807144 2433.00008773804 185 185 185
-946.390330791473 263.417273759842 2428.99990081787 192 192 192
-942.13604927063 264.075636863709 2434.99994277954 162 162 162
-936.697840690613 264.409124851227 2437.99996376038 166 166 166
-930.86314201355 264.634639024735 2440.00005722046 167 167 167
-923.12479019165 264.318287372589 2437.00003623962 167 167 167
-916.531801223755 264.327764511108 2437.00003623962 185 185 185
-908.819794654846 264.012217521667 2434.00001525879 188 188 188
-900.754153728485 263.588607311249 2430.0000667572 188 188 188
-893.079161643982 263.273864984512 2427.00004577637 185 185 185
-887.247264385223 263.501852750778 2428.99990081787 180 180 180
-882.13062286377 263.947248458862 2433.00008773804 172 172 172
-876.633107662201 264.284580945969 2436.00010871887 171 171 171
-870.405673980713 264.405280351639 2437.00003623962 173 173 173
-863.818824291229 264.417827129364 2437.00003623962 172 172 170
-857.584357261658 264.539271593094 2437.99996376038 174 174 172
-852.392017841339 264.986574649811 2441.99991226196 178 178 176
-846.139430999756 265.1087641716 2443.00007820129 183 183 181
-839.881777763367 265.231221914291 2444.00000572205 182 182 180
-833.619058132172 265.354007482529 2444.9999332428 180 180 178
-828.365862369537 265.80274105072 2448.99988174438 180 180 178
-823.426783084869 266.360372304916 2453.9999961853 180 180 178
-817.795097827911 266.701221466064 2457.00001716614 180 180 178
-812.147319316864 267.042428255081 2460.00003814697 182 182 180
-806.483387947083 267.383903264999 2463.00005912781 183 183 181
-800.803184509277 267.725706100464 2466.00008010864 181 181 181
-794.46268081665 267.850637435913 2467.00000762939 183 183 183
-788.755357265472 268.193006515503 2470.00002861023 188 188 188
-783.66494178772 268.752813339233 2474.99990463257 190 190 190
-778.233408927917 269.204348325729 2479.00009155273 190 190 190
-774.647355079651 270.307749509811 2489.00008201599 190 190 190
-771.315455436707 271.520107984543 2500 188 190 189
-770.676374435425 273.710370063782 2519.99998092651 186 188 187
-768.109977245331 275.249391794205 2533.99991989136 185 187 186
-765.467643737793 276.788830757141 2548.00009727478 185 187 186
-760.665118694305 277.568161487579 2555.0000667572 185 187 186
-755.824267864227 278.347760438919 2562.00003623962 185 187 186
-753.57586145401 280.10556101799 2578.00006866455 184 186 185
-755.874156951904 283.602237701416 2609.99989509583 186 188 187
-755.990505218506 286.338955163956 2634.99999046326 182 184 183
-754.26584482193 288.424134254456 2654.00004386902 178 180 179
-973.291516304016 258.699178695679 2447.00002670288 202 203 198
-963.898003101349 257.965385913849 2440.00005722046 182 182 180
-955.328464508057 257.443398237228 2434.99994277954 192 192 192
-948.346078395844 257.344871759415 2434.00001525879 191 191 191
-942.530930042267 257.563948631287 2436.00010871887 164 164 164
-937.090456485748 257.889211177826 2438.99989128113 166 166 166
-931.253433227539 258.109211921692 2440.99998474121 167 167 167
-923.512697219849 257.800906896591 2437.99996376038 173 173 173
-916.165351867676 257.598787546158 2436.00010871887 190 190 190
-908.456444740295 257.291316986084 2433.00008773804 188 188 188
-901.135265827179 257.08994269371 2430.99999427795 183 183 183
-893.825829029083 256.888955831528 2428.99990081787 180 180 180
-886.893153190613 256.794095039368 2427.99997329712 176 176 176
-882.142245769501 257.334262132645 2433.00008773804 169 169 169
-877.00492143631 257.768988609314 2437.00003623962 169 169 169
-871.13231420517 257.992595434189 2438.99989128113 171 171 171
-864.540338516235 258.004993200302 2438.99989128113 174 174 172
-857.949078083038 258.017748594284 2438.99989128113 174 174 172
-852.056384086609 258.242428302765 2440.99998474121 179 179 177
-846.153199672699 258.467435836792 2443.00007820129 183 183 181
-839.552164077759 258.481174707413 2443.00007820129 183 183 181
-833.633303642273 258.70680809021 2444.9999332428 183 183 181
-828.042209148407 259.038627147675 2447.99995422363 183 183 181
-823.441624641418 259.688198566437 2453.9999961853 182 182 180
-818.1431889534 260.126501321793 2457.99994468689 180 180 178
-811.832845211029 260.247617959976 2459.00011062622 180 180 178
-805.516839027405 260.368973016739 2460.00003814697 180 180 178
-800.494492053986 260.913997888565 2464.99991416931 181 181 181
-794.80105638504 261.247664690018 2467.99993515015 183 183 183
-789.410650730133 261.687427759171 2471.99988365173 189 189 189
-783.998489379883 262.12751865387 2476.0000705719 191 191 191
-778.250455856323 262.461960315704 2479.00009155273 190 190 190
-774.353504180908 263.431966304779 2487.99991607666 189 189 189
-771.024703979492 264.614075422287 2499.00007247925 191 193 192
-770.694434642792 266.855537891388 2519.99998092651 187 189 188
-769.947171211243 268.991529941559 2539.99996185303 186 188 187
-767.589211463928 270.598471164703 2555.0000667572 186 188 187
-762.172520160675 271.14662528038 2559.99994277954 186 188 187
-755.843341350555 271.377265453339 2562.00003623962 185 187 186
-753.595173358917 273.091107606888 2578.00006866455 183 185 184
-754.735350608826 276.076644659042 2605.99994659424 189 191 190
-756.871342658997 279.486536979675 2638.00001144409 189 191 190
-755.138874053955 281.519651412964 2657.00006484985 180 182 181
-972.899794578552 251.946181058884 2446.00009918213 201 202 197
-965.48455953598 251.746356487274 2444.00000572205 206 206 204
-957.68940448761 251.444011926651 2440.99998474121 210 210 210
-950.3014087677 251.245111227036 2438.99989128113 182 182 182
-943.312466144562 251.14968419075 2437.99996376038 161 161 161
-936.714470386505 251.157641410828 2437.99996376038 165 165 165
-931.262195110321 251.475155353546 2440.99998474121 169 169 169
-923.900663852692 251.277953386307 2438.99989128113 182 182 182
-916.174829006195 250.978112220764 2436.00010871887 184 184 184
-908.839643001556 250.781685113907 2434.00001525879 172 172 172
-902.628362178802 250.894755125046 2434.99994277954 174 174 174
-894.572496414185 250.49301981926 2430.99999427795 175 175 175
-888.000011444092 250.503778457642 2430.99999427795 175 175 175
-882.153630256653 250.721037387848 2433.00008773804 174 174 174
-877.376556396484 251.247763633728 2437.99996376038 174 174 174
-871.144473552704 251.3627409935 2438.99989128113 172 172 172
-865.616261959076 251.684099435806 2441.99991226196 172 172 170
-858.665406703949 251.593619585037 2440.99998474121 178 178 176
-852.069497108459 251.606494188309 2440.99998474121 187 187 185
-845.473825931549 251.619666814804 2440.99998474121 191 191 189
-839.565992355347 251.839369535446 2443.00007820129 183 183 181
-833.64737033844 252.05934047699 2444.9999332428 181 181 179
-827.718436717987 252.27963924408 2447.00002670288 174 174 172
-823.120772838593 252.912640571594 2453.00006866455 175 175 173
-817.825376987457 253.339797258377 2457.00001716614 179 179 177
-811.517834663391 253.457903862 2457.99994468689 181 181 179
-805.204927921295 253.576278686523 2459.00011062622 184 184 182
-799.860835075378 254.004269838333 2463.00005912781 187 187 187
-795.139312744141 254.638850688934 2469.00010108948 188 188 188
-789.426922798157 254.964292049408 2471.99988365173 190 190 190
-784.015119075775 255.393207073212 2476.0000705719 192 192 192
-778.581321239471 255.822360515594 2480.00001907349 195 195 195
-773.748099803925 256.458073854446 2486.00006103516 196 196 196
-770.424962043762 257.609903812408 2496.99997901917 191 193 192
-769.182920455933 259.484350681305 2515.00010490417 186 188 187
-769.055664539337 261.77191734314 2536.99994087219 185 187 186
-767.006695270538 263.440877199173 2552.99997329712 187 189 188
-762.488842010498 264.284640550613 2561.00010871887 188 190 189
-756.452083587646 264.612674713135 2563.99989128113 187 189 188
-753.029525279999 265.869796276093 2575.99997520447 179 181 180
-753.596305847168 268.572330474854 2601.99999809265 183 185 184
-756.891071796417 272.307604551315 2638.00001144409 185 187 186
-756.295740604401 274.701535701752 2661.00001335144 185 187 186
-965.095996856689 245.004132390022 2443.00007820129 217 217 215
-957.696199417114 244.810149073601 2440.99998474121 201 201 201
-950.308740139008 244.616597890854 2438.99989128113 169 169 169
-943.70710849762 244.624093174934 2438.99989128113 159 159 159
-937.491059303284 244.732335209847 2440.00005722046 158 158 156
-931.270778179169 244.840949773788 2440.99998474121 184 184 182
-922.773241996765 244.348183274269 2436.00010871887 187 187 185
-914.679825305939 243.956044316292 2431.99992179871 181 181 179
-906.982421875 243.66457760334 2428.99990081787 182 182 180
-901.52645111084 243.975415825844 2431.99992179871 186 186 184
-894.58292722702 243.885338306427 2430.99999427795 187 187 185
-888.741552829742 244.096621870995 2433.00008773804 182 182 180
-882.527410984039 244.20790374279 2434.00001525879 174 174 172
-877.388179302216 244.620561599731 2437.99996376038 178 178 176
-871.513605117798 244.832947850227 2440.00005722046 172 172 170
-865.983188152313 245.146006345749 2443.00007820129 175 175 173
-858.678102493286 244.957640767097 2440.99998474121 190 190 188
-851.384222507477 244.769558310509 2438.99989128113 192 192 190
-845.140814781189 244.88291144371 2440.00005722046 189 189 187
-839.235723018646 245.096862316132 2441.99991226196 183 183 181
-834.002256393433 245.511919260025 2446.00009918213 183 183 181
-828.070759773254 245.726510882378 2447.99995422363 180 180 178
-823.806405067444 246.443346142769 2454.99992370605 180 180 178
-818.172931671143 246.758952736855 2457.99994468689 184 184 182
-811.53279542923 246.773675084114 2457.99994468689 185 185 183
-804.892659187317 246.788620948792 2457.99994468689 184 184 182
-799.876391887665 247.305884957314 2463.00005912781 182 184 181
-795.154988765717 247.923836112022 2469.00010108948 184 186 183
-789.762437343597 248.341262340546 2473.00004959106 187 189 186
-783.714652061462 248.558059334755 2474.99990463257 186 188 187
-778.283834457397 248.976036906242 2479.00009155273 188 190 189
-773.453533649445 249.595060944557 2484.99989509583 190 192 191
-770.133435726166 250.716656446457 2496.00005149841 190 192 191
-768.588542938232 252.441316843033 2513.00001144409 186 188 187
-767.860770225525 254.467725753784 2532.99999237061 186 188 187
-765.221893787384 255.89182972908 2546.99993133545 187 188 190
-761.613786220551 257.014840841293 2558.00008773804 190 191 193
-756.470382213593 257.635772228241 2563.99989128113 190 191 193
-753.340363502502 258.960336446762 2576.99990272522 183 185 184
-753.035962581635 261.29025220871 2599.99990463257 183 185 184
-755.188763141632 264.52511548996 2631.99996948242 187 189 188
-754.610002040863 266.856014728546 2654.99997138977 184 186 185
-975.695908069611 239.334300160408 2453.00006866455 202 203 198
-965.497314929962 238.462299108505 2444.00000572205 203 203 201
-957.703053951263 238.176137208939 2440.99998474121 178 178 178
-950.31601190567 237.987995147705 2438.99989128113 161 161 161
-944.101750850677 238.092988729477 2440.00005722046 172 172 172
-937.88343667984 238.198384642601 2440.99998474121 178 178 176
-931.660652160645 238.304182887077 2441.99991226196 189 189 187
-923.539698123932 237.922459840775 2437.99996376038 186 186 184
-915.441274642944 237.54109442234 2434.00001525879 180 180 178
-907.365500926971 237.160086631775 2430.0000667572 183 183 181
-900.794923305511 237.169787287712 2430.0000667572 181 181 179
-894.225418567657 237.17987537384 2430.0000667572 173 173 171
-889.482736587524 237.678334116936 2434.99994277954 168 168 166
-883.263647556305 237.786769866943 2436.00010871887 172 172 170
-877.399563789368 237.993136048317 2437.99996376038 169 169 167
-871.16813659668 238.102227449417 2438.99989128113 177 177 175
-865.286231040955 238.309279084206 2440.99998474121 185 185 183
-857.986927032471 238.126143813133 2438.99989128113 187 187 185
-850.698828697205 237.943261861801 2437.00003623962 187 187 185
-844.460964202881 238.053619861603 2437.99996376038 185 185 183
-838.905394077301 238.359555602074 2440.99998474121 184 184 182
-833.674848079681 238.763436675072 2444.9999332428 184 184 182
-828.422904014587 239.167660474777 2448.99988174438 185 185 183
