ply
format ascii 1.0
comment KinectMotionCapture
element vertex 750
property float x
property float y
property float z
property uchar red
property uchar green
property uchar blue
end_header
-468.196294612898 445.832974209392 2635.0836973279 120 123 116
-461.132608168582 445.685751963916 2645.05345024076 128 129 121
-789.4276923529 446.054112769159 2259.6860012274 237 242 245
-770.375940001865 445.444866294832 2276.33989835551 234 239 242
-713.113511328666 443.056464886904 2307.93129626788 242 247 250
-689.207194017415 442.209581963408 2326.11607446046 240 245 248
-680.561037910345 442.069337698434 2338.2223500563 233 238 241
-671.901252792079 441.926224872121 2350.27134199496 232 233 235
-665.142530478569 441.869893491072 2361.53148322588 248 248 250
-666.034024735594 442.170533220509 2369.84058557373 246 247 249
-661.174850764809 442.200341714448 2380.30775267802 238 239 243
-649.59480313763 441.912260070793 2393.24287232128 224 225 229
-638.957099808312 441.66578784025 2405.74962363813 210 211 215
-632.144073516795 441.597517555913 2416.77857879338 214 215 219
-625.320115530183 441.526890919369 2427.76074854223 201 204 209
-617.523862031434 441.408136267363 2439.04313837039 168 171 176
-608.753467155271 441.241049570453 2450.61773433727 178 181 186
-602.857552328885 441.208616682845 2461.10943929374 211 214 219
-587.319168724964 440.714334613189 2474.9509311436 216 220 221
-580.433548857174 440.630192452669 2485.66933256982 155 159 158
-573.537173710871 440.543595935353 2496.34069721511 139 143 142
-564.699272772843 440.361936419435 2507.62748031505 134 138 137
-554.882474315362 440.130992458135 2519.18498501674 135 139 138
-550.848835078802 440.176044865233 2528.72456100189 142 146 145
-547.774791805784 440.265984200163 2537.90986169455 133 137 136
-539.856899399179 440.120548194785 2548.67193363647 130 134 133
-530.958608472591 439.92558060693 2559.69934467708 117 121 120
-529.797273561918 440.103463664867 2568.14751448329 120 124 123
-524.754635935849 440.091947890667 2577.83054079079 121 126 122
-523.583610440057 440.267168911826 2586.23757402866 123 125 120
-509.790157999793 439.826157342079 2598.6230058174 120 123 116
-493.063078932639 439.238684863378 2611.83763933089 126 129 120
-457.846343310762 437.743293020487 2630.68736620824 130 133 124
-780.797464103562 437.262738880727 2263.28155809286 236 241 244
-754.118748667056 436.37952941328 2282.94122608002 231 236 239
-704.500690115398 434.489664819816 2311.47038514765 239 244 247
-686.327306727235 433.965037452891 2327.38870493135 242 247 250
-677.683499796549 433.854125886596 2339.48807981404 238 242 245
-671.894691973665 433.866278804518 2350.42553591432 206 207 209
-664.182623644749 433.792015595027 2362.05272560521 240 240 242
-664.117210083001 434.053035705399 2370.72485069845 251 252 254
-657.343666943145 434.016827801484 2381.90893328304 243 244 246
-651.517958170541 434.020679799067 2392.68866490603 224 225 229
-643.76402937941 433.937256604519 2404.13678092901 196 197 199
-637.91743886659 433.936463091143 2414.82831434319 212 213 217
-629.179983823093 433.805164901857 2426.5270125263 197 201 204
-626.195338828702 433.928407692803 2436.08666544556 190 194 197
-623.204932473096 434.050234705824 2445.62067679751 160 164 167
-615.396842190715 433.954710874656 2456.8372433391 168 172 175
-601.798920775539 433.597031412226 2470.03528405726 182 186 185
-588.18136061458 433.235255994681 2483.1491942736 158 162 161
-576.472569453523 432.956460925137 2495.51153380197 145 149 148
-565.711327715185 432.717631408241 2507.46940864275 137 141 140
-560.726598334445 432.737782730005 2517.38898643264 154 158 157
-558.631431326618 432.887390392174 2526.2951915837 140 144 143
-559.431161867021 433.16739138966 2534.21206924762 135 139 138
-558.295416275207 433.358731760558 2542.76508515806 124 128 127
-551.348970781468 433.28394173577 2553.20886686197 122 126 125
-551.17073264325 433.51662543576 2561.40048853299 119 123 122
-547.113718137733 433.570876892068 2570.83164905884 116 121 117
-550.807408969223 433.9792897596 2577.75406175357 118 120 115
-538.977945632992 433.673922938253 2589.60027891184 124 127 118
-802.618012847173 429.463773352011 2245.54729566983 233 237 238
-790.274183806542 429.248781237385 2259.63017223426 240 244 245
-754.078359517669 428.059421112222 2283.10045825698 227 228 230
-703.524417038568 426.276356238427 2311.99916435361 226 227 229
-684.403322482571 425.769181910664 2328.2874643424 238 239 241
-673.852017069485 425.609237534824 2341.12404171046 240 241 243
-669.019717153474 425.681709514324 2351.68453808743 206 207 209
-662.266032133918 425.673528262836 2362.93964260953 196 197 199
-658.372570166522 425.781506402102 2373.059909403 254 255 255
-652.556713541786 425.808527877271 2383.86942772579 254 255 255
-649.605795442954 425.952596247721 2393.56545181871 226 228 227
-645.690281199754 426.055353292543 2403.59052806858 225 227 226
-640.807849396396 426.116422625505 2413.93682118156 197 199 198
-630.156109995671 425.934858356019 2426.34354475226 210 212 211
-629.095982069337 426.152082079804 2435.21455184439 209 211 210
-624.186879735701 426.206969669642 2445.44695516121 156 158 155
-621.193140512398 426.340786028274 2454.96031465028 156 158 155
-611.45513351701 426.189222216512 2466.81941744881 156 158 155
-605.555539403578 426.197168781975 2477.27115947491 150 152 149
-590.97151904249 425.835830105971 2490.68243930734 142 144 141
-577.331007813308 425.511153820764 2503.67339341907 144 146 143
-572.356650332607 425.551498516088 2513.62679868294 145 147 144
-570.270899518988 425.71320834367 2522.56737890282 144 146 143
-574.944324403534 426.162257118643 2529.22784303156 165 167 164
-573.8203714281 426.363495108064 2537.82591612557 141 143 140
-569.78989473383 426.439178132861 2547.36141216197 131 133 130
-563.815669904823 426.429987192358 2557.49545446434 126 128 125
-560.738280866305 426.543516085187 2566.65105077181 133 135 130
-559.593516355269 426.739166173283 2575.16178930216 141 144 137
-806.365209985152 421.132271373374 2244.17571604993 232 236 237
-794.981422779958 420.99413249291 2257.88856696306 234 238 239
-764.520534569427 420.130010181858 2279.0972903368 233 234 236
-710.177005308257 418.351628796185 2309.52193961436 228 229 231
-688.205426486761 417.795630658933 2326.94730102655 219 220 222
-676.706393102341 417.634694620483 2340.1657195356 232 233 235
-670.923451225493 417.68974814788 2351.10379163041 241 242 244
-662.262498760327 417.632619098035 2363.09598030746 223 224 226
-657.414763658958 417.71990149687 2373.58083578604 220 221 223
-649.686761561396 417.694424059261 2385.10911793045 239 241 240
-647.694385523858 417.888679844839 2394.44201864734 245 247 246
-644.738736338747 418.044469648595 2404.10921427825 225 227 226
-643.695355673735 418.273329845575 2413.04717524222 198 200 199
-638.809243689633 418.351579997408 2423.36714616568 201 203 202
-634.875020018239 418.465456327014 2433.30432432488 212 214 213
-629.972569712785 418.539835099169 2443.5545762268 167 169 166
-626.984827490356 418.687764686368 2453.08606101068 158 160 157
-619.179754861369 418.645003527032 2464.28489178827 150 152 149
-616.177104801692 418.789354508675 2473.75170247554 146 148 145
-606.423549047701 418.665527335631 2485.52597471597 139 141 138
-598.583671845023 418.615001935605 2496.57600319732 141 143 140
-594.590572930899 418.71509335996 2506.26185100686 140 142 139
-596.382521663991 419.043883556221 2513.96482408322 138 140 137
-597.208677062454 419.333771235056 2521.99124343597 142 144 141
-599.000271595416 419.661574453231 2529.69323621111 131 133 130
-603.693749684127 420.105348308572 2536.44408241559 137 139 136
-599.680263311896 420.199391764747 2546.04364857652 126 128 125
-605.344239580957 420.681581429669 2552.49206702644 128 130 127
-805.351690444643 412.606476322028 2244.72416025139 232 236 237
-789.212183454834 412.339401549128 2260.33952680462 235 239 240
-760.664430307277 411.633194427857 2280.77293105929 226 227 229
-716.824585435064 410.382574477392 2307.04763132776 234 235 237
-693.911922331139 409.861099300126 2324.86322125414 222 223 225
-682.421766542023 409.738552449103 2338.09818028762 216 217 219
-676.645777609368 409.815868305921 2349.05379707832 199 200 202
-670.860096859741 409.891042576713 2359.96796576029 191 192 194
-664.10818750709 409.929970818137 2371.20318662682 191 192 194
-650.646240469386 409.726878038255 2384.90948581779 213 215 214
-643.868140917585 409.760170549935 2396.03261235613 242 244 243
-641.870495339987 409.963348336026 2405.33704481949 254 255 255
-642.74474060347 410.269144483209 2413.56601893418 231 233 232
-636.901297379311 410.331375824325 2424.23435195122 220 222 221
-633.928715227035 410.495918591801 2433.82178298263 196 198 197
-629.98923038744 410.624040716456 2443.72739849746 157 159 156
-632.771923339994 410.995650350559 2451.21456944148 140 142 139
-632.670318535819 411.26172762282 2459.72315423767 148 150 147
-628.715885324862 411.385843093555 2469.56525521391 144 146 143
-623.791053615564 411.472861681498 2479.7094474513 137 139 136
-616.92997635955 411.486805928978 2490.47830651853 136 138 135
-624.524647353667 412.032488561834 2496.28323347631 131 133 130
-623.441280441492 412.257662206653 2505.04716034733 128 130 127
-625.251407661526 412.589138387091 2512.82865848408 125 127 124
-630.926814924071 413.064080752565 2519.33171109051 121 123 120
-636.607311318085 413.539470748008 2525.85692605581 129 131 128
-649.065858209227 414.268591930737 2530.20279231551 122 124 121
-655.728921038174 414.781942676134 2536.47902684804 154 156 153
-788.168810294417 403.561018656 2251.79108433388 233 237 238
-774.880228224354 403.434988711536 2266.21600343766 234 238 239
-752.048398100823 402.997689017845 2284.33828069521 224 225 227
-713.93682528843 402.060591451679 2308.33111627076 230 231 233
-691.984855872832 401.63984655518 2325.76442287497 219 220 222
-679.544703237301 401.523757131453 2339.36467094836 211 212 214
-671.86030520991 401.559865963105 2351.04887467195 205 206 208
-667.985562267975 401.718582667401 2361.22178549068 192 193 195
-665.059626287964 401.907011615608 2371.00180372416 208 209 211
-654.474449993003 401.841733444476 2383.63236052579 214 216 215
-647.702390902181 401.899733549921 2394.76757260955 222 224 223
-645.7091785404 402.114179297834 2404.08491292436 247 249 248
-646.586673290084 402.422980932047 2412.32752482541 248 250 249
-643.626703963725 402.603274630248 2421.96127103886 247 249 248
-641.620467419446 402.814133801041 2431.22332882244 232 234 233
-642.490473994375 403.12039455815 2439.43443797974 164 166 163
-645.281799442982 403.49073866576 2446.959306597 153 155 152
-647.112732737347 403.828537805713 2454.82876930529 139 141 138
-641.245583154657 403.905435671067 2465.38401210169 137 139 136
-637.294544693959 404.045383053939 2475.23176048634 132 134 131
-640.080964389163 404.413199713225 2482.7364980952 131 133 130
-650.581427647623 405.044042712299 2487.62671050613 126 128 125
-654.340251469964 405.445427605323 2494.84027024396 124 126 123
-650.378683410546 405.581728773451 2504.64376374513 118 120 117
-655.103704993451 406.015549009404 2511.53946312067 122 124 121
-662.732380462036 406.549592720652 2517.50107898372 128 130 127
-680.040798230039 407.419330104096 2520.35244348955 157 159 156
-697.369153818867 408.292202844638 2523.28982138624 182 184 181
-789.062070275945 395.134302049443 2251.57080909947 234 238 239
-771.022837623697 394.911859085818 2267.90145277283 227 231 232
-750.101518712156 394.600201726836 2285.25583055417 228 229 231
-698.665548460086 393.382379890596 2314.49284989414 228 229 231
-687.198680247166 393.337990736899 2327.78337116623 210 211 213
-676.668579431304 393.318451511846 2340.63080646093 210 211 213
-673.758931621129 393.523544415821 2350.47171213347 217 218 220
-671.798393543476 393.755827613439 2359.92254273093 198 199 201
-669.832882610573 393.986886259512 2369.35326671989 177 178 180
-664.037417521833 394.101382493382 2380.20119208193 154 156 155
-656.318173543562 394.155753123477 2391.72110351135 142 144 143
-653.374725563105 394.352950440973 2401.41879653063 143 145 144
-652.341838061541 394.606942399636 2410.38821472628 143 145 144
-652.264443075657 394.889159538162 2418.99398896356 138 140 139
-653.14393256054 395.199984387061 2427.24420082634 150 152 151
-652.10257499676 395.45131038246 2436.17677667838 142 144 141
-654.900224765077 395.819957019052 2443.73159869323 144 146 143
-656.738024083426 396.158829758031 2451.6306855962 136 138 135
-655.690156744377 396.407710432531 2460.53710030287 134 136 133
-651.751019355503 396.565541670459 2470.42677295524 131 133 130
-652.62064519155 396.872128579111 2478.63492611578 130 132 129
-661.199495231988 397.419633728257 2484.21923406285 128 130 127
-664.000612312863 397.786509042971 2491.79037688468 127 129 126
-662.943001875962 398.031416924356 2500.65619456578 127 129 126
-666.710229873265 398.428009581711 2507.90960656854 121 123 120
-673.378678634523 398.916491454343 2514.22420167526 120 122 119
-690.689486192977 399.744208660391 2517.11081186829 172 174 171
-713.825369287718 400.760293359091 2518.21465477015 193 195 192
-745.701679324556 402.059921260472 2516.65724821097 174 176 171
-790.904588426649 386.72047032505 2250.96844045249 232 236 237
-770.971693748942 386.504498982335 2268.06461210505 234 238 239
-740.541667666964 386.004373277602 2289.19524085091 235 236 238
-702.450961233809 385.292664084873 2313.14745961401 221 222 224
-688.132814479091 385.209797534316 2327.56654325988 240 241 243
-675.700905272269 385.174087326906 2341.15692660187 217 218 220
-672.792914652048 385.392483885114 2350.99731003152 207 208 210
-668.923973980641 385.583503332066 2361.17678957302 223 224 226
-669.825125814744 385.902956034922 2369.51629717276 196 197 199
-669.769040731052 386.195732650558 2378.21085076618 196 198 197
-665.884054030449 386.382728866887 2388.32198860726 177 179 178
-661.991845280163 386.568040225088 2398.4022929223 145 147 146
-658.092635053052 386.75166314648 2408.45165137646 142 144 143
-659.937195504064 387.093124382271 2416.37900924922 141 143 142
-660.822638767204 387.407525987245 2424.65335315213 143 145 144
-659.787638519306 387.667660286953 2433.60984864792 137 139 136
-659.709656708384 387.953738610769 2442.21076597349 135 137 134
-659.629147868632 388.238958186656 2450.80213925471 134 136 133
-659.546336060883 388.523344965887 2459.38385415822 134 136 133
-660.423618682038 388.834179653096 2467.62324911302 131 133 130
-665.151218884719 389.253954727932 2474.53857227542 130 132 129
-672.773159472993 389.756517630684 2480.48902636579 129 131 128
-674.618051874692 390.09436279083 2488.41997386179 128 130 127
-674.533573616784 390.376320406896 2496.99577418191 126 128 125
-680.23905305432 390.824466963379 2503.64601609609 127 129 126
-687.881167250912 391.328975116093 2509.68530898535 138 140 137
-698.43082093293 391.918573452384 2514.81545504673 171 173 170
-717.696592900639 392.763367389849 2517.19282044899 182 184 181
-750.533903353348 394.00786872199 2515.34615209471 187 189 184
-792.745109791822 378.289342216457 2250.36744598836 231 235 236
-773.772199851098 378.158040245691 2267.08765677342 227 231 232
-739.550017373665 377.659536751888 2289.73361963844 224 225 227
-698.616751571934 376.99283613282 2314.80371874592 217 218 220
-690.97071921624 377.115252106944 2326.60622064196 232 233 235
-681.405959062838 377.189235648484 2339.09608907961 238 239 241
-679.457737987444 377.444768165395 2348.58752098265 187 188 190
-672.732211635138 377.583114001217 2359.88052634033 232 233 235
-668.861357492542 377.789033034226 2370.04172416677 221 222 224
-666.894417250207 378.040178928374 2379.45433513303 201 203 202
-663.010399317178 378.242950014553 2389.55937724737 209 211 210
-661.03273786034 378.491342128236 2398.92636406012 169 171 170
-658.09303531324 378.714745747257 2408.62406151162 140 142 141
-660.896411457833 379.07995863623 2416.206136852 149 151 150
-658.907193245431 379.325034420203 2425.52306209927 137 139 138
-656.913222750635 379.568882073948 2434.8197684032 139 141 138
-657.79448482425 379.884208201584 2443.07514380627 141 143 140
-662.517592174666 380.296233930382 2449.97522678985 139 141 138
-664.360664388693 380.635210094946 2457.89748827226 139 141 138
-665.242054210367 380.949243830671 2466.15310033888 139 141 138
-669.97248501381 381.361409989853 2473.08537207191 137 139 136
-676.632976902476 381.823377101393 2479.38049973824 133 135 132
-677.517333638829 382.136767721503 2487.64956399692 126 128 125
-681.293817736931 382.524492545417 2494.94897947333 131 133 130
-683.142795876494 382.8619462391 2502.89816132801 132 134 131
-689.819982764854 383.32527211771 2509.26605758248 141 143 140
-692.63875985495 383.687846411867 2516.91646387109 172 174 171
-710.92870437076 384.45782234863 2519.59527018295 182 184 181
-753.427292732709 385.870825899855 2514.65423589069 187 189 184
-784.135332571589 369.624143232354 2253.97782348157 229 233 234
-767.065376053637 369.590765228122 2269.91313386328 236 240 241
-729.047423969529 369.114258200611 2294.04652548913 234 235 237
-696.687873500896 368.748116100992 2315.70965364028 223 224 226
-689.996731342981 368.917322914882 2327.13602411461 203 204 206
-686.153552833808 369.145057019138 2337.40743219728 207 208 210
-682.303169002379 369.371080236933 2347.6480957736 241 242 244
-676.537372298846 369.554467926325 2358.58623739997 179 180 182
-670.761907481722 369.735747061269 2369.48301594025 219 220 222
-664.976553740664 369.91486332774 2380.33857673337 233 235 234
-660.137701067546 370.112692724634 2390.7964667549 178 180 179
-657.203550515961 370.350492459336 2400.51124857729 185 187 186
-659.049886197078 370.692174415243 2408.44629931454 193 195 194
-661.854465082966 371.054690199694 2416.03417456301 137 139 138
-661.784713941866 371.35319886133 2424.66513624541 143 145 144
-660.753618267257 371.629513714518 2433.62932066364 142 144 141
-662.598252930253 371.969367961031 2441.5579507357 137 139 136
-666.363892472879 372.35217713183 2448.81247009022 136 138 135
-669.171029186643 372.713239729612 2456.41355772694 135 137 134
-671.979593268203 373.074260311852 2464.02095987926 131 133 130
-673.82741182745 373.413017288994 2471.96426540739 131 133 130
-677.601147847033 373.795637977393 2479.25457335515 132 134 131
-678.487141779131 374.111713025412 2487.52927314706 136 138 135
-683.228308920128 374.516366931009 2494.51327382043 140 142 139
-687.008483724544 374.898929819478 2501.83307516395 143 145 142
-691.75675686202 375.304062523806 2508.84810733094 151 153 150
-695.543010906719 375.686711020818 2516.1935605408 175 177 174
-713.830071307537 376.411034233949 2518.88650922434 183 185 182
-757.284872250684 377.733573427239 2513.65589971698 186 188 183
-784.982919267449 360.841697172819 2244.65161555641 230 234 235
-782.177055881127 361.119825781527 2254.90798428489 227 231 232
-760.362553722302 361.054658244351 2272.73682528412 222 226 227
-712.846543774223 360.51856633672 2300.61976261943 230 231 233
-691.905382259979 360.455547285117 2317.73937513826 214 215 217
-689.02265762088 360.718163969503 2327.66617258864 223 224 226
-688.991873483314 361.032071131995 2336.45978840461 200 201 203
-683.239597904767 361.239234897102 2347.44352757291 227 228 230
-677.477647236675 361.444231047847 2358.38590765216 238 239 241
-669.797005017537 361.611272178585 2370.00965152477 163 164 166
-664.969288675373 361.829758403547 2380.50555136432 211 213 212
-660.133347943172 362.046373289891 2390.96522406091 191 193 192
-658.157956461688 362.315856600976 2400.32872212653 180 182 181
-659.048710409904 362.639148756274 2408.62015242031 184 186 185
-660.895919717 362.980403522096 2416.55930411533 162 164 163
-661.784984269481 363.302663836915 2424.84498326533 147 149 148
-661.714496097296 363.605746876673 2433.46892025447 138 140 137
-664.519791398218 363.9644078566 2441.06330612033 140 142 139
-669.246669453633 364.360801513328 2447.98919927307 136 138 135
-671.095451213166 364.700448476363 2455.93622575498 135 137 134
-672.944402784995 365.039633115188 2463.88427245155 134 136 133
-673.831693813269 365.359201454124 2472.16263335559 135 137 134
-676.642810051999 365.716961609237 2479.783199457 137 139 136
-678.492265509686 366.055047571755 2487.73411276997 142 144 141
-683.233170294602 366.451556813458 2494.72174777686 141 143 140
-688.942241895894 366.868057272313 2501.40751844223 146 148 145
-695.621560703606 367.304867518908 2507.7993183777 154 156 153
-699.41013270703 367.682579111793 2515.15897598321 176 178 175
-717.694921718476 368.361240031762 2517.86877268838 183 185 182
-760.172332826126 369.547760032901 2512.96762946139 186 188 183
-784.319860236524 370.357675512715 2514.09421507142 191 194 187
-777.371942678896 352.576890803668 2256.98527761048 225 229 230
-752.713520660823 352.535322507542 2275.93859611997 233 237 238
-713.763756242884 352.269321975982 2300.40065244026 214 215 217
-692.831580855461 352.271149078447 2317.52172261208 219 220 222
-690.903557793249 352.562056420286 2327.08135226108 206 207 209
-689.923080187237 352.866519386204 2336.25203320119 217 218 220
-687.033426533836 353.140187530722 2346.14071091092 198 199 201
-683.184116393923 353.397318392526 2356.3678092893 187 188 190
-676.465132124062 353.607144927396 2367.6476002121 234 235 237
-669.735249851445 353.814620946096 2378.88075076377 177 179 178
-664.905314254491 354.050614962838 2389.35548736842 179 181 180
-662.934985204385 354.331272745175 2398.73472095923 182 184 183
-660.959917586307 354.610762624406 2408.09376061669 175 177 176
-659.937278275747 354.904856394018 2417.08475166048 170 172 171
-661.784737544296 355.245489164002 2425.02537066706 178 180 179
-664.590814522022 355.601826850804 2432.62456753563 152 154 151
-666.439288211919 355.941883263942 2440.56999566038 140 142 139
-668.287949391488 356.28168289536 2448.51640100307 137 139 136
-670.136793860289 356.621022536983 2456.46388457451 139 141 138
-671.985812104339 356.960045169765 2464.41232035388 142 144 141
-673.835007136641 357.298664538251 2472.36177235086 142 144 141
-675.684358979277 357.636935033524 2480.31212054019 140 142 139
-679.459608050552 358.008392121023 2487.61566192938 136 138 135
-685.164230183574 358.413766431803 2494.28836971542 144 146 143
-692.80214838317 358.85360892864 2500.34612044497 152 154 151
-695.62417264263 359.208775025993 2508.01627929936 159 161 158
-701.343476398316 359.615506465038 2514.75288454027 177 179 176
-717.693065110562 360.213653756728 2518.09524317256 182 184 181
-754.358471479941 361.18161560024 2515.05222185344 185 187 184
-782.364185905097 361.998974485243 2514.94911013019 184 186 181
-781.066284814616 343.819440249854 2246.51850553107 227 231 232
-776.36481131659 344.100652973678 2257.53272386004 224 228 229
-749.816317977249 344.111100008057 2277.24060573393 231 235 236
-716.580174598073 344.03173533393 2299.4286942262 226 227 229
-695.657974200889 344.098592736537 2316.55655765382 210 211 213
-691.831166983754 344.376385550261 2326.86957775629 229 230 232
-685.14102416207 344.616026195974 2338.2589250012 216 217 219
-684.155590488015 344.927035694712 2347.4039161983 218 219 221
-682.213531539438 345.224623424891 2356.89776647318 177 178 180
-680.266530177461 345.521020802311 2366.37162416926 228 229 231
-673.542891973766 345.753168971721 2377.61669191592 237 239 238
-672.53857720103 346.059288126495 2386.68135847364 186 188 187
-668.663680936499 346.325900375964 2396.79013302888 146 148 147
-663.825336579789 346.57788011293 2407.21841352331 155 157 156
-658.021460490367 346.814937129555 2417.9582753397 194 196 195
-659.868359516119 347.155241450493 2425.8966187773 190 192 189
-662.673782430959 347.508473628048 2433.49367361715 165 167 164
-665.480412140735 347.861667368745 2441.09715530745 154 156 153
-668.288455266397 348.214700974073 2448.70695950745 143 145 142
-671.098156084183 348.567603896931 2456.32305890491 143 145 142
-672.948484129067 348.9066509271 2464.27725207033 142 144 141
-672.876373101007 349.217536016478 2472.89053532292 141 143 140
-676.649653856163 349.583561222883 2480.1885980343 141 143 140
-682.35041578064 349.977824677184 2486.85083056427 141 143 140
-688.056304254391 350.372629020153 2493.53533548575 145 147 144
-692.803629787824 350.753589183348 2500.56040946358 154 156 153
-695.626026265619 351.105927176229 2508.23387192472 161 163 160
-702.309876021492 351.516274164264 2514.66120264813 177 179 176
-722.518294813513 352.132534161455 2516.77042232747 182 184 181
-756.277303473599 352.959272232255 2514.67350869185 184 186 183
-786.209822391522 353.733479020539 2513.97357443031 185 187 182
-789.536287959606 335.410977628853 2243.22047485452 224 228 229
-781.049044498674 335.676464142383 2255.78837337231 230 234 235
-747.869672845062 335.705454437273 2278.16289988481 224 228 229
-716.544291632803 335.743965605261 2299.58876274989 245 246 248
-695.630668007277 335.875585395705 2316.71524283419 216 217 219
-690.855248447884 336.160043321909 2327.40170356569 219 220 222
-681.313044981502 336.395434930697 2339.89603478572 213 214 216
-682.231398211954 336.732995368437 2348.30069125262 214 218 217
-682.195689755265 337.06036782572 2357.06468783975 209 213 212
-680.250865201232 337.36745590576 2366.54076347087 163 167 166
-674.484611985819 337.633678678933 2377.42925896293 182 186 185
-670.618506024716 337.91779664514 2387.56538594924 209 213 212
-668.655558539422 338.220572453927 2396.96522426978 208 210 207
-661.90830234956 338.470873549218 2408.09554062768 163 165 162
-661.846085248988 338.791311308429 2416.74680364671 163 165 162
-661.781595859757 339.111008362478 2425.38848931363 195 197 194
-668.41992224583 339.504040188836 2431.62540210019 191 193 188
-666.438437115219 339.80150947302 2440.94558760769 186 187 182
-671.165710109817 340.173529251216 2447.88755700895 151 153 150
-673.977398924371 340.523954658679 2455.51496026777 147 149 146
-676.790507893279 340.874221097982 2463.14871504333 134 136 133
-675.761343372546 341.179738390278 2472.10423331525 143 145 142
-677.613314816851 341.518057680325 2480.06609627667 147 149 146
-684.2764420304 341.912897778327 2486.41123220661 141 143 140
-689.020251952597 342.285496872643 2493.42573208703 146 148 145
-691.841011234648 342.635150437614 2501.09355901494 158 160 157
-691.771038661325 342.949443148022 2509.7142612776 164 166 163
-701.345485902075 343.381272264648 2515.19628756593 179 181 178
-723.478294264542 343.969755341498 2516.68899999371 183 185 182
-761.091543817719 344.755467891364 2513.37350798262 183 185 182
-788.119241222288 345.415236013693 2513.60978649481 188 190 185
-796.104695027133 326.935082525524 2240.69539173021 225 229 230
-781.936217112883 327.193907672726 2255.57411688024 232 236 237
-749.718994730989 327.329218788708 2277.56839962433 248 252 253
-717.457326898518 327.455976347235 2299.37294748474 227 228 230
-699.402784195701 327.671983596408 2315.37933058454 252 253 255
-692.731219366624 327.962454081206 2326.82064669842 210 211 213
-680.340953795718 328.210098807159 2340.42678932261 230 231 233
-676.499775123015 328.51578719478 2350.66115967135 214 218 217
-679.319392650777 328.868627306967 2358.3220811502 223 227 226
-684.046944489612 329.235575521416 2365.26826222771 184 188 187
-684.009530488005 329.566978559956 2374.02128613616 169 173 172
-677.288660065122 329.846392005605 2385.25183683565 180 184 183
-670.556888388994 330.123483297834 2396.43571615844 217 219 216
-664.770023537606 330.405734637546 2407.22287103794 193 195 192
-664.710967462 330.731810873577 2415.88474698308 147 149 146
-666.56353488999 331.072605311622 2423.84778039016 151 153 150
-671.288897216186 331.436831279853 2430.78591435204 155 157 154
-673.143735908562 331.777295991603 2438.75915019053 147 148 143
-674.998765341099 332.117475558884 2446.73339425255 139 141 138
-677.813289402808 332.465528422567 2454.37468669375 138 140 137
-678.70937898677 332.796831610253 2462.68491703973 146 148 145
-678.643640665896 333.119031353681 2471.31962719536 149 151 148
-680.498161789159 333.457589807295 2479.29258484048 139 141 138
-689.086023025343 333.856489227363 2485.00291992468 146 148 145
-692.870011724791 334.212609281439 2492.35508029482 151 153 150
-694.730605959022 334.551004809388 2500.35489538728 160 162 159
-694.664058902308 334.870968951135 2508.98627028499 164 166 163
-706.167013648029 335.299713913328 2513.85541183116 179 181 178
-727.33199317997 335.822561577473 2515.67832438566 185 187 184
-759.14309062307 336.452398152514 2514.22750301605 186 188 185
-789.060501087364 337.069887406498 2513.55208194332 186 188 185
-781.826847258061 318.341085443775 2246.6288069581 224 228 229
-773.34301740304 318.664754484459 2259.17752672451 231 235 236
-739.235045168538 318.889001262834 2281.90275391082 225 229 230
-712.673790152739 319.13385069586 2301.41653266292 190 191 193
-701.272194808853 319.432517644197 2314.79290934128 230 231 233
-696.506281822837 319.755213374553 2325.49877127503 241 242 244
-682.221832592481 320.035648607801 2339.8526633496 223 224 226
-675.529569196316 320.345182668267 2351.1915570998 210 214 213
-677.396721192718 320.69075959166 2359.21604560172 208 212 211
-681.16992932219 321.044825869051 2366.52082213405 188 192 191
-686.85267266833 321.408083768744 2373.12189089936 167 171 170
-682.045527248224 321.721236559943 2383.65167185941 161 165 164
-677.229943603693 322.032522758414 2394.14536701841 205 207 204
-668.584355561064 322.322545096118 2406.00216347971 206 208 205
-670.441105039692 322.664266410885 2413.98308024853 154 156 153
-670.385037830866 322.995446705373 2422.65403840863 144 146 143
-677.026833708658 323.362220307153 2428.92277041186 151 153 150
-675.054837249287 323.682072964497 2438.27160329303 148 149 144
-673.078078518564 324.000724687156 2447.60015721823 141 143 140
-673.973520928617 324.334734434925 2455.90703024408 141 143 140
-676.787578179623 324.679367114935 2463.54719087861 142 144 141
-681.523505531831 325.035356936921 2470.53672465365 148 150 147
-686.263323043169 325.391702411354 2477.54319152404 143 145 142
-691.00702373768 325.748344478319 2484.56659548681 144 146 143
-693.830227450246 326.093099112283 2492.24807537268 154 156 153
-692.803781621258 326.412971700979 2501.20713044752 161 163 160
-695.627291978538 326.756969528604 2508.89040671514 164 166 163
-707.128351073783 327.158600857933 2513.76714228842 179 181 178
-729.253030675783 327.633922740844 2515.28950603043 185 187 184
-757.195166057334 328.1534406645 2515.08140880087 186 188 185
-782.273275900879 328.658248567988 2515.93172415376 185 187 184
-767.558165462339 309.821700798235 2252.55764172744 222 226 227
-761.912071608565 310.175369190707 2263.92310940683 223 227 228
-741.084577134409 310.513091261231 2281.30898784849 231 235 236
-715.483833687025 310.840114067213 2300.4495089099 233 234 236
-703.139608398987 311.17569741508 2314.20789528495 212 213 215
-701.228066850009 311.520976434108 2323.80817231554 177 178 180
-686.001973823181 311.846453473822 2338.54364052166 234 235 237
-678.364480411334 312.179134840432 2350.26009867846 199 203 202
-678.330415444647 312.521791598505 2359.02126129063 202 206 205
-684.009210269695 312.873749789904 2365.61157672045 194 198 197
-687.787003287658 313.222709381211 2372.93956049438 195 199 198
-685.844511465415 313.560470757119 2382.40896086311 189 193 192
-682.943209087215 313.89500581741 2392.21050765975 146 148 147
-679.080748020881 314.225991399727 2402.33621655814 155 157 154
-676.166657990045 314.557572228792 2412.08423759553 185 187 184
-678.027997241046 314.899481122055 2420.08526921363 166 168 165
-677.975921714327 315.2360677409 2428.77063719742 142 144 141
-677.921350075601 315.571945596015 2437.44650915838 143 143 141
-674.990364997573 315.898938310798 2447.12169306929 142 144 141
-674.929368273965 316.232893319284 2455.77038336655 159 161 158
-679.662972486299 316.580670775413 2462.75451029658 148 150 147
-685.36037605048 316.931860531617 2469.42727850206 142 144 141
-692.023665620046 317.28666654028 2475.79667660988 142 144 141
-693.887152319486 317.625968049187 2483.8087046992 146 148 145
-694.788819485948 317.961489908373 2492.14211820732 157 159 156
-694.727262162385 318.292963038326 2500.78871152807 162 164 161
-698.51538375268 318.638026178983 2508.16558710763 165 167 164
-712.906864162823 319.023939488075 2512.11812185221 178 180 177
-733.100497095763 319.435331405673 2514.28268324627 183 185 182
-761.037149135651 319.882105731415 2514.09320866825 185 187 184
-783.214295614898 320.31016826491 2515.8745680529 186 188 185
-754.245024649523 301.374790112319 2258.0981068363 221 225 226
-755.224422702735 301.734668331632 2266.7586353111 220 224 225
-738.19272554127 302.128948306905 2282.60991755442 220 224 225
-720.1878956569 302.520121258383 2298.7323371785 233 234 236
-708.801518114166 302.895040288893 2312.13092325658 238 239 241
-705.945932978567 303.253114210589 2322.12008172821 176 177 179
-694.530797138911 303.622196942696 2335.39646134083 173 174 176
-685.95180520559 303.984023238482 2347.50339940784 209 213 214
-680.214296079389 304.339617515519 2358.46490607832 219 223 224
-681.132464597507 304.685923330548 2366.86469126172 193 197 198
-682.049855207774 305.031763356654 2375.26023608697 188 192 191
-682.012617640901 305.377875188868 2384.00647264685 183 187 186
-682.927373910803 305.722535761623 2392.39110276929 166 168 167
-682.886259112436 306.067339629761 2401.12102331903 144 146 145
-682.843115826676 306.411316460221 2409.84140521263 149 151 148
-682.797482929891 306.754527801453 2418.55235309452 151 153 150
-678.923403470129 307.097963789678 2428.61954174717 142 144 141
-675.999450816513 307.439509416555 2438.31715501704 140 140 138
-674.984946238162 307.779673660041 2447.31689522138 162 164 161
-676.842187876954 308.119079384468 2455.30134268557 167 169 166
-686.371794327535 308.459934755391 2460.64036885959 159 161 158
-692.073150847128 308.800920270341 2467.33547145097 141 143 140
-696.819222070201 309.142034842314 2474.3784540914 142 144 141
-692.921098108485 309.478442296057 2484.34382279403 150 152 149
-695.74626266995 309.817780348382 2492.03712916432 158 160 157
-695.686419397307 310.154683102074 2500.68916846246 164 166 163
-702.363700651655 310.49695805747 2507.12759233683 167 169 166
-713.864058627273 310.845042017476 2512.03273318764 179 181 178
-731.160920877251 311.201688114075 2515.13496097312 184 186 183
-751.371595537443 311.565180394292 2517.40279102113 184 186 183
-779.327678415158 311.943208461955 2517.33937419379 187 189 186
-757.027956441067 292.916034542549 2257.10975831428 222 226 227
-756.116163157039 293.287990059882 2266.54340496535 222 226 227
-741.934893813478 293.722653804123 2281.26125479032 218 222 223
-726.784759824124 294.157627060359 2296.26595369317 206 207 209
-709.714932380209 294.596848026022 2311.92277915909 207 208 210
-703.06431348337 294.985186878958 2323.39883211928 209 210 212
-696.402810060712 295.371177550141 2334.82830272245 201 202 204
-690.681271136407 295.750885343759 2345.84600050458 171 175 176
-681.144747908196 296.143951834341 2358.27262290488 186 190 191
-680.16082021367 296.500346416426 2367.39755629012 219 223 224
-679.17343798557 296.855882287491 2376.50777207938 206 210 211
-680.088939435401 297.203275257633 2384.89407878627 198 202 203
-678.142145444768 297.56046876928 2394.33200556854 163 165 164
-680.00808429394 297.903319013424 2402.35275198973 168 170 169
-680.919309755228 298.249045690717 2410.72119629086 147 149 148
-682.785074042365 298.591200404951 2418.7415825793 146 148 147
-678.913592368061 298.950706293814 2428.81076677802 166 168 165
-677.905475175775 299.300018300102 2437.83327306366 186 186 184
-679.766292165592 299.640187959871 2445.83302625896 175 177 174
-685.459616623467 299.969584254298 2452.50063777849 157 159 156
-694.992895269071 300.289670625785 2457.86806140298 141 143 140
-696.861720260139 300.630243919265 2465.90286505331 144 146 143
-698.730718551482 300.970384418491 2473.93868691976 147 149 146
-693.875952161722 301.32530119882 2484.23405828454 155 157 154
-694.779861174957 301.666029127254 2492.57320220842 160 162 159
-695.682687120403 302.006193416296 2500.90790502699 166 168 165
-702.358819954573 302.334860742859 2507.35035827502 170 172 169
-715.782833763567 302.652337730316 2511.63633674045 180 182 179
-733.076495176046 302.965734933724 2514.74989738151 184 186 183
-753.283003303947 303.277914308143 2517.02954786731 187 189 186
-778.337614702983 303.587076442859 2517.89138801056 186 188 185
-753.186162319135 284.486780543215 2258.80872012722 223 227 228
-753.220288722131 284.85883598449 2267.85308178817 224 228 229
-740.937627356143 285.324402023616 2281.80630263745 224 228 229
-722.949661645354 285.829153305345 2297.93514603439 224 225 227
-708.729919514106 286.300773047709 2312.46172631857 227 228 230
-700.183898453515 286.726897985301 2324.67722106293 212 213 215
-695.423640358194 287.123119098935 2335.36475646821 204 205 207
-689.704680399847 287.524158026192 2346.38127238145 174 178 179
-683.024958403836 287.929699698107 2357.71896221215 176 180 181
-681.092392185421 288.300725514659 2367.21144903172 216 220 221
-682.011715519571 288.651528444174 2375.61259153228 211 215 216
-682.929833514579 289.001932969253 2384.0097433544 204 208 209
-679.079857203312 289.382287986136 2394.16142977497 189 191 190
-679.039094676127 289.737032631971 2402.88596938277 178 180 179
-679.950683525208 290.085165242251 2411.2545998883 143 145 144
-681.816486818232 290.426979603493 2419.27535824363 152 154 153
-679.858673133591 290.791157408187 2428.6617043938 179 181 178
-680.765961815774 291.137474908626 2437.01245347912 185 185 183
-684.54369525354 291.466986052341 2444.35161365015 150 152 149
-691.197215598164 291.780686894154 2450.70322606153 142 144 141
-696.89879276323 292.100376258709 2457.41291305451 139 141 138
-695.892473436631 292.456247652816 2466.43948375268 150 152 149
-696.801971712712 292.801154490636 2474.80079928522 149 151 148
-692.909067500267 293.169850562646 2484.77017809444 152 154 151
-694.774153205368 293.508272012817 2492.78976994416 161 163 160
-695.677986418537 293.85104054222 2501.12737963451 164 166 163
-703.315464922954 294.16153754481 2507.25926960967 168 170 167
-714.811391680641 294.455341247084 2512.17680984061 178 180 177
-734.02653464029 294.716565117048 2514.67539798049 183 185 182
-752.300460621181 294.985680446616 2517.57712085581 185 187 184
-780.241223408969 295.217380463351 2517.5322602818 186 188 185
-790.841778148761 295.526174631193 2523.05295193054 188 190 185
-756.949602776594 276.368917772844 2266.49696068228 227 231 232
-735.205766057094 276.974833189109 2284.24248517284 227 231 232
-721.011640619083 277.496130068653 2298.8527288708 222 223 225
-706.796534738705 278.013342856186 2313.3740092132 212 213 215
-701.100055529839 278.439912285995 2324.47457203032 188 189 191
-692.545729444141 278.892933073582 2336.63656438638 191 192 194
-686.827911704153 279.315124978559 2347.64675849055 191 195 196
-683.952622432173 279.707331505956 2357.52901352078 175 179 180
-682.022591719611 280.089094090949 2367.02635822085 198 202 203
-685.798956922076 280.415430664524 2374.36244274928 218 222 223
-683.863209138754 280.795508745088 2383.83558551797 221 225 226
-680.969496479966 281.183206328732 2393.64039493402 176 177 179
-679.023715518343 281.560823362113 2403.07077325627 165 167 166
-680.890566761895 281.902848170475 2411.09602570621 199 201 200
-683.712548658067 282.23619688812 2418.77883015382 206 208 207
-684.624946271968 282.586147284565 2427.14995537984 216 218 217
-686.492460586581 282.927303470467 2435.1786405976 189 189 189
-690.27393152827 283.251966108895 2442.53712209296 149 151 148
-694.057845180071 283.576659761275 2449.90743574314 145 147 144
-694.970442736306 283.925285278958 2458.28022128049 142 144 141
-692.047287616651 284.304485793989 2467.95920156822 144 146 143
-692.955082604906 284.65154022133 2476.31283470354 145 147 144
-692.902179569978 285.005541454244 2484.98431350298 154 156 153
-693.807245641827 285.351342194621 2493.32665884085 161 163 160
-694.711452469235 285.696547354175 2501.66448174413 165 167 164
-702.347072282299 285.990581814598 2507.79786398586 169 171 168
-716.727083370511 286.235693617527 2511.78267314913 179 181 178
-738.827473845046 286.427282321095 2513.36597402633 183 185 182
-759.026885179771 286.636992173789 2515.67462118593 186 188 185
-783.106992634993 286.823391268779 2516.87084767217 187 189 186
-790.812766965396 287.128015590589 2523.30714245505 192 194 189
-749.323865614092 268.004060254806 2269.71052760409 230 234 235
-724.743898314481 268.714441118816 2288.56729078688 224 228 229
-709.601663640418 269.292821122186 2303.52353786147 220 221 223
-702.020392610287 269.767374064832 2315.40429993992 208 209 211
-702.01488733788 270.140924235197 2324.27314249461 194 195 197
-692.51609659013 270.635837039248 2336.8061332297 192 193 195
-688.700992449272 271.055207853192 2347.08853867171 201 205 208
-685.8291832416 271.461062710803 2356.97810136469 193 197 200
-688.65690853878 271.794307095028 2364.68627590588 184 188 189
-689.58313132275 272.151048945288 2373.11432827124 202 206 207
-685.74736807759 272.565452843313 2383.30861919563 227 231 232
-680.951684940076 272.989785917732 2393.82351695356 207 208 210
-679.961184733742 273.36659174819 2402.90748284199 182 183 185
-680.875126125802 273.719859617978 2411.28454602357 167 169 168
-683.697680360275 274.05031525814 2418.97048772601 189 191 190
-687.4766596569 274.36961285523 2426.32223155285 170 172 171
-691.258560227154 274.689027567609 2433.68569289747 155 155 155
-694.08647255354 275.019440695509 2441.39635684941 145 147 144
-694.04466115668 275.381958251615 2450.11170276221 144 146 143
-692.084749792509 275.764979426678 2459.47772227486 146 148 145
-689.162011747198 276.157210937058 2469.15087602612 157 159 156
-690.06917127087 276.506514346852 2477.4992997504 159 161 158
-691.934809055378 276.844915722625 2485.52133618662 159 161 158
-695.720933205716 277.162674044189 2492.90546969978 159 161 158
-699.509948187833 277.480515282254 2500.30120670102 165 167 164
-708.108809896406 277.748766143149 2506.1379458196 170 172 169
-720.564792822429 277.978862314449 2510.76711039918 180 182 179
-738.811053446387 278.152763570583 2513.60292560896 184 186 183
-755.151575822697 278.349309687824 2517.14262785639 186 188 185
-780.186387839959 278.463380011624 2518.03196716796 187 189 186
-789.818282768402 278.732530877853 2523.86282304253 194 196 191
-730.354414394237 259.861781929481 2277.48746981348 235 239 240
-713.341944255217 260.522559114118 2293.26673242074 227 231 232
-705.774134387303 261.025968684117 2305.18983959612 237 238 240
-701.036835670225 261.481501745525 2315.94366187607 240 241 243
-700.083685383742 261.875103668306 2325.18233407968 223 224 226
-693.434699048702 262.357316286359 2336.60928115267 232 233 235
-689.622768713578 262.792827850828 2346.89617874578 229 233 236
-683.903604383928 263.256092526199 2357.87628133926 236 240 243
-684.829305515832 263.615347338838 2366.3005569632 227 231 234
-683.851448606283 264.00302092042 2375.4338444326 209 213 214
-682.870136925672 264.389777898279 2384.55244731011 200 204 205
-679.980538252928 264.80406380614 2394.35866052022 219 220 222
-678.037788106292 265.202784916355 2403.79106803824 211 212 214
-679.905331037185 265.544351020029 2411.81963825555 140 142 141
-682.727600133125 265.871777913928 2419.50610488325 146 148 147
-688.415962237819 266.157764822169 2426.1773814039 148 150 149
-690.287288150486 266.499002720454 2434.22281465433 147 147 147
-692.158801552825 266.839983837019 2442.2692251227 149 151 148
-692.116830675279 267.207548640474 2450.98198605639 149 151 148
-691.115209904565 267.58766378323 2460.01500191292 151 153 150
-689.152106377372 267.980011784847 2469.36038277401 161 163 160
-691.018849745617 268.318720368062 2477.38711035864 164 166 163
-691.926566647735 268.670116203624 2485.73675951642 165 167 164
-693.793061093309 269.00805852494 2493.76284089483 159 161 158
-694.69927548021 269.358413105303 2502.10648153871 165 167 164
-707.137986061116 269.556389172452 2506.67842622802 170 172 169
-721.514113823091 269.731406439383 2510.68735053934 180 182 179
-741.680846364351 269.834360198856 2512.91478658772 183 185 182
-759.945189513394 269.965819452363 2515.85633321335 185 187 184
-786.903414251764 269.990839533307 2516.15981326998 188 190 187
-800.394458954918 270.190670841749 2520.81145016378 195 197 192
-720.850877354921 251.639449685783 2281.4553537381 235 239 240
-712.352870522206 252.190259866768 2293.80909099709 234 238 239
-703.841750659619 252.738380846452 2306.10553999447 194 195 197
-701.00060504751 253.176679501962 2316.11114174289 218 219 221
-693.414308002959 253.702283644412 2327.9397296627 205 206 208
-693.403372076413 254.084480435309 2336.78064238267 165 166 168
-691.492220225376 254.500955460869 2346.34076148064 138 142 145
-688.62655315035 254.933746742549 2356.24263322828 138 142 145
-688.606079945603 255.313295192265 2365.04199047247 144 148 151
-684.779549801164 255.760827512384 2375.25748269297 170 174 175
-684.751933004502 256.138543998917 2384.02752507415 164 168 169
-680.913509864577 256.583293122584 2394.1922469017 213 214 216
-679.926236184286 256.975959577698 2403.28110201814 222 223 225
-679.889024713703 257.350988855432 2412.00935886565 202 204 203
-679.849350585967 257.725257312768 2420.72829772967 181 183 182
-683.626115477316 258.032877424803 2428.07606551805 148 150 149
-687.405347019646 258.340619475075 2435.43571747979 150 150 150
-692.143296690141 258.632310465055 2442.47198122539 153 155 154
-690.189790420172 259.037399436497 2451.85215929919 167 169 166
-691.10286842717 259.393166067214 2460.22286180946 182 184 181
-689.141707658127 259.796206015718 2469.57051492634 187 189 186
-693.88394931766 260.087322718416 2476.62711583172 181 183 180
-691.91760009137 260.488682949222 2485.95289357699 171 173 170
-692.825254432872 260.842063827462 2494.30109951943 170 172 169
-693.731842671498 261.194912930681 2502.64492037216 167 169 166
-708.08880944642 261.332102755327 2506.59165922051 168 170 167
-722.462061911219 261.471824256962 2510.60867313522 178 180 177
-741.661777686178 261.538453316497 2513.15373453892 184 186 183
-761.846794964561 261.593664895667 2515.48982404652 188 190 187
-788.798593436205 261.548352444254 2515.80635357454 189 191 186
-805.179498936038 261.671335236088 2519.56727463552 196 198 193
-728.36334103295 243.088700061125 2278.57903441496 219 223 224
-721.766025618992 243.628371427615 2290.19987792473 210 214 215
-711.372642941794 244.248401720676 2303.2735980668 186 187 189
-706.644813142801 244.742021434829 2314.04674452046 191 192 194
-697.170986591638 245.33601929704 2326.63146326829 215 216 218
-695.267681584212 245.764498206783 2336.21909977957 199 200 202
-693.35968842858 246.191789021124 2345.78677641245 158 159 161
-691.446790277353 246.617982741407 2355.33457049917 145 146 148
-686.679475919855 247.102998642911 2365.93878576068 143 144 146
-683.805026514322 247.546462509956 2375.79459383233 140 141 143
-680.92440504371 247.988551955229 2385.62509903605 153 154 156
-678.989845447827 248.409592279103 2395.07938498822 188 189 191
-679.907942397081 248.770856394261 2403.46897040385 212 213 215
-679.871800860002 249.151059095654 2412.19998556548 215 216 218
-680.787267194356 249.511231180123 2420.57862127567 195 196 198
-682.655953928085 249.851751599496 2428.61284678347 180 181 183
-685.479727379357 250.172885777543 2436.31073004651 178 179 181
-688.304948176342 250.493923548966 2444.01504785041 184 186 185
-688.263323306482 250.871543748323 2452.72233282692 195 199 198
-689.175924189354 251.229612507619 2461.09066522762 201 205 204
-688.17304239142 251.624450992029 2470.10837807366 190 194 193
-690.99845314178 251.944191080231 2477.81429617627 190 194 193
-687.114825435693 252.39270930951 2487.77760382173 172 176 175
-688.020366896718 252.748096118335 2496.11531937474 169 174 170
-691.804288144532 253.048377724104 2503.50002486588 164 169 165
