ply
format ascii 1.0
comment KinectMotionCapture
element vertex 752
property float x
property float y
property float z
property uchar red
property uchar green
property uchar blue
end_header
-281.76355087025 399.784645187113 2288.72490856657 148 150 147
-277.608219073489 403.023171237297 2309.67858672692 152 154 151
-274.06294370838 407.100027065053 2335.80689728818 158 160 157
-249.731452823891 394.368185521309 2259.42275782311 136 137 132
-240.585853832195 391.420992676511 2242.2572326455 131 132 126
-238.950163083586 398.010137337835 2283.88063638904 126 127 121
-1555.61969476202 469.527034465393 2620.45614154783 25 21 9
-1538.21873640012 467.177397607111 2607.40199555099 105 99 85
-1523.81703028887 465.730635474748 2599.72582364595 156 150 136
-1511.88667493218 465.037239098958 2596.5418496486 173 167 153
-1495.67405918083 462.979328632848 2585.21105785081 181 177 166
-1482.40486027014 461.826699541125 2579.27896313686 193 189 180
-1467.76205694848 460.216672655243 2570.61151607882 193 192 187
-1450.82452120304 457.844769600947 2557.38705691655 195 194 190
-1434.44744716032 455.620361008972 2545.03690020525 188 189 193
-1414.42104653618 452.176338676726 2525.38770057517 181 184 189
-1400.0935484437 450.551071144236 2516.60454135513 174 177 182
-1389.52587479921 450.139788787257 2515.07985234507 167 170 175
-1381.73857758321 450.640622394251 2519.01386910943 158 161 166
-1370.29152109069 449.922158265304 2515.65214877745 163 166 171
-1354.7922519264 447.829387876247 2504.05979544364 162 165 170
-1338.01900393712 445.275042106375 2489.69532253815 159 162 167
-1320.44381603841 442.410607081061 2473.46546100855 156 160 163
-1303.42174196302 439.694072788034 2458.11260234417 161 165 168
-1283.83737966258 436.055277722559 2437.22128713414 144 148 151
-1268.79900308289 433.940624082999 2425.45982308959 148 152 153
-1256.0355892719 432.58763424077 2418.26202957316 172 176 177
-1245.50908257675 431.997946741401 2415.64236587408 168 172 173
-1234.14515930739 431.099780984494 2411.17057941313 181 185 186
-1220.66558643588 429.432144712959 2402.07614032793 154 158 159
-1209.82346548761 428.682521561868 2398.49252750198 154 158 159
-1198.59036302782 427.777291609634 2393.97242161793 174 178 179
-1188.24465621556 427.177308685491 2391.28654403058 176 180 183
-1177.50791812951 426.421555940677 2387.66392486029 167 171 174
-1167.64328916221 425.971826300211 2385.88114671287 178 182 185
-1157.80357993283 425.520421827614 2384.0889336148 167 171 174
-1147.16238255481 424.75901585653 2380.43142867762 179 182 187
-1134.50296053286 423.224258612927 2372.115834466 169 172 177
-1125.98583990292 423.230220946269 2373.0775073341 166 169 174
-1116.26176792099 422.771722773757 2371.24299795561 168 171 176
-1107.3688307464 422.620697770629 2371.2628179053 170 173 178
-1096.08785717813 421.540363762418 2365.68033727466 168 171 176
-1085.25041106389 420.612346082592 2361.01475521118 173 176 181
-1076.03502561652 420.301712063431 2360.07313373517 160 163 168
-1066.44693130054 419.834624325603 2358.18857046765 162 165 170
-1052.59118519111 417.659532494351 2345.99259789689 167 170 175
-1035.32768178026 414.083724905596 2325.32933623682 179 182 187
-1021.65800628746 411.899991460322 2313.06510519967 183 187 190
-1010.36539774496 410.644923789053 2306.40711182078 185 189 192
-995.323451937163 407.831886939958 2290.32751692219 186 190 193
-980.006151493984 404.858591621478 2273.26932070857 191 195 198
-968.920014233087 403.593489528715 2266.53555144602 192 196 199
-956.767772072174 401.858138369637 2256.95373407009 196 200 203
-943.942258393039 399.807728951594 2245.4594030922 196 200 203
-932.295117098006 398.221797632643 2236.77214811114 209 213 216
-925.085247987955 398.506369162394 2239.41323569785 211 215 218
-917.513098512965 398.634212206773 2241.10731738919 204 208 211
-909.946039504954 398.761127994383 2242.79973386496 206 210 213
-901.31302592175 398.418027048205 2241.64406513855 205 208 213
-893.409240690293 398.38650103359 2242.38006166718 208 211 216
-885.163799447348 398.197367259533 2242.16174666093 204 207 212
-876.584394398 397.850265551163 2240.98629807703 203 206 211
-867.67872824561 397.345073530764 2238.8509080005 228 231 236
-860.519640410357 397.622777198776 2241.47302665187 226 229 234
-851.993954947215 397.271803183116 2240.27751324788 219 222 227
-843.149817625822 396.762241311467 2238.11943772411 213 216 221
-833.994770462142 396.093883764845 2234.99553549214 212 215 220
-826.540413116576 396.210439814773 2236.64622156275 203 206 211
-817.765586918098 395.696455846855 2234.4623747456 200 203 208
-808.687664497344 395.023297592737 2231.31008797711 198 201 206
-799.314332827191 394.190843289476 2227.18655910414 200 203 208
-791.271924666212 393.987283522447 2226.8933860902 204 207 212
-783.566301196406 393.940376716772 2227.55647680898 205 208 213
-775.23388105688 393.576595344744 2226.2900308247 204 207 212
-766.922074003277 393.211426554785 2225.01573634405 194 197 202
-758.00401512116 392.528804791173 2221.80465111148 199 202 207
-750.671701633054 392.635350618651 2223.41023877811 190 193 198
-743.653174055946 392.899581029603 2225.98027003027 193 196 201
-736.634954063385 393.16308479734 2228.55013469903 209 212 217
-730.526893853939 393.901562509652 2234.02506469818 205 208 213
-724.704528390948 394.798584443198 2240.47470971894 187 188 192
-717.669462718983 395.061138665293 2243.05062341092 194 195 199
-710.043634501408 395.005575017265 2243.68406834532 204 205 209
-702.721370045621 395.107811381729 2245.28542536 194 195 199
-696.276172745152 395.686420413178 2249.80423134062 190 191 195
-690.109116059124 396.423809340906 2255.30051482477 184 185 189
-682.785698778323 396.524588271689 2256.90243504362 187 188 192
-675.467800307715 396.624569691672 2258.50203559276 201 202 206
-668.716091451032 397.042649116785 2262.05354028005 201 202 206
-662.237411736796 397.61978144537 2266.58414595417 214 215 219
-654.923607435165 397.718159923072 2268.18239229866 229 230 234
-647.888076588838 397.975432209155 2270.75807647545 214 215 219
-640.853066576649 398.232267277217 2273.33353842484 209 210 214
-634.621081236112 398.968025084641 2278.85328985689 204 205 209
-627.844440342073 399.383936334071 2282.41343539209 180 181 185
-620.800925309641 399.639614994638 2284.99190028195 180 181 185
-613.758049958269 399.894732688742 2287.57009042583 184 185 189
-606.458542768702 399.98933661312 2289.16285729652 175 176 180
-599.419421720615 400.243473857302 2291.73960938452 162 163 167
-592.885251609925 400.817891581834 2296.29017198236 163 164 168
-585.592763645298 400.910791939591 2297.8802599682 165 166 170
-579.047212425907 401.484747485863 2302.43517718342 164 165 169
-571.269593068761 401.255474991365 2302.04385638671 162 163 168
-564.475742833445 401.668068833125 2305.61000441818 146 147 152
-556.719894435784 401.437230874248 2305.2106552975 149 150 155
-548.743314660183 401.044356997623 2303.81272406969 146 147 152
-540.787834699213 400.650420300872 2302.40704629536 150 151 155
-533.085176274825 400.416550767578 2301.98814252274 168 169 173
-525.857004887831 400.504019494935 2303.55445205537 159 160 164
-518.18129100516 400.268382305842 2303.1256249464 160 161 165
-510.52164667992 400.031938438547 2302.69089829858 169 170 172
-503.321135619882 400.11738701996 2304.24675106716 160 161 163
-496.564469432496 400.525536368493 2307.79930769873 173 174 176
-489.586997649345 400.77178549482 2310.35306512249 184 186 185
-482.610238970299 401.01776854451 2312.90654337283 175 177 176
-475.634249325975 401.263483331712 2315.45972196315 160 162 161
-468.659102116846 401.508748332237 2318.012560528 153 155 154
-462.509513779014 402.401884109371 2324.58080469116 136 138 137
-455.72933485579 402.809119954739 2328.14158115214 127 129 128
-448.743742569758 403.054078542325 2330.69819168634 129 131 130
-440.567284418711 402.325144308335 2327.21416070792 143 145 144
-432.0302042919 401.270288999828 2321.70345349586 174 176 175
-422.180212228188 399.076495598283 2309.11718522048 180 182 181
-413.934881348594 398.180186099409 2304.57899332237 174 176 173
-408.740385592173 399.884396947971 2316.19470318974 176 181 177
-401.270615086645 399.637495379583 2315.69019920236 168 173 169
-397.299541414664 402.483143029618 2334.41391938347 167 172 168
-388.728858971465 401.259130863398 2327.83584745714 171 176 172
-377.175240052821 397.26271157863 2303.99967826791 164 169 165
-369.619338724383 396.849049665933 2302.44733027138 149 154 150
-366.412459457687 400.51359028809 2326.28846650626 164 169 165
-1569.39987614594 458.758533644968 2608.23693752583 19 15 6
-1567.67905366834 461.202439857763 2623.97937812798 48 42 30
-1555.60182897587 460.535328750242 2620.85075054138 99 93 81
-1544.53380875592 460.163298669472 2619.5110721846 175 167 154
-1526.22100591588 457.562595953863 2604.63592343052 179 171 158
-1510.90148745275 455.848624435619 2595.13969906586 191 183 170
-1495.17303900682 453.982519124618 2584.71427365131 179 170 161
-1484.28970775669 453.600962288151 2583.30651774172 176 169 161
-1472.00777231006 452.771129600805 2579.17343541943 192 189 184
-1459.29378493206 451.790094143978 2574.11911475618 186 182 179
-1444.74757539143 450.210117684695 2565.41883890265 182 183 187
-1424.1990113638 446.686839365215 2544.88657031312 172 175 180
-1407.03174957244 444.202964032013 2530.67082883114 163 166 171
-1394.57697950849 443.209058584738 2525.5213537216 163 166 171
-1386.75831825655 443.708451803183 2529.4664032332 156 159 164
-1374.82481986602 442.860535278893 2525.20535618869 154 158 161
-1362.47730716867 441.860711047467 2520.01646386817 157 161 164
-1345.66042873739 439.359404126435 2505.67184540661 151 154 159
-1326.69549038232 436.10375522778 2486.71774598536 146 150 153
-1307.40589035974 432.692289722632 2466.80304118592 147 151 152
-1288.68707810059 429.425175736072 2447.75864985169 147 151 152
-1272.29617410055 426.904005289279 2433.2577601473 148 152 151
-1256.87897609999 424.67912454768 2420.55880879782 161 165 164
-1246.78142143017 424.256542210275 2418.86270961289 162 166 165
-1235.841422041 423.530946069265 2415.31621827131 162 166 165
-1224.93656884351 422.803426703882 2411.7570661933 156 160 161
-1212.78151900792 421.621249668371 2405.41792983956 144 148 149
-1201.52877276261 420.7385101634 2400.90691252592 167 171 172
-1190.31618035185 419.853381351031 2396.38087123392 179 183 186
-1179.14400559359 418.966123297625 2391.84023834152 161 165 168
-1170.93966869891 419.135393564754 2393.76739751925 157 161 164
-1162.32421190691 419.152643006843 2394.76565123836 166 170 173
-1152.89219741128 418.865780007184 2393.90453279235 148 152 155
-1139.78509590585 417.213362922238 2384.67590918383 152 156 159
-1129.59996566944 416.619445349318 2381.93189143128 155 159 162
-1119.03960981635 415.87191180171 2378.24606042863 160 164 167
-1109.72323874778 415.57802810376 2377.34239465975 161 165 168
-1099.22589216747 414.82666236562 2373.63338087713 160 164 167
-1087.96833017885 413.769055486726 2368.04410873859 156 160 163
-1078.73252007931 413.469998580919 2367.11078181744 157 161 164
-1069.12409131648 413.017297059875 2365.23443797589 160 164 167
-1056.03002032996 411.191088006672 2354.92141077153 161 165 168
-1038.35673990306 407.531320750055 2333.33414536189 169 173 176
-1022.74110833264 404.628641006869 2316.38967210838 184 188 191
-1009.90948736276 402.790044834206 2305.98009802361 185 189 192
-995.25002402744 400.183923335544 2290.84395551516 182 186 189
-979.932795371689 397.267391827389 2273.78976183335 190 194 197
-968.470364130109 395.87634757725 2266.11665553117 189 193 196
-955.947431923892 394.022993855636 2255.59406405055 195 199 202
-943.126261783152 392.013029055518 2244.10120651305 196 200 203
-933.318326087214 391.226085077035 2240.13901943064 207 211 214
-925.733168469574 391.357698160453 2241.83836622944 209 213 216
-918.152914419679 391.488418673952 2243.53560972684 204 208 211
-909.4995688476 391.157486738326 2242.38824654683 205 209 212
-901.22343175663 390.979021350528 2242.1818894417 204 207 212
-892.254068012543 390.491504453222 2240.07097670863 201 204 209
-884.365342656423 390.464213576727 2240.80182096692 202 205 210
-875.090202875791 389.819725130864 2237.72335385448 199 202 207
-866.192437560907 389.327683054625 2235.58608529125 227 230 235
-859.040456412718 389.605168534417 2238.20560535368 224 227 232
-851.205522762507 389.573393322192 2238.9165667148 226 229 234
-842.025195757584 388.922876926994 2235.8031957419 218 221 226
-833.212090057635 388.425084598579 2233.63473329552 221 224 229
-824.758447970447 388.080333210567 2232.41376763993 211 214 219
-816.325331580411 387.734257371773 2231.18498999056 195 198 203
-806.926828558725 386.922260261928 2227.07215034281 198 201 206
-798.542708151622 386.573124409344 2225.82559403515 199 202 207
-790.502792779714 386.377506721735 2225.53211453991 204 207 212
-783.120509019245 386.491067371335 2227.15638756262 206 209 214
-774.469660536342 385.982957501918 2224.9279381956 204 207 212
-766.160595413881 385.628565852639 2223.65371492612 203 206 211
-757.872249064604 385.272828515602 2222.37186221397 200 203 208
-751.158526951063 385.693248371773 2225.90948717491 198 201 206
-744.131788057171 385.957740141546 2228.48252162677 201 204 209
-737.411029119056 386.377303522087 2232.02263870789 201 204 209
-730.079313443042 386.484957471544 2233.62809277651 198 201 206
-724.255769430742 387.371246577534 2240.07735619952 203 204 208
-716.6242330737 387.321801646583 2240.71333678232 197 198 202
-709.594183653711 387.583623859203 2243.28737265029 208 209 213
-702.564480279034 387.84489658109 2245.86124132705 200 201 205
-696.115856151258 388.418114906228 2250.38063136008 186 187 191
-690.233057828827 389.30396668337 2256.85164540731 187 188 192
-682.904123703182 389.407654745864 2258.45553529646 185 186 190
-675.863496275147 389.667150977384 2261.03323905302 190 191 195
-669.103492081616 390.082874763014 2264.58758001095 185 186 190
-662.893842926813 390.811639487981 2270.09843392341 186 187 191
-656.119513452776 391.226851193726 2273.65794115649 197 198 202
-649.613004452538 391.798579979937 2278.19825054942 232 233 235
-642.827034367694 392.213174684845 2281.76194069986 231 232 234
-635.769131228735 392.470368484176 2284.34574764879 233 234 236
-628.711801356046 392.727063464497 2286.92930867186 202 203 205
-621.392840147258 392.825895380654 2288.5292086218 187 188 190
-614.339310013018 393.081429479791 2291.11130146685 183 184 186
-607.029305472406 393.179123490325 2292.70811557133 173 174 176
-600.234133848009 393.591173455347 2296.27470267671 157 158 160
-593.686478030313 394.160804414708 2300.83005827454 160 161 163
-586.63040995961 394.414651144378 2303.41294593251 163 164 166
-579.821881345081 394.825972531677 2306.98433116166 160 161 163
-571.787302082114 394.447275735189 2305.60854300908 162 163 167
-564.982667597416 394.857611207933 2309.1784389658 148 149 153
-557.45608453859 394.793345208125 2309.77516780059 147 148 152
-549.940305744713 394.728313341398 2310.36765894903 142 143 147
-541.967253593123 394.345842279487 2308.96923091193 149 150 154
-534.71006834437 394.437541609287 2310.54640147584 156 157 159
-527.458702538528 394.528550782829 2312.12115123895 154 155 157
-519.760221779244 394.301842859105 2311.70126991859 155 156 158
-511.630041948947 393.756934465831 2309.28111987452 155 156 158
-504.190132949096 393.687031833186 2309.84567717048 148 149 151
-497.636534266172 394.251892692291 2314.40283212275 155 156 158
-490.857141802384 394.657728108805 2317.96321716889 155 157 156
-483.432369804081 394.586446033759 2318.52242484785 149 151 148
-475.596199914661 394.196078367162 2317.07341222767 145 147 144
-467.989791358981 393.964045118428 2316.61967581374 142 144 141
-461.635834486548 394.68694240665 2322.18277373719 142 144 141
-454.65688747126 394.931939046313 2324.73697266606 142 144 141
-445.668973248313 393.581857629836 2317.23442835054 172 174 171
-1566.18640539302 451.748760933259 2621.67530565583 102 94 83
-1557.052415146 451.973836918736 2623.94445343965 112 104 93
-1548.40957352811 452.3440680093 2627.1126569036 119 107 95
-1528.62302586723 449.360866957911 2609.54419186081 141 129 117
-1511.84419541399 447.247694492389 2597.34814697931 132 122 110
-1498.02744791669 446.00648534137 2590.54175748539 112 103 94
-1485.69628409092 445.200789418132 2586.42838283938 115 108 100
-1475.30186487713 444.977814713301 2585.92150833867 179 176 171
-1462.56844707604 444.021941199005 2580.87640029183 161 157 154
-1455.04068186982 444.674434800171 2585.79386425137 115 116 118
-1438.16981729997 442.396148253407 2572.55249876745 125 129 130
-1419.99762809844 439.673612699686 2556.55025677295 138 142 143
-1402.39327269758 437.092864276091 2541.41920804205 138 142 145
-1391.77442111975 436.710247573134 2539.91553107176 146 150 151
-1379.81090217922 435.885135314583 2535.66685793348 146 150 149
-1365.16449000602 434.17551330195 2525.92665125796 135 139 138
-1350.58866572699 432.462239329692 2516.1605218034 131 135 134
-1333.39115296469 429.861839112978 2500.88016910399 128 132 131
-1314.06400223511 426.519551613515 2480.9843274776 126 131 127
-1297.52552428179 424.056494666888 2466.54144168888 128 133 129
-1282.40672358016 422.03169163495 2454.81597811994 117 122 116
-1263.86060278931 418.821205477137 2435.71285984479 138 143 137
-1252.41190127388 417.97036180846 2431.27544703157 158 163 159
-1241.0033501058 417.117307624258 2426.82302499714 141 146 142
-1230.49674302396 416.558093454242 2424.19868458784 142 146 145
-1218.30695107648 415.404489394019 2417.87432722469 130 134 133
-1207.01899321778 414.544697477534 2413.37758073948 150 154 153
-1195.34816835141 413.53432760914 2407.94202663217 150 154 155
-1184.56400721084 412.818408625809 2404.33989786471 166 170 171
-1176.74157612072 413.140497829018 2407.20638299158 158 162 163
-1168.91856122373 413.461954777799 2410.0730325328 142 146 147
-1160.26913112239 413.485401509637 2411.0843519317 138 142 143
-1147.52525263116 412.018870173622 2402.80433737551 146 150 151
-1136.06578239544 410.996309823614 2397.29107040227 146 150 151
-1125.46245175035 410.26939328805 2393.62240934194 145 149 150
-1114.89447621942 409.540499502517 2389.94075325422 148 152 153
-1102.76116942825 408.212298478999 2382.51614285537 156 160 161
-1090.68358616327 406.881218764704 2375.07081449973 150 154 155
-1081.03231952815 406.444351064431 2373.21148425825 149 153 154
-1071.40617537944 406.005800608311 2371.34264480212 157 161 162
-1058.29580940887 404.218222475778 2361.03845294207 155 159 160
-1039.44592679085 400.179768032175 2336.65019572459 163 167 168
-1023.43796817373 397.184347596676 2318.77471595 183 187 190
-1010.98260999066 395.53391280515 2309.30943908381 185 189 192
-998.973180531466 394.030400381019 2300.7597813303 182 186 189
-984.384866028044 391.472250156181 2285.60115298322 189 193 196
-969.893545667816 388.909535079281 2270.40693859598 189 193 196
-956.243340544234 386.643229646895 2257.06284681678 193 197 200
-944.157830413675 384.975065281537 2247.46185253901 196 200 203
-935.440941268324 384.659301271521 2246.33872156972 206 210 213
-926.744372384857 384.342088044446 2245.20809814042 207 211 214
-917.344529215355 383.72182755087 2242.17676849001 204 208 211
-907.616083973164 382.948868349631 2238.18675471431 205 209 212
-899.706734189652 382.929053315519 2238.92565666586 206 209 214
-891.807642234343 382.908228180069 2239.66100965469 201 204 209
-884.621821073731 383.188882286468 2242.29306414241 202 205 210
-874.29493597175 382.106873071165 2236.36380094465 200 203 208
-864.707037236394 381.325324402983 2232.32207325587 229 232 237
-857.562164520278 381.602532074496 2234.93898959689 226 229 234
-850.758642508656 382.030808732474 2238.50983504144 219 222 227
-842.595016152415 381.851698022266 2238.2625498705 224 227 232
-833.10201932937 381.064058369293 2234.18588117847 222 225 230
-824.312286251763 380.578334909383 2232.00983719604 219 222 227
-814.88597533643 379.786971276144 2227.90840372386 215 218 223
-806.152805536252 379.297846200538 2225.71155152121 205 208 213
-798.097292930595 379.111651752016 2225.42445008517 204 207 212
-790.057322017406 378.924254392018 2225.131611007 205 208 213
-782.353732719979 378.888060666128 2225.79451664828 205 208 213
-773.705787098526 378.39346103365 2223.56628623689 204 207 212
-765.715104958454 378.202350837969 2223.25525855706 205 208 213
-758.366425060813 378.315610579428 2224.86729933043 203 206 211
-751.64433769715 378.733677528435 2228.40778617029 190 193 198
-744.609394483444 378.998549487299 2230.98383024553 187 190 195
-737.269306842467 379.109686874506 2232.59258899436 211 214 219
-729.934591199452 379.220151592281 2234.19909083536 225 228 233
-723.206226333978 379.636246765383 2237.74196405899 186 187 191
-716.175233113011 379.898701381794 2240.31639056117 183 184 188
-709.439921492869 380.313890698608 2243.8614651481 200 201 205
-702.992622810451 380.882279383093 2248.3802634982 211 212 216
-696.535514450211 381.450410065417 2252.90235230073 212 213 217
-690.356225672431 382.172138487158 2258.40189855299 189 190 194
-683.021944128499 382.278820781097 2260.00821158482 183 184 188
-676.258170684972 382.692383043369 2263.56350465718 164 165 169
-669.20987025543 382.95176228436 2266.14398747622 168 169 173
-663.271576837016 383.826695175411 2272.63408682327 168 169 173
-657.038545596184 384.547784548253 2278.15311151336 154 155 159
-650.5185334078 385.11466770062 2282.6982158161 149 150 152
-643.719065621216 385.527064221746 2286.26639002675 143 145 144
-636.380774384599 385.630389660675 2287.87390665044 133 135 134
-629.842017556908 386.196411172899 2292.4255022672 148 150 149
-623.293616990752 386.762438574566 2296.98085656593 161 163 162
-616.476111489347 387.173634377288 2300.55549395965 158 160 159
-608.883422321361 387.120110509347 2301.17705213748 157 159 158
-601.555847864999 387.22070828894 2302.78021484094 150 152 151
-595.241451342152 387.940451598574 2308.328701031 145 147 146
-588.413823125826 388.350183213311 2311.90716021713 143 145 144
-581.828458464886 388.914869981475 2316.47558950147 148 150 149
-574.256984380973 388.858432680779 2317.08921961938 150 151 153
-566.93794972657 388.956493293093 2318.68908805876 141 142 144
-559.385785654918 388.898586705559 2319.295591264 144 145 147
-551.844453813524 388.839913158179 2319.89784653958 137 138 140
-544.080143144829 388.624829849949 2319.50276079332 131 132 134
-537.488902974938 389.187350476134 2324.0734157371 117 119 118
-529.972841232615 389.126557849672 2324.66632954879 129 131 130
-521.562510846977 388.441541983909 2321.27058684715 152 154 153
-512.512334943287 387.287231850238 2314.87224633704 186 188 187
-504.61472583345 386.91117569375 2313.44663671925 185 187 184
-498.487638943601 387.783289859582 2320.00537345244 148 150 149
-491.692456440054 388.187062540942 2323.57133997635 140 142 139
-482.9711988848 387.183711750398 2318.13143743885 146 148 145
-474.080504779444 386.022110584532 2311.67434677688 153 155 152
-468.154600360384 387.049832584933 2319.23802915492 170 172 169
-1564.20227615026 442.161863955651 2618.47294461892 85 79 67
-1566.33223641158 445.675108503673 2641.43014733822 71 63 52
-1554.22998804877 445.046671687777 2638.31352982788 45 35 23
-1534.41334917324 442.126997446235 2620.76079125267 66 56 44
-1517.12186007317 439.917985735437 2607.67722704864 85 75 63
-1503.27570846372 438.707701672672 2600.88385452022 90 83 73
-1489.4846441753 437.494682886713 2594.0700060548 76 72 63
-1479.54157668053 437.426980387297 2594.47766460284 159 158 153
-1468.66986706387 437.070979832293 2593.06786868487 175 176 171
-1462.04369507492 438.00703837926 2599.81251217784 120 124 123
-1448.39942139986 436.785946580165 2592.94497435347 125 129 128
-1431.56295562278 434.554387720554 2579.69438186967 115 119 118
-1406.97462578321 429.869585608428 2550.94275833842 110 114 115
-1394.95151382923 429.06919383516 2546.71760278001 119 123 122
-1378.405964873 426.823810188458 2533.36052049296 120 125 121
-1367.39576574054 426.306741900936 2530.92207965666 122 127 123
-1353.70851107813 424.920968855264 2522.9909224334 120 125 121
-1341.8761337114 424.110488912568 2518.69595897326 117 122 118
-1322.50120047005 420.837838845061 2498.82273278329 120 125 119
-1308.57490094397 419.296998545893 2489.90017322687 105 110 104
-1293.3914841444 417.318207359447 2478.2014044749 123 128 121
-1273.90554951286 413.885353110793 2457.2901196651 120 125 118
-1259.78128534521 412.18779422031 2447.36085288675 119 124 117
-1248.76072052273 411.503505750673 2443.84700502771 142 147 141
-1237.77521018168 410.817132676523 2440.32026327237 130 135 129
-1225.54039187414 409.69238441184 2434.01444289261 119 124 118
-1214.63277534742 409.001716540481 2430.45907533996 128 133 129
-1203.33722939881 408.163242985363 2425.9666943972 127 132 128
-1192.92302733934 407.61411441557 2423.3095407477 133 137 136
-1184.62835845042 407.792526560006 2425.26995639529 133 137 136
-1175.09223366731 407.532183399908 2424.44866609077 132 136 135
-1165.57597121696 407.270468471176 2423.6200555527 128 132 131
-1153.61812110767 406.130131721324 2417.21242604903 130 134 133
-1140.89548378111 404.694690046563 2408.9270395446 132 136 135
-1129.44913389119 403.69525902286 2403.41075060161 138 142 141
-1118.45098209561 402.83990859919 2398.80929611315 141 145 144
-1108.69332563918 402.422027187757 2396.99005383497 144 148 147
-1096.97339292245 401.269071053266 2390.49477354975 142 146 145
-1086.09414253505 400.407049019372 2385.84961433078 143 147 146
-1073.29364879358 398.808156287509 2376.51362710504 142 146 145
-1059.77977587086 396.911957180056 2365.28129261074 139 143 142
-1041.30825442049 393.099530337145 2341.83917295275 161 165 166
-1023.74906510316 389.57525110338 2320.22067674607 179 183 186
-1010.90796130809 387.812821363095 2309.82054931202 183 187 190
-999.276902140037 386.489348454257 2302.21381023387 180 184 187
-986.193812847474 384.572694698512 2290.82315822776 187 191 194
-970.940735792228 381.766731343679 2273.75425270929 189 193 196
-956.16668345736 379.103611668381 2257.58837923631 191 195 198
-944.080172550415 377.470608322265 2247.99065583849 197 201 204
-935.360696310071 377.165737998154 2246.86903249871 205 209 212
-926.661632039038 376.85952028537 2245.74014536654 204 208 211
-917.25961184128 376.255602531714 2242.71083979808 204 208 211
-907.888196150747 375.649893188995 2239.67027928455 204 208 211
-900.330052317315 375.784023644587 2241.36000090081 208 211 216
-892.776962745559 375.917301501502 2243.04782178406 203 206 211
-885.228956717304 376.049844719088 2244.73374019534 202 205 210
-873.848723425654 374.546575483363 2235.95549019399 201 204 209
-864.607630299635 373.932676240834 2232.86696065756 226 229 234
-857.459635955861 374.210005910279 2235.48502040808 225 228 233
-849.970546164397 374.337804965852 2237.14917438337 210 213 218
-841.809395124551 374.166756121647 2236.90159811769 216 219 224
-832.319527823302 373.398050758111 2232.82522097523 210 213 218
-823.532510699449 372.925693566735 2230.64894438586 214 217 222
-814.109414010726 372.153128117543 2226.54801572271 213 216 221
-805.707400359275 371.827023508318 2225.30969844678 209 212 217
-797.97760437883 371.79834513222 2225.98269300532 207 210 215
-789.935008608739 371.619208960714 2225.69143095611 204 207 212
-781.587303503436 371.289195335481 2224.43308640434 204 207 212
-773.57840937319 371.107610567523 2224.12939453321 203 206 211
-765.58511286603 370.924820702237 2223.81994453334 203 206 211
-759.172550551188 371.490958558995 2228.32595202805 204 207 212
-752.129105906005 371.75663918156 2230.90514600757 193 196 201
-745.701795332533 372.322221937196 2235.41647021524 187 190 195
-738.043156872992 372.286355779733 2236.06306824458 202 205 210
-729.486730887189 371.798316929274 2233.80182602881 213 216 221
-722.157203727978 371.910768600879 2235.40684692288 204 205 209
-715.726194635133 372.474232929486 2239.91935510283 185 186 190
-709.875544169 373.338832585364 2246.37683081484 185 186 190
-703.712286171902 374.052907380211 2251.86997500408 207 208 212
-696.954130211931 374.465237721071 2255.42313408327 219 220 224
-690.478778521037 375.028231606595 2259.95171809867 201 202 206
-683.138962651122 375.137764163572 2261.56000271061 195 196 200
-675.804842014929 375.246703139755 2263.1664275489 179 180 184
-669.035789966909 375.65725589732 2266.72341146458 182 183 187
-662.816632656883 376.370239969467 2272.2367836767 182 183 187
-657.131996150385 377.386137089086 2279.71216646054 171 172 174
-650.605966856379 377.947909422724 2284.25881707903 156 157 159
-644.609488343868 378.812715796681 2290.76954749924 147 149 148
-637.525130022249 379.070943504572 2293.36304461959 149 151 150
-631.499087816764 379.93584703013 2299.8842696647 138 140 139
-625.191374709442 380.649135748112 2305.42984050966 134 136 135
-618.868976293647 381.362462423407 2310.98074994263 143 145 144
-611.504753446069 381.467589174404 2312.59757010105 145 147 146
-604.146344679133 381.571998596163 2314.21247796725 145 147 146
-597.297024947993 381.980328668626 2317.79845844147 140 142 141
-590.692396256463 382.540633152833 2322.37381072651 137 139 138
-583.831673630931 382.948575141589 2325.96390501896 138 140 139
-577.210580324015 383.508689361804 2330.54522516136 135 136 138
-570.097050471825 383.763471643858 2333.14906143141 137 138 140
-562.984307124213 384.017806325089 2335.75257816261 132 134 133
-555.399573370957 383.966069553952 2336.37112637356 126 128 127
-547.358265911839 383.607823786812 2334.99932589014 143 145 144
-540.956749911663 384.319418796164 2340.57885105577 155 157 156
-532.939901580215 383.959562058828 2339.19804210245 184 186 185
-1484.21651782548 427.065256175293 2584.53087200921 29 29 19
-1482.83041159379 429.53916982479 2601.22077228084 23 28 21
-1474.29552990599 429.902084981129 2604.34919784889 64 71 64
-1467.63519778382 430.828759222598 2611.1055449403 110 115 111
-1460.02089421472 431.473484984413 2616.05411974634 100 105 101
-1430.59904900359 425.479684116062 2578.29334822776 82 87 83
-1417.08684634343 424.28183702014 2571.37957789379 71 76 72
-1398.89388819782 424.567281489019 2574.81137703809 106 111 107
-1373.70701908176 419.679316459059 2544.1285295571 110 115 109
-1350.35485900901 418.249569550796 2536.50575451392 121 126 120
-1296.87529831244 410.045259124635 2485.98661744921 131 137 127
-1300.59495101037 414.226402211042 2513.74965470998 126 132 122
-1269.75902350809 407.161131594504 2468.95568032204 185 191 181
-1259.11077289688 406.640756250107 2466.38548047247 137 142 135
-1247.20078762135 405.69064997444 2461.04136930764 108 113 106
-1233.62421323709 404.167168407822 2451.99305121755 118 123 117
-1219.68798330019 402.497442314384 2441.99781887588 122 127 121
-1209.62852883161 402.110902327893 2440.29034160469 118 123 119
-1198.33314549961 401.293549637256 2435.79974948541 116 120 119
-1187.91348313531 400.760191191727 2433.14551534552 118 122 121
-1176.27830926458 399.795235792126 2427.70043448683 115 119 118
-1167.57720327785 399.831480982788 2428.73149533971 121 125 124
-1158.47565003023 399.723208643298 2428.83033909994 124 128 127
-1146.94366456229 398.752255273358 2423.34731346289 127 131 130
-1135.05226474533 397.635107501857 2416.91728971796 132 136 135
-1122.80911307411 396.37146586691 2409.53746119817 130 134 133
-1112.22123500036 395.680629368556 2405.86590793477 137 141 140
-1102.06598088936 395.131637332749 2403.1144247674 138 142 141
-1089.17778265045 393.572141550058 2393.813276442 139 143 142
-1076.35571184453 392.009287233037 2384.48784813004 133 137 136
-1060.87238597562 389.433008348297 2368.58648694992 133 137 136
-1042.00738156778 385.552242699427 2344.21562191795 154 158 157
-1023.67494214702 381.809415666678 2320.72821995227 182 186 189
-1011.21482970328 380.229616531757 2311.27000006061 182 186 189
-999.579776393822 378.935896995488 2303.6669571435 180 184 187
-986.493466846464 377.060148426461 2292.28081584381 187 191 194
-970.115061312882 373.87630665917 2272.39209557016 188 192 195
-956.461396348309 371.702203621464 2259.05621769903 192 196 199
-944.740281687098 370.249595562921 2250.40564516758 199 203 206
-935.646714173481 369.810762907359 2248.34353363216 205 209 212
-926.94258519362 369.515462466243 2247.2173104245 204 208 211
-917.535823898304 368.927987660215 2244.19096812148 205 209 212
-908.518565814985 368.484221196495 2242.10050393532 205 209 212
-900.95233052103 368.621347712401 2243.79339154059 207 210 215
-893.744936230827 368.903499999825 2246.43339739661 202 205 210
-885.132540313126 368.601577346893 2245.27334446602 202 205 210
-874.099834068353 367.276813641449 2237.44910390736 201 204 209
-864.85401382743 366.679356800084 2234.36353251472 217 220 225
-858.043876043787 367.103068311609 2237.9364372701 219 222 227
-850.205643257281 367.087679692984 2238.649833726 208 211 216
-841.024029480446 366.486032422456 2235.5408718444 213 216 221
-831.201339454572 365.589640118503 2230.50897697053 212 215 220
-822.753068250023 365.27725369686 2229.28850185998 203 206 211
-814.325407444622 364.963347167293 2228.06042352283 200 203 208
-805.918289814692 364.648115503863 2226.82452678983 200 203 208
-797.857598225858 364.478486528653 2226.54081126954 201 204 209
-789.812384584551 364.307492168902 2226.25111470395 201 204 209
-781.462155306201 363.988369770489 2224.99425473424 201 204 209
-773.132694557678 363.667945600342 2223.7300048622 202 205 210
-765.454810152442 363.640500102495 2224.38448532385 203 206 211
-758.725933984227 364.054068219283 2227.92709934728 202 205 210
-751.992212797953 364.467230168084 2231.4714431017 196 199 204
-745.869228119123 365.175026423618 2236.94948075615 190 193 198
-738.510491374843 365.292430969173 2238.56548829167 193 196 201
-730.551959499624 365.113701668932 2238.24371337157 199 202 207
-723.209306250288 365.229346161792 2239.85374437058 220 221 225
-716.764582594775 365.787881396213 2244.37060935291 218 219 223
-710.310124307899 366.346306968585 2248.89125732347 182 183 187
-704.430574651336 367.200661642877 2255.35846019644 174 175 179
-697.661550546055 367.610736893502 2258.9153979308 180 181 185
-691.175138315749 368.168684270322 2263.44761988841 218 219 223
-683.255373175717 367.984747691969 2263.11136666009 204 205 209
-675.915830892128 368.09657838813 2264.71997957137 190 191 195
-668.8614480078 368.356195340656 2267.30269031037 196 197 201
-662.6387666851 369.061218083298 2272.81674223362 189 190 194
-656.401249743211 369.766344209486 2278.33619229492 182 183 185
-649.605092121599 370.173787663524 2281.9027900815 169 171 170
-643.343182387833 370.878795163403 2287.4310940096 163 165 164
-637.333328112724 371.732763568002 2293.94561229933 156 158 157
-631.567923560761 372.73627418901 2301.44940656619 160 162 161
-625.77750668685 373.740061398328 2308.96205531271 154 156 155
-619.443977694233 374.445724020154 2314.51643063717 141 143 142
-612.582496461723 374.852683274762 2318.10672641116 140 142 141
-605.970701450894 375.408860991771 2322.68437111795 143 145 144
-598.846282688187 375.665795832923 2325.29232615214 141 143 142
-592.718365704632 376.520924298775 2331.84982858611 137 139 138
-586.81711249618 377.526051875345 2339.40310377347 132 134 133
-581.134809999716 378.681507383353 2347.95447035925 133 133 133
-574.940081143242 379.537804022311 2354.53659050151 127 127 127
-568.248196032104 380.094266983494 2359.14310216636 131 131 129
-560.366043815619 379.900046759591 2358.79240683291 159 159 157
-1489.34230501508 425.426094731944 2633.74331765432 22 29 21
-1485.87758759196 427.313747471221 2646.87748755078 37 42 36
-1478.62658164514 428.095880850393 2652.7709865488 31 36 30
-1412.43845270874 414.131534199419 2562.70288825979 31 36 29
-1148.09813656118 391.031252091959 2426.61176766554 127 132 126
-1132.95894945901 388.813742336624 2412.74580443137 123 128 122
-1119.11804991024 387.015020363685 2401.63939149183 126 131 125
-1110.94938657084 387.189387607278 2403.55397370224 128 133 127
-1103.5796337302 387.645450849576 2407.33264861361 131 136 130
-1092.65309605856 386.828630629923 2402.70808118992 129 134 128
-1079.8068788782 385.301974692128 2393.39415738811 123 128 122
-1065.46893317379 383.205590774933 2380.31276843931 129 134 128
-1045.02697622107 378.837691358827 2352.21163521285 127 132 128
-1025.52222520761 374.745964042668 2325.92392997322 168 172 171
-1013.04822615948 373.201902767776 2316.47345208505 180 184 187
-999.123530681825 371.086390813429 2303.24047056854 180 184 187
-984.908939251164 368.824766510955 2289.03523849121 186 190 193
-969.663787941098 366.132191602097 2271.97175428593 187 191 194
-957.12691172134 364.430942322759 2261.46570571215 191 195 198
-945.030475649799 362.868730859406 2251.87667555471 199 203 206
-935.565503644665 362.301039263449 2248.87297606344 203 207 210
-926.131080207673 361.731379609027 2245.85802863697 201 205 208
-917.088642599919 361.302816402992 2243.77811453296 203 207 210
-908.071612377992 360.872618858671 2241.68859135283 202 206 209
-900.148791891433 360.869574247104 2242.43390737709 207 210 215
-892.589677638164 361.008460916552 2244.124086142 202 205 210
-883.982473952745 360.717233334098 2242.96295363858 201 204 209
-874.001649950195 359.851661924836 2237.99109456804 203 206 211
-865.791565717304 359.70056967807 2237.7628033262 220 223 228
-858.283704496878 359.835117087561 2239.43428684066 216 219 224
-850.440111369692 359.825416730476 2240.15006009804 206 209 214
-840.238834495537 358.809246167819 2234.18012634544 210 213 218
-830.75521224112 358.07811217086 2230.10431496254 218 221 226
-822.307032440122 357.776620167799 2228.88462864293 206 209 214
-814.210044995344 357.61759436759 2228.61464649141 203 206 211
-806.128567779239 357.457307333697 2228.33893372923 197 200 205
-798.062611287261 357.295937311527 2228.05749999192 200 203 208
-790.012210470405 357.133363831418 2227.77032349082 198 201 206
-781.657050138618 356.82525889367 2226.51634074826 196 199 204
-773.640368442746 356.660295685783 2226.21673251543 195 198 203
-766.269823583574 356.783164066752 2227.83744263765 199 202 207
-759.217346171679 357.049793222126 2230.41999012886 202 205 210
-752.785385062913 357.605268946841 2234.93198715377 197 200 205
-746.343580954388 358.160579692845 2239.44780236749 191 194 199
-738.671753872113 358.136126957481 2240.10005347968 195 198 203
-730.405648887438 357.820730282864 2238.81316341191 201 204 209
-722.760186867135 357.794221088063 2239.45593424906 200 201 205
-716.314641473923 358.347369217782 2243.97269133391 210 211 215
-710.15411634664 359.045734620064 2249.46365727016 201 202 206
-704.270843297614 359.88945592312 2255.93141068659 179 180 184
-697.788300538467 360.442428374321 2260.46185135392 171 172 176
-691.008810263807 360.849696858123 2264.02238006564 217 218 222
-682.80197408457 360.528351205334 2262.71350655514 215 216 220
-676.026042344743 360.934408682693 2266.27265094514 194 195 199
-668.966069897027 361.194303635675 2268.85741355801 187 188 192
-663.014230067282 362.037475140424 2275.35029268296 189 190 194
-656.493733920784 362.588728758138 2279.89413924725 188 189 191
-650.235392901322 363.286033700771 2285.42056535718 180 182 181
-643.962307144286 363.983319371433 2290.9523473299 173 175 174
-637.674459179819 364.68076510846 2296.48950504422 162 164 163
-631.371922408395 365.378189387664 2302.03199813472 165 167 166
-624.7930660356 365.929163081239 2306.59702804019 163 165 164
-618.46367902356 366.626624326809 2312.14927962062 153 155 154
-612.888938266698 367.764225091608 2320.66047212335 150 152 151
-607.284211678656 368.902402229432 2329.18260309292 142 144 143
-601.398191980011 369.894428566345 2336.72935486462 139 141 140
-595.238509384385 370.739900489602 2343.29767033684 137 139 138
-590.290203527084 372.320878602779 2354.8143777564 136 138 137
-585.784003908263 374.197410230536 2368.32637244649 133 133 131
-1099.5338120285 378.19049499453 2398.4897413113 130 133 124
-1088.23646813448 377.255571340265 2392.92418007819 128 131 122
-1081.68730630414 377.983834562796 2398.55860816198 127 130 119
-1066.94671004368 375.795127102923 2384.5497407801 126 129 118
-1044.17597007529 370.682834024632 2350.83873015376 124 127 118
-1024.67813478145 366.674790866025 2324.55508058205 177 181 180
-1013.35307669541 365.583389300049 2317.92122620995 189 193 192
-999.804419340612 363.653381364524 2305.63216873338 180 184 185
-984.454835125433 361.022460810999 2288.61153514927 185 189 192
-969.21240962605 358.38653229795 2271.55133461563 191 194 201
-957.048550894864 356.862865587003 2261.98970990558 193 196 203
-945.688759329796 355.615379537398 2254.29014244983 198 201 208
-936.216482152159 355.064111993272 2251.29033642301 203 206 211
-926.047378539416 354.231327481146 2246.38936022934 203 207 210
-917.002513013503 353.816272022079 2244.311093155 205 209 210
-907.983224297152 353.399607772707 2242.22366598468 204 208 211
-900.057514086777 353.402109006645 2242.97019609177 204 207 212
-891.788516809984 353.263204779875 2242.7642297768 206 209 214
-882.833042878656 352.842259996298 2240.65329332542 197 200 205
-872.857968144387 351.998154466024 2235.68071065939 201 204 209
-864.998782863175 351.995660039331 2236.4029471361 217 220 225
-857.492997379397 352.132819850962 2238.07361926214 215 218 223
-849.651805096587 352.128431193428 2238.78917528407 201 204 209
-840.468356816575 351.559265522333 2235.68307642966 199 202 207
-831.315715797921 350.988419441961 2232.56565735069 207 210 215
-822.526964070689 350.556790272074 2230.39333830739 219 222 227
-814.094290704466 350.264948865643 2229.16849176536 214 218 221
-806.010185138618 350.112982708608 2228.8943618048 204 205 207
-797.291011022091 349.676966888295 2226.69643162279 203 204 206
-788.920372433258 349.380900821778 2225.44898106436 208 209 213
-781.53098181727 349.508330733882 2227.07662842732 206 207 211
-774.464637166841 349.776752431023 2229.66434965721 192 193 197
-766.768422014789 349.760861765402 2230.32636219812 194 195 199
-759.395160311982 349.885993883039 2231.94797594895 197 198 203
-752.337331013616 350.152296231475 2234.5324433234 206 207 212
-745.587278621894 350.560187102868 2238.08257741211 202 203 208
-738.527554623035 350.825491565546 2240.66765791032 194 195 200
-730.561298104136 350.663381366291 2240.34994358107 206 207 212
-722.910462688157 350.642455530787 2240.99483374279 197 201 204
-716.161888857781 351.048085198867 2244.54426000324 184 188 191
-709.997730537719 351.738507229841 2250.03569236956 204 208 211
-703.818709439225 352.428841358925 2255.53277261437 204 205 209
-697.045851157154 352.833812199838 2259.09097261855 188 189 193
-690.555186874642 353.381160557518 2263.62368548823 175 176 180
-682.917324534368 353.356617326485 2264.26384341134 201 202 206
-676.135628318191 353.760220254505 2267.82489705241 203 204 208
-669.070066307087 354.020393207942 2270.41171153915 185 186 190
-662.835219307423 354.709693297144 2275.92899741041 186 187 191
-656.58558213502 355.399154545638 2281.45166926658 187 188 192
-650.592757762793 356.231971555295 2287.95840404652 173 175 174
-644.311061805262 356.92155422423 2293.49273322465 172 174 173
-637.748125293399 357.467544768348 2298.05185716545 175 177 176
-630.911672832208 357.869714541532 2301.63269767286 167 169 168
-624.593447115965 358.559176500286 2307.18029037641 168 169 171
-618.778206233716 359.53648046096 2314.69996041401 167 169 168
-613.706922295153 360.946169398942 2325.18212441489 163 165 164
-608.341693748771 362.212835948869 2334.69348772047 148 150 149
-603.19254303099 363.624390692413 2345.20383011924 142 144 143
-598.500399497471 365.325570622713 2357.70334410828 140 142 139
-596.710608672332 368.760288677602 2382.07881465209 147 149 146
-1039.45924157418 361.168919604735 2340.10177318921 124 127 116
-1023.45014966846 358.471256909952 2322.2489171727 179 184 180
-1012.1312102747 357.406652761634 2315.61486155786 186 190 189
-997.831804710214 355.246484592619 2301.44810066778 181 185 188
-984.37696249856 353.355389800797 2289.12789268536 188 192 195
-969.882361411101 351.050066984102 2273.95429096659 192 195 202
-957.712306535605 349.561837578369 2264.39759134973 192 195 204
-945.60859582706 348.070300719879 2254.8165368529 196 199 208
-936.134134629839 347.535376188906 2251.81875746885 200 203 208
-925.963165354001 346.724222363808 2246.92009121053 200 203 208
-917.277038809242 346.460197710259 2245.78968685023 201 205 206
-907.894357924887 345.919899709946 2242.75815479492 199 203 204
-899.609975117655 345.790350896716 2242.55848450184 199 202 207
-890.987593551063 345.521988885258 2241.40459193649 202 205 210
-882.0348289127 345.11447018239 2239.2934298112 198 201 206
-871.366666348181 344.016214534088 2232.42038347531 204 207 212
-862.82359879595 343.743025806957 2231.23730896655 222 225 230
-855.33029727427 343.88248297271 2232.90387284462 222 225 230
-848.523167094487 344.297322818792 2236.47501544324 205 208 213
-840.697080736224 344.297181190979 2237.18514905541 200 203 208
-831.875194284524 343.88102031944 2235.02603620967 205 208 213
-823.078933703273 343.463335674629 2232.85724324645 216 219 224
-813.978232783752 342.905512626453 2229.72218929271 213 217 220
-805.89150935233 342.761807384677 2229.44963380028 210 212 211
-796.51966962788 342.062035874619 2225.33557397603 203 204 206
-788.796858993468 342.054404067274 2226.00761849325 202 203 205
-781.084521339201 342.0457674414 2226.67578196831 205 206 208
-774.970106983817 342.731194566738 2232.14901791581 205 206 210
-767.26600238124 342.721150555957 2232.81433812983 195 196 200
-759.8846937848 342.849217440306 2234.43909705215 201 202 207
-752.508877673588 342.976698667576 2236.06207046481 206 207 212
-744.831192400687 342.963908836694 2236.71733006242 201 202 207
-737.468855512164 343.089672238308 2238.33527635459 192 193 198
-729.507664596439 342.935522672729 2238.01632214399 199 200 205
-722.460951406979 343.199246719775 2240.59655608165 207 211 214
-716.602667889835 344.021565105408 2247.05361497839 193 197 200
-710.135498602463 344.564289336408 2251.5776966415 187 191 194
-703.658499486279 345.106921317092 2256.10534289015 205 209 212
-696.882350840385 345.509295056016 2259.66428814632 215 219 222
-690.388376724991 346.051399408108 2264.19806223924 189 193 196
-683.316211458817 346.312961912123 2266.78738078034 178 182 185
-675.962846893061 346.433505100367 2268.40141891201 197 201 204
-669.452495522838 346.974760703799 2272.94107943721 207 211 214
-662.932432353374 347.515754479828 2277.48399456324 191 195 198
-657.498701816284 348.619199906225 2285.94137568275 188 192 195
-650.677718430582 349.019679499746 2289.5167224726 184 185 187
-644.927667641262 349.983061327298 2297.01165605408 175 176 178
-637.821055930357 350.242277835033 2299.613313273 167 168 170
-630.97888094078 350.641991419488 2303.19604766652 162 163 167
-625.177084583319 351.605833502438 2310.71007138845 155 156 160
-619.867687930699 352.852452498852 2320.19963625036 141 142 144
-615.803711824201 354.806316068717 2334.62334558691 135 136 138
-609.904245727436 355.772261920109 2342.17276082049 142 144 141
-605.736899296929 357.729033873238 2356.63424791994 137 139 136
-603.496464332166 360.819864525005 2379.01414076953 159 161 156
-1035.13224053085 351.8466440123 2330.30422929625 127 131 117
-1020.30328876635 349.608461216702 2315.25717555661 179 184 178
-1010.90993588144 349.239288588836 2313.30924326518 177 182 178
-998.132859796963 347.663090091134 2302.89964929873 177 181 182
-983.922491065763 345.547560132579 2288.70390600765 183 187 190
-968.683067558972 343.025363766246 2271.65145031471 184 187 194
-955.406348884303 341.169410803655 2259.2691748691 190 193 202
-944.422511927036 340.115471538153 2252.51416863694 198 201 208
-934.953560668792 339.596648880654 2249.5156021972 198 201 206
-925.878549848459 339.210403609329 2247.45046181509 199 202 207
-916.829115846153 338.822728202953 2245.37617481374 202 206 207
-908.163427181484 338.568088174556 2244.23905268903 201 205 206
-899.873841465394 338.446901303988 2244.04190373006 200 203 208
-891.246327851416 338.189532439024 2242.89045097546 201 204 209
