ply
format ascii 1.0
comment KinectMotionCapture
element vertex 781
property float x
property float y
property float z
property uchar red
property uchar green
property uchar blue
end_header
-1032.91794869928 -499.17036550872 2170.70537344569 13 16 9
-1007.45346545214 -491.923747232868 2190.93394763812 27 30 23
-1042.77625500361 -499.839124112682 2187.19947415158 17 20 11
-1029.26773790953 -495.581350225035 2202.63322878288 14 17 8
-1010.20175515041 -489.950080995029 2220.1103569989 12 15 6
-1023.42772861042 -492.349947770324 2225.12190864311 13 16 7
-1008.0234556392 -487.640781418477 2241.05027662935 13 16 7
-997.21952039217 -484.080762518892 2255.1420667238 11 14 7
-985.473231310977 -480.294228725538 2269.50556757206 9 12 5
-1028.33648872081 -490.017314402427 2263.60854687174 10 13 6
-1002.69280207565 -482.797774110385 2283.06337421194 11 14 7
-974.23101662344 -474.897856596686 2303.37016611032 10 13 6
-991.188379193434 -478.20688893404 2307.13239538614 9 12 5
-987.741800109778 -476.484792484881 2318.27251350875 5 8 1
-1020.51842783328 -483.672023134809 2316.5602191403 7 10 3
-889.72697001319 -450.668037503599 2372.41873756703 19 22 15
-947.592887698764 -464.020864228663 2361.85903400448 17 20 13
-864.977264655865 -442.915846856708 2400.05716547052 19 22 15
-874.463476385888 -444.402271032589 2406.2786292903 18 21 14
-920.310472222338 -454.775075618876 2400.24151524292 15 18 11
-889.735584544223 -446.457839471982 2420.10412218388 14 17 10
-880.583573323107 -443.384551310088 2432.6487067794 14 17 10
-910.641979486897 -449.872542452997 2432.21739938359 16 19 12
-928.050795918378 -451.568499839516 2455.24694634928 14 17 10
-943.228144186608 -454.403227818581 2460.00033690044 17 20 13
-1020.51780430424 -471.411795385534 2455.16117503642 15 18 11
-1023.13710202097 -469.433992612944 2483.76782497457 16 21 17
-999.899387964158 -499.730536176323 2194.13505059011 16 19 12
-1024.15109528824 -504.956525743599 2194.71442906082 21 24 15
-1009.71438424707 -500.422850560305 2210.45215717299 17 20 11
-991.565714485793 -494.963903964301 2227.5164426017 12 15 6
-991.852597288073 -494.150048384013 2237.41474191399 11 14 5
-999.526834515896 -495.191815450475 2244.50505593864 12 15 6
-1011.83088307945 -497.391290511138 2249.89261837586 14 17 10
-1013.04909323815 -496.807222500672 2259.474715634 13 16 9
-977.243753815991 -486.957391983384 2282.72813072063 13 16 9
-983.066580624323 -487.53486255502 2290.49979355131 13 16 9
-974.992735328043 -484.639543716182 2303.34258065565 12 15 8
-972.47001406963 -483.134165420355 2314.12480825922 11 14 7
-988.50253999621 -486.254157572242 2318.25689409504 8 11 4
-985.051932483361 -484.51687865384 2329.37033080917 10 13 6
-960.220831661025 -477.46677232617 2347.94912817547 20 23 16
-940.003806872561 -471.576913177513 2364.75841504058 17 20 13
-892.032576848841 -457.964924317166 2400.54066219265 14 17 10
-939.740396474796 -468.924817516058 2393.93481596437 14 17 10
-993.103370463143 -481.257425443135 2385.71560960447 14 17 10
-870.199779277192 -450.029712320677 2436.36752384599 13 16 9
-886.238103968283 -453.145736746746 2440.52391509716 13 16 9
-910.892853485842 -457.526671544566 2451.49510762104 15 18 11
-910.144547871996 -456.493038435806 2461.25999782476 15 18 11
-1010.04704253156 -478.430121774951 2458.71624596939 12 17 10
-1033.73889594443 -483.355341928582 2461.20808934973 16 21 15
-986.1288670733 -470.834509248958 2485.55456100702 21 26 22
-1026.73644475877 -479.886199865748 2482.992043414 17 22 18
-939.629391956998 -494.907772428923 2208.23200523171 15 18 11
-988.668780460077 -506.557623703344 2198.78572974363 27 30 23
-1015.66878715342 -512.555453194189 2198.25936256336 15 18 11
-1012.29123217594 -510.793834423164 2209.68039485702 17 20 11
-992.307717161832 -504.805676179408 2227.46084377038 18 21 12
-958.453112257262 -495.30056932566 2250.40026031779 19 22 13
-965.180595710426 -496.12803504058 2257.74790721337 21 24 15
-1005.17915719791 -505.398101215526 2252.63124176706 19 22 15
-1015.64046359172 -507.156988730445 2258.7533815442 18 21 14
-990.953450521771 -500.008279114489 2277.90911718365 17 20 13
-976.415533708941 -495.441819545971 2293.18267816472 17 20 13
-991.503676730292 -498.371558029228 2297.59777475806 13 16 9
-982.504439708927 -495.212798398335 2310.76529881691 12 15 8
-1044.92566438296 -510.069971274875 2298.37950231671 8 11 4
-1018.3064885335 -502.464431567955 2317.8662233258 11 14 7
-899.68258022634 -471.724322820776 2369.43587795468 17 20 13
-937.996925021824 -480.495664973012 2365.71706388926 14 17 10
-890.782462115707 -463.505974929572 2439.30191575941 12 15 8
-894.697859333497 -463.631050757919 2447.51507493138 15 18 11
-918.240957389283 -468.644488422869 2449.40330331296 16 19 12
-880.093347138875 -458.293508878809 2471.15446488805 17 20 13
-903.653098324116 -463.303483446976 2473.1140396554 18 21 14
-1008.01573503787 -487.484501452519 2459.64811968853 11 16 9
-985.756103185932 -481.089835060312 2476.27349229345 8 13 7
-942.080084105609 -468.547424114642 2508.82779726479 28 33 29
-927.509871684445 -501.296389198015 2213.26413528267 11 14 7
-968.245190586229 -510.945285447083 2207.06045623599 16 19 12
-1007.19180928633 -520.109924053386 2201.80163637599 17 20 13
-1011.18090279803 -520.234688690861 2210.34044718259 21 24 17
-981.064418564295 -511.568680168757 2232.01899323363 23 26 17
-1007.17576766867 -517.39495076839 2232.03219026149 22 25 16
-997.319226792885 -513.958337080162 2245.81492177028 21 24 15
-987.447017390764 -510.524003537671 2259.52994984776 17 20 13
-1035.79138918902 -522.033374510569 2251.49481108462 16 19 12
-1018.52709171349 -516.700679237581 2267.97400036268 16 19 12
-1030.85522509755 -518.954701775769 2273.4997774159 15 18 11
-1033.00929020871 -518.600646280836 2282.78358329658 11 14 7
-1015.70100598788 -513.274268536102 2299.07265744028 9 12 5
-947.599318335276 -494.117219152653 2343.13455706899 11 14 7
-943.192953705658 -492.116465781802 2354.4389035597 16 19 12
-919.26414415509 -485.153478261717 2372.48746325545 14 17 10
-937.145354244442 -488.827012372008 2375.97867809721 12 15 8
-871.303463080099 -471.243404271582 2408.14087120441 15 18 11
-901.276191756743 -477.987014320659 2407.48236621648 15 18 11
-893.457161535585 -473.426122620186 2438.69617627792 15 18 11
-932.122929975805 -481.458657478629 2445.20420654753 15 18 11
-902.412090139732 -473.108559542973 2464.29965742419 16 19 12
-882.014095245204 -467.118348133836 2480.25246199733 17 20 13
-934.056567729699 -477.611752489753 2492.47321577549 13 18 12
-959.573759252826 -483.137815409068 2494.24804640673 27 32 26
-960.719904154135 -482.553271470686 2503.51230276824 10 15 9
-953.079616306705 -517.486793400988 2203.31733843053 13 16 9
-985.542347185968 -525.081840031778 2200.46169807425 18 21 14
-982.154647092113 -523.291301154622 2211.81992887785 24 27 20
-987.968866230003 -523.905378611413 2219.57519233629 26 29 22
-1013.14051514243 -529.564088227114 2219.90646835616 20 23 16
-1006.99058817962 -527.051502321477 2232.33835879161 15 18 11
-1016.51669539891 -528.621598676379 2238.78592473608 13 16 7
-991.88792755995 -521.310650452352 2258.1028989114 14 17 10
-1014.34784818705 -526.238868016698 2259.7243068689 13 16 9
-1041.45824824439 -532.361105403659 2259.75756900309 14 17 10
-1047.32197481831 -532.964987558416 2267.72499415451 14 17 10
-1076.33734069229 -539.557096599419 2267.31509608013 9 12 5
-1021.37212456703 -523.519414502017 2307.30452510268 10 13 6
-938.40036832461 -500.331150374266 2356.37833551414 12 15 8
-906.117372085185 -491.141516113481 2377.31481603259 13 16 9
-927.703197898984 -495.818667914464 2379.49428322835 15 18 11
-905.597093807509 -489.264812328329 2396.7025575602 13 16 9
-883.459386641605 -482.715952007527 2413.77342221141 14 17 10
-874.329343748855 -479.51306035138 2426.33858335384 15 18 11
-876.3692147139 -479.174851152291 2435.12850442329 15 18 11
-911.052166735056 -487.182009399959 2433.18492756866 15 18 11
-917.78048887286 -488.031127023833 2440.55009154743 15 18 11
-907.705450147926 -484.590418174215 2453.36758722675 16 19 12
-863.972431730053 -472.578951121215 2476.87019223048 16 19 12
-958.287013340604 -493.095356137618 2485.32179215884 15 20 14
-961.310250771543 -492.983776393115 2494.02188150923 13 15 10
-1050.8695116093 -553.902112589246 2154.41256522315 17 19 14
-1027.32495204336 -546.732871519941 2174.03412615601 14 17 10
-1001.90770264651 -539.082337944783 2194.23327007098 18 21 14
-1012.64327242155 -540.085340738756 2210.23328371019 20 23 16
-1004.66059785646 -537.061968740223 2223.40250480524 15 18 11
-998.508272863739 -534.52618191074 2235.81126852659 13 16 9
-977.586260019494 -528.107331891136 2253.75924338074 15 18 9
-1009.24809364767 -535.526221078413 2251.82827144769 13 16 9
-1012.31600293412 -535.418197389209 2260.72621583087 14 17 10
-1021.85535287298 -537.006942167254 2267.24310520759 14 17 10
-1035.10475384217 -539.563317964846 2272.44994542679 14 17 10
-1018.75225534322 -534.363764310391 2288.46786256422 10 13 6
-1087.58120916951 -551.448521763481 2273.73138383429 8 11 4
-963.731643779957 -518.165812496809 2328.12000842479 10 13 6
-929.670898641853 -508.382162612443 2349.98722263083 11 14 7
-976.55492087581 -518.817402707291 2353.11297182989 11 14 7
-959.15363405522 -513.393873945968 2368.93399556418 13 16 9
-939.161587181823 -506.42188005272 2395.21208657256 13 16 9
-904.933496449598 -496.66371700862 2416.35687037154 15 18 11
-921.901674321129 -500.182612712122 2420.29019286431 14 17 10
-899.174974697145 -491.681624026905 2456.40164257002 18 21 14
-869.46519807926 -483.151134286111 2475.39567802908 15 18 11
-966.577206559812 -504.636705463226 2483.07407717799 16 21 15
-1017.34220966068 -552.938601722495 2188.37456062169 22 24 19
-1000.18568588517 -547.424241570814 2205.22181345781 10 12 7
-986.056046355288 -541.812550702523 2230.79252000952 12 15 8
-942.370416433032 -528.351647150957 2267.32173912116 18 21 14
-1001.68169258545 -543.223259721092 2254.91051810125 14 17 10
-982.58398613309 -537.232008237514 2272.03612367437 15 18 11
-1018.89718748024 -545.956702962406 2268.58449611467 14 17 10
-1009.02640602399 -542.418857025795 2282.2449339333 13 16 9
-1054.65273653594 -553.582677828097 2275.70069145841 10 13 6
-998.496110045214 -537.798762255406 2306.03293238919 9 12 5
-953.379271753029 -524.964622541206 2332.06766032269 9 12 5
-995.616810484836 -534.30199418399 2336.85571679842 13 16 9
-1018.44954548968 -538.489045899158 2348.7979281485 11 14 7
-940.611959213815 -513.552092243302 2424.02372818807 11 14 7
-906.322291899715 -503.699652473904 2444.84171966153 14 17 10
-897.182298999743 -500.433806259017 2457.3260075341 15 18 11
-960.159144671175 -515.089300816132 2456.38278806678 15 18 11
-898.663491447178 -498.192582258602 2485.31789489765 15 18 11
-955.61781762621 -509.455513676363 2505.96540736992 26 28 23
-964.268044986307 -510.806308653228 2512.98076297729 17 18 13
-1020.82182428922 -563.657924721627 2187.22938332075 5 7 2
-956.78853307106 -545.407783645029 2222.4128690721 10 12 7
-976.032916616713 -547.852184727255 2244.8572922096 14 17 10
-979.079871181929 -547.754286163781 2253.66993971806 18 21 14
-932.317460309222 -534.258211244122 2281.17681172581 16 19 12
-1032.25389239001 -560.20499807541 2253.80146201372 16 19 12
-986.383099835583 -546.961424212541 2280.82942402786 16 19 12
-1011.91182193398 -551.962583952162 2291.46023247005 10 13 6
-1070.51098702843 -566.715276508283 2280.39750168056 9 12 5
-962.061153020199 -534.976865406911 2348.87328800793 17 20 13
-977.158118007397 -538.091460686048 2353.43707239737 13 16 9
-907.770212021375 -518.71734519755 2387.14707712397 11 14 7
-937.713731250735 -525.786483546924 2386.55132362684 11 14 7
-876.570631107732 -508.653927719582 2416.9012703185 14 17 10
-862.797077150834 -504.121015054313 2431.00529245672 14 17 10
-887.176685934922 -509.705195243143 2432.3589543465 13 16 9
-887.362497450292 -508.872978808936 2441.8010761843 14 17 10
-887.545927481939 -508.0406124353 2451.23370205625 14 17 10
-894.257842349256 -508.932994234554 2458.55092632928 16 19 12
-946.00154862192 -520.80619181075 2461.15388169518 15 18 11
-902.461723571626 -507.568128256682 2493.89917574771 15 18 11
-924.36149667844 -511.552447947224 2506.16738602019 13 16 9
-938.60959014203 -514.400645524402 2511.39136022352 20 23 16
-1026.72552424663 -576.01090201073 2174.94277953208 19 21 16
-1020.62512598653 -573.397579412964 2187.53367188501 13 15 10
-1002.56649546785 -567.518451667659 2204.74758517192 11 13 8
-1017.58819486326 -570.687187658347 2209.01154987435 10 12 7
-957.166363652128 -553.261406615661 2242.36735681213 10 13 6
-1012.38209157678 -565.522687701806 2251.38330972418 15 18 11
-1029.29351763732 -569.184054491311 2255.15143434817 16 19 12
-1050.84210891598 -574.094880792052 2257.30317806586 17 20 13
-1014.20734365911 -563.218932856431 2280.85562952985 16 19 12
-1045.93987351853 -570.881351005279 2279.37833522289 12 15 8
-1082.33811539002 -579.788431752175 2276.40980503555 11 14 7
-959.120587066169 -543.710931401991 2350.16645393754 21 24 17
-950.092659958756 -540.366591129707 2363.09731409354 18 21 14
-949.642022582733 -538.428043181401 2382.7555587698 13 16 9
-889.458795985948 -521.359817893269 2412.81560509452 15 18 11
-828.262764028347 -504.055326341117 2442.83117678993 15 18 11
-875.881275006351 -515.943442326047 2436.37773562244 16 19 12
-912.384136492929 -524.82956660118 2433.85789371738 18 21 14
-852.006167516442 -507.791949737978 2463.07779598974 19 22 15
-854.962880651485 -507.705546006832 2471.49954874074 19 22 15
-925.113514825722 -525.545409415123 2458.47487645085 18 21 14
-937.456474868443 -527.939178606519 2464.14818270698 15 18 11
-877.255068977525 -509.252378070513 2511.40392425056 11 16 9
-1011.55910357727 -543.095576243809 2489.74306065704 23 26 19
-1061.86797115226 -591.736034912039 2202.34766476874 11 13 8
-1048.40356185389 -587.068176424299 2217.734585347 10 12 7
-1020.49125150866 -577.48794663435 2248.5871877471 10 13 6
-1033.71406512273 -580.17835780282 2253.75679042663 12 15 8
-1047.8752218138 -583.11929277313 2258.65112990517 16 19 12
-1039.88545737209 -579.980028348929 2271.72094478628 17 20 13
-1001.38177588961 -568.489554529097 2295.79033079632 14 17 10
-1057.16158984137 -582.815447736508 2285.72319227717 13 16 9
-845.901197857015 -522.359910845946 2390.06297002443 25 28 21
-845.148180681515 -521.269155506037 2399.77350094688 24 27 20
-903.781312865971 -536.339283996534 2389.04824055177 24 27 20
-877.989406603741 -528.427335040678 2407.44267484984 21 24 17
-883.753440459688 -529.09948168364 2415.01094749153 20 23 16
-884.873749051019 -528.509417534083 2424.15702099338 18 21 14
-913.90616178706 -535.482216476986 2424.04615056498 19 22 15
-915.043147448716 -534.88859830636 2433.26362247114 22 25 18
-868.663848670745 -521.447781690904 2457.93480185878 26 29 22
-854.850735005898 -516.830171273622 2471.81468471994 22 25 18
-869.004133939966 -519.766317741754 2476.67202261877 14 17 10
-979.800182996128 -546.907383255359 2470.51221806618 16 19 12
-990.322453402249 -548.81834768325 2476.99353342836 19 22 15
-931.592315012394 -532.139695128637 2504.57195770253 19 20 14
-1012.58596692035 -552.027536346811 2499.52149835956 21 20 16
-1073.65141055719 -609.779615898055 2146.40967413489 14 16 13
-940.111220006096 -571.399357715775 2209.77775004687 25 27 24
-960.222138781337 -574.225968987214 2231.70902335136 16 18 13
-964.179819850116 -574.395831999413 2240.13593825917 14 16 11
-1001.26915406629 -583.796401726281 2235.9455201244 13 15 10
-967.499736764395 -573.451720301391 2258.76651190023 9 11 6
-1025.82985656653 -588.737344907146 2246.83166604194 9 12 5
-1026.14385768717 -587.874204518349 2256.82156295744 11 14 7
-1038.45093883753 -590.339403277196 2262.37986512794 15 18 11
-1023.0725268384 -585.124197154058 2278.1234689533 16 19 12
-965.169565125251 -568.144403863894 2309.17087466879 12 15 8
-1022.75631710878 -583.143012896141 2298.3490018689 11 14 7
-1101.69649967467 -604.008466601842 2280.26836933773 9 12 5
-868.941108378348 -537.899275405612 2382.25456681184 23 26 19
-870.058915855939 -537.308677077419 2391.39039119221 25 28 21
-892.511823961147 -542.588024538186 2393.18742108276 25 28 21
-901.996416218622 -544.290705207346 2399.53002999236 25 28 21
-921.926052129643 -547.944972061903 2412.03536834636 23 26 19
-910.049167510074 -543.78069766021 2425.60121545302 19 22 15
-876.9273960092 -532.913795628433 2455.52535998742 22 25 18
-872.445476308812 -530.794414406855 2466.42590794373 19 22 15
-859.561818593396 -526.386362342765 2479.9683576801 14 17 10
-946.009437948454 -547.228022639368 2481.28551057862 18 21 14
-926.781937694996 -540.186902274621 2506.33556979878 19 20 14
-941.957568018152 -543.394880831273 2511.29983748518 19 20 14
-1035.8517784025 -567.908855700812 2492.91075775688 20 19 15
-901.432608756063 -570.016420914394 2225.34982730474 19 24 18
-1026.51757405852 -601.592871985684 2216.41351937712 15 20 13
-1006.60216431385 -595.023425998939 2234.15218481104 16 21 14
-987.577977839591 -588.7174255925 2251.41663665449 13 18 12
-1025.63730735093 -598.469730825145 2247.15104902568 14 17 10
-1043.46610843558 -602.519353347702 2250.63252257197 10 13 6
-1028.1103169171 -597.250695202319 2266.44545292172 8 11 4
-992.425482572029 -586.295534733674 2289.57976370597 13 16 9
-1012.40443658224 -589.993543885575 2302.32924017091 10 13 6
-905.35985049216 -555.481987702797 2389.03658801764 29 31 26
-913.9233778879 -556.947404798803 2395.73622429429 24 27 20
-921.566916860032 -558.153176136038 2402.78772610461 25 28 21
-943.156202719396 -563.221685846681 2405.21153778179 24 27 20
-875.511029288692 -543.563261553618 2437.32099133962 19 22 15
-900.815104857114 -549.661800376927 2438.49342213425 16 19 12
-913.11575931643 -552.152294294719 2444.0382823942 12 15 8
-915.182215526719 -551.810637148971 2452.9433253747 11 14 7
-933.097505131764 -555.839464431588 2456.79368600354 11 14 7
-946.083119135765 -555.742797392594 2491.1747106764 12 13 7
-958.453749795904 -558.218567023183 2497.01926597813 12 15 8
-1032.61309863074 -577.620343881911 2484.35125218581 15 18 11
-923.270492161372 -585.724628063431 2216.90140137843 14 21 14
-920.783034660226 -584.075351957096 2227.75329897476 18 25 17
-1070.99483146326 -625.063731867362 2189.26019564849 17 22 15
-1070.43198858251 -623.923316277539 2199.77953535248 17 22 15
-1045.37088025322 -614.8378691887 2229.816884336 16 21 15
-1030.96941344563 -609.775994806745 2245.40033570376 16 19 12
-1044.18984311244 -612.563733150543 2250.61559159593 13 16 9
-1018.69851071727 -604.367995663106 2270.16761207694 10 13 6
-951.649608069082 -584.417373694158 2304.73271650905 15 18 11
-965.759201661932 -587.470736653184 2309.46596579226 13 16 9
-1109.59465830549 -626.198600149815 2277.99889920066 6 8 3
-869.067437778187 -554.642040411712 2401.77269275715 20 22 17
-847.920840258489 -547.793423527035 2418.4793299407 24 27 20
-882.631502004738 -555.717696832984 2425.72300622822 22 25 18
-904.200674657412 -560.845227970705 2428.09290202474 17 20 13
-912.774570490701 -562.326162777569 2434.84844102181 14 17 10
-878.544547964798 -551.84391699604 2455.5588304082 13 16 9
-931.812002406153 -565.802153950609 2447.87485189068 12 15 8
-967.44061347909 -574.812072593564 2446.13177763545 12 15 8
-955.778529338593 -569.702204428381 2469.20080378424 14 17 10
-995.22172657884 -579.735597351097 2466.64225389941 16 19 12
-1023.50148808317 -586.647337138848 2467.73634865792 19 20 14
-941.148575323367 -601.376583721697 2200.08354482899 16 23 16
-944.176756661604 -601.302024327371 2208.82610762871 14 21 14
-969.503736945634 -606.712920281103 2218.80891906757 19 24 17
-1052.1884579029 -627.64003433065 2217.26514290758 18 23 16
-999.174445337549 -611.420559861411 2247.51906235208 19 24 18
-940.161164922724 -591.623795328999 2299.35752350409 15 18 11
-821.679108824921 -550.434821736922 2418.31450724264 19 21 16
-848.72943195292 -557.212597160686 2418.46860193802 23 26 19
-872.101780742812 -562.93186717724 2420.01955838774 19 22 15
-909.430859905566 -572.591608948827 2417.03911731657 16 19 12
-924.507642541432 -575.932701859634 2421.6460987577 13 16 9
-937.74217222705 -578.74471242642 2426.93884998161 13 16 9
-934.245039090623 -576.824653001341 2437.73867610445 12 15 8
-930.74054823055 -574.905276673214 2448.50756805112 12 15 8
-939.340176237553 -576.399485773359 2455.38430531085 12 15 8
-964.7291614585 -582.615465975081 2457.00105846299 11 14 7
-984.55230612059 -587.251929701628 2460.50201928839 11 14 7
-1011.86704553349 -593.981734677579 2461.79306955957 13 16 9
-1038.28141278156 -600.443459760336 2463.51529237903 16 17 11
-943.086639221323 -610.581818823322 2209.4804952783 16 23 16
-928.70220362235 -605.424316156638 2225.08275051248 18 23 16
-948.229417779858 -610.169630887745 2227.34369394042 20 25 18
-1027.43313709453 -632.29528969638 2206.60807498728 22 27 20
-1047.96626013076 -637.293151669601 2208.89376552822 18 23 16
-1004.19667884246 -623.578678335044 2235.79109321075 16 21 14
-995.310219871024 -620.025807738051 2249.22269261058 16 21 14
-987.329262211578 -616.741880199498 2262.24731553066 20 23 16
-950.135170562918 -604.04189586689 2295.93143252822 16 19 12
-977.138355454732 -610.902349188076 2295.9264374832 11 14 7
-1024.47389004453 -623.623572333741 2288.71604602318 11 14 7
-947.227042572141 -600.349347455901 2326.51203069103 12 15 8
-965.300514608664 -603.659810366331 2339.75081399877 3 5 0
-901.946300512702 -583.540975980657 2381.38400571756 7 9 4
-895.677155522738 -580.808394028776 2393.16224487975 19 21 16
-856.025857528114 -568.502940842336 2416.25054782486 21 24 17
-908.15198798475 -582.525207601203 2408.13239204556 17 20 13
-940.85255422208 -590.95533517234 2406.81595840107 15 18 11
-945.032614857099 -590.26816401857 2424.83153803111 14 17 10
-955.493856662313 -592.312820549125 2431.12147319595 15 18 11
-898.956408814862 -575.250543311826 2459.02370562344 14 17 10
-877.731144745395 -568.279717212002 2475.31181327559 12 15 8
-914.255088592058 -577.752044297726 2473.2296577229 12 15 8
-976.936603664293 -594.637270749371 2463.1836852989 13 16 9
-974.377008106862 -592.963407220511 2473.70323961112 14 17 10
-967.370932274394 -589.087646878908 2495.23206180494 18 21 14
-924.600917359921 -614.721673782258 2217.03493254071 18 23 16
-971.270795052358 -625.595366739591 2228.58881975442 18 24 14
-999.104858617945 -632.814252266662 2227.89847974028 18 21 14
-977.366687674606 -625.449135879305 2246.25092202575 17 20 13
-988.068211002069 -626.649351188209 2262.21690139622 18 21 14
-963.509787718971 -618.483725785152 2281.34116093822 18 21 14
-978.52383581561 -621.914726604356 2285.72566522467 18 21 14
-1019.36410114298 -632.887411292967 2280.76196320399 17 20 13
-997.536796579419 -625.534581324704 2298.72885796529 12 15 8
-1030.13269107798 -634.07305919207 2297.014908545 10 13 6
-935.121219705303 -602.554093697926 2370.1557028552 13 15 10
-889.263425242387 -587.36297877727 2405.2082738518 19 22 15
-917.285593412314 -594.545508449038 2405.32653399391 16 19 12
-962.973129825553 -606.822651664437 2399.70573339499 14 17 10
-952.078837200906 -602.720061413985 2413.08132057752 13 16 9
-921.655910582107 -592.986532511372 2432.78053819936 14 17 10
-930.239696519667 -594.52204377551 2439.61175877377 17 20 13
-861.611206190757 -573.807447785913 2471.32335281943 16 19 12
-884.126609198927 -579.366761071721 2473.56043795047 15 18 11
-915.053854554372 -587.331577830578 2473.26995034896 15 18 11
-946.952081763972 -595.557434361019 2472.85420992032 16 19 12
-957.434404374404 -597.620294401914 2479.24883235814 17 20 13
-943.65811515341 -592.72495263103 2493.12763238612 19 20 12
-968.158794249925 -598.797383933204 2495.300886653 23 26 19
-931.933199492354 -587.487760462949 2515.8448988984 22 25 18
-891.915878661679 -575.117091227071 2537.28302317519 19 22 15
-1004.6486602677 -649.150953948414 2175.35814054271 17 24 17
-946.398648027695 -630.776611137701 2208.61241953263 21 26 19
-966.211450159303 -634.737670310698 2220.78445269212 20 26 16
-1001.35433325483 -644.218867299156 2217.17817214037 17 23 13
-991.573945796198 -640.327018811313 2231.02872516191 18 21 14
-1005.65448918096 -643.526745102759 2235.72004865256 18 21 14
-982.074510823715 -635.548163394455 2254.70950628842 15 18 11
-976.851801570666 -633.024183434768 2266.66414363785 17 20 13
-944.014035090284 -622.330210050244 2288.82867665493 18 21 14
-968.219137777259 -628.524058730613 2289.7719514119 19 22 15
-985.082960268987 -632.535442205561 2293.53508930593 19 22 15
-1018.56355646283 -641.440384765057 2291.3776945509 13 16 9
-1028.09737242489 -643.26687458822 2298.01003191417 10 13 6
-891.488246934085 -599.226029463871 2385.5361561147 12 14 9
-918.545664911625 -606.219040456414 2385.84702291933 20 22 17
-907.65600267318 -602.080098361539 2399.22163327888 19 22 15
-921.777691589898 -605.267664520214 2404.08711545465 16 19 12
-950.757162424273 -612.790777405829 2404.06662924733 14 17 10
-948.213899669745 -611.091406966153 2414.6431529508 12 15 8
-892.919608998133 -593.067829289488 2452.01553774708 15 18 11
-901.485894923875 -594.624479369188 2458.78207636549 15 18 11
-884.002265234994 -588.601003559509 2473.88738080337 14 17 10
-913.988889679301 -596.379369584693 2473.89871823115 14 17 10
-944.012879403999 -604.151147658899 2474.07083375683 15 18 11
-893.876551977919 -588.666335688723 2499.21088313962 16 19 12
-880.997186745861 -584.002270049014 2512.6216692023 21 22 14
-941.866029777087 -600.682247167098 2503.58119865045 14 17 10
-897.227353198095 -586.834276309988 2526.56918734084 9 12 5
-896.472281065258 -585.683074921042 2536.23511054743 14 17 10
-952.786976343247 -600.991836891694 2529.10305808848 9 11 6
-1025.13678248096 -666.143775856663 2157.15996656429 5 10 6
-961.477955894709 -645.926814553494 2192.83673942825 19 24 18
-1008.4376231801 -659.103555080722 2184.23798089755 22 27 20
-1002.99620979929 -654.482199156861 2216.77947675635 21 24 15
-1007.89981989394 -654.962784251232 2225.00104958995 19 22 13
-962.317185970912 -640.297070460012 2252.4612615931 19 22 13
-981.893108783516 -645.185448495472 2255.02207494343 18 21 14
-961.046328564025 -637.962128617408 2272.82840511336 16 19 12
-966.844869152495 -638.720455707815 2280.59942278926 21 24 17
-958.841637275441 -635.353043399759 2293.47570327035 22 25 18
-924.113397887313 -624.015951915875 2316.04427627625 16 19 12
-992.567654878285 -643.461034407657 2301.04602030167 13 16 9
-985.764696817197 -639.473334734966 2323.40297074715 14 16 11
-899.891249397516 -610.121246489869 2392.51832158948 19 21 16
-933.443835439556 -619.102074700713 2390.72387538194 17 20 13
-946.652578592607 -622.048267974611 2395.98083178812 14 17 10
-933.912844190173 -617.323164653219 2409.97101122186 13 16 9
-948.990189750442 -620.813867059261 2414.66955506131 11 14 7
-948.300625739127 -619.648831027093 2424.61600764207 12 15 8
-956.898859095517 -621.219558996898 2431.53160516923 12 15 8
-922.738200292016 -610.209159495438 2452.23592183022 13 16 9
-910.85794186028 -605.766711702529 2465.62328947613 13 16 9
-935.267514432372 -611.983949138414 2467.48133264703 14 17 10
-902.879871590327 -601.533285242401 2487.21498360039 14 17 10
-887.226491627751 -596.004498713936 2501.56356909216 15 18 11
-886.475198470212 -594.846394778166 2511.24208478472 17 18 10
-891.321203420876 -595.325400525247 2519.20780089205 16 19 10
-847.747956895732 -580.739399362628 2551.01300782495 20 23 16
-993.324737645375 -662.321995231451 2210.67062114781 20 23 14
-1000.37002101328 -662.467461104711 2228.13144558453 19 22 13
-993.342489999196 -659.341282988134 2240.89270532058 19 22 13
-952.325543501037 -645.931512120485 2266.42755030348 19 22 13
-932.386324523314 -638.921890209004 2283.80240145963 15 18 11
-959.314480333779 -646.083324847589 2283.64381251152 18 21 14
-966.032693228974 -647.129905409401 2291.08057060439 18 21 14
-956.183745903947 -643.17878798595 2304.5930629605 12 15 8
-1052.61162178475 -670.232655460834 2289.74875412013 8 11 4
-966.215039688896 -643.261064800577 2330.61839493486 7 9 4
-909.002047088709 -622.225448861598 2389.66130767009 19 21 16
-952.733475595842 -634.342089006572 2384.44026631722 15 18 11
-949.27775145501 -632.338653522604 2395.37461162614 13 16 9
-942.107180635257 -629.229615718394 2407.51563708305 13 16 9
-927.503891019683 -623.910260502279 2422.05829926562 14 17 10
-902.668918040802 -615.554028646908 2439.85072689347 14 17 10
-948.387225588639 -628.199694731895 2434.5833611382 15 18 11
-974.646149051253 -635.035714845943 2435.84075735108 14 17 10
-940.484863644347 -623.921567455017 2456.48237812735 14 17 10
-931.403369663589 -620.265850614628 2468.99513671352 13 16 9
-938.139168832777 -621.301877115705 2476.50209607968 13 16 9
-947.676921302088 -623.163495196137 2483.1724412516 14 17 10
-912.464337409818 -611.791356888073 2503.58610041096 18 19 11
-927.591558612627 -615.306858264143 2508.51901096098 16 19 10
-925.928931260223 -613.860878890724 2518.56875110008 17 20 11
-978.156671783053 -671.427975088639 2176.52676151896 16 21 17
-825.885985612433 -623.534146489313 2247.45406020536 16 21 14
-1030.6703742383 -683.549935043274 2196.33938117774 21 24 15
-987.951852991453 -669.433854265586 2223.07457913165 20 23 14
-1036.84949882643 -683.415117837508 2214.37496449927 19 22 13
-994.072581214042 -669.307705929538 2240.85793322682 18 21 12
-975.103440327123 -662.507345692276 2258.07418127943 17 20 11
-953.627115962837 -653.967740901797 2286.0035728404 17 20 13
-987.935976796622 -663.440312987747 2283.27344362221 16 19 12
-1020.44735323994 -672.34490790801 2281.40239713477 14 17 10
-932.843595238324 -642.739359665173 2342.74392749644 0 1 0
-908.632309618322 -632.48907281481 2380.39845578637 1 3 0
-889.438017842528 -625.720770025728 2396.64141467431 21 23 18
-920.186930649346 -634.04863154293 2395.77862236843 15 18 11
-954.678668816476 -643.487385921727 2393.83446538937 14 17 10
-903.963863561578 -627.224602130671 2420.52423711839 13 16 9
-920.162837956303 -630.175197937109 2434.40405560954 14 17 10
-903.669976496965 -624.254886966476 2449.37952690133 15 18 11
-894.585417838384 -620.569010718305 2461.86104197571 14 17 10
-920.815801994439 -627.478557319946 2463.03592346865 14 17 10
-913.586374444995 -624.350065487523 2474.90615009987 13 16 9
-947.306929588349 -633.480068448624 2473.93961207402 13 16 9
-967.333157689147 -637.521076945682 2487.09914638406 18 19 11
-920.927456681962 -622.703350985288 2510.84304284563 16 19 10
-1038.35918843594 -654.748039724971 2504.91100902722 20 22 19
-971.887080268436 -678.21744915156 2189.34718942638 21 26 19
-910.045457667922 -657.99804604006 2223.91627362638 18 21 12
-996.282411420113 -683.780247216968 2199.87036880533 19 22 13
-1033.21145864322 -694.219900498428 2195.58587541464 21 24 13
-999.669335484938 -682.808156843883 2218.77975834698 20 23 12
-980.742385223288 -675.941132823605 2236.14271309984 19 20 12
-974.005471612681 -671.854393088791 2258.73352765924 16 17 9
-944.914373713646 -661.880235542952 2279.60361271257 14 17 10
-1015.94247213059 -682.779624309154 2263.13225347103 15 18 11
-1029.13355577862 -685.829335734601 2268.37227793742 14 17 10
-1024.85707587439 -683.499368146444 2280.05425176805 13 16 9
-1020.57229631489 -681.170317523568 2291.70019187315 11 14 7
-901.096375801251 -639.605673752007 2383.27356414278 1 3 0
-905.940944133072 -640.115618601477 2391.25114705083 24 26 21
-850.659383464366 -622.282293629576 2419.67762961659 15 18 11
-878.614094234494 -629.848782822572 2419.72446610881 13 16 9
-941.80394277707 -648.124585489297 2408.17890243986 12 15 8
-957.801788125279 -652.010423437827 2412.60969759801 12 15 8
-981.23899109443 -658.146937351639 2414.69184809526 13 16 9
-876.807752093516 -624.506788351365 2467.85923404106 13 16 9
-912.312409492287 -634.303396475907 2466.0337400787 13 16 9
-853.930081588875 -615.673243147735 2493.99700837277 12 15 8
-833.623556113229 -608.587953922436 2509.70987721572 13 16 9
-933.42000071608 -637.778442255252 2488.18190743325 13 16 9
-913.13461859347 -630.688751461433 2503.98427078054 15 16 8
-899.347252341158 -625.570199021715 2517.68297381208 15 18 9
-885.539110872414 -620.45455095384 2531.29183754811 15 18 9
-1052.85407849522 -669.809907449221 2491.06449775435 12 15 8
-908.052612537429 -666.903577139525 2224.92900035584 15 18 9
-986.031082378719 -690.355632382508 2204.13186299395 19 22 13
-1008.30368844875 -696.315623754847 2205.53471093925 19 22 11
-947.292317403439 -676.20986292239 2239.27279569514 19 22 11
-972.311974092602 -683.028183277712 2239.61635172888 19 20 12
-960.693384836781 -678.393682666196 2254.04273865289 18 19 11
-950.891226197809 -674.333872901206 2267.69856599464 18 19 11
-964.022615267476 -677.425961266261 2272.70155295879 15 18 11
-1013.91295628104 -691.95085593401 2264.13966429326 15 18 11
-997.989080499939 -684.971174431908 2290.11322495077 11 14 7
-1039.71112460962 -696.905878491686 2285.04456978255 10 13 6
-1067.67077690682 -704.549363881722 2285.15738172304 10 13 6
-1079.0751082852 -707.049487220551 2291.3145966727 1 3 0
-945.535479885157 -661.73654498315 2377.94818010275 13 15 10
-910.645453217178 -649.999057774546 2399.56832561506 13 16 9
-942.333565572141 -658.774105779136 2398.54971478155 12 15 8
-982.663883725354 -669.188455559662 2404.6808022174 11 14 7
-953.503075027548 -658.255927361762 2433.79391745205 13 16 9
-871.111624689431 -632.041360791457 2469.97461281756 13 16 9
-848.998535800666 -624.316786910324 2486.46352984829 12 15 8
-898.440804595857 -638.471334673901 2480.26575731311 12 15 8
-879.102543507994 -631.600406898437 2495.81394394476 13 16 9
-925.832650000085 -644.88893691691 2490.82685184945 14 17 10
-928.839473316943 -644.829676303843 2499.4842971667 13 14 6
-920.661392875866 -641.365437729228 2511.53423067584 15 18 9
-977.899209754306 -699.583590075712 2187.39604297517 14 17 10
-986.434831774693 -701.267965542053 2194.10258269177 25 28 21
-962.990939599845 -692.825631856621 2213.41786413727 21 24 15
-978.839457515568 -696.823418774999 2217.2564814723 20 23 14
-1031.31468056155 -712.38139913614 2207.0223926124 18 21 12
-968.466022595244 -691.515546156157 2241.33117149957 18 21 14
-966.01444199218 -689.730063136131 2252.26105088464 18 21 14
-951.635286153408 -684.190780124586 2267.66202104844 17 20 13
-962.92881001072 -686.73803935795 2273.35867812466 16 17 11
-967.807100453992 -687.262796023453 2281.49357187702 16 19 12
-993.823902587224 -694.421798243293 2281.87400978646 11 14 7
-1061.25096823362 -714.553029874054 2267.30824805825 10 12 7
-1079.07916651382 -719.101697673468 2271.08058743517 10 12 7
-1081.27613739456 -718.74712349434 2280.55315574018 7 9 4
-948.149288936768 -672.086200899612 2377.32674534973 9 14 8
-949.327601849609 -671.456643050312 2386.70519034813 10 12 7
-948.654793177739 -670.251737579742 2396.70202668949 11 13 8
-981.302962060659 -679.393259242355 2395.57311893733 11 13 8
-963.97237522678 -673.013635785963 2411.14334380027 11 13 8
-995.742498407538 -681.85894153129 2410.52744314116 13 15 10
-933.871800657759 -661.700995247965 2440.4481464297 13 15 10
-912.754583542621 -654.18396312348 2456.89111055894 13 15 10
-917.612313525709 -654.704413367076 2464.93287020194 13 15 10
-841.617462514308 -630.273179001943 2498.45254418909 13 15 10
-975.699891326341 -670.649527901379 2465.98743958158 13 15 10
-979.670938049664 -670.874551308653 2474.50569479331 13 16 9
-930.564188118379 -654.769082678448 2499.26119880657 13 16 9
-904.68618732171 -645.833929145158 2516.67443555387 13 16 9
-900.218277639214 -643.488698408857 2527.50388239806 14 17 10
-976.795484807428 -708.986188571335 2188.06269742652 16 18 13
-960.67706521765 -702.80354211114 2204.53387778309 22 25 18
-1009.40290880882 -717.355405968697 2195.41389851843 17 20 13
-1017.96459961451 -719.053894121284 2202.24361291732 18 21 12
-999.089052489796 -711.996890865282 2219.7213398733 17 20 13
-971.030590522957 -702.027153763798 2240.58800672995 17 20 13
-969.796358957682 -699.595458611966 2261.05855122596 15 17 12
-992.107435757976 -705.664707941221 2262.69627170729 16 17 11
-991.497236478926 -704.446759190184 2272.96132941073 16 19 12
-986.290915185322 -701.77302652006 2284.90010188122 12 15 8
-912.897095223304 -670.549530110405 2389.68045728428 10 15 11
-891.873833258929 -662.954103766019 2406.49024651427 10 12 7
-934.626979920615 -675.386852060741 2401.7017495869 11 13 8
-922.838533637847 -670.694462450656 2415.34668675151 11 13 8
-960.108863150832 -681.374395062397 2412.70631745798 11 13 8
-970.555125119037 -683.639197161121 2419.05972527906 13 15 10
-939.288176938803 -672.860789669502 2438.98262740388 14 16 11
-944.162454193787 -673.387167106761 2447.10079002552 12 14 9
-939.756235099367 -671.016498450672 2458.18711932759 12 14 9
-939.986867220377 -670.094095969915 2467.77478845513 12 14 9
-968.105799963432 -677.85321913558 2468.65858242157 12 14 9
-977.653814273201 -679.820387226704 2475.43514182309 12 14 9
-929.494632827449 -663.855793748347 2499.89262974686 13 16 9
-889.653090051854 -650.503436519948 2521.5268500034 13 16 9
-877.720606952046 -645.829111990514 2534.54770340186 14 17 10
-999.983288494483 -727.282047487386 2168.85697216461 19 21 18
-1029.50560046066 -735.785537548168 2167.24877604716 18 20 15
-1007.04078736177 -727.479893624657 2186.40243347779 19 22 15
-1004.63612250049 -725.662262807386 2197.52122873025 22 25 18
-1047.9228899257 -738.5748176984 2190.80888597004 17 20 11
-994.322148130375 -720.261941467458 2221.80356082114 16 19 12
-944.307497132753 -703.13827667589 2251.07227280223 17 20 13
-938.180761889387 -700.151472112441 2263.32852577531 17 20 13
-972.365254910805 -710.110771109134 2260.33663732052 13 15 10
-987.335610868281 -713.886643662914 2264.73145120414 16 17 11
-998.653065719744 -716.483270377659 2270.56259834444 14 17 10
-934.686274107995 -694.977786251627 2304.12443314131 13 16 9
-930.357752579653 -692.583072331154 2315.53899996694 12 14 9
-893.362840629218 -673.794113928779 2396.64429301207 7 12 8
-917.601368720397 -680.490398847822 2398.03037591082 10 12 7
-913.212792985702 -678.101401272992 2409.18367153175 11 13 8
-913.441164008917 -677.17743635573 2418.75937157727 11 13 8
-945.384529714705 -685.277240020886 2427.5822955173 11 13 8
-948.65015862777 -684.29849394522 2445.95436060279 12 14 9
-979.518793072416 -693.015769374301 2445.84708482404 12 14 9
-1003.92457246447 -699.680827554963 2447.95180659898 12 14 9
-965.163542193177 -686.478135869472 2469.87900879453 12 14 9
-904.958556831999 -666.567803342244 2498.17262524099 12 14 9
-902.368584040885 -664.767936411471 2508.48420890466 14 17 10
-910.947195970199 -666.469857234865 2515.39050649103 13 16 9
-959.834825038348 -679.781545406318 2519.92323419309 16 19 12
-1053.37093919889 -707.998494494973 2502.13414505034 15 17 12
-989.759313576055 -733.7830990551 2173.19528375674 19 21 18
-1002.27752257286 -735.776524261302 2188.52035322208 16 19 12
-1056.47867468752 -752.384226066935 2177.39521398124 19 22 15
-1004.18592532928 -733.259022776448 2218.23227751745 17 20 13
-968.834129629163 -720.733950871259 2241.91186388861 17 20 13
-932.517013073218 -707.919636251338 2265.72288783014 16 19 12
-944.700911137903 -710.848678892563 2271.01119230126 13 15 10
-1006.40089748806 -729.8023206435 2257.85661414286 15 16 10
-1014.05936562279 -731.237359042124 2265.10766341725 13 16 9
-918.916402004327 -699.451206818347 2310.17235446233 13 16 9
-1002.76123184454 -725.503709814783 2289.41466294469 12 14 9
-1018.69762153413 -729.604363887982 2293.69991054396 11 13 8
-1010.73839357707 -725.997460325601 2306.62923667044 11 13 8
-899.454692237009 -686.139087342111 2385.18208598938 65 70 66
-973.786074487193 -707.940266389362 2379.23980635465 10 12 7
-945.411063093374 -697.840640511419 2398.63517804078 11 13 8
-946.586821920132 -697.203367998251 2407.99783075362 11 13 8
-972.084390328235 -703.310145191742 2419.14164619718 11 13 8
-925.090749105014 -687.318806855357 2444.16195184188 12 14 9
-876.177436873012 -670.747333472311 2469.49576483461 12 14 9
-1008.39855598736 -710.770933363837 2446.84898049173 12 14 9
-923.420064818351 -681.777490553944 2492.77835812158 12 14 9
-918.983851145521 -679.373025467558 2503.71263610365 15 18 11
-975.978822544405 -696.405615176661 2496.03576468157 13 16 9
-969.70349577353 -693.407176863409 2507.63039533245 13 16 9
-1027.07706613927 -709.477733852363 2510.16991084919 14 16 11
-947.662230749567 -729.715292491713 2190.35225319808 19 21 18
-1020.31925046974 -751.554769717612 2181.61070098901 18 21 14
-1016.10273113103 -749.108952615403 2193.48875665609 20 23 16
-975.345435961199 -734.664468586668 2219.56027664794 19 22 13
-958.292860270172 -728.026051710634 2236.20336466287 17 20 13
-975.967159276903 -732.783436147791 2239.42029563782 16 19 12
-972.614159134813 -730.644161141501 2250.72740559475 15 18 11
-972.001450477037 -729.404316348044 2260.96852699524 13 15 10
-1034.61632886288 -748.830326219637 2247.56582844347 15 16 10
-981.770049931848 -730.518103626354 2277.32907906074 12 15 8
-993.083708643787 -733.168495632384 2283.17512121544 13 16 9
-978.699524330184 -727.438839201457 2298.44087518855 11 13 8
-1051.58433142556 -750.127085817346 2282.08949163706 10 12 7
-902.075700446919 -696.40974374286 2384.5459099332 30 35 31
-989.312161684014 -722.593770865061 2374.25356280292 10 12 7
-969.540801868197 -714.147529954677 2400.63702396346 10 12 7
-950.381273788376 -706.946434523936 2416.7786171923 9 11 6
-960.81421462661 -709.285569253716 2423.11704447926 10 12 7
-914.75669370487 -693.450105675904 2447.79770903009 12 14 9
-909.417673373007 -690.727956847152 2459.12434282531 12 14 9
-942.096439573498 -700.212676433457 2458.33212226231 12 14 9
-972.285501717561 -707.855458364099 2468.26858244975 12 14 9
-969.995962053461 -705.079098092958 2488.44360414139 15 18 11
-950.698690930192 -697.895787485347 2503.98868275197 12 15 8
-953.722025169869 -697.846786370339 2512.72600540347 12 15 8
-985.633425764816 -707.003622585794 2512.91588633335 13 16 9
-985.881554958965 -706.059156173387 2522.56768034432 15 17 12
-1031.24688888392 -767.228496218507 2156.96219505495 26 28 25
-1002.45061899544 -756.581191947152 2178.73553896904 23 25 20
-1002.7890175671 -755.632370530343 2188.78255030315 22 25 18
-948.382831846261 -736.516245259858 2220.31193710759 23 26 17
-1023.54551098138 -760.394265793399 2201.02656324723 20 23 14
-973.642672900755 -742.800672381829 2230.51267699176 16 19 12
-972.123965834297 -741.250131090467 2241.13511277917 11 14 7
-978.834278036373 -742.421577210027 2248.60941130673 11 14 7
-1032.23911558611 -759.008960904218 2238.52079404572 11 13 8
-1028.91691561822 -756.848268092272 2249.95103003066 13 14 8
-1043.00476036331 -760.428318627404 2254.89822181343 10 11 5
-1020.74392476808 -750.97440856435 2283.38924716985 12 14 9
-1059.64737642142 -762.69953020601 2279.44728738499 9 11 6
-1071.9452489858 -765.666695119952 2285.25916491783 12 14 9
-963.028543705258 -724.738119484703 2373.61290197088 12 17 13
-944.841258735144 -717.770873665497 2389.61989423637 10 12 7
-966.336611430337 -723.750820323181 2392.16585981384 11 13 8
-938.881302465667 -713.777805413592 2411.1320318124 10 12 7
-947.450318066061 -715.542306173198 2418.03284992907 9 11 6
-916.239403000703 -704.374339468608 2437.97354017808 10 12 7
-967.393043346981 -719.967045226236 2431.05012057017 11 13 8
-924.103446573863 -704.896985047511 2454.70773178131 11 13 8
-938.473238480387 -707.517872941613 2469.44600873656 11 13 8
-929.421380424762 -703.572190495184 2481.91881195396 11 13 8
-937.077612869263 -705.030236113836 2489.17354158682 11 13 8
-929.867111315774 -701.686468927804 2501.00054910885 13 16 9
-1001.98200704811 -722.883992929717 2498.60640926574 11 14 7
-1025.53224580225 -729.424921440494 2501.42452390087 13 16 9
-1030.46878203074 -729.968688369385 2509.82726329824 16 18 13
-1023.39319829267 -775.620646628527 2150.07342248088 19 21 18
-1070.17265836903 -790.259242237428 2141.54038276038 23 25 22
-944.866252188709 -747.113372764344 2201.93485056344 12 14 9
-928.761144196364 -740.665022332142 2218.30841107547 22 25 18
-995.629150133857 -762.019808970463 2201.99876583038 23 26 19
-1005.08623527305 -764.120558196143 2208.45429348105 12 15 6
-991.130612354664 -757.329098553159 2234.09791584258 11 14 7
-978.647703577556 -752.105056033386 2248.92635694933 11 14 7
-994.514762755768 -756.338802564808 2252.98437507832 10 12 7
-951.792337244826 -741.055317025226 2279.01573924405 11 12 6
-948.413717332872 -738.887677921687 2290.19327092445 7 10 3
-1021.13779724524 -762.011155738941 2273.38961974327 8 11 4
-1072.29549758185 -776.847007669448 2275.15174604624 9 11 6
-1064.38456720558 -773.145655079209 2288.23834725778 12 14 9
-989.59781312023 -743.115299809504 2364.79928412423 10 15 11
-937.803063207612 -722.9492690903 2411.7750449145 9 11 6
-942.240534059196 -721.317961934241 2439.48351041456 8 10 5
-973.975907187883 -730.678091483539 2439.01728358808 10 12 7
-931.602470539923 -715.782764853491 2462.25730340251 10 12 7
-906.791894735015 -706.653533586284 2479.70367241222 10 12 7
-900.507605632865 -703.587746468875 2491.21919750986 11 13 8
-896.99861500748 -701.431582099665 2501.82898991 11 13 8
-910.210530699868 -704.724711293014 2507.3039827265 13 16 9
-903.908479857012 -701.66014953518 2518.74196009566 9 12 5
-1059.81639409726 -750.267988546029 2491.60294649623 12 15 8
-1010.73066468373 -733.283179626573 2515.93387976029 11 13 8
-1031.36417784747 -788.267583972209 2147.06933926865 20 22 19
-988.054559180061 -772.497964343958 2174.78367045757 12 14 11
-916.457801391627 -747.177754910502 2213.49070223049 15 17 12
-897.607051433375 -739.75378490988 2230.86186190911 20 23 16
-965.343802504623 -761.611945095299 2214.12006926984 17 20 11
-989.376295835117 -768.667135159268 2214.80934079992 16 19 10
-1018.00365252983 -777.257191709013 2213.86477859812 14 17 10
-995.50609153408 -768.599119015049 2232.66684286774 13 16 9
-1016.85734266831 -774.720005842256 2234.66179690502 13 16 9
-991.579050745059 -765.143705876091 2254.34059446982 14 16 11
-957.109770990031 -752.496920763955 2277.2799735368 15 16 10
-918.011172569809 -738.319964625648 2301.70411817909 10 13 6
-965.024384445611 -753.047484747636 2294.25342582043 10 13 6
-1037.78242469469 -776.369424709532 2277.715065956 9 11 6
-1102.75438217721 -795.940720623188 2274.78555246053 11 13 8
-971.036085742788 -739.318090428657 2440.25731667499 9 11 6
-893.674887433728 -711.723517949284 2484.12221679896 11 13 8
-892.951990430585 -710.468511362211 2493.86886730466 11 13 8
-933.074891854099 -722.655697179558 2491.01586963333 12 14 9
-893.551491024932 -707.619552011414 2522.17555557708 11 14 7
-955.838584044784 -723.940937423958 2541.95691454645 11 13 8
-956.333118534047 -770.410240218533 2197.81539351338 10 12 7
-948.446830238677 -766.651787893973 2210.97808411753 12 15 8
-960.598982379904 -769.734731558491 2216.2159309368 19 22 13
-987.357445265415 -777.787692667023 2215.83394411844 19 22 13
-982.206441560549 -774.960777674759 2227.92746727147 18 21 14
-999.878023603553 -779.899952410878 2231.23826244785 16 19 12
-1034.02054922233 -790.424254937245 2228.39484451456 15 18 11
-1022.4816024437 -785.421271036688 2242.95545216185 13 15 10
-973.404512576115 -767.698442001603 2271.44678288587 16 17 11
-993.854625243759 -773.561592473029 2273.87561643606 10 13 6
-1026.24229488926 -783.451653890429 2272.03906585883 10 13 6
-1024.74320505146 -781.864507788953 2282.72641668444 9 11 6
-1071.31394998197 -795.420926569632 2286.30746127709 11 13 8
-938.164594166236 -743.173037658305 2402.47891571302 7 9 4
-929.185370396684 -739.124409671921 2415.21123816489 6 8 3
-965.721454310834 -749.252462473087 2422.68106714422 8 10 5
-986.609643319173 -754.117765275772 2435.56731396686 9 11 6
-972.163836612148 -744.055342269245 2489.02404549548 13 16 9
-973.344492853034 -743.399518867475 2498.39736800481 12 15 8
-979.42473960556 -743.317741806189 2516.02952160583 12 15 8
-991.778988751008 -746.352488967779 2522.12957644995 11 13 8
-1010.03318903265 -800.845892759406 2156.16301524505 13 15 12
-933.398445690331 -772.232995535223 2207.18655438585 9 11 6
-974.990087177466 -784.419811826526 2210.80436640617 10 13 4
-992.633132129225 -789.409388104921 2214.02014169753 12 15 6
-1001.50748086703 -790.291899012328 2230.86048756093 20 23 16
