ply
format ascii 1.0
comment KinectMotionCapture
element vertex 751
property float x
property float y
property float z
property uchar red
property uchar green
property uchar blue
end_header
-753.414661724823 190.16406617856 2364.99860350883 209 212 217
-747.178083715099 190.763735610934 2371.5763117823 207 210 215
-741.212472060462 191.443932498999 2379.12845427078 204 207 212
-734.356874749193 191.883477758812 2383.78588140404 204 207 212
-728.348742728417 192.56436749266 2391.35327110943 204 207 212
-722.032456499752 193.165127279504 2397.96002264122 204 207 212
-715.696283415073 193.766128308007 2404.57401801671 192 195 200
-708.784248520738 194.205914022497 2409.25196918606 188 191 196
-702.689064706178 194.888167417557 2416.85134527299 196 199 204
-696.568933246502 195.570843752912 2424.45956338256 206 209 214
-690.15353435011 196.173035386405 2431.10243430377 181 184 189
-682.915071599746 196.532005846945 2434.82633509464 176 180 183
-675.406928853386 196.809445749141 2437.57525860223 184 188 191
-667.899544646294 197.086439143439 2440.32387281429 221 225 226
-662.734102630427 198.095868128997 2451.87634966031 179 183 184
-658.296140619398 199.351154532872 2466.3832333581 146 150 153
-652.267548205257 200.118482349308 2475.03138952683 160 164 167
-646.209141250277 200.886439396345 2483.69042591438 178 182 183
-640.620632004143 201.818740613106 2494.32424332246 201 205 208
-635.981497940144 203.079685706253 2508.90464733914 239 243 246
-631.037071807914 204.260521790646 2522.52312053395 241 245 246
-627.490650960178 205.935415298834 2542.07076936429 238 242 243
-624.816999566012 207.941797671519 2565.59305320018 241 245 246
-623.933662357529 210.609836048496 2597.04747586499 232 236 235
-615.397583413043 210.6470889184 2596.9520959895 177 182 178
-952.352628805551 185.754548198437 2425.71345716814 204 206 203
-935.93880445599 184.171295869487 2404.89207097737 202 204 201
-931.367041134228 185.150049234839 2416.22652753401 189 191 190
-920.251890534632 184.693425622201 2409.56430089937 189 193 196
-905.794076937756 183.477072893346 2393.39294119839 193 196 201
-892.449418728739 182.483598098982 2380.03386985468 191 194 199
-882.20050907425 182.169592101923 2375.20103286044 194 197 202
-872.987814432879 182.081425125008 2373.20840866446 197 202 206
-864.788341151994 182.220160759282 2374.06468627915 198 203 207
-854.966460764897 181.976844967161 2370.14858344149 196 201 205
-845.180685318864 181.731671500356 2366.21922215833 191 194 199
-834.145247954688 181.178985320038 2358.4542284001 191 194 199
-823.804190831444 180.776599852684 2352.58139312695 196 199 204
-813.825967729657 180.448561007635 2347.64914674184 199 202 207
-805.771550370206 180.578709595808 2348.45207218643 200 203 208
-796.171787815806 180.323914165235 2344.4543994416 203 206 211
-788.460072925341 180.52866018048 2346.20524724689 204 207 212
-780.753808681039 180.73264112481 2347.95380259667 204 207 212
-773.963667561971 181.167305734984 2352.58707878432 203 206 211
-766.260885770895 181.370243610568 2354.3345444321 197 200 205
-759.160410183266 181.726991264001 2358.00788728512 196 199 204
-752.646925373113 182.238341985545 2363.61298617306 205 208 213
-746.411841250367 182.827203923441 2370.18933621857 205 208 213
-740.156784626437 183.416280674208 2376.77295923178 203 206 211
-733.881831479673 184.005704456879 2383.36409188831 206 209 214
-728.158010701352 184.750951659563 2391.8995927534 207 210 215
-722.121118260664 185.418986791188 2399.47671660442 212 215 220
-715.778780066682 186.009539202236 2406.09216363078 198 201 206
-708.860842494555 186.444285262506 2410.77187921469 185 188 193
-701.933271782674 186.878915300895 2415.45483182075 173 176 181
-696.36002647692 187.70463086812 2425.00850497117 175 178 183
-690.481423629634 188.452965679771 2433.60073124495 197 201 204
-683.234672539392 188.809699331101 2437.32747473013 200 204 207
-675.188280800536 188.93060148656 2438.12678650726 181 185 186
-667.940459180363 189.28649738916 2441.85360144144 188 192 193
-662.768079684797 190.271916426827 2453.40704165072 226 230 231
-658.58001844948 191.573878292684 2468.89320498737 206 210 211
-652.797221925691 192.404329430524 2478.52337327125 161 165 166
-647.231721888345 193.314679829332 2489.14717434542 158 162 163
-642.625139681481 194.542462724484 2503.71324890913 154 158 159
-637.958094703956 195.772102405356 2518.30143196552 149 153 154
-632.496677857499 196.765690987203 2529.96050670417 164 168 169
-628.926690560105 198.395471918466 2549.51331429472 158 162 163
-625.989117484517 200.26650201324 2572.05446770071 174 178 177
-623.661177376485 202.379373838095 2597.59228891744 206 210 209
-612.778780545514 201.628632392133 2587.62337941996 202 207 203
-936.500814534959 176.266352513938 2407.29109972254 204 206 203
-928.475832708855 176.49304842848 2409.15742532508 193 195 194
-919.088800392587 176.427402831976 2407.23009813291 191 195 198
-905.656481080869 175.484175421033 2393.90641429994 188 191 196
-893.994922282314 174.902554196207 2385.30017453973 185 188 193
-884.065519752537 174.684045476385 2381.42501026766 196 199 204
-874.835202373076 174.610293926957 2379.43987674126 201 206 210
-865.301712360372 174.461577410644 2376.49268475411 196 201 205
-855.472801350024 174.237622757729 2372.58059723478 193 198 202
-845.032324334762 173.864686603676 2366.74636124503 197 200 205
-834.959428436984 173.563110217328 2361.8502553716 197 200 205
-823.97170828127 173.038096899933 2354.07001212124 193 196 201
-813.989117564377 172.732008644773 2349.14075455653 192 195 200
-804.988722874484 172.645892997317 2347.0714028967 198 201 206
-795.703204600414 172.484210017898 2344.03313512411 204 207 212
-787.065798520723 172.469203065971 2342.90381757243 206 209 214
-779.672885460411 172.750089791306 2345.611133876 203 206 211
-772.887034201466 173.179270546868 2350.24218332552 204 207 212
-766.69302624768 173.757193608242 2356.80303780581 202 205 210
-759.58425008676 174.111734706496 2360.47923008071 202 205 210
-752.175206194748 174.391316413618 2363.19230885552 200 203 208
-745.352800687696 174.819960553047 2367.83659934761 207 210 215
-739.392363089314 175.473067565412 2375.38481793276 213 216 221
-733.982736816109 176.276577633919 2384.87736670369 212 215 220
-727.967079920002 176.930860094252 2392.44573722287 207 210 215
-721.077774305698 177.360094027769 2397.11437953723 192 195 200
-714.739490573742 177.939768649123 2403.72753267866 188 191 196
-708.103655244188 178.444437280602 2409.37658193074 164 167 172
-702.553774902804 179.250943596724 2418.92057064873 156 159 164
-696.696062328686 179.982724208635 2427.50370335568 164 167 172
-690.808439901741 180.715213412604 2436.09801120507 167 171 174
-683.553376936688 181.069754641708 2439.82735497952 183 187 190
-675.499316794289 181.196600225608 2440.63015572205 194 198 199
-668.243240047275 181.550347348775 2444.35980792499 195 199 200
-662.801540554645 182.435866093985 2454.93700832934 233 237 238
-658.605846618155 183.702931106829 2470.42331188969 222 226 227
-653.835071853195 184.819632189845 2483.97385193312 160 164 165
-648.000440714402 185.632814299527 2493.6215507035 155 159 160
-643.378724241908 186.828732899812 2508.19071990235 155 159 160
-637.955455379287 187.797053323089 2519.83377321767 149 153 154
-632.731533454911 188.8432214259 2532.47708057839 163 167 168
-628.425030072044 190.197516113349 2549.07703753293 172 176 177
-627.637844982829 192.705340286942 2580.48469040964 154 158 157
-624.098791002961 194.372756684455 2601.09565465771 179 183 182
-613.910630528993 193.888778122774 2594.09455372323 204 209 205
-931.438322434096 169.064187626711 2418.1868474328 194 196 195
-918.267831048698 168.241059716296 2405.84390392318 192 196 199
-907.213945383519 167.8359659885 2399.16330544919 187 190 195
-895.87493882348 167.357970966161 2391.51424534734 184 187 192
-885.594309832782 167.088766795899 2386.69631354852 197 200 205
-874.360607530498 166.605657633475 2379.0083522799 201 206 210
-864.170028537236 166.331951567356 2374.15736226 195 200 204
-854.346902012295 166.126976323539 2370.24460504661 194 199 203
-844.55987518069 165.920054282335 2366.31858456997 199 202 207
-833.524425860363 165.427350985724 2358.55786665497 200 203 208
-823.182808262828 165.074117708814 2352.68894363444 193 196 201
-813.203690592722 164.789795115723 2347.76032074061 192 195 200
-804.833046722567 164.859811125133 2347.60704981573 198 201 206
-796.478107100293 164.928766749812 2347.44799294011 203 206 211
-787.830655002329 164.92510995411 2346.32318187155 204 207 212
-779.815531108826 165.063400071786 2347.11244481573 200 203 208
-772.417481149591 165.344040915936 2349.82160899546 197 200 205
-765.921718637643 165.839572850273 2355.41907515416 204 207 212
-758.516876561577 166.119585862692 2358.13065979411 210 213 218
-750.817045336341 166.327172574671 2359.87740415265 222 225 230
-744.00166492746 166.750198579701 2364.51897257079 218 221 226
-738.337947106296 167.46177258841 2373.03009507815 208 211 216
-733.507500904214 168.390772359353 2384.45504115702 207 210 215
-726.92009243957 168.886967914923 2390.08585580333 206 209 214
-720.600558962282 169.455666827672 2396.69136813834 204 207 212
-714.261213789981 170.024693372467 2403.30410352653 205 208 213
-708.457144022056 170.739267454035 2411.86670183254 199 202 207
-702.622983558683 171.454541110606 2420.44028600229 189 192 197
-696.486447605983 172.097617584221 2428.05173091268 165 168 173
-690.055080743693 172.668305040357 2434.69802655508 158 162 165
-683.069325892178 173.093268854589 2439.40139031209 154 158 161
-676.07417724074 173.518199014356 2444.10841895537 163 167 168
-669.331720162915 174.016255698012 2449.7957090107 166 170 171
-663.613298043373 174.807507039672 2459.39952996874 202 206 207
-658.888126324232 175.893245474222 2472.93116453177 227 231 232
-654.362058466341 177.054131478396 2487.46293773158 214 218 219
-648.767681272573 177.922510976636 2498.09431849492 193 197 198
-643.382531496589 178.865580455347 2509.72161649044 169 173 174
-636.471305390566 179.367404174496 2515.47051090058 164 168 169
-631.01134918424 180.31249023247 2527.12539534094 165 169 170
-626.714903715373 181.628590100241 2543.71856171221 184 188 189
-625.696226258104 183.983463707799 2574.13222785792 165 169 168
-622.879011264676 185.824229074838 2597.69392336807 161 165 164
-614.104178322399 185.812717088949 2596.61480185732 208 213 209
-931.301164949359 160.973236965806 2418.69301729289 194 196 195
-918.813110435438 160.328597925125 2408.24869858444 192 196 199
-909.108317070773 160.221324714516 2405.36687450185 184 187 192
-898.425393745074 159.909256986081 2399.62532098153 183 186 191
-887.788657786357 159.594921461845 2393.86656044218 197 200 205
-874.217179995241 158.66753757769 2379.52807729276 199 204 208
-863.696224685169 158.347770201342 2373.72709375901 192 197 201
-854.525915112465 158.297935827245 2371.72196173193 193 198 202
-846.028538181971 158.382998797013 2371.61587300445 203 206 211
-835.621057291843 158.057397199904 2365.7732197512 207 210 215
-824.304718382816 157.52441054301 2357.04496389113 209 212 217
-813.681920799759 157.12548603551 2350.20820040515 210 213 218
-804.363798298488 156.998336993617 2347.18438461347 213 216 221
-795.698230469469 157.006911473413 2346.0670785396 211 214 219
-787.053543963405 157.014163688691 2344.94208572994 206 209 214
-779.957619430819 157.364420982622 2348.61328530576 205 208 213
-772.55400088782 157.645458111037 2351.32450266139 206 209 214
-765.75177622719 158.064128874415 2355.96096249219 213 216 221
-757.748134034272 158.206049572418 2356.74632763644 214 217 222
-750.050611831723 158.41643430961 2358.4924441558 218 221 226
-743.236953722229 158.834166131979 2363.1327330381 214 217 222
-737.864662863745 159.598878058438 2372.60878906898 206 209 214
-732.744737423304 160.434065506301 2383.06527929936 207 210 215
-727.014220967057 161.131085479157 2391.59982843944 207 210 215
-720.405998920296 161.619638096581 2397.23762876989 203 206 211
-713.503084165384 162.038386801406 2401.91042466886 200 203 208
-707.97754504797 162.80673560311 2411.44243595541 199 202 207
-702.416834283731 163.57589322329 2420.98728744874 190 193 198
-696.004246458769 164.13564970654 2427.62618950754 166 169 174
-688.76271673979 164.485106318461 2431.35023250297 165 169 172
-682.051110307368 164.97490041656 2437.02568993496 155 159 162
-676.118734819834 165.67590869877 2445.63388296613 165 169 170
-669.894295374516 166.30724854029 2453.27612666366 169 173 174
-663.904646888262 167.009542308141 2461.90522611806 182 186 187
-658.398889972 167.853926690704 2472.50234303145 198 202 203
-653.107430690766 168.770155237498 2484.09382886581 237 241 242
-647.015436101494 169.475138704922 2492.76031744512 252 255 255
-641.641309571394 170.39361540714 2504.38200902243 242 246 247
-634.742008548163 170.887082454279 2510.12594007791 189 193 194
-629.048855980995 171.736408467894 2520.79151772277 163 167 168
-624.765094484073 173.014197194398 2537.3771848939 189 193 194
-624.473812442638 175.506828811706 2570.73687804748 167 171 170
-622.133336777705 177.433465681366 2596.26520217803 172 176 175
-614.764687365646 177.862078740478 2601.10796124964 191 196 192
-910.698084764205 143.991784449397 2293.70153154763 200 202 197
-914.474479184316 146.343625007762 2326.63921841058 203 205 202
-940.259614260709 152.833008870314 2420.15691851204 202 204 201
-932.195203481336 153.069374557181 2422.0382997338 199 201 200
-922.087996800738 152.916532828627 2418.23269306642 195 199 202
-910.322923019358 152.437499373105 2409.67155029267 177 180 185
-897.610900175926 151.760773979093 2398.23963048531 187 190 195
-885.309615409778 151.145565501779 2387.72992620172 203 206 211
-872.087081700885 150.331660686432 2374.34003128246 197 202 206
-862.236895325241 150.166362365112 2370.44009961622 192 197 201
-852.748720162088 150.064618075081 2367.47998717193 197 202 206
-844.908403963846 150.288384711589 2369.27899579814 199 202 207
-833.865345681142 149.856036837702 2361.52559641795 203 206 211
-823.515554871191 149.552299129148 2355.66363185736 212 215 220
-812.896502438894 149.18056256021 2348.82755899084 212 215 220
-804.207658456249 149.201405028313 2347.71938135175 206 209 214
-795.850270904481 149.286981963522 2347.56246800527 198 201 206
-787.508689789368 149.371480829035 2347.39998454993 200 203 208
-780.404501383728 149.719440805693 2351.07401336492 203 206 211
-772.387023664342 149.868452921836 2351.86494053434 206 209 214
-764.680601677007 150.082877691534 2353.61459550664 213 216 221
-756.979765743291 150.296726838633 2355.36217742423 215 218 223
-749.874839665156 150.642869536922 2359.03633714678 216 219 224
-743.643130316548 151.188603139077 2365.60820690831 218 221 226
-737.971555275268 151.868163643354 2374.12002307403 214 217 222
-733.419702719043 152.815591642304 2386.51169229559 211 214 219
-727.107692666125 153.363064048706 2393.1128695142 210 213 218
-720.775797506436 153.910807404336 2399.72129218242 215 218 223
-713.584759937009 154.257621944909 2403.42704444046 218 221 226
-708.052571170126 155.007293132816 2412.96006253859 212 215 220
-701.386549625228 155.488665671919 2418.61832184896 214 217 222
-694.977963012808 156.037560137818 2425.25469625517 227 230 235
-687.201931623706 156.249405232515 2427.02944829668 225 229 232
-681.300647578925 156.933625602158 2435.62507796425 218 222 225
-675.633877397112 157.686204136806 2445.20721390852 181 185 186
-669.932008980234 158.439648172751 2454.80216766313 173 177 178
-664.195159437254 159.19404246099 2464.40990307261 178 182 183
-658.679999913656 160.01726631351 2475.00883971057 190 194 195
-653.12490322458 160.841560864706 2485.62262211175 225 229 230
-646.774753743689 161.462479040096 2493.30975465483 229 233 234
-641.645280871173 162.425156435814 2505.91244562085 229 233 234
-635.726067683729 163.184265920749 2515.58679636005 226 230 231
-630.015959194561 164.012712908014 2526.25721367752 236 240 241
-625.231450234963 165.116346025349 2540.87856841345 249 253 254
-623.252509215582 167.045246909188 2567.34226049096 182 184 183
-621.624418840597 169.115588074619 2595.82251402859 183 185 184
-616.82608474341 170.295974679833 2611.52123936687 183 185 182
-922.380964601925 139.908740123534 2348.88010282956 204 206 203
-939.777717514408 144.655540683051 2419.71500666414 202 204 201
-931.025514651477 144.770780492965 2419.70378265854 201 203 202
-920.924095946307 144.636798933389 2415.89749603219 196 200 203
-908.827043860766 144.128113761883 2406.38817993685 183 186 191
-895.78866237763 143.429645856079 2394.00664173484 189 192 197
-883.499434214682 142.85210915617 2383.49539923029 198 201 206
-870.951200836378 142.208912145633 2372.0064983293 194 199 203
-861.763530437112 142.187612839109 2370.01008146416 193 198 202
-851.624294522494 141.976944532526 2365.14493856999 196 201 205
-844.435272447215 142.328831540613 2368.85034124909 208 211 216
-833.393556172046 141.926415581625 2361.09871267794 210 213 218
-823.044776774086 141.647233264622 2355.23823337689 212 215 220
-812.111349128608 141.239751496093 2347.44687725643 210 213 218
-803.112425213038 141.208366081714 2345.38112069255 201 204 209
-795.38094221838 141.428429010011 2347.14005237277 195 198 203
-787.347252732939 141.584552168197 2347.93766073036 203 206 211
-780.850429931776 142.056840762146 2353.53375838479 210 213 218
-772.522505909935 142.14820400997 2353.36657641793 217 220 225
-765.711014671796 142.556561057236 2358.00537065274 227 230 235
-757.699569756074 142.70999853219 2358.79469408368 230 233 238
-750.878795739328 143.117795310624 2363.43681882739 227 230 235
-744.340788670832 143.589460253216 2369.04783321732 224 227 232
-738.65760376029 144.253216830385 2377.56267525301 221 224 229
-733.231498843996 144.981799596144 2387.05555794918 221 224 229
-726.915935757065 145.518707609965 2393.65748332344 220 223 228
-720.580408097812 146.055933145852 2400.26643222887 209 212 217
-713.10659294926 146.335842792769 2403.00306957721 208 211 216
-707.018705220531 146.93775725839 2410.59347871638 212 215 220
-700.082443859107 147.346450878036 2415.27788632284 214 217 222
-693.680531712868 147.884454488308 2421.91101391238 224 227 232
-686.989477300053 148.357932122303 2427.57777292056 229 233 236
-681.884724479521 149.220860084656 2439.09739967188 217 221 224
-676.206192244352 149.955050133778 2448.68242177125 201 205 206
-670.49256352336 150.690135391765 2458.28026328689 170 174 175
-665.003066414454 151.491245183169 2468.86820726463 192 196 197
-659.986640348295 152.423986565747 2481.42756536049 204 208 209
-654.919984133568 153.358171136421 2494.0055371518 214 218 219
-648.545638780381 153.966605978194 2501.70051907649 211 215 216
-643.640025349136 154.968788189596 2515.29141043944 210 214 215
-638.679093832261 155.972642209302 2528.90278138621 211 215 216
-631.956345938857 156.518122657666 2535.65304479088 214 218 219
-626.420247214761 157.392995241864 2547.33029694871 230 234 235
-623.22577974074 158.928125509519 2568.87263501614 181 183 182
-621.824083667421 160.994415649755 2598.33713588823 175 177 176
-622.15373947566 163.594039120738 2635.74551665799 186 188 185
-932.604987646457 136.955561232084 2424.9400760651 205 207 206
-919.419805253223 136.307315768948 2412.61566551026 200 204 207
-907.332083026262 135.833729106355 2403.10560776546 184 187 192
-893.967664761215 135.118925329525 2389.77474216547 189 192 197
-882.023780308591 134.638734663382 2380.2119244729 196 199 204
-871.138960523575 134.334643800095 2373.47751884288 197 202 206
-861.290139270848 134.207583975059 2369.57997633183 214 219 223
-850.826164185015 133.958822431112 2363.76339294094 220 225 229
-842.023847657759 134.007876855575 2362.69882708113 212 215 220
-830.678398040887 133.57470532474 2353.98867944511 211 214 219
-820.984390909746 133.43983834969 2350.03429808779 205 208 213
-811.011281187871 133.2427924183 2345.11007744424 199 202 207
-802.956162771477 133.406138792048 2345.91576243509 190 193 198
-795.532129631638 133.689641205931 2348.63458319013 187 190 195
-787.800841575105 133.912094674894 2350.39387871738 183 186 191
-780.685220357388 134.25535022707 2354.07170654601 182 185 190
-772.354800821024 134.355029160352 2353.90605872503 184 187 192
-765.240074448066 134.697296910846 2357.58348689174 193 196 201
-758.120764308396 135.039343023501 2361.26281809537 196 199 204
-751.291556753361 135.442199057571 2365.90763427321 202 205 210
-745.037291435196 135.967391595431 2372.4864039147 208 211 216
-738.763016098259 136.49284387961 2379.07220924049 220 223 228
-733.043097963907 137.141361525339 2387.59924803418 221 224 229
-725.870117978163 137.483255857285 2391.29781375107 218 221 226
-719.538697213071 138.009542002488 2397.90444507313 219 222 227
-712.349039373635 138.351194852255 2401.60905226038 215 218 223
-706.539457381492 139.00143014133 2410.16879889981 212 215 220
-699.602498388304 139.404940237545 2414.85306887696 206 209 214
-693.47127423712 139.994196357342 2422.45826867349 190 193 198
-687.315275365861 140.584019932303 2430.07276717686 188 192 195
-683.267616302558 141.671556960572 2445.4917384353 167 171 174
-677.833676546628 142.449860766343 2456.05777559224 183 187 188
-672.098052218294 143.166987257505 2465.66225392042 188 192 193
-666.3274982641 143.885018521051 2475.27974606522 164 168 169
-661.803961318497 144.916532211923 2489.80058403666 165 169 170
-656.712200647559 145.824675048588 2502.38545802403 170 174 175
-650.564982765578 146.48340106192 2511.06852110067 166 170 171
-645.631614103388 147.4569218346 2524.66733443004 170 174 175
-640.642983286187 148.432112229732 2538.2866068566 176 180 181
-635.11177911196 149.283002558593 2549.96027114119 166 170 171
-629.294406796191 150.072003754803 2560.66643088191 170 174 175
-624.629635242326 151.178149925551 2576.311026373 200 202 201
-620.843195559245 152.539325104925 2595.92221251111 182 184 183
-930.733634252724 123.927277793989 2349.97272720987 200 202 197
-924.223654926023 127.4676717933 2402.73687899179 205 207 206
-915.530536526558 127.596562392047 2402.70521735554 199 203 206
-905.161523144438 127.440834482807 2397.92796089046 195 198 203
-892.81928431761 126.942175337334 2387.44167628307 195 198 203
-881.215378289367 126.554107477722 2378.82909301676 202 205 210
-870.995410386175 126.391168868195 2373.99688436776 210 215 219
-860.488736021652 126.169103943412 2368.19808383617 207 212 216
-850.67920085221 126.059132406997 2364.2873022491 197 202 206
-841.228808197928 126.004641027245 2361.31728161323 201 204 209
-830.848398077835 125.776374831008 2355.47188233877 201 204 209
-820.514441806869 125.545757181311 2349.60942721545 197 200 205
-810.8573567613 125.428146520009 2345.64293269428 193 196 201
-802.486989260126 125.539510496753 2345.49268112433 188 191 196
-795.062541888374 125.82311842724 2348.21166034678 183 186 191
-787.331002279478 126.048440216632 2349.97126369181 183 186 191
-780.214818132952 126.389037935121 2353.64909551582 183 186 191
-772.186814013793 126.555165736221 2354.44513872735 185 188 193
-765.368810666576 126.953163363829 2359.08577172645 190 193 198
-758.541021187754 127.351096809299 2363.72995555203 191 194 199
-751.703430777321 127.748920790448 2368.37743785962 194 197 202
-744.564072840044 128.088236841497 2372.06384719349 195 198 203
-738.288737812005 128.603070756685 2378.64923637196 203 206 211
-731.993473979989 129.118147552922 2385.2418847591 212 215 220
-725.678330288928 129.633584421091 2391.8417834136 222 225 230
-719.061447968225 130.090496145156 2397.48034299087 231 234 239
-712.429873353364 130.547565203268 2403.12425270147 233 236 241
-706.060314350296 131.063788787255 2409.74398184133 232 235 240
-699.671024867008 131.580323138018 2416.37115755873 232 235 240
-693.805098143584 132.215682771273 2424.94999965779 220 223 228
-688.716393381788 133.029835870677 2436.4601154054 210 214 217
-684.648307488278 134.082976059852 2451.88391320193 180 184 187
-679.4587527788 134.899998594263 2463.43088802634 167 171 172
-672.917049691313 135.420269995699 2470.11346899114 169 173 174
-667.132104127332 136.119969680173 2479.73455269607 158 162 163
-661.312231618627 136.820587723519 2489.36839596333 160 164 165
-656.47217391071 137.761773850051 2502.93112052333 164 168 169
-650.321020081581 138.404558598718 2511.61415657826 162 166 167
-645.6315886372 139.408716548609 2526.1934605221 159 163 164
-639.897578188884 140.17394422042 2536.86753801539 156 160 161
-634.610601629286 141.060879596799 2549.52199543484 161 165 166
-629.032443458872 141.88881529956 2561.21073360113 180 184 185
-624.124351170284 142.899613186454 2575.86998623521 184 186 185
-617.976981990768 143.609308303764 2585.62350622165 206 208 207
-930.96495530597 116.034854605756 2351.42629612612 197 199 194
-914.369834978782 119.369942827813 2400.37286545415 182 186 189
-905.697417331627 119.505722684717 2400.33445656797 170 173 178
-892.342636691046 118.883218643696 2387.00679911428 191 194 199
-881.073193602245 118.581994288136 2379.34580162 205 208 213
-870.190725490334 118.332420575483 2372.6146549449 193 198 202
-860.015461964353 118.18915983036 2367.76794254835 190 195 199
-850.206633827426 118.098336361652 2363.8583488221 192 197 201
-840.434012820337 118.005637533296 2359.93571249222 200 203 208
-829.096806406322 117.637756306422 2351.22775035398 202 205 210
-819.409362449977 117.540924679924 2347.27385417657 199 202 207
-810.703145374324 117.606842028005 2346.17538980628 197 200 205
-802.330291099196 117.726551124544 2346.02667142732 197 200 205
-794.902874168209 118.010423989553 2348.74674959189 200 203 208
-787.783214298537 118.349029762182 2352.42594828641 211 214 219
-779.744445566642 118.521563222777 2353.22638600325 219 222 227
-771.716387525664 118.69320167847 2354.02286459429 225 228 233
-763.699103920542 118.864107602327 2354.81562746272 228 231 236
-757.177899409831 119.31195020117 2360.41873941851 228 231 236
-750.93633551736 119.815519128313 2366.99100831384 217 220 225
-744.966769796096 120.375248250531 2374.53549797791 217 220 225
-738.972092136343 120.935466285739 2382.08889433631 213 216 221
-732.378717818092 121.38437260991 2387.71830855326 210 213 218
-725.486377058446 121.777325282462 2392.38557047608 202 205 210
-718.584322761602 122.170224627049 2397.05610336281 209 212 217
-712.23099713536 122.675570865823 2403.66911359417 214 217 222
-706.411043726391 123.29390460035 2412.2302215356 216 219 224
-700.012936859787 123.800137455744 2418.85956936995 219 222 227
-693.866616231403 124.363201315406 2426.46853234098 216 219 224
-688.502042427883 125.096631476426 2437.00598045426 204 208 211
-684.695266811288 126.171511720404 2453.40328527836 192 196 199
-680.289990407901 127.135010653134 2467.87602293149 151 155 156
-673.734430001792 127.645104284362 2474.56287085153 157 161 162
-666.900688376117 128.098551049782 2480.27996212167 160 164 165
-660.052410014729 128.55217884572 2486.00234879285 159 163 164
-653.950258477109 129.177491783412 2494.66651650423 151 155 156
-647.818301144864 129.803582489545 2503.34157246402 153 157 158
-642.401789193528 130.602497862773 2514.96964316343 155 159 160
-637.923536006039 131.632631764686 2530.54073428035 150 154 155
-633.866266876578 132.779950721397 2548.10082035355 155 159 160
-628.048246646235 133.526086207079 2558.80423552492 174 178 179
-622.428373556049 134.33105727295 2570.50639756962 177 179 178
-615.82114238795 134.905940820129 2578.28371846326 195 197 196
-924.980282348761 111.467641763203 2406.58777551083 192 194 193
-916.274505993695 111.61339012482 2406.5622392356 183 187 188
-904.542486220304 111.296683609875 2398.00133452631 186 190 193
-892.872121190922 110.977061343432 2389.417808335 188 191 196
-880.930646796539 110.603195666201 2379.86213736797 184 187 192
-869.716571177553 110.329374965708 2372.18309044214 187 192 196
-858.886763015575 110.104601112368 2365.43468161861 192 197 201
-849.083853010983 110.032678586499 2361.5246180242 187 192 196
-838.671921343216 109.855191449328 2355.69450307288 201 204 209
-827.986459561943 109.623525731953 2348.89312778624 201 204 209
-818.622253198783 109.597718654658 2345.8937024053 196 199 204
-810.233784203124 109.726673018106 2345.75135501086 193 196 201
-801.548717212219 109.802409880929 2344.64620122383 193 196 201
-793.813759132024 110.033939559289 2346.40751502299 203 206 211
-787.005743384865 110.422181129364 2351.04352873654 204 207 212
-779.883382972532 110.757885074248 2354.72348969209 206 210 213
-771.24598894642 110.830045492755 2353.60049037292 207 210 215
-762.62967107418 110.901011220839 2352.46999745951 211 214 219
-755.518951159803 111.234950096485 2356.14559580771 211 214 219
-750.46397349805 111.939248939344 2366.5683580115 212 215 220
-745.076742065968 112.591604659483 2376.04136505866 208 211 216
-739.365006752735 113.191773931373 2384.56178276412 210 213 218
-732.189729774584 113.526552257938 2388.26064615065 212 215 220
-725.578210812017 113.967681561905 2393.89606620969 211 214 219
-718.670392732037 114.355551908716 2398.56856815464 206 209 214
-712.868883449018 114.957472903225 2407.121736285 204 207 212
-707.313730694231 115.613711408899 2416.65604841727 204 207 212
-701.17562869081 116.163515233523 2424.26077045713 197 200 205
-694.741419828656 116.659993035369 2430.90249946789 190 193 198
-689.09372013065 117.318524583353 2440.47086469914 198 202 205
-684.741656700291 118.247964522628 2454.92169827534 208 212 213
-679.801747411025 119.071147456518 2467.44498859271 215 219 220
-672.462185338742 119.408044867753 2471.20395711715 217 221 222
-665.376720131592 119.799060305143 2475.94098793169 174 178 179
-658.281945020446 120.190038809288 2480.68165290256 169 173 174
-652.697985712357 120.907805279834 2491.29763015809 225 229 230
-646.572382734918 121.517568645392 2499.96914541822 223 227 228
-641.658148619147 122.401430680884 2513.55424155339 228 232 233
-636.442983628778 123.232155223437 2526.17811163047 206 210 211
-630.934473359618 124.009564920214 2537.83798613606 174 178 179
-624.17808641545 124.513572020629 2544.59734264084 171 175 176
-619.544326900126 125.513278053603 2560.22263921532 177 179 178
-613.903294209902 126.294527010183 2571.93095377157 185 185 185
-606.121299298204 126.580019411431 2574.77998562911 215 215 213
-918.17679552585 103.817491076384 2412.74925524932 188 192 191
-905.414929171999 103.388513953123 2401.3541384638 194 198 199
-892.730198926073 102.956061903832 2389.93098735 183 187 188
-881.785828710264 102.763873787798 2383.22666186885 186 190 193
-870.232690527865 102.471619692864 2374.60260773389 187 192 196
-860.051398238346 102.37231931902 2369.7611483885 192 197 201
-849.261482116156 102.172874090169 2363.00015637395 207 212 216
-838.845546397542 102.020124665151 2357.17361704981 200 204 207
-828.15615328961 101.815946894689 2350.37574417128 193 197 200
-819.104653571858 101.85606738472 2348.3342313002 194 198 201
-809.764429966826 101.845312699938 2345.32722780962 199 203 206
-801.079630914718 101.932026409871 2344.222804891 211 215 218
-792.725253735899 102.067181724102 2344.06853853085 197 201 204
-786.228720936625 102.499648564501 2349.66152620181 204 208 211
-778.803882027971 102.782795381945 2352.3806128926 202 206 207
-770.171960054792 102.86580489943 2351.25669825821 202 206 209
-760.663078029471 102.797517488294 2347.24007753209 209 213 216
-753.861273746565 103.178548737079 2351.87329035714 208 212 215
-749.697509477636 104.011569362109 2365.18213085312 204 207 214
-745.477815499298 104.84628330524 2378.51116617123 200 203 210
-738.889842988663 105.279346154787 2384.13742229315 202 205 212
-732.28708205453 105.712599871193 2389.76906600589 206 209 216
-725.38558134217 106.095383540229 2394.43863451072 204 207 212
-719.318635560995 106.630273976822 2402.01663188912 191 194 199
-713.226742952054 107.165633182357 2409.60372875628 188 191 196
-707.662374736305 107.803413453752 2419.13999650834 180 183 188
-701.241770511897 108.289116645486 2425.77596948176 179 183 186
-694.530325777265 108.724057159165 2431.44722937234 182 186 189
-689.147027156515 109.415103566185 2441.988282993 182 186 189
-683.723613094262 110.107287191039 2452.54425217022 184 185 187
-678.259973593051 110.800580163278 2463.11466615684 193 194 196
-670.930058622296 111.134672616117 2466.86966358316 203 204 206
-664.370904464337 111.623275679376 2473.55645005579 237 238 240
-657.792095101701 112.112213950077 2480.2501489891 245 246 248
-652.206425395594 112.808549043334 2490.86513066483 246 247 249
-646.330170365533 113.454171037333 2500.51531027976 232 233 235
-640.667096953798 114.152683767163 2511.15883424001 216 217 219
-635.209543597516 114.904370573635 2522.79825335234 220 221 223
-628.977995902866 115.500898966549 2531.50700940186 232 233 235
-622.236060347474 115.993786913958 2538.26053052178 245 246 248
-618.090838187215 117.062629621805 2555.84665207581 245 246 248
-612.693500569698 117.871799524608 2568.53508597773 238 240 239
-605.849810613163 118.367397514189 2575.32552846467 244 246 243
-918.716004918467 95.7993535229594 2415.14828196238 192 196 195
-904.260304882608 95.1823374612566 2399.02137523392 195 199 200
-891.917671291052 94.8364442701613 2388.54676049458 183 187 188
-880.644582997982 94.6254643421079 2380.89389652608 200 204 207
-870.417832404008 94.5501831680803 2376.07076617684 204 209 213
-858.268139228372 94.1954852932644 2365.52563891644 196 201 205
-847.814547662038 94.069308625633 2359.7147863329 207 212 216
-837.084996867225 93.8944055854912 2352.93345877 192 195 200
-828.325130765395 93.9962909369603 2351.85745525423 187 190 195
-818.951828493471 94.0036821935076 2348.86383962584 194 197 202
-809.924226576247 94.0561350953238 2346.81482859178 199 202 207
-800.922523199703 94.1072322230897 2344.75605104471 205 209 212
-792.565688961483 94.2507612717561 2344.60330923814 190 194 197
-784.531523896459 94.440222283176 2345.40360578591 191 195 198
-776.812291292042 94.676050414779 2347.15953025433 196 200 203
-768.495165987452 94.8168067650718 2346.9921514964 211 215 216
-760.493030817688 95.0038386537589 2347.78037279392 210 214 215
-754.281176816252 95.4745351068275 2354.33936668943 205 209 212
-750.401576526186 96.3256173831677 2368.61287875813 192 195 202
-745.586567321858 97.0357562781626 2380.0157025934 188 191 198
-738.703670322778 97.4134060481412 2384.67812430966 191 194 199
-732.383793237953 97.8865376508667 2391.27655078405 190 193 198
-725.476544474354 98.2643214832316 2395.94808483135 195 198 203
-719.122041054952 98.7380023853578 2402.55913379898 193 196 201
-713.026426678655 99.2601376501421 2410.14658515654 191 194 199
-706.90580349018 99.7828471253785 2417.74291217459 189 193 196
-700.486833796646 100.257783186648 2424.37773316963 192 196 199
-694.048058587718 100.73311988159 2431.01952617538 200 204 207
-688.394723028715 101.354218826021 2440.58686047161 203 207 210
-682.174665605311 101.879087337585 2448.21947858415 204 205 209
-676.193108765242 102.453177247728 2456.83596485382 202 203 207
-669.39950150029 102.88180049945 2462.53660082974 201 202 206
-663.882196326955 103.55484516777 2473.12524010881 203 204 208
-657.557954064515 104.082117928319 2480.79589389041 198 199 203
-651.462092441905 104.659067142012 2489.45412711925 208 209 213
-645.837378627206 105.334953500973 2500.08175209625 219 220 224
-640.9164133634 106.159751253955 2513.6650917211 235 236 240
-634.713339673943 106.739580336449 2522.36249641082 254 255 255
-627.266534709496 107.073089791003 2526.15992037343 254 255 255
-620.055938104909 107.455894143039 2530.9417965844 251 252 255
-616.163553838816 108.53325997059 2549.50350626197 238 239 241
-611.484987059004 109.464148182617 2565.13989058386 247 249 248
-606.043370324043 110.247744051528 2577.84248315033 242 244 243
-918.914108281208 87.7206699425328 2416.59986646904 189 193 192
-903.443654251987 87.0289363990751 2397.63609740402 189 193 194
-889.765902102289 86.5482816257407 2383.37018845018 200 204 205
-877.177585302566 86.1934826799233 2371.91761145603 203 207 210
-867.304644184791 86.1825685730018 2368.03759597765 209 214 218
-857.467792279002 86.1698271820436 2364.14433006176 211 216 220
-847.342452701377 86.1116503800008 2359.28589813928 206 211 215
-837.580356458401 86.0951971657802 2355.36493631542 195 198 203
-828.493561410214 86.1645238549962 2353.33870552301 193 196 201
-819.43264043024 86.232436174721 2351.30271268824 198 201 206
-809.768972347341 86.2109315105825 2347.34586138271 197 200 205
-801.700654952954 86.4081588478117 2348.15915273599 194 198 201
-793.024361057333 86.5161116287273 2347.05298779119 201 205 208
-784.36905417757 86.6229029787985 2345.93936414881 208 212 215
-775.734677565697 86.7284892552325 2344.81804482935 211 215 218
-768.327477770283 87.0108276057211 2347.53066156775 208 212 213
-761.219728008479 87.337339215542 2351.20436604365 202 206 207
-755.293053318753 87.842420709991 2358.72914853444 198 202 205
-750.222810514214 88.4824046079968 2369.15260447258 194 197 204
-744.238251087447 88.9888550476079 2376.69852195126 182 185 192
-737.36236963426 89.3609305237098 2381.35797406686 177 180 185
-731.335365819706 89.8682060281375 2388.91937543806 178 181 186
-724.148930299424 90.1953213941604 2392.62171495938 197 200 205
-717.520085676621 90.6128306513891 2398.2616479112 204 207 212
-710.876588958383 91.0304658957077 2403.90691402546 209 212 217
-705.046121033306 91.5847158867398 2412.46700706468 219 223 226
-698.092158574278 91.9574310362578 2417.15487720637 220 224 227
-691.941166949317 92.4671105455431 2424.76150939139 220 224 227
-686.569947299604 93.1145693399156 2435.29488551327 220 224 227
-680.09594656071 93.5798350530571 2441.94897171053 224 225 229
-673.60223468652 94.0454381594926 2448.6099908551 223 224 228
-667.609924406326 94.6035120163953 2457.22917581661 226 227 231
-662.619736605704 95.3468356519997 2469.76470869376 248 249 253
-656.30203934293 95.8605427828734 2477.43196088276 254 255 255
-649.453953477257 96.2822134817534 2483.15186639901 249 250 254
-644.093304657867 96.9825907263385 2494.75220506552 252 253 255
-638.935225294234 97.7307785901483 2507.34910626636 254 255 255
-633.481763066405 98.4338898452154 2518.98337381517 252 253 255
-627.255326263433 98.9982093708534 2527.68784267533 248 249 253
-620.519112107915 99.4697328062417 2534.43767300927 246 247 251
-616.138593721941 100.410517407283 2551.03306809243 251 252 254
-611.217561541835 101.259631508191 2565.6848229752 228 230 229
-607.630558376369 102.393103952863 2586.27292203922 226 228 227
-604.871968478934 103.718363096298 2610.84123162528 197 199 196
-918.091957015661 79.5089902335971 2415.21244431467 187 191 190
-900.940765572162 78.677820131344 2391.51553976272 193 197 198
-888.285151284353 78.3670559020133 2380.09099126824 218 222 225
-875.042241915672 77.9716739352171 2366.74007780864 224 228 231
-866.830892028502 78.1827825987595 2367.60613130104 221 226 230
-855.68660951264 78.0259930729624 2359.91055610883 194 199 203
-846.545808081027 78.1119449830485 2357.9049479579 181 186 190
-836.143245959817 78.0325308979319 2352.07882846684 177 180 187
-827.703307488512 78.1974574124292 2351.95815032731 178 181 188
-818.328608508468 78.237775882341 2348.96752658625 179 182 187
-809.613487906 78.3591129749219 2347.8767330151 180 183 188
-800.919156927524 78.4792046298525 2346.7780375173 190 193 198
-792.554842753366 78.6395814234047 2346.62928464162 183 186 191
-783.899819544298 78.7573787816908 2345.51638835192 200 204 207
-776.785476876172 79.0823614964009 2349.1923729207 201 205 208
-769.666524225266 79.4071533737665 2352.87027237562 184 188 191
-762.841658312769 79.7735428699072 2357.51075961316 185 189 192
-755.710855322522 80.0979641503922 2361.19293677928 191 195 198
-749.456451064654 80.5484084465885 2367.76586272332 216 219 224
-742.890993009314 80.9570684116184 2373.3820972615 230 233 238
-736.887847413342 81.4503535583045 2380.93352014582 248 251 255
-730.001677022059 81.8171897994281 2385.59656961563 250 254 255
-723.105891789511 82.1840147159903 2390.2631116639 249 253 255
-715.638725489184 82.4656892791731 2392.99746640174 248 252 255
-709.563771896737 82.9602324425802 2400.57507474725 251 255 255
-703.188155368489 83.412614960158 2407.19218790309 252 255 255
-696.519603064752 83.8224455149983 2412.84596877623 250 254 255
-690.377685550712 84.3184307771829 2420.44827074317 246 250 251
-684.478981446969 84.8579583975647 2429.03204572229 246 250 251
-678.550278472569 85.3982850233644 2437.62652639869 248 249 253
-672.854650551929 85.9825663143308 2447.20644914742 247 248 252
-667.124068538605 86.5678128857428 2456.79939916791 249 250 254
-661.61620579419 87.1974462246057 2467.38107789857 251 252 255
-654.026243639879 87.4801085163566 2470.16012350739 252 253 255
-647.195314119091 87.8932478735218 2475.87315177589 235 236 240
-641.850779163782 88.5688173078943 2487.46576388153 234 235 239
-637.451399084509 89.420875582534 2502.99476134576 230 231 235
-632.251440372311 90.1433062980609 2515.60493546873 225 226 230
-625.788910050086 90.6474284473014 2523.32408774518 217 218 222
-619.781702967392 91.2402540597014 2533.01786358737 199 200 204
-615.638480625125 92.1874297938166 2550.59433287021 196 197 199
-611.654320578791 93.1813770871237 2569.18309407371 197 199 198
-608.518321220161 94.3554252447288 2591.74375479996 193 195 194
-599.539361381919 94.4214743159382 2589.67784181932 191 193 190
-915.231759685375 71.0761217130434 2408.14898574916 180 184 183
-898.439843763719 70.3581460150312 2385.39689414898 200 204 205
-886.470770789851 70.1631807923724 2375.8647491073 220 224 227
-874.900534551686 70.0030258750551 2367.256874432 224 228 231
-866.357127579555 70.1817762917592 2367.17457901476 212 217 221
-855.867963342014 70.1311456175647 2361.38209707917 176 181 185
-846.073861704411 70.1546680176308 2357.47603454632 169 174 178
-835.672368675053 70.0998368457799 2351.6513814341 172 175 182
-826.594142799136 70.1962820472238 2349.62408327464 172 175 182
-817.541784000103 70.291313152408 2347.58702563366 181 184 191
-808.829504144895 70.4235265428523 2346.49602054639 185 188 195
-799.515083384764 70.4771811644107 2343.48450169826 196 199 204
-790.849692578936 70.6068176615926 2342.37626562775 218 221 226
-783.124302787567 70.8518489806279 2344.1351216286 205 208 213
-777.227167912555 71.3299441975352 2351.64688073236 196 199 204
-770.100009068456 71.6524662793427 2355.32759054575 176 180 183
-762.370760939861 71.8964412661327 2357.0875144182 175 179 182
-754.943298505999 72.179065320358 2359.80751489091 178 182 185
-748.103438475177 72.5400421559093 2364.4532959661 212 216 219
-741.253890191332 72.9009509840796 2369.10259201618 223 227 230
-735.259829190452 73.3804819220657 2376.64967634893 232 236 239
-728.383238418595 73.7417329892329 2381.30882377295 239 243 246
-722.063564291084 74.1823711192852 2387.90472482092 239 243 244
-715.44331999405 74.583614139651 2393.54030563786 251 255 255
-709.921006299526 75.1446857345142 2403.05550561089 247 251 252
-703.812352922863 75.6267459891141 2410.64467080344 239 243 244
-696.586659039976 75.9488151505736 2414.36089361803 235 239 240
-690.167999860444 76.3913863306885 2420.99290550444 215 219 218
-683.997529111004 76.8746714644939 2428.60462368913 207 211 212
-679.394244870301 77.6010150129797 2442.06485503576 212 213 217
-673.421599687351 78.126519633752 2450.67443752805 209 210 214
-667.158758647303 78.6121778404243 2458.31964205512 210 211 215
-660.613556352611 79.0577888573313 2464.99786116807 218 219 223
-653.283552559006 79.3813601865618 2468.75235133674 225 226 230
-646.706927706903 79.8274250703422 2475.44202168983 242 243 247
-640.860633951009 80.3968407861304 2485.0755653633 241 242 246
-636.711330993716 81.2547746053107 2501.58069997426 241 242 246
-631.512003724242 81.950322753278 2514.18861633772 244 245 249
-625.777917036512 82.5648139503054 2524.85160252917 246 247 251
-619.284603251108 83.0564422355666 2532.58099691187 249 250 254
-614.664258778418 83.8803033062557 2548.18815151436 250 251 253
-610.682311185356 84.8308997057012 2566.77283795633 239 241 240
-607.083744064682 85.867502653237 2587.35808398655 213 215 214
-894.929755040527 61.9651278810982 2376.43920552801 203 207 208
-884.657571994127 61.9799376875889 2371.63938000327 202 206 209
-873.762904351507 61.9223893156081 2364.92715449442 200 204 207
-864.895475335508 62.0739164592974 2363.89397817734 199 204 208
-854.741864212498 62.0829173430567 2359.05088703269 203 208 212
-844.30530911222 62.0544384561461 2353.24096160955 206 211 215
-833.593595697841 61.988280935522 2346.46161238482 209 212 219
-824.847644419529 62.1335717488923 2345.38382810252 212 215 222
-816.122504556542 62.2776621335634 2344.29839167721 212 215 220
-807.732085589906 62.4564482856412 2344.16051266848 209 212 217
-798.112013822547 62.4904232904589 2340.19175290864 196 199 204
-789.763433485817 62.6668162360353 2340.03874608845 185 188 193
-782.961526646546 63.0228992626436 2344.67011379288 189 193 196
-777.364325763303 63.5239048949426 2353.14143478369 196 200 203
-770.833629648352 63.9167054323228 2358.74384238432 229 233 236
-762.795462238274 64.1275370156351 2359.54695127288 239 243 246
-755.655928586789 64.4472078193567 2363.23194218504 232 236 239
-748.511743119102 64.7666274753999 2366.91835002197 247 251 252
-742.235400787047 65.1960438353901 2373.49766030088 240 244 245
-735.650927291906 65.5890404145566 2379.11962203498 210 214 215
-728.480276100964 65.9083629057227 2382.81563853183 168 172 173
-722.437642996444 66.3756050805402 2390.37969803237 138 142 141
-716.089421005397 66.8062524819999 2396.98521777484 128 132 131
-711.389355627829 67.460582066178 2409.40862353701 132 136 135
-704.98615030623 67.8926041251691 2416.03422450844 147 151 150
-697.471724348464 68.1754408208466 2418.78583813938 183 187 186
-690.769009902706 68.5703786014475 2424.45090771806 231 236 232
-684.319373376208 69.0031135527197 2431.09343267879 217 221 220
-679.971534789126 69.7377592019999 2445.52828797578 208 209 211
-673.987344413747 70.2476062476512 2454.14088388102 178 179 181
-667.973238131747 70.7582651410185 2462.76441061381 163 164 168
-660.384338704332 71.0418387295887 2465.54313885283 167 168 172
-653.051229831185 71.3631034749504 2469.29832887282 172 173 177
-646.21873000977 71.7605229583742 2475.01074160094 189 190 194
-640.620822117891 72.3494581401896 2485.62206637433 198 199 203
-635.971910624005 73.0930414606927 2500.16698712655 226 227 231
-630.283769129119 73.6847289340152 2510.81130482138 237 238 242
-623.587245004164 74.1234067194126 2517.54423601994 243 244 248
-617.829532771407 74.7169793963509 2528.21397361814 247 248 252
-612.505954300778 75.3892749903047 2540.86528066684 249 250 252
-609.476801789865 76.4514180928571 2563.37867650564 250 252 251
-605.418879121005 77.3613024223278 2581.98789575515 239 241 240
-884.517066421016 53.9788923072097 2372.15354984658 198 202 205
-872.957643627575 53.8838516083924 2363.54665921249 198 202 205
-863.105662644498 53.9487615942645 2359.66474917892 203 208 212
-854.596021049509 54.1422714117245 2359.57129915248 208 213 217
-844.482041284016 54.1712216643064 2354.71531365904 211 216 220
-834.409276308165 54.1981877847266 2349.84394927354 218 221 228
-824.37790428344 54.2231652035501 2344.95764952894 222 225 232
-815.336710188362 54.3452431595884 2342.91857605981 221 224 229
-807.576482934478 54.5984248916456 2344.69070478077 216 219 224
-798.888219315634 54.7513765690568 2343.59253842978 199 202 207
-790.529431218614 54.9364598494575 2343.44364186664 209 212 217
-783.410570053944 55.2542049470126 2347.12072208513 200 204 207
-776.286989726391 55.5717771654196 2350.79950390872 209 213 216
-770.362406419797 56.0235971125659 2358.31950785267 174 178 181
-762.324234032834 56.2400565413539 2359.12304317945 166 170 173
-756.07153496398 56.6585602586693 2365.69319390187 168 172 173
-748.625977225717 56.9418617288348 2368.41982019033 141 145 146
-741.471582535447 57.258792111428 2372.10974960158 138 142 143
-734.600728597126 57.6096195213784 2376.7657718317 144 148 149
-728.005751984097 57.9946595416519 2382.39094940789 137 141 140
-722.810874921737 58.5513638877738 2392.85366038255 131 135 134
