ply
format ascii 1.0
comment KinectMotionCapture
element vertex 750
property float x
property float y
property float z
property uchar red
property uchar green
property uchar blue
end_header
-389.879192372082 429.811250847251 2509.83341917943 124 128 127
-381.691695953934 429.250194638815 2507.43262172052 128 132 131
-373.530400349528 428.688100771667 2505.02248053428 138 142 141
-365.395254990512 428.124998604641 2502.60250759873 125 129 128
-358.409165778716 428.706166329284 2507.31803298113 136 140 139
-351.729148696997 429.615089259628 2514.08019299282 130 134 133
-345.340229128256 430.852160279506 2522.89471242354 125 129 128
-338.615953434697 431.762515144047 2529.67306129274 112 116 115
-330.820474356626 431.526020236797 2529.28768466078 121 125 124
-323.483927752954 431.781061986466 2531.97257086916 135 139 138
-316.148055815192 432.036136921032 2534.65721444993 142 146 145
-309.098034407702 432.61974366074 2539.39615282754 129 133 132
-301.898396631778 433.039442169747 2543.11027477013 128 132 131
-295.244297540851 434.116942686214 2550.94229348794 128 132 131
-288.83535327545 435.524492214395 2560.84376206134 109 113 112
-282.656145501094 437.262436640636 2572.8195457322 109 113 112
-275.133069160547 437.355535065372 2574.4934300791 114 116 113
-267.233477633355 436.95441180766 2573.06690370042 137 139 136
-258.855631160719 435.893287546462 2567.49761361411 150 152 147
-250.885632356591 435.325861377994 2565.01756478563 135 137 132
-243.18097769665 435.087603470945 2564.59905521055 113 115 112
-237.601138780081 437.821114380683 2582.83228308775 120 122 119
-230.913793625925 439.07063618939 2591.7559168675 132 134 129
-1576.97325382204 435.567028681684 2459.73989034934 37 33 22
-1533.8274593036 431.331722584438 2436.69799530075 22 22 12
-1517.02814655704 429.176816877089 2424.50649787113 12 13 5
-1502.33450767477 427.608378710142 2415.86065921663 14 15 9
-1478.15952418741 423.230213433035 2390.18165638379 15 18 11
-1443.94753234797 426.731469060368 2415.67602523005 20 25 18
-1420.57530550693 425.193705139648 2408.05239114131 48 53 47
-1398.58092500161 421.227211897219 2384.81233198896 54 59 52
-1353.59714518511 418.408582846197 2371.07809507908 38 43 37
-1362.61858143546 424.111809938515 2406.62940799119 33 38 32
-1336.44872167957 418.629444128133 2374.12550265712 35 40 34
-1318.83275702404 415.826557754061 2357.9153551039 126 131 124
-1308.7095191357 415.409995203382 2356.22878749405 249 254 247
-1299.037868859 418.014752960885 2373.80564269305 192 197 190
-1286.20623256331 416.697526500642 2366.63558967691 206 211 204
-1269.36692485309 414.02833937542 2351.21989754779 124 129 122
-1257.11790480677 412.854479883154 2344.91553167253 108 113 106
-1248.93623757594 413.028878923599 2346.83484108417 118 123 116
-1237.20862121526 412.000838230766 2341.41858816759 123 128 121
-1226.4087813432 411.271179997207 2337.82111942371 110 117 109
-1213.45054403841 409.787240171613 2329.61767597628 121 128 121
-1207.53087776177 410.708848368042 2336.10452910951 126 133 126
-1198.55513602841 410.576304769048 2336.15582951654 120 127 120
-1191.31815018029 411.045567110549 2339.88751539191 134 141 134
-1182.78998372713 411.061965844212 2340.85398906547 126 131 127
-1174.27140585402 411.077453874901 2341.81691013381 126 131 127
-1166.18586563866 411.243034217876 2343.70062760593 124 128 127
-1156.42173066511 410.803193152117 2341.88208232534 125 129 128
-1146.26425123554 410.210457914596 2339.12810720535 129 133 134
-1135.72131788304 409.464625543793 2335.43607431045 130 134 133
-1127.69216528533 409.625514686427 2337.29869577966 138 142 141
-1119.6677640865 409.785728031034 2339.15979420243 140 144 143
-1109.19994196619 409.034994988195 2335.44010081259 143 147 146
-1098.36191668337 408.130463376834 2330.77650124418 147 151 150
-1087.56445236679 407.223618267931 2326.09824410166 148 152 151
-1079.60974759173 407.378606592648 2327.93362496017 146 150 151
-1071.26189061935 407.38063367998 2328.83350106428 152 156 157
-1063.31916192597 407.53384382034 2330.66439639571 150 154 155
-1052.63249872773 406.62018094917 2325.94511232952 151 155 156
-1042.37653807827 405.856582546153 2322.14747099901 157 161 164
-1032.54359220427 405.243481856095 2319.27404404468 170 174 177
-1018.89128953268 403.102409519047 2307.00697396316 171 174 179
-1006.46773323313 401.415596263143 2297.52739746515 180 183 188
-994.87009595681 400.031100349764 2289.9036563702 194 197 202
-986.347007063258 399.867169464706 2289.78812278054 190 193 198
-976.340059831988 399.089968369548 2285.89897917879 186 189 194
-966.740889775428 398.463800943978 2282.93962678461 185 188 193
-956.063412663665 397.376125348341 2277.1375735981 187 190 195
-945.431745381564 396.28607760791 2271.31844269275 190 193 198
-933.02345687363 394.426397329403 2260.75371950233 191 194 199
-922.858344569172 393.484371510753 2255.84279638019 194 197 202
-912.734167278257 392.540255783676 2250.91709664867 196 199 204
-904.078184202546 392.208890958923 2249.77065911059 200 203 208
-895.796858745337 392.029854166119 2249.56614402035 203 206 211
-887.882545131147 392.003563317461 2250.30636090745 216 219 224
-879.978445924408 391.976218203824 2251.04278697075 216 219 224
-872.777827014034 392.256200039565 2253.68016731279 213 216 221
-865.57723342183 392.535644919075 2256.31749794158 210 213 218
-858.035222521319 392.660092992197 2258.00062730622 211 214 219
-850.498388670491 392.783743219764 2259.68181545558 210 213 218
-843.975793286221 393.370035821938 2264.22906849912 208 211 216
-837.109360672366 393.801650708085 2267.82327790792 202 205 210
-829.575329441813 393.923358988558 2269.50304693182 208 211 216
-822.704058770191 394.353912364216 2273.09893409604 227 230 235
-815.827750004477 394.784080808865 2276.69636844014 231 234 239
-808.94651931046 395.213726987573 2280.29555169983 227 230 235
-800.776338000831 395.022545219398 2280.04973740903 212 215 220
-792.62179358676 394.830262231519 2279.79841286331 212 215 220
-785.114535472162 394.947291514526 2281.4681011709 202 205 210
-777.299420994142 394.908236894823 2282.1715665448 203 206 211
-769.494743722278 394.868132994103 2282.87090621457 201 204 209
-760.467711726214 394.204658030178 2279.70085966333 199 202 207
-752.083091216324 393.850837125258 2278.45413156712 204 207 212
-744.628593838258 393.963051361933 2280.10454092004 208 211 216
-736.578449911819 393.762711961565 2279.81442158202 205 208 213
-729.437996960226 394.029146670534 2282.42891921938 207 210 215
-721.707074540979 393.982884966177 2283.10099636525 209 212 217
-715.158317964458 394.560479342521 2287.65735276263 201 204 209
-708.309435792209 394.981476861155 2291.24413003431 198 201 206
-701.743690233823 395.55854415537 2295.80661939763 195 198 203
-695.168124513443 396.135413409024 2300.37240754685 209 212 217
-688.865537002656 396.868630340341 2305.91761968562 202 205 210
-682.828159525078 397.758571784542 2312.44485241172 189 192 197
-676.77092047566 398.648739790985 2318.97957299249 192 195 200
-670.143699228832 399.22542440186 2323.56411560277 203 207 210
-664.324201259286 400.272794930819 2331.09087333978 198 202 205
-658.209782740039 401.163424732856 2337.64614990724 182 186 187
-651.006225763166 401.42589404149 2340.28327641104 188 192 193
-644.332810039536 402.002345547817 2344.8848399267 194 198 199
-637.649710481975 402.578534133815 2349.48964779988 201 205 206
-632.515072771297 404.099023870278 2360.00319070258 204 208 209
-626.05464180921 404.833049894872 2365.60581434231 224 228 229
-619.834080811562 405.724731208711 2372.19973579654 213 217 218
-613.089705672416 406.301349325687 2376.82683979849 205 209 210
-607.084203207609 407.351105939021 2384.4213599878 183 187 188
-600.560091647332 408.085655486282 2390.04716068096 187 191 192
-594.021326242377 408.820301313063 2395.67829293066 190 194 195
-587.467962923363 409.555041233514 2401.31473625027 172 176 177
-580.900029655599 410.289874154707 2406.95648039648 157 161 162
-574.080794746346 410.866618967229 2411.61079332361 157 161 162
-566.783871803543 411.126722420984 2414.2816646816 153 157 158
-559.487707400008 411.386379366841 2416.95222674406 156 160 161
-552.650446111309 411.962623949028 2421.61330589389 145 149 150
-545.803595380061 412.538780577512 2426.27760830681 141 145 146
-538.275667385608 412.638976628231 2427.95379096899 145 149 150
-530.532184412003 412.57980664036 2428.62945788536 147 151 152
-522.799842921761 412.519949327742 2429.30127912792 146 150 151
-515.510910947615 412.777239304143 2431.96903478554 147 148 150
-507.795372269896 412.716143484843 2432.63440318273 151 152 154
-500.935567330512 413.290827480656 2437.30355553872 159 160 162
-494.900733471811 414.502447682192 2445.9875020286 159 160 162
-487.805755877471 414.918294120416 2449.66330635187 161 162 164
-480.910155296959 415.493424234244 2454.34549826889 164 165 167
-474.005003734663 416.06864354685 2459.03091284122 154 155 157
-467.090578979893 416.643973371126 2463.71995935615 136 137 139
-459.383237546021 416.58071108341 2464.3821859233 151 152 154
-452.266985280513 416.996078827001 2468.06568401529 135 136 138
-445.527911000421 417.731049493031 2473.76962051145 126 127 129
-438.774424090551 418.46640477085 2479.47882267685 112 116 115
-418.968777509057 421.154997224878 2499.67750853435 119 124 120
-411.97182703607 421.731646619482 2504.39663930561 118 123 119
-404.614323942799 421.987805139779 2507.08922405579 129 134 130
-397.430584321112 422.404262042932 2510.79732501756 133 138 134
-389.220160479738 421.857501041862 2508.40593654877 118 123 119
-380.868210988858 421.149108511942 2504.98747237422 123 128 124
-371.72083663115 419.63597998894 2496.46375320685 138 143 139
-362.467515494419 417.959948564729 2486.89993526686 155 160 156
-357.762314437515 420.786956984463 2505.88873083171 154 159 155
-351.084199295068 421.6848939021 2512.6496251905 154 159 155
-344.85192766119 423.066734099402 2522.4847078467 149 154 150
-327.180952393177 420.351381790643 2507.36770853733 161 166 162
-1276.4016755679 411.155410843256 2384.71259650673 217 225 210
-1262.75309086196 409.568343222669 2375.6856448015 214 222 207
-1243.84668943429 406.207931060547 2355.63581592323 218 226 211
-1223.30288933809 402.251220510641 2331.86919024703 116 124 111
-1212.11540396312 401.390003155703 2327.33583078369 197 205 192
-1212.73919343555 404.517967097207 2347.61128885945 119 126 118
-1207.63093922788 405.726307343971 2355.9583266871 110 117 109
-1197.75182482362 405.306873886773 2354.18284323307 118 125 117
-1189.61093795439 405.478607235474 2356.08713447716 125 130 124
-1181.04879120621 405.50132263562 2357.06668537584 125 130 124
-1171.22660709585 405.077877700546 2355.27021433564 125 130 126
-1161.00875136461 404.50441478908 2352.53963032122 126 131 127
-1152.49338350302 404.523515443704 2353.50191195533 127 132 128
-1142.32554017267 403.946847382846 2350.75291472384 130 135 131
-1133.01377701514 403.666004114156 2349.84855864904 132 137 133
-1123.31146255819 403.234718242989 2348.00794285097 136 141 137
-1114.04214718536 402.950965461551 2347.08794437449 138 143 139
-1103.98215194644 402.367462252188 2344.29924615834 140 145 141
-1093.54972425871 401.633032844431 2340.56792277722 141 146 142
-1083.55277675333 401.045874597017 2337.7560411733 145 149 148
-1075.97181187864 401.353286371359 2340.53368512052 147 151 150
-1067.2052471157 401.211555438252 2340.50829047964 140 144 143
-1056.88368078149 400.47017311915 2336.73616239718 143 147 146
-1046.20763921993 399.577103254411 2332.01482717197 154 158 159
-1034.7973762534 398.382016927811 2325.40410775201 169 173 174
-1020.35930639074 395.984965133593 2311.26960125586 169 172 177
-1007.54217406279 394.183723567791 2300.85783567336 180 183 188
-996.315230600193 392.979567178056 2294.17982504241 192 195 200
-987.779246589876 392.824298858781 2294.06963033736 187 190 195
-977.760030476291 392.066514742264 2290.18640952335 184 187 192
-968.14842361578 391.457031472308 2287.23283473329 187 190 195
-957.089460651074 390.243689868652 2280.49309743998 188 191 196
-945.347638070529 388.726384058577 2271.84516732463 191 194 199
-933.667168669384 387.206071263538 2263.17497271855 192 195 200
-924.218702566056 386.587711027775 2260.1614529835 195 198 203
-914.082334354865 385.665643205671 2255.24159191551 197 200 205
-904.343570759221 384.892491742674 2251.25531267866 198 201 206
-895.702938826762 384.570710340443 2250.10402057828 201 204 209
-888.137433488454 384.701257623743 2251.79614654964 214 217 222
-881.274976416993 385.133564557022 2255.38870940541 214 217 222
-873.714569769799 385.262602434792 2257.07886894376 212 215 220
-866.159222253025 385.390860766744 2258.7668771868 212 215 220
-858.267822473798 385.366757416309 2259.49918797263 212 215 220
-850.72538088805 385.493260775847 2261.18237459079 213 216 221
-843.52441142172 385.770814685498 2263.81969911206 211 214 219
-836.657255075706 386.199718470534 2267.41396692304 208 211 216
-829.453957440946 386.476172331287 2270.05205435489 206 209 214
-822.907828910291 387.056238420967 2274.60738807398 229 232 237
-816.025766969747 387.483938183324 2278.20698080178 233 236 241
-809.462083159712 388.063499322638 2282.76865491383 227 230 235
-800.64249347763 387.575965110893 2280.60332233294 231 234 239
-792.166975871387 387.239333978441 2279.3909175612 230 233 238
-784.027902802853 387.053904021012 2279.13423446147 220 223 228
-775.904451829872 386.867327561696 2278.87178876234 215 218 223
-768.107224074028 386.832351742074 2279.56880866508 207 210 215
-759.704472101187 386.490732951549 2278.32958907928 208 211 216
-751.322512302003 386.147586949076 2277.08269968538 211 214 219
-743.870136107034 386.262471363637 2278.73228549676 211 214 219
-735.822495459478 386.070133184594 2278.44186032843 212 215 220
-729.279779186647 386.643203762658 2282.99568072884 212 215 220
-721.841424834195 386.755859038988 2284.64025799146 214 217 222
-715.286658137736 387.328223219869 2289.19814915926 205 208 213
-708.141873982681 387.593219298544 2291.81411193855 198 201 206
-701.572723393964 388.165059998904 2296.3774441224 203 206 211
-694.993861823357 388.736684700505 2300.94428837321 209 212 217
-688.687708351931 389.461941941709 2306.49019558807 205 208 213
-681.526917454183 389.725479272929 2309.11186415328 193 196 201
-675.753501411808 390.758556650684 2316.62054584923 191 194 199
-669.680261359196 391.638048838007 2323.16002038251 210 214 217
-664.403948762121 392.980265739172 2332.64477757916 215 219 222
-658.283350219025 393.860463591296 2339.20176677935 190 194 195
-651.074175713454 394.123211993312 2341.84095540032 183 187 188
-644.924076393686 395.003385434448 2348.40840719346 163 167 168
-638.492068342814 395.729333080803 2354.0000941956 156 160 161
-633.861789287345 397.538147094933 2366.48525165998 147 151 152
-628.410312318584 398.883815228598 2376.03391305207 173 177 178
-621.906143206386 399.610975138121 2381.65191034495 221 225 226
-614.631935227179 399.87316844984 2384.31468618675 232 236 237
-607.856867878876 400.445030878569 2388.95258299664 234 238 239
-601.565810065326 401.327185939752 2395.57165412583 175 179 180
-595.25497643965 402.209532042242 2402.19767065936 176 178 177
-588.924483178919 403.092170058115 2408.83085230195 165 167 166
-581.857079469894 403.508844526773 2412.49670047338 149 151 150
-574.785373396492 403.925316135896 2416.16435085454 152 154 153
-567.475359190422 404.185871664161 2418.84001286986 156 158 157
-560.628854312639 404.757429282785 2423.5038426186 154 156 155
-553.773037781617 405.328920260597 2428.17130491775 144 146 145
-547.586591115797 406.367956131542 2435.83050572816 143 145 144
-540.480456157801 406.783808062109 2439.51061866031 144 146 145
-532.92757890441 406.887255829645 2441.19585736719 138 140 139
-524.943422307919 406.677727287897 2440.88106901869 145 149 150
-517.191442421805 406.623758933644 2441.56046995929 154 155 157
-509.023378033682 406.256353227726 2440.23403389646 156 157 159
-501.931546435079 406.669932848641 2443.90852412634 157 158 160
-495.669110913893 407.709437300803 2451.59536989683 157 158 160
-488.764372425915 408.279803077735 2456.28052248198 164 165 167
-481.443608865032 408.536788732286 2458.95982078892 168 169 171
-474.123589872046 408.793566632411 2461.63883289097 170 171 173
-466.407963980475 408.736225988875 2462.30451631023 144 145 147
-458.507665578386 408.52138168744 2461.95911235315 145 146 148
-450.623519812303 408.305681600378 2461.60752066116 126 127 129
-442.564774409341 407.932111574823 2460.24064549259 127 128 130
-433.398918119128 406.614234393078 2452.80518407356 158 163 159
-375.685348017651 408.951730841283 2476.08442611272 153 158 154
-1277.45229353579 406.223102669499 2406.35817813848 235 246 229
-1195.1359425037 396.428467662084 2349.13036609805 190 198 185
-1168.64869918323 396.219366497077 2350.20544078346 156 161 154
-1156.76202706745 395.078465113729 2343.77165273395 143 148 141
-1156.20991656224 397.873482912445 2362.31612563884 132 137 130
-1144.35546124378 396.730177271266 2355.87070491714 118 123 116
-1135.02830637241 396.460668560495 2354.97254213524 125 130 124
-1124.9007555842 395.897359632256 2352.21016738317 128 133 127
-1118.06478475765 396.502628781224 2356.87271330429 130 135 129
-1106.7616452057 395.497362673409 2351.30395040091 131 136 130
-1097.51699218866 395.222114795876 2350.37563287299 132 137 131
-1086.69228119663 394.35903321342 2345.71057749885 131 136 130
-1079.88259414955 394.960833526176 2350.36331180658 132 137 133
-1070.69293832157 394.681590167565 2349.41471026905 134 139 135
-1060.34628800203 393.960125660717 2345.65319897122 139 144 140
-1048.86571806963 392.795597756324 2339.07033039405 147 152 148
-1037.04878057183 391.481294913405 2331.53181978977 161 165 164
-1022.21040280558 388.986395111381 2316.46882116247 170 173 178
-1010.14370545428 387.518172086595 2307.94263362636 176 179 184
-997.379093743438 385.752157401317 2297.51444325567 182 185 190
-988.832752462538 385.605333361234 2297.40864887033 180 183 188
-979.178233641694 385.014558988177 2294.47207722314 181 184 189
-969.926144187935 384.569594374393 2292.46709999574 184 187 192
-957.006193932936 382.644659238668 2281.01654860734 184 187 192
-944.896397567538 381.011984096147 2271.42705614928 187 190 195
-933.581416116733 379.672108865316 2263.70423658494 189 192 197
-924.130774735802 379.070150852918 2260.69274478387 192 195 200
-914.351679972024 378.318108603766 2256.72271209892 195 198 203
-903.895255991891 377.267364783132 2250.8428742643 197 200 205
-895.254683559409 376.956359942599 2249.69237365413 202 205 210
-888.74297557354 377.535186237768 2254.23536185743 213 216 221
-882.220929081479 378.113775198189 2258.78183421574 212 215 220
-874.30361713454 378.097294791166 2259.52413502847 211 214 219
-866.052781401164 377.930882445844 2259.30949441126 210 213 218
-858.158488396815 377.912205974026 2260.04301157583 211 214 219
-850.951744125135 378.19064064229 2262.68250075541 212 215 220
-843.745094208162 378.468476104408 2265.32191044131 212 215 220
-836.538538640252 378.745593256877 2267.96123164905 210 213 218
-829.001226052779 378.872835305924 2269.64286475007 209 212 217
-822.454205876793 379.447636126723 2274.19812516445 227 230 235
-815.571413209942 379.872565509448 2277.79777436299 228 231 236
-808.683627895448 380.29716773691 2281.39895858828 219 222 227
-800.187514380544 379.972775481257 2280.19496052643 225 228 233
-792.030204849369 379.796812356111 2279.94561770604 222 225 230
-783.888513915262 379.619643313941 2279.69050907443 223 226 231
-775.44944256114 379.291354312209 2278.46549143766 220 223 228
-767.962438530624 379.411998872768 2280.12809345433 212 215 220
-758.941484355791 378.780847555708 2276.95853177842 211 214 219
-750.562139014799 378.448511058297 2275.71125374284 210 213 218
-742.506423796071 378.265183017582 2275.42444219878 210 213 218
-735.667386083363 378.682744963603 2279.00763769443 210 213 218
-728.823547981694 379.099912688737 2282.59229330182 210 213 218
-721.975018671165 379.51666823479 2286.17862230198 211 214 219
-715.706904735317 380.234602750906 2291.71015581371 203 206 211
-708.843967065705 380.650895324499 2295.30193928508 194 197 202
-702.263706186577 381.217764703635 2299.8686788553 194 197 202
-695.388911169369 381.633329643069 2303.46471564518 195 198 203
-689.638723228079 382.653171996031 2310.96395909593 228 231 236
-683.024226551672 383.219638666642 2315.54336173727 185 188 193
-677.231618678135 384.240007369351 2323.05805765639 168 171 176
-670.590072505461 384.80645924168 2327.64728727899 201 205 208
-664.483035834795 385.675838294436 2334.19827834067 214 218 221
-658.625656727288 386.697011350955 2341.73656877132 184 188 189
-651.94240721367 387.263544704523 2346.34095693172 180 184 185
-646.042860679049 388.285280103095 2353.89486510708 156 160 161
-639.332669214567 388.851689042893 2358.50877859755 157 161 162
-634.428219693205 390.482034990552 2370.01353055047 162 166 167
-628.964898524403 391.809347625039 2379.56511043351 133 137 138
-622.958062978836 392.833132173434 2387.15815534735 141 145 146
-616.674701331005 393.705054987114 2393.77340382585 141 145 146
-610.122504858336 394.42486133991 2399.40829642483 158 162 163
-604.048743943913 395.449726775825 2407.02548508796 177 181 182
-597.950255493821 396.47500894321 2414.65194394173 159 161 160
-590.861126125053 396.890209960896 2418.32557468701 153 155 154
-583.528841082413 397.152410041355 2421.00945261772 139 141 140
-575.960954497916 397.261373509542 2422.70081525193 141 143 142
-568.398834924198 397.369708422461 2424.3897807838 149 151 150
-561.305217861631 397.783463234459 2428.0651872635 146 148 147
-555.121867738783 398.809395781875 2435.72227431688 136 138 137
-549.140026719402 399.988930804565 2444.38454564013 136 138 137
-541.786854976301 400.249624646253 2447.07589884538 137 139 138
-534.213466109977 400.356540181177 2448.76910614538 133 135 134
-526.646072292742 400.462923661202 2450.46009507452 135 137 136
-518.436702844452 400.108043901567 2449.14935748864 138 140 139
-509.395156073075 399.137636786849 2443.82831370458 140 142 141
-501.027659485324 398.626671253677 2441.49669648854 144 146 145
-494.769296589233 399.652544129374 2449.18128830243 143 145 144
-487.663317884584 400.063401288178 2452.86071329312 142 144 143
-479.740409130072 399.858208448528 2452.52399843914 142 144 143
-471.432395527551 399.344011261099 2450.17077929249 147 149 148
-463.348758859806 398.982834290085 2448.81413743621 161 163 162
-453.917595386515 397.540824952081 2440.39889556815 167 169 168
-1106.7037706015 387.576817867918 2351.79417120699 129 134 128
-1096.24934649381 386.881063545986 2348.07375804829 128 133 127
-1084.63068177592 385.75164897393 2341.54371384976 127 132 126
-1078.62497128701 386.635529123474 2348.05898343527 127 132 126
-1071.41415238675 387.087405750252 2351.7795957906 128 133 129
-1063.02124401194 387.106200583804 2352.69710591432 132 137 133
-1050.74199178918 385.680870465585 2344.25163818894 144 149 145
-1036.58840516923 383.530473752825 2331.09918930957 163 167 166
-1023.29045693201 381.664915694836 2319.79045887896 165 168 173
-1011.59684779709 380.374258783019 2312.20892257218 170 173 178
-998.821041267028 378.646497040667 2301.78768594535 176 179 184
-987.623889566393 377.494608055411 2295.10254020234 180 183 188
-977.226345893036 376.629898749023 2290.28215608493 184 187 192
-966.869537160221 375.763001940913 2285.44680638333 186 189 194
-955.445897152416 374.458353910456 2277.76587019663 186 189 194
-944.811731254193 373.441519815151 2271.95342552404 188 191 196
-933.859279348176 372.276732687449 2265.17839797064 191 194 199
-923.680983553535 371.400358145442 2260.2774727045 193 196 201
-914.261316236913 370.812732655769 2257.25580827438 193 196 201
-904.515944132783 370.077654895736 2253.27480287853 198 201 206
-896.221541246456 369.923605003983 2253.07692461099 203 206 211
-888.996185656261 370.205744623837 2255.72345552603 208 211 216
-882.119473014435 370.63324901878 2259.32083560668 206 209 214
-874.199347312157 370.622238245164 2260.06457145497 208 211 216
-865.945862252235 370.464088044644 2259.85151682961 210 213 218
-857.707780806065 370.304740328973 2259.63277513846 210 213 218
-850.500470239692 370.583256680753 2262.27247623732 210 213 218
-843.293250526719 370.861054859498 2264.91209013842 209 212 217
-836.419440861474 371.284813138134 2268.5081328082 207 210 215
-828.879157086838 371.414851139466 2270.19105641217 207 210 215
-822.000516355153 371.837547634382 2273.78877427654 225 228 233
-813.814343600204 371.672657688663 2273.55075403836 226 229 234
-806.936158065722 372.09419121713 2277.14847307007 211 214 219
-798.770885824613 371.927233858606 2276.90270290072 216 219 224
-790.939131999627 371.906291916634 2277.61332629946 218 221 226
-782.802496178882 371.737024366236 2277.35697713549 207 210 215
-774.681482459333 371.566729417456 2277.09487435663 209 212 217
-766.886454809583 371.54261146572 2277.79216842693 208 211 216
-758.486496896141 371.222500805081 2276.55355647718 205 208 213
-750.412489284153 371.048641782502 2276.27410569909 207 210 215
-742.656783461509 371.021333313407 2276.95661763801 210 213 218
-736.111979789385 371.584182998045 2281.51042528623 210 213 218
-729.259786921763 371.998937854414 2285.09793443904 210 213 218
-722.402909842252 372.413399361973 2288.68712340831 211 214 219
-716.126112294152 373.123574193543 2294.22122652189 211 214 219
-708.964971931603 373.389269049414 2296.84318484946 202 205 210
-702.378824912646 373.950935557071 2301.41192481562 185 188 193
-695.213486210067 374.215782108766 2304.03534455189 201 204 209
-689.459452395486 375.222196939707 2311.53497222485 204 207 212
-682.841582152543 375.783495338673 2316.11521065525 227 230 235
-677.322196186321 376.939120835774 2324.60765067857 201 204 209
-670.674660873334 377.500460796448 2329.19841637361 173 177 180
-664.833372510834 378.508128108816 2336.73009570761 189 193 194
-658.428325816998 379.218312754602 2342.31079729266 218 222 223
-652.542141775021 380.226557312074 2349.85857816186 197 201 202
-646.366810550923 381.0862049407 2356.43390325333 187 191 192
-639.386487271636 381.49846379277 2360.06777866906 191 195 196
-633.956678158667 382.806065200017 2369.60569512011 179 183 184
-628.235151736251 383.965183814155 2378.17184392369 143 147 148
-622.991732014494 385.423776488622 2388.71998687883 139 143 144
-616.953676033684 386.434786491256 2396.32341148939 138 142 143
-610.890751055957 387.446127032702 2403.93564257489 131 135 136
-606.034964034304 389.206703555384 2416.49909595645 136 140 141
-599.909701655727 390.219513815695 2424.13434175862 140 142 141
-593.277045038124 390.932876822876 2429.79798238918 140 142 141
-584.958811610849 390.596173076701 2428.52842488968 137 139 138
-577.606475418824 390.858680371516 2431.21961133578 138 140 139
-569.086785387927 390.369741791122 2428.94495368193 141 143 142
-562.441925332275 391.081973826846 2434.61294294623 137 139 138
-555.325529561173 391.493476307814 2438.29620153895 139 141 140
-549.560594360243 392.8076837966 2447.95638032264 135 137 136
-540.856473214288 392.165341202696 2444.67085690914 132 134 133
-531.741993159539 391.220130070602 2439.37795929778 133 135 134
-525.50727785546 392.232989734615 2447.05297718581 141 143 142
-1064.24255044207 376.647628144367 2335.46488264853 127 132 125
-1060.20527986784 378.226634731261 2346.65068228678 124 129 122
-1050.66888877132 377.824416785846 2344.75197352212 125 130 123
-1038.44934317327 376.428508076197 2336.28677772474 144 149 143
-1025.52222520761 374.745964042668 2325.92392997322 166 170 171
-1013.43008332299 373.343811922779 2317.41222685216 168 171 176
-999.502740813399 371.228417109717 2304.179961635 174 177 182
-987.168942283217 369.677506893652 2294.67802686995 181 184 189
-975.649712149557 368.407786154412 2287.03471179096 184 187 192
-963.814955033869 366.992789802123 2278.4282676943 188 191 196
-953.886468004629 366.286962191239 2274.51600179799 187 190 195
-943.993650699271 365.579145034963 2270.59062563705 189 192 197
-933.772652929569 364.726652195319 2265.70701751468 192 195 200
-923.231106662618 363.729199094761 2259.86212867352 194 197 202
-914.529384909885 363.443571080957 2258.73576062992 194 197 202
-905.848048959907 363.156431736795 2257.60187162631 197 200 205
-896.833426969702 362.724829934168 2255.51136749163 203 206 211
-888.897624243847 362.721055790321 2256.26109110134 206 209 214
-880.623628326756 362.573102688073 2256.05651253326 203 206 211
-873.402810597777 362.853873924203 2258.70129142617 207 210 215
-865.495173439051 362.847152919656 2259.44055908226 210 213 218
-858.620370965826 363.270116272659 2263.03690249806 210 213 218
-851.063993372889 363.405368738143 2264.72606703025 211 214 219
-843.177050455634 363.395992863606 2265.45761537708 211 214 219
-835.966813962343 363.673432527793 2268.09829833726 212 215 220
-828.426131814649 363.806285035668 2269.78157904413 212 215 220
-820.562627240488 363.794266151222 2270.50441194138 222 225 230
-812.384132164006 363.637221064053 2270.26444832664 225 228 233
-805.83573062815 364.199986842472 2274.81930257777 211 214 219
-798.316274034591 364.329568197233 2276.49462442998 215 218 223
-790.802176273691 364.458523257671 2278.16795196213 222 225 230
-783.293359612212 364.586570993682 2279.83903790821 212 215 220
-775.477361761051 364.569287327217 2280.54446689794 211 214 219
-767.981940426333 364.69562051635 2282.21055645345 205 208 213
-758.954188728903 364.097309725344 2279.04594244291 204 207 212
-751.177453275745 364.076778312238 2279.73660657604 207 210 215
-743.41131315378 364.055296850801 2280.42334934479 209 212 217
-736.555558923484 364.468152436026 2284.01226347662 205 208 213
-729.695014788395 364.880553838766 2287.60262938669 204 207 212
-722.829782942932 365.292602477559 2291.19467190139 205 208 213
-716.25209872541 365.849710063923 2295.75999303608 211 214 219
-709.664632795374 366.406558555198 2300.32859437989 202 205 210
-702.780357312588 366.817729856598 2303.92774427195 188 191 196
-695.891393302078 367.228502565406 2307.5283133025 200 203 208
-689.561849196769 367.93043634008 2313.08095942027 189 192 197
-682.938039564513 368.486547639911 2317.66296447895 213 216 221
-677.412013751061 369.626248217059 2326.15636114222 214 217 222
-670.484328987034 370.036376633183 2329.771204569 167 171 174
-664.367356618911 370.884586213934 2336.32420837223 174 178 179
-657.692086400021 371.440459391855 2340.92463872267 219 223 222
-652.340580158095 372.727895528736 2350.43283760346 210 214 213
-646.16153870684 373.576863411016 2357.00845065062 196 200 199
-639.178034243834 373.9865072029 2360.6432845994 194 198 197
-633.226117848581 374.982359471512 2368.21426778835 180 184 183
-627.505676990005 376.125132141221 2376.77853453296 160 164 163
-622.009254379527 377.415373339639 2386.33959861907 149 153 152
-616.477650569947 378.706467197055 2395.91325538525 145 149 148
-610.413487489671 379.704397404579 2403.5249244888 145 149 148
-606.294283367895 381.879199707368 2419.05192665501 135 139 138
-601.134752802683 383.467466280613 2430.64618417459 134 136 135
-595.447777119904 384.762309783264 2440.27657629393 133 135 134
-587.578856890941 384.732101025402 2441.00000444695 133 135 134
-579.720959287132 384.701090484227 2441.71962147572 129 131 130
-571.173626191181 384.226810061203 2439.45611356692 136 138 137
-561.960007516971 383.308327640125 2434.20150776828 147 149 148
-552.559614184548 382.240371496471 2427.93667564345 182 184 183
-885.824381833006 298.679906897901 1862.15789774863 131 138 122
-1045.14494265346 368.016341062897 2332.15274731217 123 126 117
-1036.05407921816 367.763667749674 2331.17025554064 129 132 125
-1025.06230163434 366.813884060487 2325.4925493783 162 166 167
-1013.35307669541 365.583389300049 2317.92122620995 167 171 172
-999.804419340612 363.653381364524 2305.63216873338 182 186 189
-987.843459884733 362.277202200167 2297.07450750518 179 183 186
-976.317704754821 361.037452846857 2289.4358245913 187 190 195
-964.105217846312 359.515686598647 2279.89201171723 184 187 192
-954.172148901989 358.829035099958 2275.98285747102 185 188 193
-944.274739188915 358.140275362219 2272.06058781694 189 193 196
-934.776716425773 357.589537579627 2269.07017609954 193 197 200
-924.587004094005 356.756843865072 2264.17669467826 194 198 201
-915.155295753638 356.202144721686 2261.16188954967 194 198 199
-906.110249273525 355.785964849202 2259.083603384 201 205 206
-896.383817133234 355.087485904288 2255.09847782705 206 210 213
-887.745965948536 354.808294511379 2253.94938886079 208 212 215
-879.476913340135 354.668201409809 2253.74335294737 207 211 214
-872.606428812106 355.089447662567 2257.33799793357 211 215 218
-865.387631551337 355.369603968983 2259.98199631707 213 217 220
-858.509624239275 355.789939495006 2263.57956020268 211 215 218
-850.612103731524 355.787051298646 2264.31544129105 212 216 219
-843.060532777701 355.924259780438 2266.00300697529 211 214 219
-835.847178146773 356.201702202437 2268.64482308007 207 210 215
-827.973040054318 356.196232733773 2269.37201369772 208 211 216
-819.453570139827 355.907055154139 2268.17915889651 220 223 228
-811.930736921367 356.04069889541 2269.85601411691 223 226 231
-804.735975615473 356.315092139515 2272.49084450309 211 214 219
-797.861616736052 356.730534621572 2276.08645928288 198 201 206
-790.02941597959 356.720448585266 2276.79806416403 201 204 209
-782.522868948142 356.851133315087 2278.46877873893 225 228 233
-775.021726190158 356.981130422828 2280.13747785614 223 226 231
-767.5259239607 357.110277435424 2281.80391811248 214 217 222
-759.113386183476 356.812394844572 2280.57155404303 208 211 216
-751.331422294375 356.797592398558 2281.26480442826 206 209 214
-743.862235969109 356.924031769213 2282.92136983116 209 212 217
-737.297824608804 357.476868864922 2287.48154622304 202 206 209
-730.129221086135 357.744582396383 2290.10636850925 197 201 204
-723.255627489036 358.154337543147 2293.7012761147 194 198 201
-716.377353167247 358.563620549229 2297.29784877944 210 213 218
-709.204949781994 358.829874684791 2299.92394158468 202 205 210
-702.319999509162 359.238392524211 2303.52313644536 184 187 192
-695.430374691261 359.646511224575 2307.12374532287 186 189 194
-689.099854914915 360.34044362856 2312.67614222238 195 198 203
-682.195904816507 360.748050249041 2316.28191737504 184 187 192
-676.394346942851 361.728319325632 2323.79709388975 223 226 231
-670.293552020935 362.565653747024 2330.3433992711 179 183 186
-664.71613994506 363.690019293893 2338.85456374602 163 167 168
-657.76337629759 364.097389754681 2342.47805687559 201 205 206
-652.13859442971 365.222475099304 2351.00648688479 213 217 216
-645.428077949501 365.77339956578 2355.61960444269 189 193 192
-638.969220849511 366.467954440003 2361.21842377264 185 189 188
-633.013514511586 367.450377000741 2368.78977069719 183 187 186
-627.54538062371 368.721184350818 2378.33883580787 158 162 161
-621.534771341391 369.704680668165 2385.93021205062 148 152 151
-615.750449906725 370.83267984741 2394.51657432407 143 147 146
-610.184847169897 372.105734387872 2404.10147738732 143 147 146
-606.306566417747 374.389913802908 2420.61575196082 141 143 142
-601.870456498963 376.38733637327 2435.17770377755 144 146 143
-596.651092969426 377.952929527183 2446.79199011437 138 140 137
-588.287455390859 377.639617569885 2445.54069459599 137 139 136
-580.652588775642 377.75923822039 2447.25719769219 137 139 136
-569.990849183815 375.995855654335 2436.06489920079 169 171 168
-1034.81998239856 359.533216999208 2328.8642818287 127 130 121
-1025.37040814262 359.153318833493 2326.93596761377 161 165 164
-1014.42012521508 358.225734215217 2321.24485983984 168 172 173
-1000.10536669575 356.066166062903 2307.08372252705 183 187 188
-988.893363084459 354.996013009601 2300.41039445278 179 183 186
-976.984668805507 353.649651489303 2291.83599311188 185 188 193
-965.137194053385 352.300242346798 2283.23911846985 179 182 187
-954.088350453636 351.22180709382 2276.50588333082 182 185 190
-943.822813016729 350.414944654146 2271.64190102875 187 191 194
-934.68870386877 350.017550314028 2269.59739207342 188 192 193
-925.580161049025 349.618666696956 2267.54373584785 191 195 196
-915.780179790646 348.943250244108 2263.58707354946 192 196 197
-906.01595127534 348.26578144949 2259.61726608437 198 202 203
-895.93412289617 347.448715928219 2254.68551123847 202 206 207
-887.64708179877 347.318079967748 2254.48672477505 204 208 209
-880.071826243768 347.461871506488 2256.18339266653 204 208 209
-873.192938013316 347.880766354853 2259.78091361619 209 213 216
-865.622835012961 348.023225038582 2261.47560882503 203 207 210
-857.717321955176 348.026663941244 2262.2148712967 201 205 208
-849.822193558284 348.029206889478 2262.95054733514 205 209 212
-842.272712320943 348.168967675195 2264.63729201706 205 208 213
-835.061357215277 348.446451056446 2267.27838470966 203 206 211
-826.859280398137 348.307670862531 2267.04811303701 204 207 212
-818.345023034473 348.029187559296 2265.85417122056 226 229 234
-811.802421139558 348.581589171138 2270.40639055667 230 233 238
-805.249708939743 349.133744529781 2274.96201046078 215 218 223
-798.687076835569 349.68573791526 2279.5214767228 203 206 211
-790.844420805805 349.681479706306 2280.23732011626 203 206 211
-783.012343443447 349.676258408994 2280.94950152128 228 231 236
-775.190727759712 349.670046426106 2281.65755275152 225 228 233
-767.689504705851 349.802250090831 2283.32644753148 215 218 223
-759.271968643052 349.515401279449 2282.09673204317 210 213 218
-750.875277197329 349.227201862139 2280.85934101729 208 211 216
-743.103610947397 349.216834360913 2281.5489302019 210 213 218
-736.840476879318 349.903905047264 2287.07632561541 212 216 219
-729.374357150259 350.03199743529 2288.7321558368 205 209 212
-723.091538129096 350.718660093418 2294.26641844138 197 201 204
-716.210090437909 351.125492698233 2297.86421352897 200 204 207
-710.191967606322 351.952092634636 2304.37967110116 205 209 212
-703.00673860567 352.218312047891 2307.01042131428 195 199 202
-695.537843189877 352.343773528296 2308.66706154072 191 195 198
-688.637850081179 352.749081636596 2312.271225544 208 212 215
-681.73325665652 353.154093117305 2315.8770386338 192 196 199
-676.206932991407 354.261395430673 2324.36835332228 192 196 199
-670.102456624993 355.088094841439 2330.91519388213 218 222 225
-664.249602688598 356.05571888768 2338.4480540951 220 224 227
-657.565082441446 356.601353339239 2343.05107279993 163 167 170
-651.936272801628 357.710397988782 2351.57975595387 178 182 185
-645.486200763489 358.397092303595 2357.17504455442 205 209 212
-639.80500505712 359.507112346353 2365.72283512865 189 190 192
-633.059265965068 360.052981764676 2370.34836897275 178 180 179
-628.096604695205 361.587713145456 2381.86680286299 165 167 166
-622.074518508624 362.558139724879 2389.46136296348 164 166 165
-616.780530916923 363.953380275444 2400.0230991059 161 163 160
-611.694913905821 365.49117625733 2411.58669296878 156 158 155
-607.301677609921 367.455108875996 2426.13079462314 143 144 139
-602.847885083869 369.420707192675 2440.69677000439 139 141 136
-596.407440966509 370.253555472273 2447.36639851248 153 156 149
-589.709060382408 370.944608084395 2453.05198146811 182 185 178
-937.430929249936 312.821746468317 2055.66771872226 133 137 123
-1035.51866183006 351.980229880135 2331.24046343089 123 126 117
-1025.29381181405 351.346667930641 2327.44132989697 168 172 171
-1013.96050652911 350.309780872218 2320.81458524859 163 167 166
-1000.40547718592 348.466610371181 2308.5343949778 170 174 173
-989.565634669919 347.557802005779 2302.80483105835 179 183 186
-978.024189512544 346.378231395886 2295.17613519771 184 188 191
-966.910009777846 345.330100745661 2288.46892566083 184 187 192
-955.478311736693 344.144976772058 2280.80018984647 187 190 195
-945.566617046177 343.49476940089 2276.88601929878 191 195 198
-935.327136467655 342.707924118376 2272.01382558272 190 194 195
-925.128589154843 341.918988995743 2267.12685589749 194 198 199
-913.895936765738 340.723598529996 2259.38477039421 198 202 203
-904.498287261062 340.19959352634 2256.36016063866 199 203 204
-894.777981811382 339.538704264816 2252.37539092131 202 206 207
-887.197219870175 339.686045905739 2254.07432735057 205 209 210
-879.969584756978 339.967798197904 2256.72165727743 205 209 210
-873.087412220728 340.38408201625 2260.32017453235 208 212 215
-865.171444735205 340.393990092429 2261.06397790495 206 210 213
-856.585011307619 340.132084019116 2259.89751114153 205 209 212
-848.69468888766 340.139812501366 2260.63157793963 207 211 214
-841.820448773344 340.553404234177 2264.22700992561 205 208 213
-834.941273571062 340.966639179661 2267.82446239946 198 201 206
-827.066667570328 340.971966884606 2268.55263768976 199 202 207
-818.547380457295 340.704459038632 2267.36135148592 226 229 234
-811.348749482752 340.979658585725 2269.9976487049 230 233 238
-805.440082719671 341.798765012826 2276.4727713796 213 216 221
-798.551520702019 342.209343355559 2280.07317968582 203 206 211
-791.02345815127 342.347002786223 2281.7522379092 199 202 207
-782.556493996638 342.074591590496 2280.54157084404 215 218 223
-774.110290568796 341.800952171123 2279.32326795576 217 220 225
-765.994507874307 341.662372584073 2279.06165752373 218 221 226
-757.894389228976 341.522763959251 2278.79427811185 215 218 223
-750.114504958704 341.518732368768 2279.48733126646 207 210 215
-742.949190914796 341.787567931527 2282.11104302056 205 208 213
-736.682490886079 342.466678927764 2287.63913351016 204 208 211
-729.510286835473 342.734652277028 2290.26528360705 198 202 205
-722.338523210276 343.002012895179 2292.89122744932 194 198 201
-716.042403597111 343.680606201143 2298.42996811822 204 208 211
-709.731416900963 344.359244568443 2303.97411395665 209 213 216
-703.405559623347 345.037868581942 2309.52366175277 200 204 207
-695.360500947969 344.891284429363 2309.23575067135 189 193 196
-688.738850896684 345.431708741624 2313.81578746489 219 223 226
-681.828496494159 345.83432508813 2317.4235130176 214 218 221
-676.848320865395 347.201341493383 2327.86909993202 171 175 178
-671.0063588076 348.155676666309 2335.39700004974 192 196 199
-665.139384427856 349.110288427544 2342.93375464712 221 225 228
-657.903894600028 349.37477989451 2345.58263612996 181 185 188
-651.467504234013 350.053435974249 2351.17234716755 164 168 171
-645.280015724552 350.870337767343 2357.74860991055 210 214 217
-640.900138342454 352.656296953233 2371.2078731527 208 209 211
-634.396732532035 353.335964197645 2376.82200971196 190 191 193
-629.158335506345 354.708486792354 2387.36183360803 170 172 171
-623.373066054788 355.804708635881 2395.94639698615 160 162 161
-619.062815336076 357.734192876888 2410.45774767874 142 144 141
-613.947070721383 359.248704167036 2422.03027685899 143 145 142
-610.014838617661 361.459228422604 2438.55885089048 147 148 143
-605.039148673282 363.115689680781 2451.1580138438 144 146 141
-597.607055464088 363.38226683028 2453.8784860865 167 170 163
-1035.44376399258 344.14783205383 2331.74352024725 125 128 117
-1027.90297461965 344.450279252641 2334.50619234076 170 175 171
-1015.78781213994 343.178982666885 2326.01247242018 162 166 165
-1001.840784602 341.24853739282 2312.80156855639 167 171 170
-990.236761518086 340.10190297638 2305.19809469493 182 186 187
-977.941876360219 338.689537946595 2295.6924746959 184 188 191
-966.455231426325 337.5370519341 2288.04616573746 185 189 192
-954.287937936011 336.118509391679 2278.49372079078 185 189 192
-944.381910613473 335.487018023355 2274.57890322777 188 192 195
-933.785023898112 334.589809628178 2268.76168527289 191 195 196
-923.594853219581 333.822164459959 2263.8732784029 193 197 198
-912.012969692467 332.524309547202 2255.18379434366 194 198 199
-903.33702698086 332.280253630897 2254.05119648744 198 202 203
-894.681513997568 332.034922875005 2252.91107955502 201 205 206
-887.448207848073 332.317373214745 2255.56052265115 205 209 210
-879.86694443726 332.466832460306 2257.25954675454 204 208 209
-873.32687573964 333.01312033289 2261.81038439354 203 207 210
-865.748290768125 333.161329724338 2263.50859532112 199 203 206
-857.154251287043 332.910499794149 2262.34572783526 198 202 205
-848.580697302983 332.658346984259 2261.17506308037 203 207 210
-841.368118743245 332.936473698567 2263.81664884028 203 206 211
-834.82073085593 333.480010471188 2268.36993824088 201 204 209
-827.273351535759 333.624082257328 2270.05649879448 202 205 210
-819.076421080361 333.500822627414 2269.82552830669 230 233 238
-811.544659514516 333.643106702117 2271.50602515269 232 235 240
-805.629770768335 334.451544611687 2277.98285785608 214 217 222
-799.055073800831 334.993184762642 2282.54567226271 211 214 219
-791.836101477571 335.267452276415 2285.18928993418 207 210 215
-783.044425620579 334.872680884879 2283.02081431526 212 215 220
-773.966544933187 334.342564572605 2279.8793051264 212 215 220
-765.848154862937 334.212305042719 2279.61926981351 204 207 212
-757.745449810184 334.080896551861 2279.35344885378 204 207 212
-750.26721794224 334.216548972194 2281.0142502866 211 214 219
-743.096258404325 334.485664721262 2283.64003440118 211 214 219
-736.524144515035 335.022618428228 2288.2015566788 225 229 232
-729.942271527556 335.559522981208 2292.7668753998 229 233 236
-722.174045450796 335.558311123304 2293.45590544822 198 202 205
-715.874377358131 336.229003607827 2298.99533928339 186 190 193
-709.55982819983 336.899741700149 2304.54018340975 190 194 197
-703.230432926884 337.570404930608 2310.09041603864 214 218 221
-695.46675192868 337.566917437709 2310.77787729429 202 206 209
-687.995101349553 337.697443089896 2312.43564636962 188 192 195
-681.644249619644 338.367396522738 2317.99362137975 213 217 220
-676.383528461399 339.577870886466 2327.46277343632 189 193 196
-671.634929846302 341.059558786981 2338.89968241505 170 174 177
-665.756486376617 342.001265469211 2346.43988475996 159 163 166
-658.778840217087 342.401628426688 2350.07188991329 215 219 222
-652.860646684847 343.343711255528 2357.62630902433 197 201 204
-646.917666187836 344.286153586557 2365.19001560079 151 155 158
-641.47148942406 345.500481379773 2374.72684139094 161 162 164
-634.698637456746 346.036691075094 2379.3614975193 180 182 181
-629.706575347603 347.523858061926 2390.88702502911 183 185 184
-625.175760704253 349.284153617399 2404.39919308474 176 178 177
-621.341380161223 351.454183430139 2420.88890429384 152 154 151
-616.443789110136 353.081746957249 2433.4575106063 150 152 149
-611.741409884684 354.846855547825 2447.03212336356 158 159 154
-607.46962732861 356.886244725947 2462.60434586845 177 179 174
-992.381918060153 319.353329023493 2207.92279435167 137 141 127
-1027.82441218203 336.611070767856 2335.00981246366 166 171 165
-1014.56495921983 334.987039405653 2323.70531882885 168 173 169
-1001.76053048877 333.487943927432 2313.31173495732 183 187 186
-990.155191764825 332.371123167989 2305.71124291058 183 187 188
-978.979232265994 331.380194677572 2299.03079627642 182 186 189
-967.854263984913 330.386677854603 2292.33162732408 183 187 190
-955.675646208864 329.003713481059 2282.78598134534 185 189 192
-945.391646945583 328.262676434075 2277.93341924386 191 195 198
-934.059256482844 327.132032194963 2270.23271183978 192 196 199
-924.225172504402 326.515416074967 2266.29287691931 191 195 196
-912.279007513261 325.121044572301 2256.66191142806 191 195 196
-902.887166771202 324.629162905827 2253.63736058275 200 204 205
-894.231731096745 324.394667567497 2252.49803311068 201 205 206
-886.297262048631 324.417937398777 2253.2493126563 205 209 210
-879.416205711442 324.829353893543 2256.84705710684 206 210 211
-872.530116844663 325.240417409147 2260.44685773679 204 208 211
-865.638856171836 325.651041667544 2264.04825003019 207 211 214
-857.042342277171 325.411206431952 2262.88711115898 205 209 212
-849.141309660021 325.430251475681 2263.62592322657 207 211 214
-841.920495316675 325.708700056872 2266.27052564132 207 210 215
-834.699799797682 325.986548475607 2268.91503959952 204 207 212
