ply
format ascii 1.0
comment KinectMotionCapture
element vertex 751
property float x
property float y
property float z
property uchar red
property uchar green
property uchar blue
end_header
-952.092908107036 271.955082506493 2257.38385321548 188 192 195
-942.94878418071 271.694737391391 2255.35357789336 192 195 200
-933.830002967611 271.432700913643 2253.31371269054 194 197 202
-923.288878657653 270.728570103969 2247.49105647706 196 199 204
-913.153037996437 270.132289902151 2242.59558492655 196 200 203
-903.771819010275 269.754511352271 2239.57578406078 196 200 203
-894.775620948078 269.485526581227 2237.49110984112 197 200 205
-886.508386883117 269.436000342397 2237.29124659699 193 196 201
-877.208972902222 269.053357277014 2234.2413558652 195 198 203
-868.63353892234 268.890472938409 2233.07836393736 200 203 208
-860.078613104728 268.7263106949 2231.90782420403 206 209 214
-852.227135127167 268.782663745492 2232.63144615875 203 206 211
-844.047065740191 268.72693204166 2232.39944450145 198 201 206
-835.882445416237 268.670120150176 2232.16174811748 201 205 208
-827.065766947428 268.389593540315 2230.01097683761 205 209 212
-817.943529185422 267.996155289219 2226.89589681774 204 208 211
-809.8382266993 267.935357714754 2226.6363473095 204 208 211
-801.096211217307 267.650259401548 2224.45784891502 206 210 213
-792.380078423913 267.363718999407 2222.2700918651 207 211 214
-784.973732619413 267.522645719242 2223.90653047449 201 205 208
-777.89115764488 267.792594999934 2226.50026404926 197 201 204
-771.124687518348 268.174045095243 2230.05411401356 195 199 202
-764.353386356409 268.555088476103 2233.60968858719 189 193 196
-756.645100008967 268.599340536918 2234.28062491146 187 191 194
-748.639165055213 268.530371794887 2233.98435491937 186 190 193
-741.565808024465 268.797400094319 2236.57451887629 185 189 192
-735.098932616386 269.28867372246 2241.09435742662 184 188 191
-728.321776908192 269.667311934638 2244.65213200821 183 187 190
-721.539866257485 270.045613701676 2248.2113545484 188 189 193
-714.753267896405 270.423562704768 2251.77225369322 181 182 186
-708.25490076728 270.913909518701 2256.3037187441 195 196 200
-700.585625017204 270.952541599139 2256.95980271158 220 221 225
-694.077987342885 271.442297890209 2261.49459154379 195 196 200
-687.845751003142 272.045026647053 2267.00439691898 195 196 200
-682.16381048107 272.874137007004 2274.46445248589 206 207 211
-675.89684816764 273.477150973916 2279.98689663099 207 208 212
-669.337659842424 273.966837627236 2284.54041049635 201 202 206
-662.768780697593 274.456380736961 2289.09718026456 185 186 190
-657.007356496404 275.286618536615 2296.58645460943 181 182 186
-651.760565346476 276.344512590515 2306.03903294281 168 169 171
-647.280311576753 277.744595042174 2318.43884113768 153 154 156
-642.484893244596 279.032127549778 2329.87811214347 154 155 157
-636.595677144862 279.865110370669 2337.41377089522 152 154 153
-629.383783029883 280.128322370307 2340.05398263161 154 156 155
-623.200666475716 280.847626454321 2346.62129297606 176 178 175
-920.055789904058 241.597460877445 2057.67358381832 148 155 139
-995.067990937277 269.446364497341 2302.37838796602 184 189 182
-973.75207104973 265.786113526243 2270.38145793994 186 191 187
-961.555187863554 264.687032097009 2260.86386789213 194 198 199
-952.011301639294 264.33477283722 2257.90534991928 196 199 204
-942.864793496246 264.088052864891 2255.87671460616 197 200 205
-933.014995015503 263.624980073379 2251.95417444385 198 201 206
-923.200915203576 263.160034927357 2248.01851507562 200 203 208
-913.063245586554 262.585443529853 2243.12534450837 201 205 208
-904.036649901721 262.331760535215 2241.05286943004 200 204 207
-894.681399200777 261.968748348929 2238.02474745674 197 200 205
-887.11473243195 262.143230745083 2239.72061039385 197 200 205
-876.761022871674 261.453287396966 2233.83067552493 197 200 205
-867.492772166348 261.085148115232 2230.77055633844 201 204 209
-858.255276281783 260.715211369953 2227.6991271491 213 216 221
-851.43790499584 261.101436005825 2231.27208596814 210 213 218
-843.260358122361 261.053883427186 2231.03978491501 203 206 211
-835.098262051272 261.005071937331 2230.80177501826 198 201 206
-826.284346734729 260.73805863107 2228.65076507648 199 202 207
-817.827303375022 260.578080718482 2227.44497668472 198 201 206
-809.719410991456 260.525602518102 2227.18699589354 194 197 202
-800.975201693282 260.254213627707 2225.01058329796 195 198 203
-792.90354181288 260.19924747277 2224.73925015755 198 201 206
-784.847477811963 260.143165616441 2224.46216626697 206 210 213
-777.443601796824 260.30416945614 2226.09786423114 208 212 215
-770.676467364415 260.682906127869 2229.65175083057 207 211 214
-763.904505395085 261.061295500285 2233.20736525117 195 199 202
-757.127721136562 261.439426696092 2236.76471231069 204 208 209
-749.114173834022 261.379019473732 2236.47210845638 208 212 213
-741.421711750262 261.427073627453 2237.13732780011 199 203 204
-734.345696243311 261.693699633329 2239.72842732758 198 202 203
-727.570388802533 262.069659021759 2243.28507393742 202 206 207
-721.683732380095 262.774994920842 2249.74361526076 189 190 192
-714.596170619865 263.040464271486 2252.33882270417 188 189 191
-708.094433422689 263.525702228909 2256.87112675596 180 181 183
-701.292768576268 263.900547837589 2260.43726596465 195 196 198
-694.774103575573 264.385345649732 2264.9756873135 228 229 231
-688.530656261565 264.980473047023 2270.48899252195 199 200 202
-682.272411777848 265.575642773333 2276.00767729165 180 181 183
-676.838968263462 266.502595039013 2284.45163743421 178 179 181
-670.543480928215 267.098148338785 2289.98388287173 187 188 190
-664.233185121738 267.693758100528 2295.52125873786 205 206 208
-657.636052814742 268.178585388742 2300.08819242991 192 193 195
-652.647090113913 269.329043632898 2310.52088666378 157 158 162
-647.083664649353 270.258439423241 2319.01200419283 152 153 155
-641.225762907091 271.077261986312 2326.53547115371 147 148 150
-634.033255771042 271.340311832105 2329.16862663782 161 163 160
-627.879012913534 272.048244568086 2335.72458809757 177 179 176
-623.502857486234 273.536550882401 2349.15978632403 192 195 188
-1011.93359395095 263.970700215223 2323.56983001393 143 149 137
-991.215973964388 260.625936329102 2293.51268594948 177 182 175
-972.54979346946 257.794637752344 2268.08220845226 185 190 186
-959.987672293917 256.626232764792 2257.62553627168 189 193 194
-950.82113466386 256.394349814581 2255.6052979004 191 194 199
-941.679999996306 256.160938111405 2253.575714332 190 193 198
-932.564401941004 255.925978740758 2251.53698988463 192 195 200
-923.112528446925 255.584608278043 2248.54560750329 197 200 205
-912.973137319065 255.031955777849 2243.65497205566 196 200 203
-904.657267599805 255.001749213642 2243.47423767153 195 199 202
-895.294756301712 254.655278440839 2240.4500018219 195 198 203
-887.368567108357 254.72765272844 2241.20197799498 198 201 206
-876.661815959163 253.957011177453 2234.36767134789 194 197 202
-866.698913324916 253.394572974616 2229.41217265571 195 198 203
-857.464420989886 253.040865832234 2226.34087671348 209 212 217
-850.307713715699 253.318774223629 2228.96214586433 215 218 223
-842.81248760542 253.490434834838 2230.63183881909 207 210 215
-834.650355217789 253.449813145332 2230.39446005102 200 203 208
-825.836730684583 253.196366299385 2228.24436806783 200 203 208
-818.37257045976 253.365175132584 2229.90255844855 201 204 209
-810.585287237773 253.427207736055 2230.60328456911 196 199 204
-801.83113342253 253.16984486886 2228.4315434759 197 200 205
-793.425999364852 253.017217680504 2227.20744910916 202 205 210
-785.362226062815 252.969565944508 2226.93380236324 218 222 225
-777.950255152286 253.133609445964 2228.57241654899 219 223 226
-770.543738271863 253.297009241365 2230.20925481738 208 212 215
-764.394546176619 253.886160255421 2235.68786263749 211 215 218
-757.299035429552 254.155156065052 2238.2862243233 220 224 225
-749.588104295969 254.21003608305 2238.95866918879 222 226 227
-741.277249861811 254.050061864855 2237.69976514908 215 219 220
-735.106421256122 254.637944375366 2243.18613861537 215 219 220
-728.320229938137 255.011619512456 2246.74656739612 218 222 223
-722.124592559416 255.599459205692 2252.2419515907 214 215 217
-714.438834390319 255.650721452949 2252.90523151151 210 211 213
-707.933665129395 256.130717788364 2257.43813276694 189 190 192
-701.418801435828 256.610573114773 2261.97480003971 186 187 189
-694.894233757342 257.090331272695 2266.51498580312 217 218 220
-688.359859899517 257.569890843593 2271.05846523079 220 221 223
-681.251336277824 257.833767565079 2273.66116873927 178 179 181
-676.380971790674 258.960266232361 2284.04896399989 163 164 166
-670.915883921431 259.871734825315 2292.50299915187 167 168 170
-665.42078307305 260.783826712867 2300.96824048011 167 168 170
-659.351591889904 261.48029298029 2307.49268861439 163 164 166
-653.262542747946 262.176983275367 2314.02411448886 153 154 158
-647.153715112726 262.873851025262 2320.56274002194 151 152 154
-640.496395896266 263.354271372598 2325.15120936775 172 174 173
-633.82958860304 263.834421149119 2329.74285136792 186 188 185
-627.93090926413 264.640485363582 2337.28017172326 190 192 189
-623.804102088861 266.207974274134 2351.69730305639 192 195 188
-984.728520081753 251.14272832656 2278.08812706521 177 182 175
-972.470883880352 250.117096364528 2268.59815274896 189 194 190
-961.023152504747 249.291547846907 2260.96237298948 191 195 196
-951.108306824404 248.870232099578 2257.06661755326 191 194 199
-941.595716228244 248.548713024604 2254.09879379421 194 197 202
-932.113686442102 248.225374292389 2251.11972884914 197 200 205
-923.023734125241 248.002438420634 2249.07233922882 198 201 206
-912.882515787996 247.471444880571 2244.18400187811 195 199 202
-904.564042187229 247.449528461036 2244.00483908657 196 200 203
-895.553275250463 247.221757209557 2241.92856791203 196 200 203
-886.567991517373 246.99246776044 2239.84266887689 196 200 203
-875.516215690833 246.14635301673 2232.06147184195 193 197 200
-865.905300245703 245.708037755866 2228.05400449689 193 197 200
-857.360897976958 245.576023020076 2226.88181243859 195 199 202
-850.542171861785 245.956821833407 2230.454854131 198 202 205
-842.702967908423 246.028506215961 2231.17517324527 201 205 208
-834.538245620528 245.996144348788 2230.93935870201 198 202 205
-825.055767723028 245.550129720461 2226.88464424293 198 202 205
-817.593822132329 245.721621163997 2228.54223237113 197 201 204
-809.480751697478 245.685692315851 2228.2873816355 191 194 199
-802.034517317775 245.855527583905 2229.93913632963 186 189 194
-793.624329975794 245.713920239795 2228.71745517046 180 183 188
-785.875975462357 245.778288630209 2229.40446757336 181 185 188
-778.138061659204 245.841786258246 2230.08736646846 189 193 196
-770.095302876467 245.800429690568 2229.80655933899 206 210 213
-763.632335777542 246.277661300925 2234.32417266642 209 213 216
-756.849133226604 246.650683665718 2237.88346626316 184 188 189
-750.061143337467 247.023327384239 2241.44447071018 173 177 178
-742.353069212621 247.08308441116 2242.11649980047 168 172 173
-735.86582730625 247.55907499009 2246.64258513401 167 171 172
-729.368824552449 248.034986707465 2251.17246530502 165 169 170
-722.564508068804 248.406213954756 2254.73929494194 165 166 168
-715.460630311087 248.672588942645 2257.34049893176 168 169 171
-708.649637876398 249.043051023274 2260.90995076462 191 192 194
-702.123667390905 249.517994443594 2265.4500286356 185 186 188
-695.300884034694 249.887904949617 2269.02372293587 194 195 197
-688.758034690616 250.362525415541 2273.56990916262 205 206 208
-681.641408126177 250.626837916012 2276.17558965472 221 222 224
-675.923017198139 251.416506544275 2283.64616738661 212 213 215
-671.010461676458 252.52239539585 2294.04748288577 199 200 202
-665.508817927539 253.418574659283 2302.5139008626 156 157 159
-659.705194837179 254.209980080388 2310.01532337844 156 157 159
-653.068814437331 254.685175269296 2314.59579061928 162 163 167
-646.422913576316 255.160295893264 2319.17971137516 179 180 182
-640.031600479046 255.740984251868 2324.74565232716 189 191 190
-633.363981943575 256.215925169095 2329.33719606535 193 195 192
-627.723170435136 257.11447639821 2337.85435788418 186 188 185
-623.591466864057 258.649776538975 2352.27109387297 193 196 189
-985.780364557988 243.719177784674 2281.4123129776 172 177 170
-969.39832434451 241.642176180804 2261.60868048274 190 195 191
-959.084526254214 241.142462685776 2256.7854079668 194 198 199
-949.180421078907 240.7395890389 2252.88688728242 190 193 198
-940.777936686868 240.731377464056 2252.73928281874 195 198 203
-932.754603476142 240.821142196045 2253.52812150357 197 200 205
-924.379951501823 240.810651850969 2253.37023254046 196 199 204
-913.867832746852 240.202411135014 2247.544018275 194 198 201
-903.401741372861 239.591895184482 2241.70090886343 195 199 202
-893.335400255101 239.078610049633 2236.78670193436 193 197 200
-884.012138801987 238.762614459407 2233.75050454323 192 196 199
-874.371090025627 238.345069417357 2229.75555291523 195 199 202
-865.803819606038 238.225338893824 2228.59285088362 196 200 203
-858.287290357775 238.404382768729 2230.27084114748 194 198 201
-851.4575606983 238.782915698763 2233.847455571 189 193 196
-843.607918948543 238.860397449715 2234.57200454939 198 202 205
-835.097227491729 238.736311867684 2233.38841665969 199 203 206
-825.274547037419 238.209216371414 2228.38463664722 199 203 206
-817.80705838581 238.383647747156 2230.04420629494 197 201 204
-809.688837478467 238.35610856831 2229.79185993333 193 196 201
-802.237149993216 238.528896337637 2231.44581871644 196 199 204
-793.499178871861 238.297639812382 2229.27016760799 199 202 207
-785.427707147854 238.26669548038 2229.00057858819 192 196 199
-777.689608331263 238.335619558476 2229.68395413994 186 190 193
-770.277320372499 238.504783219528 2231.32332415069 184 188 191
-764.121052286597 239.078012667503 2236.80330163636 197 201 204
-757.019446856973 239.347395546203 2239.40390695421 199 203 204
-750.533204507279 239.819059326872 2243.92930264743 192 196 197
-743.122241306302 239.986086899211 2245.56803015263 178 182 183
-736.926414445136 240.558807824726 2251.06234245812 177 181 182
-730.115891310488 240.928163546222 2254.63128599484 176 180 181
-723.300766927988 241.297238761207 2258.20213447828 170 171 173
-716.480899836386 241.66594727702 2261.77442419276 169 170 172
-709.072109070475 241.830358993169 2263.41216500019 171 172 174
-701.668868578553 241.994031520728 2265.04757910642 166 167 169
-694.845445394575 242.361406302116 2268.62131455567 182 183 185
-688.586304086378 242.932982679688 2274.13829071428 197 198 200
-682.030538803081 243.402258146295 2278.68902080333 211 212 214
-675.744460677206 243.973861182524 2284.2160404361 181 182 184
-669.997159133081 244.750678685072 2291.69589853731 163 164 166
-663.950758683976 245.425292000658 2298.21041710191 167 168 170
-658.427846527325 246.305627944244 2306.68336728621 167 168 170
-652.06746016835 246.8781239866 2312.23719896415 191 192 196
-645.692431266218 247.450702175525 2317.79661133126 200 201 203
-639.302776484718 248.023375551045 2323.36134501159 187 189 188
-633.421422151553 248.802351427217 2330.89032668334 185 187 184
-627.774099206369 249.685048354423 2339.40865811927 184 186 183
-624.147475994246 251.394781407181 2355.78815316226 190 193 186
-974.529203726281 230.98982127944 2233.34157229288 156 162 150
-977.040288148394 233.776340559389 2260.37194496468 172 177 170
-965.579803136665 233.011570648914 2252.74513061788 194 199 195
-958.632779227056 233.398515019527 2256.36525140926 196 200 201
-949.467051022244 233.20727435759 2254.34778546895 196 199 204
-941.425677905335 233.30368321796 2255.14342573402 199 202 207
-931.939483651512 233.013187520481 2252.16860626113 196 199 204
-923.928521011332 233.107365735826 2252.95302895223 191 194 199
-913.775999755903 232.620257014332 2248.07210955581 194 198 201
-903.308250841996 232.034132778649 2242.23144278457 192 196 199
-892.886555526547 231.44573228377 2236.3738712641 191 195 198
-883.914736024416 231.243088365929 2234.28534492135 191 195 198
-874.968425503659 231.038865691157 2232.18717678271 192 196 199
-867.085164981241 231.124747986198 2232.92457455821 194 198 201
-859.555474687626 231.307015824393 2234.60758997728 196 200 203
-851.690288822416 231.391135885626 2235.33854189293 198 202 205
-843.159067055789 231.279210980171 2234.163076673 204 208 211
-834.648512448975 231.166077592469 2232.98026542111 201 205 208
-825.159588604045 230.758398297353 2228.93078547891 193 197 200
-818.019683137136 231.033535957596 2231.5457408461 189 193 196
-809.568491814601 230.916474662658 2230.3410643168 184 187 192
-802.43917815783 231.190126445418 2232.95205916977 188 191 196
-794.34183194324 231.168887899524 2232.69260364116 194 197 202
-785.619718704869 230.950096949222 2230.51187701057 199 203 206
-777.876408933476 231.024808863083 2231.1978369046 199 203 206
-770.143559091464 231.0985003838 2231.87966501792 201 205 208
-763.983763500044 231.663828190639 2237.36032798738 195 199 202
-756.569199946049 231.834807789397 2239.00066182273 191 195 196
-750.389576899506 232.39983854966 2244.4885064386 188 192 193
-743.8900909501 232.866154051821 2249.01831049281 190 194 195
-737.078617710718 233.2334488984 2252.5876980472 184 188 189
-729.96269744526 233.50142601109 2255.1933984152 177 181 182
-723.144300180076 233.867962992758 2258.76499024083 171 172 174
-716.026700201674 234.135023145446 2261.37123172553 175 176 178
-708.909612311196 234.401497542274 2263.97724295324 174 175 177
-701.214090678114 234.468757639625 2264.64502306525 174 175 177
-694.676922122412 234.93301858391 2269.18861791106 184 185 187
-688.129952635099 235.397170063873 2273.73551123887 174 175 177
-682.136956751834 236.060495485534 2280.2297742295 223 224 226
-675.286420191228 236.424834511485 2283.81287762886 226 227 229
-669.537866561898 237.188242226574 2291.29217886977 216 217 219
-662.942197953353 237.652228711353 2295.8570082733 207 208 210
-657.422995680531 238.51631088836 2304.32738414484 194 195 197
-651.06686398072 239.0806470114 2309.87930857164 210 211 215
-645.761661041456 240.045987545946 2319.34612679088 206 207 209
-639.893615019557 240.811504474439 2326.869003249 198 200 199
-633.739512546434 241.477106434667 2333.42197408246 200 202 199
-628.083071325658 242.343915750788 2341.94216547947 195 197 194
-966.881008474044 221.517251818267 2215.13963401657 148 154 144
-974.705794808357 225.537435909035 2255.2652257556 167 172 165
-964.754775249796 225.175477853449 2251.38709228046 198 203 199
-957.809564645324 225.559625662968 2255.00608891974 189 193 194
-949.01546012625 225.475439393444 2253.92848610582 200 203 208
-941.706232057943 225.764697971736 2256.60602817873 196 199 204
-932.578825654359 225.584376199088 2254.57546233651 193 196 201
-923.115974438105 225.308660136059 2251.59327660845 193 196 201
-913.325213423943 224.937133805763 2247.65619324409 196 200 203
-902.502434794711 224.281360300104 2240.87245641005 198 202 205
-893.1443336831 223.999882992375 2237.85177634003 194 198 201
-884.518345229676 223.905299088836 2236.71205182261 192 196 199
-875.912906604387 223.809332632963 2235.56501077037 191 195 198
-867.327965765028 223.712118453639 2234.41042795998 188 192 195
-858.077335290895 223.424221527254 2231.34996109564 193 197 200
-849.879080317382 223.418837020744 2231.12836572131 200 204 207
-841.696265663499 223.412283340495 2230.90107208298 202 206 209
-833.86437095862 223.499479394685 2231.62016015843 200 204 207
-825.377141657141 223.395766666842 2230.42958475097 189 193 196
-818.231615163049 223.671124005331 2233.0465990235 184 188 191
-810.103126520937 223.660392643111 2232.79925149213 186 189 194
-801.664999916335 223.553166698585 2231.59031584781 188 191 196
-793.247664564784 223.444667870197 2230.37398422458 197 200 205
-784.851061969072 223.334822807586 2229.15001803703 198 202 205
-778.379975473255 223.797215787344 2233.66946184789 196 200 203
-771.269099600002 224.068152006249 2236.27355266806 188 192 195
-765.720144574368 224.81750616042 2243.67927187682 176 180 183
-758.28734252636 224.991967708706 2245.32649516064 178 182 183
-751.474370502981 225.357697145095 2248.8960548616 180 184 185
-744.047418401574 225.530947462892 2250.54106125085 168 172 173
-737.230115202945 225.895833786506 2254.11213101622 163 167 168
-730.408096328633 226.2603684391 2257.68488762953 164 168 169
-723.284448880292 226.528260454684 2260.29338915255 165 166 168
-715.866900018237 226.699118516349 2261.93479849227 174 175 177
-708.746802369803 226.965889194657 2264.54192563298 182 183 185
-701.337910475097 227.135485875078 2266.18009439812 181 182 184
-694.794792977804 227.594603560749 2270.72520834549 183 184 186
-688.526150511355 228.150518115773 2276.24470922744 183 184 186
-681.961161415863 228.609524055523 2280.79801582165 191 192 194
-674.549418718564 228.777356265965 2282.43708725836 207 208 210
-668.525710307566 229.430074626312 2288.94145463873 224 225 227
-661.934354288009 229.888725247856 2293.50406021207 226 227 229
-656.418844417876 230.73649478961 2301.97186368067 217 218 220
-650.604560184513 231.487539923408 2309.47436884726 209 210 214
-645.830285488515 232.629088441771 2320.89494285089 203 204 206
-639.692223316186 233.283834293763 2327.44101222473 194 196 195
-633.012180441568 233.743419977632 2332.03591161504 186 188 185
-627.874092762544 234.789743738107 2342.51493144072 186 188 185
-977.640253732819 218.592440966706 2263.27478472027 174 179 172
-966.171974468788 217.88761685733 2255.65532532445 197 202 198
-957.72890743793 217.906346715404 2255.52475313691 190 194 195
-949.300890145674 217.923936355507 2255.38837247763 193 196 201
-941.619976239893 218.122400628734 2257.12730085575 189 192 197
-932.126889260382 217.864643765539 2254.15720166103 189 192 197
-921.220949200644 217.240423553566 2247.40631554941 193 196 201
-911.799413976721 216.978784714724 2244.41018031879 193 197 200
-903.119875905133 216.898174207772 2243.29096670376 191 195 196
-893.754536919597 216.633267201399 2240.27416668085 190 194 195
-885.12099583502 216.549846680952 2239.13802861305 190 194 195
-875.811952058848 216.281667639113 2236.10052754614 192 196 197
-867.570050226263 216.287159904656 2235.89561138467 189 193 194
-857.628876142599 215.832091941961 2230.94006484488 190 194 195
-849.090266416894 215.742803802083 2229.7692462333 196 200 201
-840.910000488343 215.744309118904 2229.54163461154 197 201 202
-833.750917861319 216.021268185094 2232.16369518917 196 200 201
-825.926580200934 216.113125394382 2232.8801348929 192 196 197
-818.442792479138 216.296517331871 2234.54655699887 191 195 196
-810.309169090788 216.294085696553 2234.3017013413 191 194 199
-801.541193156098 216.105449900841 2232.14016791045 191 194 199
-793.1214567999 216.007942898117 2230.92553801318 201 204 209
-785.362119137734 216.094728855 2231.61797814242 201 205 208
-779.517094946789 216.737843683771 2238.05669823347 198 202 205
-772.707632518951 217.102364026339 2241.6248915385 180 184 187
-766.829945613234 217.745729290488 2248.07575242146 176 180 183
-759.383943257277 217.923519355571 2249.72776870954 166 170 171
-751.943487562282 218.100572766652 2251.37796841093 169 173 174
-744.204001630216 218.183545742921 2252.06290796563 170 174 175
-737.079060837101 218.452560237894 2254.67196410224 166 170 171
-730.25393675742 218.814612049336 2258.24591592419 181 182 184
-722.533659426692 218.895345527851 2258.92370729898 181 182 184
-715.412591761213 219.162779410445 2261.53123692313 181 182 184
-708.875412258651 219.617333829022 2266.07410337348 175 176 178
-702.039310887413 219.977863129447 2269.65167447656 175 176 178
-695.485226310199 220.432125394122 2274.20066113191 178 179 181
-688.637407429196 220.792159802761 2277.78245230595 185 186 188
-681.785068629676 221.151834889896 2281.36585862476 186 187 189
-674.370498073067 221.322576554878 2283.00617705194 197 198 200
-668.343157162506 221.964777095481 2289.51107066953 211 212 214
-661.201015706615 222.229193478578 2292.126029518 224 225 227
-655.415503668707 222.966191397367 2299.61702078066 222 223 225
-649.605030003027 223.703612802914 2307.1168591876 214 215 219
-645.10001972336 224.915555838227 2319.51146693285 208 209 211
-639.227040864974 225.654453520199 2327.03438151632 200 202 201
-633.329144076022 226.393802757108 2334.56612948503 195 197 194
-628.698391202284 227.609052102949 2347.0066737033 193 195 192
-890.2671121637 185.055838110131 1989.56624207457 153 160 144
-975.457148027028 208.406532380679 2237.70006179952 150 156 146
-977.939040599403 210.982068789357 2264.72512197206 181 186 179
-968.708119310141 210.83507835994 2262.73493618358 197 202 198
-958.760609426072 210.510471038178 2258.8583456844 192 196 197
-950.690695010894 210.624788960784 2259.66570734233 194 197 202
-941.53338183537 210.473313914647 2257.64843859032 190 193 198
-932.764669973192 210.408634793523 2256.56282721079 192 195 200
-922.212893145673 209.900309960014 2250.75881533057 198 201 206
-913.1395991036 209.743957110029 2248.71039692874 196 200 203
-904.091911587053 209.586053860255 2246.65281203967 190 194 195
-894.36361552169 209.249022151057 2242.69538118257 189 193 194
-885.021748920332 208.999038603728 2239.67117875981 190 194 195
-875.710518342325 208.747186599118 2236.63544983591 191 195 196
-867.466040156583 208.760967933483 2236.43209518377 192 196 197
-857.523169023262 208.327659256531 2231.47906132397 193 197 198
-849.322321040337 208.338693298977 2231.25964689308 195 199 200
-841.474534774158 208.437928292296 2231.98516302147 192 196 197
-834.307274046209 208.715296298836 2234.6102258655 188 192 193
-826.807652869576 208.90255260818 2236.28269243326 182 186 187
-819.313204432434 209.08902493169 2237.95296609226 181 185 186
-810.841972272539 209.005470611238 2236.75809930653 186 189 194
-801.416955293074 208.650974730235 2232.68941237365 189 192 197
-792.350276737488 208.384533130269 2229.56372770772 197 200 205
-785.872200178311 208.836986147922 2234.08496128509 195 199 202
-780.018362908599 209.469666518098 2240.52609620207 186 190 193
-774.144294464234 210.102690914221 2246.97460782187 166 170 173
-767.626059647455 210.555165028918 2251.51043399416 163 167 170
-759.550665500992 210.555192079775 2251.24460697803 168 172 173
-751.797857879627 210.64470042589 2251.93487990684 167 171 172
-743.142780105134 210.461329576877 2249.7327235832 173 177 178
-736.324230452723 210.820994273992 2253.30385225198 185 189 190
-729.500980856525 211.180336461192 2256.87666425296 197 198 200
-722.376436780328 211.448471949866 2259.48550992499 193 194 196
-715.54647453285 211.807139732497 2263.06096430462 188 189 191
-709.294872735581 212.347798106166 2268.57312256826 181 182 184
-703.317351628673 212.979714352774 2275.05913881382 179 180 182
-696.460695608345 213.337950263151 2278.64400515289 177 178 180
-689.031876907178 213.513060086355 2280.28983005059 176 177 179
-681.890006437165 213.778984451398 2282.90480421936 180 181 183
-674.47004919544 213.952735573705 2284.54730689991 181 182 184
-667.88419312164 214.401017656554 2289.1071318136 183 184 186
-660.468074079128 214.573785050159 2290.74816570833 194 195 197
-654.412809254193 215.205404734602 2297.26240679018 199 200 202
-649.143184271361 216.113286750587 2306.71196286476 200 201 205
-643.838389390947 217.022007292618 2316.17436075204 200 201 203
-637.708524354435 217.655099530224 2322.71607230407 194 196 195
-633.123617603508 218.842086337508 2335.13782645053 196 198 195
-629.521212191489 220.399968503351 2351.49706486535 193 195 192
-889.47624554333 177.954024617706 1988.2511942121 156 163 147
-963.274701381663 198.047354711982 2208.27925356561 152 158 148
-979.740843377458 203.700082489626 2269.92086789739 194 199 192
-970.86818414916 203.652583283154 2268.87457505691 196 201 197
-960.161694933426 203.176848889685 2263.12898069295 193 197 198
-950.974146685038 203.040699043194 2261.12385378916 192 195 200
-941.446260193077 202.817383257006 2258.16899719845 192 195 200
-932.312044417178 202.678031302698 2256.14399669513 194 197 202
-921.761198592921 202.194086347648 2250.34148604722 198 201 206
-912.688205819766 202.051269772253 2248.29397951662 197 201 204
-903.996216292061 201.992898401381 2247.18122226679 198 202 203
-893.913147513044 201.588933072577 2242.28108717394 195 199 200
-884.922013983439 201.441355274416 2240.20373316936 185 189 190
-875.608691917339 201.205961770411 2237.17000598179 185 189 190
-867.361639124861 201.228002329415 2236.96820995265 189 193 194
-858.102160827558 200.989492147813 2233.91468414349 190 194 195
-850.91374963312 201.268669352305 2236.54756825316 186 190 191
-843.387953103252 201.460670625436 2238.22990332485 182 186 187
-835.197515545292 201.478444036182 2238.0072148917 179 183 184
-827.022579483898 201.495105434162 2237.77881027957 178 182 183
-819.193001385504 201.597605108227 2238.49821132745 180 184 185
-810.39209330074 201.437961657927 2236.35057659697 193 196 201
-801.292372784141 201.189694340699 2233.23826859501 199 202 207
-793.512071239558 201.288809191872 2233.93951023004 198 201 206
-787.339885554665 201.823773357723 2239.42238400055 186 190 193
-780.835590424122 202.27136909373 2243.95252297462 176 180 183
-773.692538724487 202.543771224125 2246.56841508621 171 175 178
-766.86169386002 202.903277450902 2250.14425341569 172 176 179
-758.479556964651 202.823669050834 2248.91705839517 189 193 194
-751.038509021275 203.006373258849 2250.56789964429 192 196 197
-742.690492324785 202.924554196516 2249.32839498141 192 196 197
-735.871325562189 203.281592953365 2252.89954973811 197 201 202
-728.150415134595 203.373979872038 2253.57870471669 203 204 206
-721.922449864804 203.906641514134 2259.08141727082 200 201 203
-715.385794232174 204.351051642518 2263.62332797665 195 196 198
-710.004744706876 205.149110805495 2272.03852622492 183 184 186
-704.015867427292 205.770721757395 2278.52789104354 178 179 181
-697.148386958861 206.126730645715 2282.11652227875 170 171 173
-689.709039454139 206.305110439872 2283.76641941071 174 175 177
-681.994282168505 206.393905895511 2284.44281343486 180 181 183
-675.404588442 206.837500567529 2289.00393334452 181 182 184
-668.529226913774 207.192001127793 2292.59531425896 180 181 183
-661.37603917197 207.457087423903 2295.21433718395 186 187 189
-654.765207102358 207.900138521519 2299.78309643395 190 191 193
-649.218048672741 208.700252858045 2308.25880335141 193 194 198
-643.375109483582 209.411608760645 2315.76847101844 192 193 195
-637.50732216259 210.123475435591 2323.28745978876 183 185 184
-632.396535256622 211.104549024445 2333.75138268342 187 189 186
-629.826322326762 212.983282723847 2354.02652912686 190 192 189
-983.260340597172 194.854426314249 2258.37491444808 159 165 153
-980.037551212087 196.054433842541 2271.36955317885 197 202 195
-971.9062657377 196.18297128362 2272.20028613272 194 199 195
-961.931785112728 195.897412107257 2268.33644136151 192 196 197
-951.992942747844 195.609805063292 2264.45949335715 192 195 200
-941.358708259704 195.154620951646 2258.68919668875 194 197 202
-931.496371941954 194.863011553961 2254.78414918035 195 198 203
-921.309400851791 194.48646729928 2249.92408896821 198 201 206
-912.594510952893 194.440319454636 2248.82032026257 198 202 205
-903.189633112234 194.226445283972 2245.82173669954 199 203 204
-893.815347603362 194.010793691351 2242.81164937891 197 201 202
-885.172070613008 193.960314842145 2241.68178853825 187 191 192
-876.89682002307 193.992122209673 2241.49097474918 187 191 192
-867.946894359209 193.855513079961 2239.39922167774 190 194 195
-858.680203534365 193.633631761002 2236.34957112495 185 189 190
-851.143762860969 193.82926482392 2238.03604763805 182 186 187
-843.612520218291 194.024248100968 2239.720586484 180 184 185
-835.416953161821 194.050410361319 2239.5003947424 181 185 186
-827.236898088908 194.075460199057 2239.27448298057 194 198 199
-818.413076597428 193.930826030681 2237.13630602555 203 207 208
-809.615143039452 193.784779344323 2234.98887074059 206 209 214
-801.167504126512 193.721682082593 2233.78697515996 200 203 208
-794.350235574178 194.080016347342 2237.35753797373 177 180 185
-787.84750358848 194.522654049317 2241.88698921224 172 176 179
-781.017940739055 194.88045641214 2245.461978873 177 181 184
-773.555078308264 195.068271121468 2247.12113174011 199 203 206
-766.097586126192 195.255383453796 2248.77802609346 221 225 228
-758.336535345329 195.356783100968 2249.47244559459 225 229 230
-750.586024896934 195.457218764584 2250.16270835773 226 230 231
-742.542174609368 195.471585845662 2249.88650225124 222 226 227
-735.719835409264 195.826158080165 2253.45862357058 209 213 214
-728.593949032073 196.095060650338 2256.06801482849 209 210 212
-722.357454776582 196.620002425438 2261.57349811239 208 209 211
-715.518590577526 196.973866873729 2265.15182448609 205 206 208
-709.257457090101 197.498788981562 2270.66625864434 189 190 192
-703.270059714841 198.109592985448 2277.15427035666 182 183 185
-696.976706647402 198.634761901555 2282.68042972039 176 177 179
-689.818015077661 198.902058282969 2285.30161914723 178 179 181
-682.659940471398 199.168883913551 2287.92254888916 181 182 184
-675.224073920623 199.348987465761 2289.57105701488 182 183 185
-668.345626417411 199.701093761114 2293.16363283406 183 184 186
-662.282458650246 200.312030273093 2299.67918477322 184 185 187
-655.92878777357 200.836757562916 2305.22722654085 185 186 188
-650.36490357232 201.621297685468 2313.70783545996 174 175 179
-643.177487984669 201.886560396264 2316.33930795752 177 178 180
-636.779901020409 202.411634300399 2321.90333224161 194 196 195
-630.888593402352 203.110558291532 2329.42963596773 198 200 197
-628.84097703507 205.114178040308 2351.65743878088 200 202 199
-938.874426612494 174.326822151475 2109.75834100388 159 165 151
-983.185467886562 187.146580225601 2258.88735976241 153 159 147
-981.460248165042 188.63573097707 2275.62591646165 195 200 193
-972.569922873858 188.610479961154 2274.58772102676 195 200 196
-962.588366173542 188.344105044749 2270.7278947425 191 195 196
-951.906583103851 187.91576120977 2264.97689940118 190 194 197
-942.366814647895 187.725514433229 2262.02885508379 193 196 201
-931.769311046629 187.292820980262 2256.24716396616 194 197 202
-920.857496426619 186.777452951526 2249.50662537395 195 198 203
-910.71210294577 186.420408607372 2244.63267544907 196 200 203
-901.673030674266 186.302902134489 2242.57500831925 193 197 200
-893.364541126877 186.345179517528 2242.39706147109 193 197 198
-885.071375561884 186.386351825324 2242.21346346494 186 190 191
-877.488414907321 186.588060917627 2243.91730088035 188 192 193
-868.875944856111 186.546307162951 2242.77665073883 191 195 196
-860.284081658871 186.503228179146 2241.62866766798 184 188 189
-851.373076374898 186.377619957814 2239.52385770225 195 199 200
-842.487698713437 186.25057722253 2237.40937371721 189 193 194
-834.297274167564 186.284756662762 2237.18791841741 187 191 192
-825.790349385596 186.236363169808 2236.00867304228 196 200 201
-817.304075212783 186.186656428979 2234.82182543866 204 208 209
-808.511526552004 186.0539610326 2232.67318668923 211 215 218
-801.366534857777 186.328523296093 2235.2899466592 197 200 205
-795.508842133461 186.930000287854 2241.73012806289 172 175 180
-788.354066028658 187.203932559258 2244.35039554277 177 181 184
-780.566303462536 187.313313935347 2245.05512267282 193 197 200
-772.789020056176 187.421763494533 2245.75571771826 219 223 226
-765.64535485205 187.69386206637 2248.3718098351 211 215 218
-759.120009071049 188.130058670633 2252.90899152358 221 225 226
-752.278300322371 188.483779996121 2256.48808632489 221 225 226
-744.520436051951 188.589551275235 2257.18167789371 227 231 232
-737.375760507922 188.859724121233 2259.79799180589 230 234 235
-730.23149218755 189.129434413348 2262.41412285799 221 222 224
-723.679931491659 189.564168049208 2266.96046472099 223 224 226
-716.237922395944 189.750185172928 2268.61190515763 223 224 226
-709.674551559434 190.184516864949 2273.16250776093 205 206 208
-702.813061506582 190.535662678177 2276.74884983166 193 194 196
-696.804675636241 191.136091194122 2283.24370460532 182 183 185
-690.20968901789 191.570245318694 2287.80603531699 175 176 178
-683.043537684948 191.837475927767 2290.42993019331 180 181 183
-676.156154346478 192.187741721454 2294.02535956298 184 185 187
-669.264286051768 192.537765930981 2297.62240025777 185 186 188
-662.914183889397 193.054790663559 2303.16856420722 177 178 180
-656.008304929555 193.404409601281 2306.77066492441 173 174 176
-650.169941131662 194.089251076333 2314.27692392932 175 176 178
-643.510431400929 194.522711061195 2318.86264593689 180 181 183
-637.104210701243 195.040126350588 2324.42897502133 203 205 204
-630.683476800776 195.557678283516 2330.00084191188 197 199 198
-628.114222309225 197.338917903316 2350.26828403469 185 187 184
-982.732058159312 179.354996498618 2258.46421310941 154 160 150
-979.126751175743 180.418301694711 2270.520709897 193 198 192
-971.368081249944 180.634738616956 2272.2895003276 191 196 190
-962.503191830423 180.618839468048 2271.24251439335 191 195 194
-952.923091202637 180.446962558921 2268.31051030447 193 197 200
-942.643176015814 180.1184763893 2263.48784623237 192 195 200
-932.404107636411 179.787917449753 2258.65018458737 193 196 201
-921.485711968214 179.299962267469 2251.91410548016 195 198 203
-911.333422572712 178.964923855771 2247.04432148278 193 196 201
-902.28697859119 178.861313080965 2244.99038122466 193 197 200
-894.323158445836 178.990005308126 2245.76027941429 193 197 200
-885.669946499635 178.961680937635 2244.63569990699 190 194 197
-877.731671304139 179.088332671923 2245.39616269856 186 190 193
-868.76965624632 178.9794570756 2243.31114900259 182 186 189
-860.859594939896 179.103964010833 2244.06119880019 178 182 185
-851.601612462832 178.913900362021 2241.01078487162 182 186 189
-842.037501512154 178.643568045582 2236.99898627743 192 196 199
-833.512677724637 178.607278254442 2235.82715752683 197 201 204
-825.340341852962 178.648403176205 2235.59965398005 202 206 209
-817.842164884793 178.846143723295 2237.27238686512 196 200 203
-810.349216586733 179.043098098699 2238.94290635482 180 184 187
-803.510053532414 179.397480417534 2242.52138038802 177 181 184
-797.309148095531 179.909776025818 2248.01297874412 187 191 194
-789.816867401521 180.105275065554 2249.68314586079 184 188 191
-782.646525086643 180.379398824963 2252.30908357744 175 179 182
-774.848667280827 180.494177094711 2253.01788589144 183 187 190
-767.061321847812 180.608111577333 2253.72255069526 194 198 201
-759.902186562952 180.880368104363 2256.34427559138 166 170 173
-752.74342179587 181.152133736099 2258.96582882563 154 158 161
-745.28139849928 181.343607866246 2260.62495291292 162 166 169
-738.126017489491 181.614288425834 2263.24519483064 168 172 175
-731.568106693429 182.044476308314 2267.79350093916 193 197 198
-724.704533168604 182.394512509536 2271.3805162915 200 204 205
-717.249363963661 182.583826803096 2273.03673276152 209 213 214
-709.218203606686 182.611871285676 2272.75694790846 220 224 225
-701.779522473066 182.799664007191 2274.40731314318 221 225 226
-694.917954557199 183.147789409727 2277.9932013044 213 217 218
-688.618210637896 183.656771776045 2283.52046140359 189 193 194
-682.303699263435 184.165825086022 2289.05309242664 179 183 184
-675.418389549556 184.513494969841 2292.64782681033 178 182 183
-669.07952209474 185.022577098422 2298.18930948645 169 173 174
-662.452991200763 185.450801712893 2302.76239972182 172 176 177
-655.816954645625 185.878997044607 2307.33919581669 184 188 189
-649.439190876256 186.388229607176 2312.89482233511 212 213 215
-643.046788994107 186.897587610372 2318.45577689432 214 215 217
-636.902412361087 187.48841310959 2324.99931765618 188 190 189
-631.518744700049 188.323870631953 2334.48484517486 175 177 176
-988.116848037912 170.972196122443 2251.60874179395 159 165 153
-985.30135690856 172.155720564359 2265.52045202954 158 164 154
-979.797038426335 172.821075442006 2272.90386953148 192 197 191
-972.030277097989 173.040492337641 2274.675570411 187 192 186
-963.157932755862 173.035709286022 2273.63238616264 191 195 194
-952.835455423344 172.731158905883 2268.82699251001 193 197 200
-943.648831757613 172.648642844358 2266.82532212009 191 194 199
-932.675302044658 172.190504223914 2260.11152498908 193 196 201
-922.472753868 171.879718482514 2255.26208610229 199 202 207
-911.596368603311 171.416830480273 2248.51263439658 196 199 204
-902.899880466756 171.402078005267 2247.40480277563 194 198 201
-894.576017764987 171.461303180592 2247.23372030978 192 196 199
-886.267476201154 171.519334064048 2247.0569809879 188 192 195
-877.627143160746 171.50094163358 2245.92821716595 187 191 194
-868.662891955567 171.405671701984 2243.84504251543 186 190 193
-860.408182998354 171.460169481041 2243.64847720754 182 186 189
-851.150699427806 171.286433320364 2240.59911394256 180 184 187
-841.587246566119 171.035161656625 2236.5885143966 196 200 203
-833.062603322987 171.00979257624 2235.41744403251 204 208 211
-824.890288814632 171.059134820066 2235.19055273372 205 209 212
-818.708371509645 171.564078086733 2240.67469724249 195 199 202
-812.184692813197 171.992884659768 2245.2107156269 173 177 180
-805.974867013394 172.497890166318 2250.70475073077 168 172 175
-798.785597476944 172.773795787767 2253.33769986216 164 168 171
-791.277713087438 172.972689889776 2255.01404685552 157 161 164
-784.091545905945 173.247491660775 2257.64578549757 149 153 156
-776.278181601287 173.368473822997 2258.36068999852 161 165 168
-768.786505721981 173.565318918489 2260.03073892536 175 179 182
-760.683078305208 173.607651440556 2259.77828946447 174 178 181
-753.207577631096 173.802897863491 2261.44259501466 170 174 177
-745.130547677623 173.843335230756 2261.18041137156 154 158 161
-738.574098654981 174.268628592813 2265.72807136877 153 157 160
-732.90290615626 174.925630885218 2273.17123594662 162 166 167
-726.319122747816 175.351069462562 2277.72883850944 166 170 171
-718.845857442001 175.54393577723 2279.39215228341 172 176 177
-710.796822399594 175.580926762465 2279.11953700275 197 201 202
-703.33987923703 175.772245820491 2280.77654928087 212 216 217
-695.603165859112 175.885200216186 2281.46299791376 221 225 226
-689.009207395583 176.308697842794 2286.02389670312 213 217 218
-682.405699573687 176.732138118466 2290.58851511103 190 194 195
-675.236760444736 176.999388351031 2293.21342437897 195 199 200
-668.619135344198 177.422516849309 2297.78314860028 207 211 212
-662.264642804043 177.923737180783 2303.3294609663 202 206 207
-655.895500735047 178.42515903556 2308.88136556681 199 203 204
-649.511715305543 178.926617208261 2314.43859339037 192 193 195
-643.643516472494 179.585320152834 2321.95372039012 183 185 184
-638.275433354745 180.401737306337 2331.43214883272 177 179 178
-633.392279857417 181.376478248993 2342.87969669579 183 185 184
-976.255381485306 159.402282865408 2202.78041939921 163 169 157
-995.269572298227 164.616531896573 2269.86299401865 156 162 152
-988.623417177238 165.054575338568 2274.44395531889 172 177 170
-980.466221955708 165.206175645411 2275.28609669223 189 194 188
-971.573724834034 165.213508739983 2274.25089458283 184 189 185
-962.331560073984 165.147739823399 2272.27092226237 192 196 197
-952.379871252226 164.936682566349 2268.4044176619 195 199 202
-942.098905112824 164.651664468313 2263.5851608705 196 199 204
-932.221165261636 164.436734567894 2259.69149563478 195 198 203
-922.379154563435 164.219872351365 2255.78470285966 191 194 199
-912.930065861784 164.073336075446 2252.80700920917 189 193 196
-903.511644597767 163.925184406634 2249.81805104292 182 186 189
-894.828066440873 163.920348965965 2248.70627699762 183 187 190
-886.164943572924 163.914207910831 2247.58697226696 182 186 189
-877.17530933121 163.83399791744 2245.51390221799 182 186 189
-868.211399163766 163.752381809933 2243.43163385847 184 188 191
-859.61493110461 163.74217676341 2242.28780429796 194 198 201
-850.699726903019 163.657628686758 2240.18736370492 201 205 208
-842.48362439676 163.717823442625 2239.97720106956 209 213 216
-833.280741142325 163.557363660012 2236.90925548843 206 210 213
-825.766371727633 163.761705909895 2238.58811550118 182 186 189
-819.244306050034 164.185595966949 2243.12317685628 165 169 172
-813.691345247887 164.829789204742 2250.52241695501 153 157 160
-807.141440056853 165.253754890442 2255.06759915714 149 153 156
-799.61763482374 165.456576331454 2256.75002711488 152 156 159
-791.461723992235 165.511083801331 2256.5175654688 161 165 168
-784.269995212662 165.786162479858 2259.15134574141 168 172 175
-776.451309950106 165.912785503892 2259.86835485298 169 173 176
-769.26531052097 166.186746992804 2262.49996914367 168 172 175
-760.537360832385 166.089269160184 2260.33077068833 170 174 177
-752.447166621436 166.138915578418 2260.07406495195 186 190 193
-744.372764052781 166.187557748278 2259.81154574673 176 180 183
-737.517283715291 166.532914284901 2263.39501314676 165 169 172
-732.148241521129 167.2509428954 2271.79981024772 163 167 168
-725.86193602768 167.74561381162 2277.32110784036 162 166 167
-718.974540218809 168.090907512181 2280.91616658862 160 164 165
-711.211006664666 168.211311906117 2281.61292211301 177 181 182
-703.746149454973 168.40579874646 2283.2730488759 194 198 199
-696.287055643033 168.599659566124 2284.93128865093 211 215 216
-689.399299693344 168.943121233807 2288.52634002207 228 232 233
-682.226800257747 169.211076351232 2291.15259606781 199 203 204
-674.499511392217 169.327950156798 2291.83591614714 194 198 199
-667.058146690067 169.519404783301 2293.48727841441 179 183 184
-660.71307190714 170.012322965638 2299.0297968504 184 188 189
-654.893427250008 170.656622448513 2306.52619553043 196 200 201
-648.781349578783 171.225699814867 2313.05635993514 183 184 186
-642.914435700647 171.87096706375 2320.56975201257 182 184 183
-638.072143639515 172.820379662601 2332.00054231736 181 183 182
-634.743360801989 174.227088283222 2349.31576763241 174 176 175
-961.651812527966 149.213566803642 2167.85205708524 161 167 155
-996.334069677731 157.052272000689 2273.17196591066 155 161 151
-991.564653152827 157.829094251555 2282.42988879885 179 184 177
-982.634243416376 157.849269742864 2281.40968505078 186 191 187
-972.606792274594 157.661153041643 2277.57243864796 185 190 186
-962.245044174736 157.402070612098 2272.78448986412 193 197 198
-951.556816235301 157.071703258141 2267.04322866797 198 202 205
-942.008796672011 156.946944769192 2264.10337778887 198 201 206
-932.491268940179 156.820412785991 2261.15205996406 196 199 204
-923.00435271254 156.692208043999 2258.18949361787 189 192 197
-913.548068963077 156.56232972352 2255.2156710678 188 192 195
-903.76800577281 156.361031167029 2251.28754473964 188 192 195
-894.375640187014 156.22767222229 2248.29023570164 189 193 196
-885.712696986712 156.232392360312 2247.17168518534 183 187 190
-877.416988212711 156.305851842048 2246.99144734137 179 183 186
-868.44829181408 156.238000612263 2244.9119565814 178 182 185
-859.163559367433 156.098469990164 2241.87507471893 187 191 194
-850.58784206155 156.097875548684 2240.72443076596 196 200 203
-843.042181388429 156.307132923738 2242.41503092207 206 210 213
-835.501826179709 156.515752398909 2244.10390957841 200 204 207
-827.635292690378 156.653059079628 2244.83910984663 175 179 182
-820.765710035064 157.001543570897 2248.42819146275 162 166 169
-813.238555316545 157.208201821591 2250.11187160249 149 153 156
-806.040469744531 157.485047505668 2252.74809485991 159 163 166
-798.200413138911 157.619459630717 2253.47371098836 175 179 182
-790.052249087437 157.681882501685 2253.23903187583 178 182 185
-782.551777496785 157.885638136376 2254.91305233138 179 183 186
-775.056660422957 158.088662232962 2256.58481778891 179 183 186
-768.18883593412 158.43386221187 2260.17301277543 180 184 187
-760.699535599498 158.635706151694 2261.84257574845 166 170 173
