ply
format ascii 1.0
comment KinectMotionCapture
element vertex 775
property float x
property float y
property float z
property uchar red
property uchar green
property uchar blue
end_header
-959.674025382984 -5.19569736669068 2573.56207809213 28 29 23
-1033.79762798796 -11.9710526382276 2562.42399540858 30 31 25
-887.469683710901 -26.0945467843934 2276.79414045148 28 33 27
-870.706960273343 -23.7060092774848 2292.65771846839 38 41 34
-868.965176446262 -22.9442118024045 2302.76106310249 35 38 31
-837.108301927812 -18.9421579877272 2324.07004041965 37 42 35
-821.213829419875 -16.6679916691777 2339.2704948116 42 45 38
-792.105608647471 -12.9830826035913 2359.20785121381 42 45 38
-797.840634658792 -13.0409021841431 2366.28697149361 43 46 39
-802.637553789687 -12.9970509237686 2373.72885983203 41 44 37
-822.543215085376 -14.5644489005066 2375.78831216081 35 38 31
-813.188002212281 -13.0081540659082 2388.32971934133 32 33 27
-797.201278892735 -10.7508709538093 2403.13359375125 32 33 27
-781.191513369834 -8.49780168127651 2417.83732299301 34 35 29
-834.254263772672 -13.5712119741179 2408.58302826451 30 32 27
-835.291598231429 -13.1221211636714 2417.44638593091 28 30 25
-814.529271975146 -10.3712945616599 2433.70012374437 25 27 22
-813.653792090042 -9.72534648864093 2443.13154823262 33 35 30
-811.825476010517 -8.98021704469065 2452.86447199679 30 32 27
-810.942214913434 -8.33579918813498 2462.26359442374 26 28 23
-814.80677056491 -8.1903814202538 2470.09362091437 28 30 25
-824.379005795369 -8.64186048488458 2476.0865192483 28 30 25
-812.077624568631 -6.80470009414702 2489.14943621085 24 26 21
-823.560171981316 -7.45401782123661 2494.56273257647 24 26 21
-841.724329003541 -8.79576880599392 2497.92929565582 26 28 23
-843.703074459083 -8.44907094098901 2506.44486981887 26 29 22
-848.543916560948 -8.39947002042435 2514.07692626671 25 28 21
-861.025203315052 -9.14043337841253 2519.3887395676 27 30 23
-867.78931741722 -9.28641181531314 2526.49697360981 30 33 26
-839.194341510306 -5.78043987570126 2544.24482106766 29 32 25
-891.857235037676 -10.6596330408251 2537.67070078305 25 28 21
-892.904912580819 -10.2107103691793 2546.57973492168 25 28 21
-888.205394042679 -9.17203383059972 2557.15705245016 23 26 19
-908.413190223649 -10.6892306216543 2560.51835815418 21 24 17
-894.12329085232 -8.66964537421916 2573.82640894356 20 23 16
-938.344848750818 -12.633334460506 2570.52626601246 19 22 15
-795.257894040756 -25.4567545840672 2302.97090640683 27 32 26
-883.748360265328 -34.1414767515654 2287.91299321427 22 27 21
-856.636856739537 -30.5566974397438 2307.59402886744 29 34 27
-850.181023996039 -29.2667365796142 2319.39811702887 37 42 35
-794.769665115218 -22.5762961480113 2349.24902240417 44 49 42
-797.678685733306 -22.3338405822654 2357.36882990312 48 51 44
-806.244200093689 -22.713272553894 2363.43956731598 51 54 47
-827.079040037225 -24.4375885997865 2365.12940327379 51 54 47
-806.415200102785 -21.6054351690328 2381.76820826909 43 46 39
-787.610499080788 -18.9852215775356 2397.61129270007 36 37 31
-760.274361515886 -15.4406974248145 2416.32613835173 26 27 21
-758.430726483648 -14.6875390124081 2425.98574921215 26 27 21
-807.677091756555 -19.4985636994193 2417.9866503512 27 29 24
-805.857536046227 -18.7413790027903 2427.75000042395 26 28 23
-791.716358111254 -16.6486162962757 2441.67036280539 27 29 24
-796.51573509341 -16.6135738546194 2449.12826290955 32 34 29
-812.703290952751 -17.8090290681784 2452.81155001802 31 33 28
-828.909456769498 -19.0012478880602 2456.57602617158 27 29 24
-823.286598729025 -17.8357659939145 2467.56640201917 27 29 24
-809.09916092433 -15.7517160634164 2481.28695496862 26 28 23
-818.669654191046 -16.2252635163168 2487.2851571137 26 28 23
-831.105867650465 -17.0033127924333 2492.41907787023 27 29 24
-830.222223608239 -16.3519106078926 2501.81240486701 28 30 25
-834.100024442074 -16.2103685953273 2509.70416325217 31 34 27
-845.609741439635 -16.8822499112568 2515.25045560101 29 32 25
-850.452285014675 -16.8407644409951 2522.89478296106 28 31 24
-844.795171303754 -15.6821996385542 2533.73827703043 25 28 21
-859.193675354331 -16.6547190080289 2538.52074771128 22 25 18
-854.553669730087 -15.0503515773974 2558.14149083074 24 27 20
-946.525529875306 -24.2050948264937 2540.47325583225 23 26 19
-915.99257302878 -20.4165588111708 2558.62894807903 19 22 15
-948.685385486371 -23.2917758817618 2558.56753586181 18 21 14
-917.150129235398 -19.4102728662586 2576.80824630183 19 22 15
-853.897029579851 -12.2154944311171 2603.7043113021 27 28 20
-877.961541775539 -14.1835568820283 2606.09900002496 23 24 16
-812.158850121285 -35.5971766655545 2305.94617061141 26 31 25
-812.264073523936 -35.03443526604 2315.19167129019 28 35 28
-856.532283447504 -39.493072544826 2307.83289680499 37 44 37
-815.288574673286 -34.2304425657162 2332.6039729957 42 49 42
-803.157140145355 -32.2827947139922 2346.35078773945 37 42 36
-794.856039319845 -30.206057291314 2367.78751750679 42 44 39
-811.906531384692 -31.5612704487876 2370.8109562665 39 41 36
-806.335324892971 -30.3647873953239 2382.01179108567 36 38 33
-782.818289757644 -27.1548108154568 2399.52585816713 39 40 35
-756.434182198322 -23.6328635463255 2417.89276857468 38 39 34
-766.878321628819 -24.245655077226 2423.2651646103 37 38 33
-790.576124881546 -26.3369038843541 2424.11637701464 40 42 37
-798.212041835725 -26.6274241312018 2430.59597102965 35 37 32
-796.384711934645 -25.86145478923 2440.31989670524 29 31 26
-776.545648133934 -23.0935178114954 2456.07450374363 34 36 31
-793.664247405635 -24.4375918028314 2459.39151033392 36 38 33
-814.598797971367 -26.1990530504309 2461.54257623481 39 41 36
-815.616944817245 -25.7493446948516 2470.32101902349 37 39 34
-793.82875829118 -22.7803194801822 2486.48229516227 37 39 34
-834.765150989301 -26.7384459547304 2482.37285754871 37 39 34
-849.111743194511 -27.7543138642706 2486.95207097808 30 32 27
-822.535462462779 -24.2672087390873 2504.49264887348 26 28 23
-829.330749224429 -23.8924023857884 2520.54583734875 24 26 21
-833.208304455892 -23.7567676182399 2528.43998791721 22 24 19
-835.179551072423 -23.412337682598 2536.92385180471 22 24 19
-848.613184728026 -24.3173697573718 2541.97126075194 26 28 23
-869.708147702193 -26.0519128539078 2544.81336360598 26 28 23
-889.871758127576 -27.6783145041409 2548.04419218975 26 28 23
-889.004218349618 -27.0173107881851 2557.50283652983 22 24 19
-904.413259213015 -28.1196246609419 2562.25824851096 18 20 15
-906.423983148329 -27.7689713124821 2570.91241176166 16 18 13
-834.599702347167 -19.4516338686941 2600.38958355287 18 21 14
-827.895746452821 -46.8576771384019 2290.78040724578 28 33 27
-804.56144030649 -43.5435538068889 2309.03842762872 29 34 27
-803.724027682612 -42.8669978625571 2318.62068222406 33 38 31
-768.12665867468 -38.137924890716 2341.24599093741 34 39 32
-774.779610442012 -38.3422298771121 2347.89868557043 25 28 21
-780.498303237117 -38.4361215829649 2354.9270487518 25 28 21
-794.693321810195 -39.5121526547692 2358.87372758976 30 33 26
-782.60671898223 -36.9686780202749 2381.58154910549 40 41 35
-799.653340619436 -38.3676409243617 2384.61475111774 37 38 32
-784.634590714716 -36.064480988756 2399.09959746881 30 31 25
-764.872138573213 -33.2218425443961 2415.14786257676 31 32 26
-775.319551378239 -33.8584442810331 2420.54868736859 35 36 30
-792.397249590123 -35.2523408192288 2423.71476436058 34 37 30
-799.086953653013 -35.4509177069049 2430.52712807538 30 33 26
-786.84745178731 -33.4836187457226 2443.78617783471 47 50 43
-775.536753852907 -31.6277100955082 2456.64826847653 47 50 43
-786.013974471739 -32.2595102273966 2462.17761949243 34 37 30
-811.681101429092 -34.6160851041111 2462.74896252461 30 33 26
-798.459102595853 -32.5470972373468 2476.17624787397 29 32 25
-816.56398727375 -34.0357532900921 2479.36802767783 25 28 21
-851.799547885795 -37.4574537534464 2477.16254558574 25 28 21
-844.277429415947 -36.034795550422 2488.74740972581 27 30 23
-812.949643968349 -31.9300086842928 2507.76994117002 28 31 24
-809.197321746165 -30.9435997698642 2517.99548656182 27 30 23
-799.719765927425 -29.3155870159594 2529.95559822209 28 31 24
-804.531824652131 -29.2960070908201 2537.47847592488 27 30 23
-827.478302286745 -31.3077639724793 2539.52856696795 29 32 25
-817.032264826934 -29.5756113427347 2551.71614581613 30 33 26
-845.744871742836 -32.2221124699107 2552.20784590907 28 31 24
-873.536143949514 -34.7559905589189 2553.13086657909 25 28 21
-909.014716607573 -38.1361632116192 2551.97289643527 20 23 16
-909.115716167301 -37.5720201707797 2561.19896003318 19 22 15
-876.643688603649 -33.3943855598571 2579.69394834649 19 22 15
-874.801677195913 -32.6225635741981 2589.34973652601 17 20 13
-852.811522189451 -29.624032405092 2604.60366894207 19 22 15
-877.467469050866 -61.7062000168119 2271.89095176452 25 30 23
-821.351713630806 -54.3766197095271 2302.81945205426 28 33 26
-799.881451040721 -51.2182154731406 2320.2702973487 42 45 38
-749.33215930302 -44.0204929585523 2357.5775957984 32 35 28
-769.13757977008 -45.8092476753038 2359.3266106 29 32 25
-791.789762010147 -47.9297314268464 2360.14381646885 22 25 18
-790.147207787494 -46.0033378402896 2388.22615674603 42 43 37
-781.732031012357 -44.4331899696707 2400.34534973837 51 52 46
-768.583638590383 -42.3084613797764 2414.06420239651 38 39 33
-765.806658865587 -41.4114144433946 2424.08273519181 36 37 31
-791.380786319996 -43.8508372977158 2424.29299740141 32 35 28
-799.014637294746 -44.1744955499473 2430.78297821536 28 31 24
-787.726953812025 -42.2776678396072 2443.72133010234 27 30 23
-777.369206207193 -40.4947445584551 2456.26810319117 23 26 19
-796.374844655074 -42.1478006400028 2458.96832449776 18 21 14
-805.919508804599 -42.6905941613919 2464.89343697324 18 21 14
-817.372304296563 -43.4527633121872 2470.24200478661 20 23 16
-825.039510479724 -43.7711195955335 2476.87476297708 24 27 20
-832.714388924539 -44.0882264697153 2483.54059470332 26 29 22
-830.888813603026 -43.3020378044433 2493.26035971997 27 30 23
-823.349868654414 -41.8561726222975 2504.75634071931 27 30 23
-811.990344835432 -39.9725569124283 2517.38698004454 29 32 25
-802.519341382746 -38.3118133950147 2529.35562762141 28 31 24
-802.566333250377 -37.7514008648248 2538.3469828413 31 34 27
-805.472795813127 -37.5204597381841 2546.46229049425 31 34 27
-840.834958683606 -41.0142250585391 2544.85707696166 25 28 21
-859.047848831199 -42.5304324450558 2548.54099577755 20 23 16
-875.370596837034 -43.8243635327989 2552.87793753042 21 24 17
-885.017165417801 -44.350467403758 2559.24228323153 22 25 18
-916.685394790883 -47.3847461247724 2559.31592951842 21 24 17
-949.34959830971 -50.521369088413 2559.28328668268 20 23 16
-926.474945633268 -47.33461312655 2575.08531196345 21 24 17
-960.141913230741 -50.5726179475067 2574.97356148981 19 22 15
-956.550490401668 -48.9924258365947 2594.67169022441 18 21 14
-863.297044209182 -69.0076042056914 2277.537473268 9 14 7
-834.379735213048 -64.8523696248271 2298.03946664876 34 39 32
-832.62713005878 -64.0418119856929 2308.06644715549 35 38 31
-777.444065556533 -56.1053654441488 2347.30438713441 32 35 28
-767.183852511704 -54.2704932244658 2360.25039892116 31 34 27
-783.24426885586 -55.6487838804188 2363.48097403929 27 30 23
-781.515978765973 -54.2758335946484 2382.39821808872 12 13 7
-789.128711583047 -54.6193249821113 2388.80571894598 32 33 27
-778.831049702275 -52.7913010556987 2401.59073756585 40 41 35
-749.64408771333 -48.6838339749314 2420.93258005672 36 37 31
-749.689579641828 -48.1176791571904 2429.91394825612 41 42 36
-793.19891851342 -52.7912473214254 2423.89397277033 36 39 32
-806.506136893981 -53.8140835436003 2428.45361186194 32 35 28
-788.605450984668 -51.0828775686529 2443.65753232436 30 33 26
-803.815897208614 -52.3312591145739 2447.62373434015 27 30 23
-814.307104954727 -53.0093257856641 2453.24193315071 22 25 18
-822.91361347827 -53.458740531233 2459.53447600575 25 28 21
-811.607866444095 -51.5284759013208 2472.37356299194 26 29 22
-811.675884241941 -50.9589290695404 2481.45219805524 27 30 23
-816.491115057469 -50.955019822742 2488.99827079579 28 31 24
-810.854745710353 -49.7083133081985 2499.88242079702 28 31 24
-827.084448153391 -51.0581559833049 2503.84223565606 28 31 24
-826.201698997603 -50.3760423146098 2513.22144254519 28 31 24
-827.220229026082 -49.9198207515592 2521.99774300087 26 29 22
-816.801986270294 -48.1139632745 2534.26445051662 26 29 22
-831.161214754889 -49.2329105461509 2538.9599745749 23 26 19
-859.849801711933 -52.0332033761813 2539.43737058195 21 24 17
-870.431687560704 -52.6963297225485 2545.44636185397 17 20 13
-868.604010929391 -51.9008004360275 2555.15137344274 20 23 16
-894.497476384244 -54.3527343180882 2556.77726753352 22 25 18
-950.079762652218 -60.2664481228257 2550.0058376124 20 23 16
-934.890572835773 -57.8997712446307 2563.70226909505 18 21 14
-880.403744481728 -50.9603510603344 2588.36793398101 19 22 15
-914.030928366986 -54.2934272940603 2588.13679149041 18 21 14
-979.352016617985 -61.2959869160746 2579.35322874956 23 26 19
-958.373524971821 -58.2671373101755 2594.48980706913 25 28 21
-937.365350017604 -55.2435160923561 2609.4986588286 38 41 34
-850.345158291038 -75.1763460802297 2301.55660105457 37 40 33
-807.311811300632 -69.1755095210717 2327.12012493987 36 39 32
-786.755692994592 -66.0071441350341 2344.03695090317 33 36 29
-810.333531049832 -68.3655589996853 2344.51666600086 34 37 30
-795.389575594122 -65.9067417584546 2359.23954716763 34 37 30
-786.068743805969 -64.155374804171 2371.81772213219 40 41 35
-788.031419289633 -63.8124837579256 2380.2647218032 49 50 44
-782.457564789139 -62.5332202159897 2391.40411278234 22 23 17
-764.61830386125 -59.7354336142694 2406.84063290097 19 20 14
-756.187094927091 -58.1105422366094 2418.85589422641 39 40 34
-754.350348725636 -57.3050967884458 2428.51510771047 29 30 24
-746.841319129738 -55.8008227421033 2440.10855877288 36 39 32
-771.457314399125 -58.2599718619676 2440.66583425572 33 36 29
-792.320026352182 -60.2483505218528 2442.63380332331 38 41 34
-803.743280797292 -61.0695036842356 2447.8868887634 35 38 31
-820.861645713178 -62.5856109859739 2451.30404702198 29 32 25
-811.464888029416 -60.8481785865232 2463.55475826227 28 31 24
-793.518439800158 -58.0696165544702 2478.53025674783 28 31 24
-807.809950531337 -59.2348526758398 2482.95460302733 26 29 22
-824.966478365897 -60.7445484311501 2486.53615799223 26 29 22
-822.189384863027 -59.822285059021 2496.54044434251 27 30 23
-820.35725189984 -59.0166768934886 2506.21989070258 28 31 24
-825.180218011721 -59.0199536480924 2513.80427617905 27 30 23
-817.630732560713 -57.5234537185057 2525.22402795782 27 30 23
-821.500909963709 -57.4116935716393 2533.09862343239 26 29 22
-850.158586542726 -60.2921751809644 2533.48697495731 18 21 14
-877.897359155748 -63.0516637468659 2534.31134893766 18 21 14
-874.171203900553 -62.0141031854387 2544.62102889676 16 19 12
-865.661790109883 -60.4039456660462 2556.30142703083 20 23 16
-883.900051683105 -62.0070047150545 2560.14823025149 27 30 23
-912.679815894467 -64.8666445803116 2561.06122525771 27 30 23
-877.375829329887 -60.0517646696305 2580.37247093126 26 29 22
-930.124026567601 -65.7652983174418 2574.66497967914 28 31 24
-856.45128658619 -56.387844052143 2604.48714948693 25 28 21
-904.455249674054 -61.5221986907789 2600.31629612844 28 31 24
-950.599893115465 -66.4181756906445 2596.9259034766 26 29 22
-930.555116331437 -63.444106076855 2611.65278031307 36 39 32
-823.870548176247 -81.3444314103994 2302.43986313753 36 41 34
-811.802570434361 -79.1884400613684 2316.34485054655 32 35 28
-793.14983284795 -76.1927734321716 2332.63674405935 33 36 29
-798.87671059488 -76.3298312552164 2339.72547733572 27 30 23
-817.759053780088 -78.1487407398228 2341.98102476916 28 31 24
-809.405929050832 -76.4811631563656 2354.31526337826 30 33 26
-780.347182110509 -72.1763343762743 2374.10601340845 30 31 25
-778.542064472498 -71.3549753920294 2383.89524071155 26 27 21
-784.26656288034 -71.4925915858871 2390.97490407752 19 20 14
-782.457087594501 -70.6720814228367 2400.74542832695 18 19 13
-785.358012571413 -70.4501625547177 2408.84164078964 29 30 24
-760.894500363214 -66.7641953303985 2426.46251577473 38 39 33
-760.003470368889 -66.067639391636 2435.79673805506 29 32 25
-752.494791573917 -64.5371484402241 2447.37631502076 27 30 23
-800.759106653048 -70.0368131465515 2440.01117974395 29 32 25
-813.1315985202 -71.0035151594845 2444.97526589504 33 36 29
-821.730793889765 -71.4922123697431 2451.25868745042 26 29 22
-769.752888916285 -63.8009676968017 2486.53791311227 27 30 23
-808.68915433498 -68.0875590786051 2482.92185506424 26 29 22
-814.450933241248 -68.2192492214745 2490.16231223796 26 29 22
-822.117691289198 -68.5868316528828 2496.82204889958 28 31 24
-817.436019098496 -67.4158125957124 2507.40016815164 29 32 25
-824.158795968853 -67.6640644836677 2514.38748689035 25 28 21
-820.419275237801 -66.6128355221078 2524.63131797988 28 31 24
-825.243530468314 -66.6243100004057 2532.22620568781 33 36 29
-854.848388567768 -69.698565132517 2532.34486261609 23 26 19
-868.278788631051 -70.7654257974045 2537.4732047874 21 24 17
-867.411313432259 -70.0655961078748 2546.90929753077 25 28 21
-846.489153328491 -66.8989253094416 2562.21412951062 25 28 21
-854.200495422488 -67.2592406716104 2569.06605486821 26 29 22
-874.348112367322 -69.1429812419212 2572.37776532671 26 29 22
-861.0358908759 -66.9214829876023 2585.31777612465 21 24 17
-897.483182647484 -70.7910189221434 2584.15887464908 19 22 15
-942.596578496903 -75.7054683919143 2580.79148288387 19 22 15
-885.202796583411 -68.1070243387413 2605.93012653008 18 21 14
-890.077239174443 -68.1103985640425 2613.74140430874 16 19 12
-923.748749942122 -71.6122620579608 2613.80486671014 26 29 22
-1011.24349153919 -81.6326799135335 2599.70123669449 27 30 21
-778.725068350861 -84.9011909657211 2310.64836294241 22 27 20
-808.786739582838 -88.2588538657793 2308.39028647471 13 18 11
-856.691614290022 -93.9515744035352 2299.55479932717 25 28 21
-771.495157918066 -82.1490838780944 2340.96454926066 30 33 26
-841.016841731888 -90.6654668330232 2324.24099922126 29 32 25
-792.31383247998 -83.6789261370925 2351.5826664919 32 35 28
-751.061410633794 -77.6864783966073 2375.88609290393 33 36 29
-786.851792667935 -81.7653323369063 2371.9555833278 28 29 23
-788.816226778462 -81.423087604305 2380.41071266079 31 32 26
-791.722609008046 -81.2033313736465 2388.53115849955 14 15 9
-825.719353440234 -85.0217388300799 2385.6575623203 13 14 8
-780.570801588863 -78.5622348527903 2410.74440223449 28 29 23
-774.980370620931 -77.2442380905428 2421.78905255975 25 26 20
-770.324420677449 -76.0500304786331 2432.46688007625 29 32 25
-782.662217232258 -77.0523240934139 2437.30009895505 27 30 23
-805.411139266244 -79.3924686782016 2438.67279332273 27 30 23
-825.350133021467 -81.3626696644922 2441.11604321413 28 31 24
-827.330754123346 -81.0179465082536 2449.6410440129 23 26 19
-772.488860697338 -73.3823752203596 2476.88904061823 25 28 21
-769.694370575527 -72.437066696895 2486.80311305464 25 28 21
-764.997494112071 -71.2502591471069 2497.30494726071 26 29 22
-787.810503259367 -73.5794908644951 2498.95362771621 25 28 21
-801.155534546462 -74.6931250193336 2503.73438301081 23 26 19
-812.615519314232 -75.5622421579826 2509.17753422187 23 26 19
-822.186724451369 -76.1874889133951 2515.26701144231 17 20 13
-805.129128443126 -73.4297435014595 2529.61405528909 16 19 12
-821.367030782672 -74.8991025207345 2533.68138562918 20 23 16
-840.481863760099 -76.7268953087596 2536.96555525873 16 19 12
-854.852869089311 -77.9486260760519 2541.77342876304 16 19 12
-819.639029238803 -72.9105056846593 2561.35060994537 20 23 16
-818.738555597818 -72.2087373528613 2570.64015232778 19 22 15
-845.532729662415 -74.9908925317351 2571.87181957365 22 25 18
-836.997406344951 -73.3273010737936 2583.40553092301 24 27 20
-924.195791787491 -83.0642545151103 2576.94315910689 19 22 15
-931.966621134701 -83.4306666795781 2584.06080545539 20 23 16
-952.201797598617 -85.3502620476957 2587.77944213469 21 24 17
-934.107193787216 -82.4871375486169 2602.05234503433 21 24 17
-934.216539425437 -81.8963978672758 2611.29954297888 23 26 19
-933.748067606846 -115.226382221391 2241.51712635686 17 22 15
-852.693777491046 -103.033912675244 2291.83637182713 26 31 24
-830.474427409466 -98.8088744691386 2319.02925189404 29 32 25
-846.543179558043 -100.347329593681 2322.39076287033 30 33 26
-814.758109930403 -95.4752174617997 2343.5044139467 31 34 27
-795.139693164783 -92.2426587601215 2359.95804339961 31 34 27
-801.810655040505 -92.5267054372909 2366.7380887973 30 31 25
-789.677678986325 -90.3034774710187 2380.31602346651 28 29 23
-795.408170163862 -90.4622778580992 2387.43455427301 38 39 33
-797.376880192233 -90.119820365581 2395.90840062082 15 16 10
-770.131872291097 -85.9027403467275 2414.62924058727 22 23 17
-763.594832847245 -84.4396525341631 2425.97365770272 24 25 19
-793.848483073529 -87.8445874549908 2424.58935495671 21 24 17
-778.815791362507 -85.2591783854736 2438.84675596808 21 24 17
-795.886274885591 -86.9125105468911 2442.13471886314 27 30 23
-797.849249765178 -86.5712200260701 2450.58397922156 26 29 22
-800.758751608172 -86.3542788208737 2458.71982757725 24 27 20
-757.279930939814 -80.0496325561704 2482.14273369339 22 25 18
-777.214170868637 -82.0717598015533 2484.59557682134 24 27 20
-762.097313287641 -79.5010902652082 2498.49185032543 26 29 22
-766.878806455471 -79.5364269538131 2505.91233876397 26 29 22
-776.410399278811 -80.1901355079946 2511.84400164787 24 27 20
-808.74762892566 -83.8107522087059 2510.65519318738 23 26 19
-807.859552955933 -83.0989651827128 2519.99238776039 20 23 16
-808.869742462341 -82.6347311995551 2528.72830884564 18 21 14
-829.864436112505 -84.7615351365553 2531.3592824053 19 22 15
-835.647436336951 -84.9118297072325 2538.70310901831 20 23 16
-836.670623338029 -84.4454365567405 2547.49503458869 21 24 17
-868.206533839885 -87.9168522027937 2547.24271749065 23 26 19
-832.03515156341 -82.6527798289198 2567.02392443126 23 26 19
-828.277002946452 -81.5736461311102 2577.16925768739 24 27 20
-832.154733076781 -81.4776039699275 2585.08746603887 23 26 19
-928.886857249921 -92.67772044845 2575.92840952711 18 21 14
-871.565051662776 -84.7366627233489 2601.18270809084 16 19 12
-931.029021380107 -91.7289042565843 2593.92385239543 20 23 16
-984.960003754538 -97.3732909312298 2597.94412870734 20 23 16
-911.200039123534 -87.3801083153739 2627.01978523605 26 29 20
-953.235140937142 -127.164860699724 2234.16166585763 19 24 17
-923.519629770734 -122.42056555545 2255.35626119688 31 36 29
-917.159416665419 -120.903024670748 2267.44784934043 28 33 26
-850.990885269561 -110.545378018753 2311.53465063132 29 32 25
-835.309629737476 -107.150757444403 2336.12845900862 30 33 26
-811.956925262617 -103.340757193271 2354.01374716507 30 33 26
-792.329447019887 -100.049065513161 2370.39266645155 28 29 23
-783.016112164679 -98.1705782332367 2382.92910919046 28 29 23
-780.274009236686 -97.1900790649005 2393.05333174455 49 50 44
-786.940741425227 -97.4887827438564 2399.82227306707 10 11 5
-754.046999916326 -92.4227287635629 2420.49281391718 20 21 15
-782.382307968077 -95.6584676465088 2419.6695750314 20 21 15
-775.850477426583 -94.1710334269721 2431.02153939443 19 22 15
-788.18607418261 -95.2331361059633 2435.88024243289 19 22 15
-760.864575636124 -90.9472626873425 2454.22464500296 25 28 21
-768.476248185253 -91.3732713603739 2460.67600768233 25 28 21
-778.932979991958 -92.1791488217325 2466.21745980822 25 28 21
-786.561905615826 -92.6022033431899 2472.74311192227 23 26 19
-762.946705507095 -88.8380510703002 2489.4986596287 23 26 19
-774.361059926771 -89.7689771028983 2494.77709125523 24 27 20
-801.908500140567 -92.8504368014796 2494.94771754757 25 28 21
-789.636480336361 -90.6121113878862 2507.90515207025 24 27 20
-768.800716121735 -87.2392852838286 2523.46835379843 23 26 19
-764.087477431781 -86.0188310880123 2533.87829676569 21 24 17
-835.425222146644 -94.8958305284451 2520.81305239665 19 22 15
-828.841835441894 -93.417552416598 2531.94430238667 21 24 17
-830.81540329616 -93.0750688186223 2540.43953975491 22 25 18
-854.699079440573 -95.6277364509926 2542.38120650589 22 25 18
-874.798628919272 -97.6723775296338 2545.57574048749 25 28 21
-886.337266059471 -98.58195664778 2551.38927770217 24 27 20
-851.192143506208 -92.7424349637291 2579.91072071204 21 24 17
-836.984952860717 -89.675610795859 2602.08009394638 19 22 15
-841.825777081896 -89.7093138091023 2609.76106825491 15 18 11
-954.875684596334 -103.869122265266 2587.67119855914 21 24 17
-943.62301478718 -101.163358297806 2609.40194931415 22 25 18
-947.57637629516 -101.060008198369 2617.64804831267 26 29 20
-904.864054703033 -128.369761846678 2272.34032139706 31 36 29
-846.062551962534 -119.473684955605 2304.18173013508 35 38 31
-803.106369552938 -112.823273912673 2329.70431345699 29 32 25
-814.46148274043 -113.791312711932 2334.74352266006 26 29 22
-802.378294861051 -111.480436114635 2348.4903870107 27 30 23
-766.81065374794 -105.898724471989 2370.74519970605 28 31 24
-777.218239226086 -106.737389902952 2376.08936965541 30 31 25
-776.358491152238 -106.005111169708 2385.54042708765 33 34 28
-774.554896752593 -105.142803316651 2395.31228186777 17 18 12
-758.629614532779 -102.323323497786 2410.05623535774 19 20 14
-820.846396521378 -110.333124385415 2397.29855220601 17 18 12
-790.790435948007 -105.558041652085 2416.97590980971 22 23 17
-788.982449791684 -104.696536100422 2426.72888387152 15 18 11
-764.523327687267 -100.713408841454 2444.19323794066 13 16 9
-758.914051956708 -99.336121563864 2455.11997465871 20 23 16
-766.523129172524 -99.778961726426 2461.56980053929 21 24 17
-781.703508616243 -101.258703939034 2465.53958981713 22 25 18
-791.225194432484 -101.957393379625 2471.45405301825 24 27 20
-789.396295592379 -101.099510025605 2481.11809063662 22 25 18
-759.143254169471 -96.3587665423957 2499.94610748387 21 24 17
-781.93309407866 -98.8688981298003 2501.59909034641 23 26 19
-807.595917358326 -101.761970804535 2502.4681057936 23 26 19
-766.847476166391 -95.6102350371585 2524.34118041884 21 24 17
-807.72622152329 -100.564469211538 2520.56467989291 22 25 18
-841.052748965095 -104.478515522484 2519.35037981988 22 25 18
-834.476563481819 -102.975314292205 2530.49870356909 24 27 20
-832.647840067561 -102.117565271617 2540.1625068146 24 27 20
-844.146266370895 -103.061008704239 2545.81876983917 23 26 19
-871.856604542131 -106.18660075379 2546.73317542799 26 29 22
-845.249832505276 -101.98859013255 2563.7212597008 24 27 20
-856.771758661243 -102.927995566627 2569.47870157282 20 23 16
-905.542130005344 -108.863752697221 2564.60003657234 19 22 15
-862.656502443115 -102.49524789744 2586.04184078444 20 23 16
-807.284608331576 -94.4734652050194 2610.72719261193 20 23 16
-949.859924018949 -112.928325616225 2580.01109863362 21 24 17
-975.01864197327 -115.028047512977 2591.86133101308 16 19 12
-905.188542869441 -105.107478680673 2620.07023398298 26 29 22
-911.096019282358 -139.080223005421 2260.53416598374 26 31 24
-789.699950858791 -121.007736836993 2316.45266903695 34 39 32
-790.738805499914 -120.531525907079 2325.30677433259 31 34 27
-818.934464448904 -123.941450764937 2323.97061168461 28 31 24
-789.065245553902 -119.043978755104 2344.39778873907 25 28 21
-787.285750005062 -118.167308741407 2354.26738956211 26 29 22
-797.699970066696 -119.029268716329 2359.65449639208 27 30 23
-768.689612256316 -114.27922629494 2379.39661663538 25 26 20
-780.040253674113 -115.275177032023 2384.43253753957 37 38 32
-780.121228901237 -114.668632458422 2393.54650962511 15 16 10
-796.193960483177 -116.327743193276 2396.99652196306 23 24 18
-782.23551064705 -113.117382132491 2420.17756655051 22 23 17
-798.334271122974 -114.771916484645 2423.74067189724 16 19 12
-787.09682802026 -112.571398380903 2436.72179102229 14 17 10
-760.739820049958 -108.250414088324 2454.73815032327 20 23 16
-777.794012404482 -110.035718238437 2458.03086016316 21 24 17
-787.307002917137 -110.757535547496 2463.92169632318 21 24 17
-794.938807758254 -111.212822564089 2470.47899402535 24 27 20
-774.186848016512 -107.698252078096 2486.32811704374 22 25 18
-783.709285384521 -108.418436999545 2492.2596213646 20 23 16
-770.499030952606 -105.967199276711 2505.51383241923 21 24 17
-795.199018887299 -108.797879332799 2506.65866384501 21 24 17
-800.951556412381 -108.986238480377 2513.89172903601 21 24 17
-812.406207260374 -109.964191357727 2519.37538955589 22 25 18
-832.424460980417 -112.124727239325 2522.27985320688 22 25 18
-826.796820702824 -110.729739508131 2533.11525433985 25 28 21
-819.256916843607 -109.073605452903 2544.48333654351 25 28 21
-852.639153227893 -113.066251062026 2543.5607516515 23 26 19
-834.623173668245 -109.966426861085 2558.03981277907 25 28 21
-831.832369491381 -108.968705092669 2567.9392998499 23 26 19
-852.881210717306 -111.246925440031 2570.89793695809 19 22 15
-867.273959531617 -112.604607991458 2575.88158716264 19 22 15
-849.210904175703 -109.512945169223 2590.15800551329 20 23 16
-889.418589935719 -114.396801222878 2587.93944232179 21 24 17
-990.879736524164 -127.628234701987 2568.91691803454 21 24 17
-1043.66678789619 -134.183914063073 2563.87596304981 20 23 16
-880.19369723736 -110.662799664 2627.11378146559 27 30 23
-893.967810463949 -146.41732994644 2257.72330892128 28 33 26
-837.152937526025 -137.429974363226 2289.15245204402 33 38 31
-785.869883004485 -129.277584638562 2318.10954600971 31 36 29
-773.809644125448 -126.883984480699 2331.90779514738 29 32 25
-829.134345077152 -134.33715805514 2320.35035015521 26 29 22
-842.375103139282 -135.6306216106 2324.77630101923 25 28 21
-803.136741726874 -129.277220638458 2348.62972319645 25 28 21
-805.116964047572 -128.934644242208 2357.1542293901 25 28 21
-801.465926000166 -127.774290723192 2367.72269616192 31 32 26
-783.718695807326 -124.572377126808 2383.32706232932 26 27 21
-796.021868361377 -125.729355934768 2388.09760231551 21 22 16
-794.231342112175 -124.844341875777 2397.91477424425 11 12 6
-758.556548914534 -119.06914881983 2419.58361377969 18 19 13
-777.452672972421 -121.176223272172 2422.0682904764 13 14 8
-794.486588099822 -123.008078722425 2425.29902714586 15 18 11
-812.483504239842 -124.971977238424 2428.29455757138 13 16 9
-785.209682423426 -120.431388290831 2446.69923587925 18 21 14
-775.837865077249 -118.468611655559 2458.92730847095 17 20 13
-791.961348233476 -120.159216819529 2462.62057183947 16 19 12
-789.195109081294 -119.144358632713 2472.61714104505 23 26 19
-794.937301058061 -119.345535146849 2479.8121565565 24 27 20
-769.444261415523 -115.094206307156 2497.12022029042 20 23 16
-783.70217797858 -116.51021675771 2501.54402861444 17 20 13
-780.9137589136 -115.499091800625 2511.44614254215 19 22 15
-791.399100655324 -116.373064741709 2517.1537180336 21 24 17
-809.489005830876 -118.320787411425 2520.54949752649 22 25 18
-827.600452736493 -120.264843101981 2524.03695906351 23 26 19
-817.220979087153 -118.177587344534 2536.30899628133 26 29 22
-819.188867627018 -117.83697153646 2544.78030589696 25 28 21
-831.624917833383 -118.970724403429 2550.12380691257 23 26 19
-826.934221828458 -117.691328734741 2560.59841846579 22 25 18
-839.386783298069 -118.822204871338 2566.01298560461 21 24 17
-863.295275050076 -121.555282364961 2568.17011538345 20 23 16
-862.425281377635 -120.809548451125 2577.56811091789 19 22 15
-948.70058198602 -130.971657812601 2580.95737719317 18 21 14
-999.530583178676 -137.410017306062 2576.33742820616 22 25 18
-854.637189093172 -149.680314472288 2273.15592019857 42 47 40
-838.912486812097 -146.675996298899 2288.67394196519 32 37 30
-823.291904710684 -143.0514439739 2313.4009604376 30 33 26
-821.545712316698 -142.148762370961 2323.40201494747 26 29 22
-829.159445500656 -142.640142532322 2329.90090734353 23 26 19
-798.360826410475 -137.422078478784 2350.60154322813 24 27 20
-785.335435854388 -134.854598983643 2364.60200122733 26 29 22
-778.858925618766 -133.263553739509 2376.13679805385 33 36 29
-778.004994047691 -132.507737022945 2385.59964206953 29 32 25
-788.422080230066 -133.417995762764 2391.02887284261 21 24 17
-796.030306162603 -133.910234049083 2397.50400184258 20 23 16
-768.837289165165 -129.273664392892 2416.20721352783 14 17 10
-789.617669204747 -131.705768963413 2418.07336592175 11 14 7
-805.71289092427 -133.441674701527 2421.66873746425 16 19 12
-818.05666698653 -134.621314476157 2426.63152830066 14 17 10
-842.676535928512 -137.594474527924 2427.50819785609 13 16 9
-815.413128714652 -132.969987272693 2445.9083362375 18 21 14
-792.83396694926 -129.041744681497 2462.57634620033 17 20 13
-799.521488699233 -129.391740988557 2469.46815334663 18 21 14
-789.19225906595 -127.261593716151 2481.93636720801 20 23 16
-808.184420972166 -129.400305082329 2484.86284969877 25 28 21
-793.107666336392 -126.584723892031 2498.79179080776 22 25 18
-789.380330513823 -125.421811838658 2509.02254085428 18 21 14
-791.334909907591 -125.083870185489 2517.43677556822 21 24 17
-817.010548718807 -128.175543887384 2518.47907425622 21 24 17
-812.334892054072 -126.87524942 2529.00766580111 22 25 18
-821.901830577372 -127.630976198853 2535.15617236617 22 25 18
-835.281862043583 -128.932424863083 2540.20053852989 24 27 20
-842.969032278916 -129.410683239453 2547.0153190052 23 26 19
-843.048191096188 -128.794369835515 2556.11554123728 21 22 16
-838.362378945061 -127.495727792527 2566.60035377041 21 22 16
-878.467472573122 -132.611066797741 2564.06586135328 21 22 16
-835.641799446923 -125.85710534496 2585.54514627767 20 21 15
-823.299283508992 -123.472271561569 2598.10576285195 21 22 16
-989.691663182302 -145.913667721887 2569.88007213083 22 25 18
-995.587307323281 -146.098989976563 2577.741961176 18 21 14
-971.824130786073 -142.073847537383 2593.69193373978 23 26 19
-970.050634135353 -141.175224739836 2603.5750572476 29 32 25
-843.615648462269 -155.733785284901 2296.49956248512 31 36 29
-891.437802090583 -162.357465402273 2287.84711870908 32 35 28
-814.897153515405 -150.064383733299 2326.10095972285 22 25 18
-813.143862957461 -149.152782308044 2336.06548929173 20 23 16
-789.840657500204 -144.977359689449 2353.95396908605 23 26 19
-777.752681791392 -142.509586441776 2367.58745402084 23 26 19
-769.39860312152 -140.611859765772 2379.78212283905 21 24 17
-766.662705606838 -139.566083136125 2389.89529594229 20 23 16
-770.495697789146 -139.511915682624 2397.63990608928 20 23 16
-802.526809441455 -143.699387396119 2395.43448488064 21 24 17
-802.621898049793 -143.075787819235 2404.60061744498 17 20 13
-811.281141096699 -143.099435758124 2419.98792877052 15 18 11
-882.049398216036 -153.04926719941 2405.04419926853 15 18 11
-843.527302438786 -146.642393179631 2427.46495629258 13 16 9
-844.581570244435 -146.156704855657 2436.3824929727 13 16 9
-835.249210918697 -144.123967019809 2448.74329140284 15 18 11
-779.606868545335 -135.206727420308 2476.26770652736 16 19 12
-800.468161135525 -137.678376384594 2478.51366487592 18 21 14
-793.91957628305 -136.075953620746 2489.72416760237 24 27 20
-808.186392525903 -137.560402117082 2494.22744605752 22 25 18
-795.945684619329 -135.118565605785 2507.20316022849 18 21 14
-807.384158219606 -136.18025079925 2512.66478310456 21 24 17
-819.783687641571 -137.379634272504 2517.8859543189 21 24 17
-806.570422259295 -134.801972427958 2531.05253885498 21 24 17
-834.177314707221 -138.234533034331 2531.69056556092 21 24 17
-840.90929403553 -138.590291742171 2538.78166762245 25 28 21
-843.843737763391 -138.387001961648 2547.03654000057 23 26 19
-820.134421339886 -134.281032804355 2563.17631156631 22 23 17
-828.767830275236 -134.915783381755 2569.69640159064 21 22 16
-829.787330939469 -134.435725166092 2578.4629592851 19 20 14
-895.642225920554 -143.411224248915 2568.63566858485 20 21 15
-857.583783965588 -137.22752310594 2588.67332161997 23 24 18
-903.488621819617 -143.270305055741 2584.9007208478 25 26 20
-956.138066492962 -150.274248190862 2579.51704571836 23 26 19
-956.275480326557 -149.642583234741 2588.86494377527 18 21 14
-936.322398994923 -146.102512735651 2603.66298027642 24 27 20
-977.746063498599 -150.792444031538 2611.24506455412 28 31 22
-1030.60225832407 -157.76045912085 2606.75131780117 25 28 19
-878.995603402886 -170.238127477882 2283.22210243835 29 34 27
-817.480495948144 -160.029173218615 2316.0050072867 27 30 23
-848.465942451788 -164.176653451168 2313.72575474196 22 25 18
-796.202926122439 -155.433599934282 2342.57248378927 22 25 18
-792.562769181463 -154.224909335271 2353.16155509288 23 26 19
-794.537866108259 -153.884708155068 2361.66487287771 22 25 18
-795.575686795359 -153.399983332809 2370.50941438384 20 23 16
-771.278649063748 -149.018278092549 2388.45466127909 19 22 15
-770.420031017268 -148.248211851865 2397.88847288406 19 22 15
-805.260012722297 -152.955409200391 2394.69592990132 20 23 16
-839.20331838231 -157.511015767655 2392.02044819838 19 22 15
-825.210269793559 -154.719877021079 2406.18170528444 17 20 13
-822.493123146233 -153.657933675394 2416.36691034856 15 18 11
-834.841871590316 -154.896092972062 2421.38711804136 16 19 12
-843.546100844508 -154.925890623767 2436.9773679402 12 15 8
-851.206876120255 -155.441694604546 2443.69792014121 13 16 9
-851.319638399183 -154.809986328047 2452.93607738005 10 13 6
-801.339822045533 -146.590974895237 2478.48290516715 12 15 8
-792.903795542972 -144.678115728633 2490.30756426664 21 24 17
-800.541834922027 -145.197610038863 2496.93118597244 20 23 16
-817.657339715402 -147.144194549136 2500.58893352154 17 20 13
-826.26466106236 -147.802656160884 2507.00801268353 18 21 14
-829.191914890098 -147.603795631617 2515.23272095689 17 20 13
-831.171657471234 -147.262095532978 2523.75562855175 20 23 16
-834.100978039002 -147.062726755161 2531.99023154572 20 23 16
-856.032864326099 -149.709200086943 2534.50026146222 24 27 20
-857.076271476061 -149.222722990497 2543.36838950624 24 27 20
-853.362039104954 -148.025908857446 2553.63802721068 24 25 19
-834.410076860777 -144.558564906059 2568.33285317938 21 22 16
-895.659408360332 -151.750620668564 2578.17275089835 27 28 22
-890.991733687854 -150.411891473502 2588.71390964026 28 29 23
-902.550825983471 -151.479226655784 2594.71037099904 29 32 25
-909.344393707046 -151.837654094625 2602.07335020165 29 32 25
-916.144080804451 -152.194903847204 2609.46368861881 33 36 29
-941.130919286965 -155.232446851176 2611.99530497699 30 33 26
-983.38284613642 -160.803156839356 2610.07493042211 27 30 21
-913.762758997056 -186.904850340353 2241.17661542177 60 65 59
-832.984092160661 -172.736373426259 2291.54819258182 31 36 29
-811.650388005923 -168.696329363379 2309.08224112927 29 34 27
-824.853771743048 -170.126159777783 2313.42370575487 27 30 23
-810.960946982135 -167.273324708459 2327.99031890657 22 25 18
-822.305673157528 -168.405972383391 2333.08057452517 21 24 17
-797.154752588673 -163.788811460038 2351.68104117864 22 25 18
-805.690563248614 -164.479347447507 2357.80386822558 21 24 17
-817.984700985712 -165.756936896939 2362.60662126295 21 24 17
-816.223396584021 -164.826285719278 2372.52463278501 19 22 15
-736.55499910946 -151.69970354447 2410.17479343368 16 19 12
-807.152217802964 -161.451902427759 2403.47502761329 17 20 13
-826.059648611292 -163.750541366513 2406.12220033002 17 20 13
-825.227265000893 -162.968261964691 2415.66443256621 14 17 10
-843.225026118723 -165.114838184224 2418.77113150915 16 19 12
-826.37913304192 -161.844275187853 2433.74943767455 14 17 10
-866.08377189151 -167.350002973523 2429.67992511868 13 16 9
-853.000154871638 -164.665751562817 2443.35512240319 14 17 10
-850.282878015216 -163.590716543696 2453.5320535964 9 12 5
-831.498264663583 -160.036640050492 2468.91438819604 10 13 6
-803.232713949461 -155.029403575762 2487.23087774727 18 21 14
-821.282530048529 -157.166681036347 2490.56149164989 19 22 15
-842.193589157034 -159.736923086768 2493.08473913401 16 19 12
-834.712058576089 -157.939148599526 2504.62673929797 17 20 13
-835.749295456595 -157.451570855879 2513.46703022128 17 20 13
-825.403504062231 -155.221206264748 2525.80331888417 18 21 14
-859.748911659767 -159.180151167365 2533.66160463798 23 26 19
-850.341638022978 -157.09656832268 2545.66346856463 23 26 19
-859.939396805508 -157.911763170642 2551.98167768321 22 23 17
-876.208200766036 -159.738061387144 2556.39511831664 20 21 15
-859.168356656227 -156.500124713111 2570.5379544197 22 23 17
-875.453251391385 -158.323612459447 2575.01956082318 27 28 22
-897.477495214353 -161.010081117147 2577.96009510536 29 30 24
-916.665935554955 -163.259162596932 2581.81640936107 25 26 20
-903.416966788766 -160.602489658402 2594.77919250826 23 26 19
-896.835497723035 -158.95759769995 2605.82089589551 31 34 27
-912.229611088887 -160.625552111226 2610.84322002882 34 37 30
-938.163564157693 -163.872774950758 2613.1142024137 25 28 21
-1027.30240653883 -176.601459183739 2598.7355279071 23 26 17
-876.364961321959 -190.094642958497 2255.96832566573 17 22 16
-825.549591737235 -179.863455271278 2303.99033770864 28 33 26
-807.939070791162 -176.361222736911 2320.01939924179 25 28 21
-807.124797842479 -175.568784552484 2329.63546240543 24 27 20
-805.371836807276 -174.626648914254 2339.58457122475 22 25 18
-807.582027183062 -173.003853509462 2366.59617625548 17 20 13
-828.319160408567 -175.658421917749 2368.4026042778 16 19 12
-933.898265488069 -190.470866184012 2359.3421740267 10 13 6
-848.655292442412 -175.583471187303 2407.84640305358 9 12 5
-826.185240429 -171.361161714759 2424.82225280079 12 15 8
-838.5363877615 -172.658308201413 2429.88772571434 12 15 8
-849.0163811973 -173.655181259205 2435.64401932878 15 18 11
-888.747423739872 -179.263274140848 2431.75106443625 14 17 10
-854.909048184753 -173.263486953939 2452.26730539961 10 13 6
-879.580326464201 -176.48503716888 2453.51552263458 9 12 5
-878.764417687583 -175.691974788801 2463.12401026802 14 17 10
-845.791521002881 -169.854251462899 2482.99187718116 16 19 12
-843.054889179553 -168.76931538761 2493.07878219114 16 19 12
-844.100220730475 -168.27805761557 2501.95257841532 17 20 13
-827.140966208611 -164.973625114593 2516.41142791908 17 20 13
-828.172276208549 -164.484591600439 2525.22583177177 16 19 12
-838.690715296778 -165.474252067514 2531.14729683198 15 18 11
-823.586397701576 -162.472712405944 2544.84431857906 19 22 15
-838.860902215153 -164.199393412345 2549.37411838323 19 22 15
-880.771396276616 -170.053943982856 2546.1161403549 16 17 11
-818.093832240856 -159.682469761832 2573.68100400301 18 19 13
-871.463293824715 -167.298422667286 2567.27369566745 23 24 18
-883.942000934139 -168.572629749358 2572.88669170314 24 25 19
-918.356428371328 -173.227785654439 2572.34579517883 23 24 18
-914.66299782057 -171.99562588942 2582.6863085212 19 20 14
-904.28166274292 -169.736421433305 2594.84900860637 13 16 9
-891.019334316503 -167.039541692125 2607.72927307875 23 26 19
-912.139788963456 -169.626424066285 2611.18393862054 28 31 24
-912.247648715902 -168.984336151041 2620.39547395414 24 27 20
-996.556895334224 -181.231308074229 2607.23461170934 22 25 16
-837.279397565284 -192.113429008429 2280.86290319481 33 38 31
-820.644234675655 -188.701880715037 2296.68688481607 27 32 25
-830.10871205662 -189.58498971012 2302.45772430779 25 30 23
-819.977379901786 -187.250608259478 2315.67786440353 24 27 20
-820.106826082867 -186.602073062384 2324.98072987621 25 28 21
-801.537349404216 -182.895605323844 2341.22036242563 18 21 14
-800.71475317391 -182.097019458493 2350.79613255828 15 18 11
-789.591656776996 -179.619205434164 2364.11911904017 16 19 12
-806.552954674027 -181.722178886727 2367.18932518247 16 19 12
-808.537143269022 -181.381787710104 2375.73259433663 16 19 12
-816.149351725199 -181.955593861855 2382.27324818079 14 17 10
-866.943120261991 -189.532808692347 2373.60598239765 12 15 8
-891.815447278407 -191.530962733973 2393.24837106804 8 11 4
-875.970007086201 -188.296380988365 2408.10000505502 10 13 6
-837.501644311396 -181.423806736468 2430.48363092422 10 13 6
-858.343645181945 -184.113603820243 2432.77288646014 16 19 12
-885.810936288203 -187.859764093717 2432.98128485798 14 17 10
-918.029644968263 -192.357202489012 2431.78483632653 11 14 7
-885.143006914494 -186.406580656171 2451.96640516331 10 13 6
-881.498049526472 -185.151355596682 2462.50695288643 13 16 9
-887.299646582875 -185.408361147318 2469.99657816071 15 18 11
-825.941076238562 -174.943340236498 2498.7611731146 16 19 12
-821.296421397471 -173.546156395781 2509.3693893596 18 21 14
-818.537641975389 -172.451909859952 2519.35322320276 16 19 12
-834.730160163327 -174.372278771309 2523.48474774739 16 19 12
-821.538711851378 -171.621504518792 2536.64565177836 14 17 10
-813.073210258689 -169.626387794834 2548.29204546975 18 21 14
-816.940318376688 -169.588169580018 2556.1974572826 18 21 14
-872.128240541072 -177.663161929215 2548.95942576356 15 16 10
-827.535679559023 -169.960615073119 2571.20875801215 17 18 12
-864.718076471737 -175.171930258377 2569.52085091685 21 22 16
-908.611660550422 -181.424717089205 2566.12292565127 21 22 16
-906.825040346889 -180.476344471227 2575.91895801794 19 20 14
-928.869375733872 -183.271677089864 2579.01205751304 17 18 12
-925.180467315154 -182.022886306889 2589.36271614841 18 21 14
-891.889387864808 -176.140631472966 2607.80229481913 22 25 18
-885.300728255297 -174.449322566678 2618.78501160214 28 31 24
-980.028518203151 -188.584692232023 2602.52012579243 30 33 26
-965.831365743316 -185.692225886521 2615.72238625056 22 25 16
-852.069704727733 -203.617856332701 2275.33861128314 29 34 27
-827.99478680283 -198.902286372277 2294.06627747099 21 26 19
-807.616483931547 -194.816348430703 2311.22588788678 22 27 20
-829.206965721977 -197.748280903989 2312.39939098133 23 26 19
-827.476079023397 -196.782238317824 2322.43062432696 22 25 18
-820.133348418148 -194.883128202872 2334.52465470594 20 23 16
-780.983650040608 -187.698140919333 2358.27857888762 15 18 11
-830.806360254954 -194.633727333029 2358.62627752909 15 18 11
-810.319156363148 -190.565987449284 2375.31671091888 15 18 11
-831.057880778326 -193.327678061948 2377.19315642019 15 18 11
-842.439258197789 -194.535056145991 2382.48887248564 15 18 11
-827.885877756322 -189.449522978059 2424.72851198219 10 13 6
-831.760461557429 -189.416747963143 2432.66898105618 11 14 7
-847.883000295071 -191.390065136775 2436.52436474435 12 15 8
-879.105838274149 -195.828152000798 2435.46103449195 12 15 8
-849.059512647779 -190.239945304199 2454.70259625387 9 12 5
-890.701307301708 -196.365933153112 2450.42022463967 9 12 5
-869.118288440225 -192.16928026469 2466.76353700282 11 14 7
-887.197018119504 -194.43860905552 2470.29814263835 14 17 10
-872.198246228073 -191.323919496826 2484.39479479577 16 19 12
-831.627571269697 -184.065366012823 2506.40130206263 13 16 9
-838.34710983426 -184.491691147874 2513.47800142128 14 17 10
-807.171635809668 -178.780748672617 2532.22810273116 14 17 10
-836.722102478426 -182.240127772106 2541.44749544566 15 18 11
-836.807351470739 -181.592593681818 2550.55510509298 16 19 12
-826.440035412264 -179.262620131217 2562.73795696932 17 18 12
-888.304832729168 -188.553229335669 2553.74004892907 17 18 12
-870.440446156124 -184.348298117118 2577.35102645806 17 18 12
-907.683000386498 -189.647856958638 2575.98119555027 17 18 12
-888.738118654651 -185.945461355338 2590.56897262336 17 18 12
-881.210760073102 -184.075627117181 2601.86664506722 21 24 17
-876.533997399745 -182.664467088222 2612.32624181 20 23 16
-1015.27275557796 -203.408181396507 2593.38982031187 18 21 14
-1027.87880751422 -204.718912319157 2599.58545302541 26 29 20
-810.312716231012 -204.206439943099 2310.40327292397 17 22 15
-824.570061985011 -205.268008604112 2323.72999322231 20 23 16
-789.310340670874 -197.93758242507 2355.42595282975 15 18 11
-785.673583147272 -196.650879515387 2365.98411962809 13 16 9
-781.093749386697 -195.207286669386 2376.85067857352 14 17 10
-825.212910906351 -201.97715324335 2370.19450068742 15 18 11
-835.645400360516 -203.055888930653 2375.7896133627 15 18 11
-844.213439145499 -203.817137878598 2382.09604711807 15 18 11
-852.790447068961 -204.57677538066 2388.44105625623 16 19 12
-829.445142741008 -199.979724365289 2405.89603616052 16 19 12
-842.71803862142 -201.526729291462 2410.61272948943 9 12 5
