ply
format ascii 1.0
comment KinectMotionCapture
element vertex 751
property float x
property float y
property float z
property uchar red
property uchar green
property uchar blue
end_header
-730.916233318405 277.516303562185 2408.15537215923 181 185 188
-731.500749268412 277.213699826569 2415.48430626253 182 186 189
-732.076969724594 276.911063782686 2422.7979737254 184 188 191
-730.784867967966 276.37735815575 2430.83607152804 184 188 191
-731.341853577682 276.074626012171 2438.11433370433 184 188 191
-731.890502001801 275.771853677775 2445.377250191 184 188 191
-732.430870097502 275.469041829617 2452.62492576234 185 189 192
-733.898127120428 275.281793603465 2459.4967678492 187 191 194
-733.486715826221 274.863337820322 2467.07397041315 187 191 194
-734.002059101948 274.560397855687 2474.27558225354 187 191 194
-736.386917764499 274.488672744926 2480.7555061486 188 192 195
-741.589860217104 274.763949226631 2486.17734397226 187 191 194
-744.914065183326 274.808002555507 2492.30441036816 187 191 194
-748.237693968862 274.852108111879 2498.43043276871 188 192 195
-750.616560522903 274.780579432984 2504.89889091166 189 193 196
-753.937701754475 274.824766158746 2511.02036265658 188 192 195
-757.258222260251 274.869019353728 2517.14071276237 189 193 196
-761.526161116017 275.029063976565 2522.92355948277 190 194 197
-766.745650700324 275.30496589499 2528.37601857874 189 193 196
-769.117394062472 275.233601632696 2534.83192956146 188 192 195
-773.390210993119 275.393890882989 2540.62331727107 188 191 196
-779.571330316398 275.785886408501 2545.76450118711 185 188 193
-782.895932069809 275.830505804757 2551.89246757543 184 187 192
-790.999062020097 276.454437318379 2556.4087287182 183 186 191
-797.200328600868 276.846850024159 2561.58709256669 183 186 191
-806.284065147914 277.587080850753 2565.82653804484 183 188 192
-812.503453950935 277.979827533935 2571.03833239614 183 188 192
-824.495908736664 279.068246248295 2574.38775030028 183 188 192
-836.511174382912 280.157056659582 2577.77873508079 185 190 194
-845.658215587129 280.898307219267 2582.13491601339 186 191 195
-851.925448650241 281.291852602174 2587.43494486249 187 192 196
-857.233640773464 281.56954201587 2593.05108162748 192 195 200
-863.513560720722 281.963303062335 2598.37501306676 186 189 194
-876.582369258427 283.169480738796 2601.62364647398 184 187 192
-890.646098593567 284.492043161179 2604.62282481925 181 185 188
-906.68037448871 286.047150970636 2607.0860258308 179 183 184
-914.966270522499 286.674041794064 2611.93931702958 184 188 189
-739.771290555806 278.280036576527 2263.93476233448 184 188 189
-737.818406888969 277.649035182997 2272.84310220038 178 182 183
-736.755110570996 277.130433256819 2281.30655689809 179 183 184
-735.678686171599 276.611780293235 2289.74534707002 183 187 188
-734.58867258147 276.093037482885 2298.15962146932 184 188 189
-733.48549537418 275.574243211968 2306.54916585889 185 189 190
-732.368714761864 275.05535892502 2314.91416828224 183 187 188
-733.062850643461 274.761572195313 2322.44736487411 183 187 188
-731.008719015437 274.130009613972 2331.16881828628 184 188 189
-730.767674318764 273.723522344891 2339.06345949532 183 187 188
-731.43197048654 273.429631409713 2346.54174407969 183 187 188
-731.170786706064 273.023090862898 2354.39882557841 182 186 187
-734.573138981009 273.067158898146 2360.66962353651 182 186 189
-736.135367909328 272.885960733029 2367.71795564371 182 186 189
-736.770566307557 272.592063060494 2375.14272210202 183 187 190
-731.862393092672 271.621867526679 2384.85864527328 183 187 190
-730.625533054637 271.10235841299 2393.00261185482 182 186 189
-728.450390065869 270.47005650221 2401.50128099347 183 187 190
-729.964514987151 270.288652930081 2408.46158354062 185 189 192
-728.689817342937 269.76890744132 2416.53588878714 185 189 192
-730.188865371557 269.587496100035 2423.46795560124 185 189 192
-729.821510403372 269.180444643666 2431.12961529934 183 187 190
-730.374773540509 268.886154783886 2438.40356994433 183 187 190
-730.919683375529 268.59183931354 2445.66215364306 184 188 191
-731.456327096427 268.297484498698 2452.90552262006 185 189 192
-731.984603300912 268.003103904027 2460.13349445722 185 189 192
-732.50452905662 267.708675574514 2467.34609394269 185 189 192
-733.954138784334 267.527138956499 2474.18770128406 185 189 192
-737.276843535933 267.571455091978 2480.31208754344 185 189 192
-741.539772431668 267.728827269171 2486.08441212936 185 189 192
-742.978569731892 267.547346548508 2492.906150256 186 190 193
-747.241400203045 267.704833843951 2498.67883268367 187 191 194
-749.61726226953 267.636401087358 2505.14269603615 187 191 194
-752.935729101911 267.681013903522 2511.2593772081 187 191 194
-759.095014285047 268.064809386464 2516.35793823515 187 191 194
-762.416165664513 268.109579733745 2522.47960415128 186 190 193
-765.736684006114 268.154401631465 2528.60012129775 185 189 192
-768.105625456131 268.086204065567 2535.0513271024 184 188 191
-772.375877481785 268.244208130041 2540.83781452448 187 190 195
-778.555376185936 268.628569304009 2545.97372201501 187 190 195
-783.787223997179 268.899935607033 2551.44754618619 187 190 195
-794.760609626808 269.850378661125 2554.99601731822 185 188 193
-800.966706024913 270.235255985636 2560.18099803164 183 186 191
-809.097346712715 270.846663310981 2564.74409014393 183 186 191
-814.360263062958 271.118650706116 2570.2752417948 185 188 193
-825.395740379148 272.070135979625 2573.93822426944 186 189 194
-835.488891279511 272.908721217644 2577.94844038326 186 189 194
-844.635127031751 273.634264869283 2582.29892078609 188 191 196
-850.90070438936 274.020227185428 2587.59362410187 187 192 196
-856.206935342855 274.293033201823 2593.20468537712 186 191 195
-867.324442245517 275.245835046374 2597.01893112846 185 190 194
-880.400284391695 276.425637637426 2600.27307331891 177 182 186
-898.353408501249 278.172613085755 2602.09298165667 173 178 181
-910.514393982243 279.23990733976 2605.74550139893 183 189 189
-916.859967331069 279.627169396909 2611.18772277807 186 192 192
-739.796700895643 270.957953893721 2263.8948943599 186 190 191
-739.649748328025 270.562944254544 2271.96553546153 178 182 183
-737.680041793781 269.948302135254 2280.84785459022 176 180 181
-736.601786712724 269.443402419507 2289.28741369872 182 186 187
-735.509958557454 268.93839827674 2297.70248229121 184 188 189
-734.404955873426 268.43337208781 2306.09280965108 186 190 189
-732.375250142302 267.818406958488 2314.8646821885 185 189 190
-732.154572019899 267.423095507448 2322.79963780037 186 190 191
-731.009161470696 266.917852152246 2331.1160866711 185 189 190
-731.6805376329 266.632369643158 2338.60992124754 184 188 189
-731.427406718036 266.236959800439 2346.48516067251 182 186 187
-731.163441155517 265.841502185291 2354.34045884011 182 186 187
-733.64552305955 265.775907534204 2361.00053330638 182 186 189
-734.283951729926 265.490409375555 2368.43376673595 183 187 190
-732.149439885135 264.874890503352 2377.01271521174 183 187 190
-728.153054934211 264.039229002462 2386.33124107676 183 187 190
-727.832168970089 263.64352935619 2394.08177947066 182 186 189
-727.50045546546 263.247782022121 2401.81238970398 181 185 188
-728.084504790287 262.962042546994 2409.14553703982 182 186 189
-726.804306093892 262.456126663582 2417.2133794611 182 186 189
-729.227727368312 262.390496340238 2423.76605985775 183 187 190
-729.786885456102 262.104696814104 2431.05340961473 182 186 189
-729.40584058277 261.70875350287 2438.69323153802 182 186 189
-729.013886687611 261.312731989219 2446.31296626535 183 187 190
-728.611004800769 260.91666897768 2453.91258994553 183 187 190
-731.004483955579 260.851066178935 2460.4102096058 184 188 191
-732.457984547885 260.675331540381 2467.26021349055 184 188 191
-733.905524771906 260.499575741088 2474.09975305251 186 190 193
-737.226824000994 260.54430353246 2480.22167809357 186 190 193
-741.488516578928 260.699354642104 2485.99153511547 186 190 193
-743.867699571392 260.633982339787 2492.46242659951 186 190 193
-746.243705167238 260.568631289598 2498.9274806632 187 191 194
-749.561354969864 260.613618452939 2505.04277174271 187 191 194
-752.878441854986 260.6586653878 2511.15704548893 187 191 194
-757.142333686981 260.81410460438 2516.93106405176 187 191 194
-759.510770515476 260.748936710175 2523.38225285211 187 191 194
-762.826026505137 260.794161266952 2529.49321266265 186 190 193
-767.091966993014 260.949831689364 2535.27106860543 185 189 192
-771.359920204065 261.10557039586 2541.05264684734 187 190 195
-778.491896894612 261.592748695862 2545.85595065366 187 190 195
-782.767621468029 261.748720279617 2551.65189187809 186 189 194
-792.784633572503 262.567591995936 2555.51665084265 186 189 194
-799.945569608909 263.055312682054 2560.3738835136 186 189 194
-809.993633237142 263.874716654852 2564.29591194897 185 188 193
-815.257147941816 264.141843745504 2569.82670248589 187 190 195
-825.333662828989 264.961741624653 2573.80120649858 187 190 195
-832.538598608129 265.450266932443 2578.73960468028 186 189 194
-841.681871734136 266.16013346504 2583.07941758703 189 192 197
-848.908752429689 266.649045657091 2588.05829281283 188 191 196
-854.211717351679 266.916930579592 2593.66186738361 185 190 194
-864.3599517061 267.738059186949 2597.76864667042 180 185 189
-877.433998304755 268.891383441756 2601.01152392379 176 181 185
-893.445475880703 270.377108175048 2603.41192970785 177 182 185
-906.573710119338 271.531277122428 2606.75472192147 185 191 191
-913.887119674999 272.021611165619 2611.89316706796 184 190 190
-913.413319032674 271.62638767836 2619.36261069773 102 108 106
-738.917824088034 263.534614066419 2264.27572243463 189 193 194
-737.861631435785 263.043499104563 2272.76050798186 180 184 185
-736.792314955923 262.552355314208 2281.22064350552 178 182 183
-738.432283771868 262.382458440075 2288.41585621297 186 190 191
-736.431085165688 261.784111704897 2297.24515605139 188 192 193
-735.324242790629 261.292853428689 2305.636240188 186 190 189
-733.292364426769 260.694348168263 2314.40906669008 185 189 190
-733.98295538966 260.417285637435 2321.94077285231 186 190 191
-731.922962948313 259.818652403968 2330.66185395912 185 189 190
-731.677874489216 259.434343597048 2338.55522324284 183 187 188
-729.5884479432 258.835551899443 2347.22212201455 181 185 186
-731.155226759819 258.665656921299 2354.28222130373 181 185 186
-730.877403301351 258.281244475112 2362.11585803655 182 186 189
-733.350805911542 258.218648626198 2368.76087150351 182 186 189
-731.211504550926 257.619624935717 2377.33597163847 182 186 189
-729.056142887126 257.02050601769 2385.88150531264 183 187 190
-727.809354602489 256.528622698668 2394.01501545885 182 186 189
-727.474853609143 256.14400254482 2401.74384517192 181 185 188
-728.056491980954 255.866691426773 2409.07509291185 180 184 187
-727.701487264464 255.481989607739 2416.76618798369 180 184 187
-730.124468331048 255.41944142572 2423.31898562328 183 187 190
-730.682477684713 255.142107445466 2430.60676841832 184 188 191
-730.29997861303 254.757329349574 2438.24727342325 184 188 191
-728.973005327775 254.265059913301 2446.23319262944 185 189 192
-727.632341951252 253.772655112227 2454.19439680029 185 189 192
-730.02299837424 253.71015967328 2460.68725514752 186 190 193
-733.347931602431 253.755189251398 2466.81595452875 186 190 193
-735.733371503631 253.692755370307 2473.29974149767 188 192 195
-736.235900124119 253.415316566962 2480.48494934894 188 192 195
-740.495212406132 253.568071804008 2486.24973815528 188 192 195
-742.871377647857 253.505787879969 2492.7160081868 187 191 194
-745.244142045457 253.443505888009 2499.17652827133 186 190 193
-747.613949640608 253.3812865925 2505.63112486757 185 189 192
-750.927025982838 253.42674370692 2511.73814584437 185 189 192
-755.187313187341 253.579887243687 2517.50484448078 186 190 193
-758.500488026132 253.625463708359 2523.61208250185 186 190 193
-760.86272590282 253.563434943594 2530.05281430323 186 190 193
-767.028571000873 253.932240929778 2535.15893254907 186 190 193
-770.342500043615 253.978040571988 2541.26762480285 185 188 193
-778.427222058508 254.562569704822 2545.73818126569 184 187 192
-783.657662561734 254.824095757142 2551.20645796864 184 187 192
-792.72017581195 255.516839845383 2555.3925896662 185 188 193
-800.839249867921 256.102029170384 2559.92652432555 186 189 194
-809.930241854554 256.795274878263 2564.16518445607 183 186 191
-818.07537328452 257.380961034547 2568.74668853774 185 188 193
-824.308629862633 257.7511754179 2573.97721231315 185 188 193
-830.548761580581 258.121521486189 2579.22092456786 185 188 193
-837.761006248108 258.599942918875 2584.16922243322 186 189 194
-847.880565856074 259.402220538515 2588.21759474424 185 188 193
-856.083009341888 259.988934427657 2592.90531944433 183 188 192
-867.203500105848 260.899709939765 2596.71191060561 177 182 186
-876.404360719718 261.594877012074 2601.15321695548 178 183 187
-889.504341905208 262.722178705471 2604.43596710262 183 188 191
-897.767470813518 263.309910682105 2609.23560951249 184 190 190
-907.990295160746 264.113875919074 2613.47441199687 180 186 186
-897.75639857268 262.64959480481 2623.8212782116 96 100 99
-733.517011219767 255.600633717733 2266.76133069744 190 194 195
-734.260699368315 255.331877611861 2274.39319017714 181 185 186
-734.996232713121 255.063157347825 2282.01006226529 183 187 188
-737.539617561557 255.003285687466 2288.78460504096 192 196 197
-735.533630892417 254.421367676551 2297.61003922545 190 194 195
-732.601166850388 253.734920255702 2306.81487779575 185 189 188
-728.738113427248 252.943885185842 2316.39204474977 185 189 190
-727.593572395279 252.466159850747 2324.71786383018 185 189 190
-728.264400054013 252.19734858894 2332.2157030069 184 188 189
-729.842729848534 252.033054975738 2339.29923534249 180 184 185
-731.415415564554 251.868812330007 2346.37240251632 180 184 185
-732.064389811719 251.60010464222 2353.82957619025 181 185 186
-730.865500840497 251.122239882759 2362.05590182395 183 187 190
-731.495172649181 250.853477719838 2369.47806265865 182 186 189
-729.349803437329 250.270926602532 2378.04695656216 182 186 189
-727.188373922292 249.68828025768 2386.58628400489 183 187 190
-725.93586589353 249.210170350166 2394.71341645682 182 186 189
-725.595975244423 248.836653775927 2402.43567269311 181 185 188
-728.954925339243 248.881741282096 2408.62695271036 181 185 188
-729.527132746285 248.612870945686 2415.94339350999 183 187 190
-731.95117824129 248.553424709311 2422.49857740433 185 189 192
-731.577856541733 248.179847909797 2430.15983398046 184 188 191
-729.328503743084 247.596767616458 2438.53732398691 184 188 191
-727.063261036027 247.013581239529 2446.88505341097 185 189 192
-727.587396439922 246.744574239029 2454.11303993999 185 189 192
-729.039643755816 246.580337695147 2460.96470078631 186 190 193
-732.361895028308 246.625741571094 2467.08858012164 186 190 193
-732.866211796152 246.356749696465 2474.28012111655 188 192 195
-734.302731162774 246.192586263636 2481.10237314047 189 193 196
-736.674942641684 246.133266893484 2487.56276723008 189 193 196
-740.93029946525 246.283783248745 2493.31910370434 188 192 195
-743.298720378255 246.224603392517 2499.77256820738 186 190 193
-745.664202507554 246.16545690297 2506.22013354181 186 190 193
-748.973301491042 246.211287661682 2512.31995179395 186 190 193
-752.281820489394 246.257200146925 2518.41872792465 187 191 194
-755.589733927358 246.303171895895 2524.51640814132 187 191 194
-758.897025688413 246.349217488845 2530.61296718734 187 191 194
-764.107947671781 246.605340854782 2536.04372107334 187 191 194
-769.323213699415 246.861573151365 2541.48300145 189 192 197
-778.36179191485 247.538122594295 2545.62024218371 190 193 198
-780.723698385329 247.479546570696 2552.06140278128 190 193 198
-787.868454137018 247.946356614305 2556.88258868621 188 191 196
-795.022935267233 248.413371101072 2561.72172281466 187 190 195
-806.986350582521 249.406165408973 2564.9884713077 181 184 189
-817.050071080515 250.189054370264 2568.92831473991 184 187 192
-824.244003379158 250.656819314122 2573.84023243375 185 188 193
-830.484013407561 251.019595083738 2579.08094008564 185 188 193
-836.731121072193 251.382529233097 2584.33474921194 187 190 195
-845.884207376833 252.06123255336 2588.68323890247 186 189 194
-854.084426299136 252.63494998788 2593.36296391502 187 192 196
-864.234982435898 253.419406676107 2597.46248111373 184 189 193
-873.432419314227 254.098857820013 2601.89326872067 185 190 194
-884.587867223933 254.989154369872 2605.75799398354 186 191 194
-893.817815717167 255.669171816301 2610.24824242932 185 191 191
-901.114421356589 256.138794601123 2615.34955379682 184 190 190
-900.618346636716 255.765936836392 2622.78475718725 186 190 189
-729.919850818595 247.908185210051 2268.40721964203 192 196 197
-733.373033014442 247.952696035896 2274.77163624274 183 187 188
-734.104833529214 247.692277596716 2282.38413951135 186 190 191
-734.828481142468 247.431880249854 2289.98165445148 194 198 199
-730.086486912511 246.561176556227 2300.03262612016 188 192 193
-726.231340081306 245.792009815545 2309.63091100838 187 191 190
-726.0040063164 245.429760470191 2317.56356815831 185 189 190
-726.679312304269 245.169274951162 2325.07214752596 184 188 189
-728.261160819921 245.010592346752 2332.16383878034 183 187 188
-727.089264382028 244.546560050984 2340.44346407265 181 185 186
-728.655964608553 244.387940801013 2347.50731391524 181 185 186
-730.217243252971 244.22939921332 2354.56071159119 184 188 189
-730.85270866241 243.969030158067 2361.99605189903 187 191 194
-730.558705684148 243.606791996629 2369.80609558128 185 189 192
-730.253611426573 243.244523277977 2377.59623543477 184 188 191
-728.090008777049 242.678395884722 2386.13653368677 186 190 193
-727.760792579817 242.316048618605 2393.88178103317 184 188 191
-727.42071756015 241.953675450437 2401.60704923727 185 189 192
-730.780886122695 241.999139384305 2407.80068343848 185 189 192
-731.353225033248 241.738742452804 2415.11991422983 185 189 192
-730.986956715715 241.376360203405 2422.79700545564 186 190 193
-729.677938381699 240.911897100076 2430.8248132875 183 187 190
-728.355656930459 240.44738135133 2438.82770775457 183 187 190
-727.019609560916 239.982766265254 2446.80575856079 184 188 191
-727.541329256232 239.722224495628 2454.03184783628 185 189 192
-728.054901078194 239.461705765256 2461.24245437247 185 189 192
-728.55993974453 239.201135237304 2468.43785554803 185 189 192
-729.996009315093 239.04268139066 2475.26150155286 187 191 194
-731.426354276948 238.884240622107 2482.07462289207 187 191 194
-734.735130083717 238.930148779349 2488.17387003872 187 191 194
-738.986858606764 239.078332242477 2493.92283185702 187 191 194
-740.406366464597 238.920028324357 2500.71606294118 188 192 195
-742.766212559596 238.863961192731 2507.15418860992 189 193 196
-745.122894521158 238.807922857254 2513.58650352036 189 193 196
-751.270222152526 239.160929197462 2518.65431772587 189 193 196
-755.525446231399 239.309604836946 2524.40985651613 189 193 196
-757.880094669684 239.253784139936 2530.83900109925 187 191 194
-762.136675659559 239.402645817507 2536.59709144168 187 191 194
-767.348638719479 239.653912263851 2542.02880372227 186 189 194
-775.430386916293 240.212364537346 2546.48554468242 185 188 193
-780.65534839458 240.46395564925 2551.94126105662 184 187 192
-787.800346680353 240.920481652265 2556.75929615251 182 185 190
-794.954820370781 241.377177690343 2561.59531362119 181 184 189
-804.999528038271 242.141360262685 2565.49456358543 183 186 191
-816.023092956117 243.008265964541 2569.11020211558 186 189 194
-824.178652870057 243.56817330511 2573.70313384207 188 191 196
-833.310481130491 244.230787718605 2578.00768784 188 191 196
-839.561121307189 244.586200582676 2583.26573208943 190 193 198
-845.818875236638 244.941757246237 2588.53690306989 187 190 195
-852.083755230905 245.29747262807 2593.82122791193 184 189 193
-865.140139743036 246.371171381222 2597.00767629068 178 183 187
-879.192163832011 247.547830038834 2599.94145019486 179 184 188
-890.356534235382 248.417195382243 2603.81679533501 180 185 188
-899.59486328632 249.081683669767 2608.31778720552 182 188 188
-903.001853272209 249.130689132916 2614.59859954849 185 191 191
-893.724607237623 247.845393931916 2624.64394600604 171 175 174
-733.557208732971 241.034850430667 2266.68512372115 195 199 200
-737.014186040724 241.079628031372 2273.05660044902 185 189 190
-735.026678616133 240.530598723838 2281.92591166284 190 194 195
-732.114600220839 239.88251363826 2291.17977952079 195 199 200
-728.274072254609 239.135311815964 2300.81105223879 187 191 192
-723.500957133972 238.288912555066 2310.81260002215 188 192 191
-724.179422374904 238.036714912957 2318.32948217241 185 189 190
-724.849699178582 237.784537940006 2325.83131051023 184 188 189
-729.17232157443 237.928777539986 2331.70997731852 184 188 189
-727.082206716503 237.379407210704 2340.38996797023 182 186 187
-726.811211776289 237.028202667887 2348.24614991409 183 187 188
-726.529615094658 236.677006715747 2356.0823316632 186 190 191
-728.998236057753 236.623283703016 2362.72121906018 189 193 196
-726.855457205135 236.073742299246 2371.3048038282 187 191 194
-724.696632263627 235.524105837193 2379.858848329 186 190 193
-724.370316250175 235.172827916859 2387.61275842916 187 191 194
-726.809779680815 235.119230404634 2394.19805755193 185 189 192
-726.465401175219 234.767942318827 2401.91924862496 186 190 193
-728.894785615019 234.714453754251 2408.48604341 186 190 193
-728.532735606226 234.363186091252 2416.17423526636 185 189 192
-729.09045438333 234.111175534672 2423.46909892946 184 188 191
-727.775711549627 233.660522716643 2431.49053140942 185 189 192
-727.38094578392 233.309153530576 2439.11852249766 185 189 192
-726.975265289714 232.957750390643 2446.72642920081 185 189 192
-726.558670067007 232.606313296844 2454.31425151885 186 190 193
-726.131148754841 232.25481995564 2461.8819618528 187 191 194
-727.569596997232 232.102096491563 2468.71170591626 187 191 194
-727.122804801112 231.750565710203 2476.24396232428 187 191 194
-729.488451871935 231.697315280245 2482.69360408655 186 190 193
-731.850692391959 231.644111030917 2489.13749871269 186 190 193
-735.153604090849 231.690451611908 2495.22609073548 187 191 194
-738.455932951267 231.736896043707 2501.31364204226 189 193 196
-741.757653397958 231.783421863508 2507.40009884045 187 191 194
-746.0065703359 231.929562831189 2513.14327541969 187 191 194
-751.206024477867 232.175384498295 2518.55034416021 187 191 194
-755.459949675086 232.321782641725 2524.30331342301 187 191 194
-759.716091122018 232.468312468575 2530.05989412885 185 189 192
-762.068389829027 232.415698895909 2536.48568157841 184 188 191
-767.279905866596 232.662028001686 2541.91458269629 185 188 193
-773.451208632836 233.008164609773 2547.02392142492 184 187 192
-779.629678204555 233.354475193443 2552.14649353282 182 185 190
-785.815286153164 233.700959414166 2557.28224663283 181 184 189
-793.926324852036 234.247010211007 2561.78963301978 182 185 190
-804.931480727034 235.092500521787 2565.364469659 183 186 191
-813.070976339129 235.63911176707 2569.92436203315 186 189 194
-822.186017400405 236.285742215366 2574.19323459531 187 190 195
-830.351639555744 236.832865887771 2578.80082829663 187 190 195
-838.529294737674 237.380197437575 2583.43111968349 188 191 196
-844.785393912732 237.728163659616 2588.69696466216 185 188 193
-852.01680182628 238.176122220598 2593.67185064015 185 190 194
-864.105809333149 239.123539992204 2597.15594036908 176 181 185
-878.158972032234 240.271059332766 2600.08304557325 179 184 188
-888.351374499372 241.019495639543 2604.24919794852 181 186 189
-899.534773354038 241.868135139642 2608.15280293247 187 191 192
-901.965708538374 241.817745038636 2614.72338159306 191 195 196
-874.13724719745 238.668932418316 2630.27347581674 179 183 182
-741.721879244592 234.627059788747 2262.85507884626 203 207 208
-743.376498896601 234.479652625714 2270.08349600047 183 187 188
-736.856186135992 233.465722837108 2281.05084758203 188 192 193
-732.124797414348 232.644157604155 2291.13660593555 191 195 196
-727.36964138845 231.822427526673 2301.17860231375 191 195 196
-725.325507611404 231.289586341568 2309.94863545992 187 191 190
-724.178459588732 230.853045504845 2318.28222878093 185 189 190
-725.760417927812 230.705598442794 2325.37750078681 183 187 188
-728.252416448668 230.654620763065 2332.06020935199 182 186 187
-727.074027326229 230.218096290864 2340.33666984513 182 186 187
-727.718503397779 229.974401522498 2347.79359671457 182 186 187
-726.516092285107 229.537851395624 2356.02536443181 184 188 189
-728.982953514934 229.487120950419 2362.66191528729 186 190 193
-724.992608526564 228.761096551601 2372.02451994892 185 189 192
-722.82768730523 228.227932324195 2380.57230583112 185 189 192
-723.42052303152 227.984228279744 2387.9342539069 185 189 192
-726.782767622644 228.030152714019 2394.13184478519 184 188 191
-727.362920288825 227.786548766124 2401.47049650366 184 188 191
-726.077953586237 227.349835419812 2409.55038036534 186 190 193
-724.779292036818 226.913023582493 2417.60555153406 187 191 194
-725.329380361411 226.669401387266 2424.88890396307 186 190 193
-725.871379572054 226.425788158833 2432.15687749016 182 186 189
-726.404839920397 226.182167381373 2439.40964846747 182 186 189
-725.994851184699 225.841886197594 2447.01348038193 183 187 190
-724.63798356197 225.404907539401 2454.96104556574 183 187 190
-725.142580227266 225.161231109501 2462.16071423492 183 187 190
-725.638847263473 224.917566281358 2469.34506668738 183 187 190
-728.007162353829 224.867361144758 2475.80053120809 188 192 195
-728.489346723651 224.623720657935 2482.95899039107 188 192 195
-731.791434787391 224.67037641877 2489.04616238002 188 192 195
-733.204796621338 224.523521605459 2495.83153279536 187 191 194
-737.448655374059 224.667157546115 2501.56465313553 186 190 193
-740.747691962827 224.714072413262 2507.64629082478 186 190 193
-745.941857943772 224.954756868688 2513.04208880499 186 190 193
-751.140853702431 225.195618901685 2518.44631878379 184 188 191
-754.443276940619 225.242876926636 2524.53428833323 184 188 191
-757.745150524484 225.29020226713 2530.62126721143 185 189 192
-760.093313077885 225.240724730497 2537.03988634952 185 189 192
-766.255641009499 225.57897503187 2542.13085138608 187 190 195
-770.514039667863 225.723567039185 2547.89100077154 187 190 195
-776.688291208973 226.062182796907 2553.00350115502 188 191 196
-782.869681126974 226.400972191683 2558.12918253061 187 190 195
-795.775132437582 227.419051229044 2561.02131122103 187 190 195
-803.901408332239 227.952372595172 2565.55289357719 185 188 193
-812.040184968191 228.485999815393 2570.10705480714 187 190 195
-818.26427822238 228.825711343707 2575.31155270394 192 195 200
-828.354410241304 229.553932801026 2579.28353205607 190 193 198
-837.495742947095 230.185363666553 2583.59669314966 188 191 196
-844.717751399744 230.622849508886 2588.55063819352 185 188 193
-854.855020716085 231.351942494323 2592.60957371133 177 182 186
-866.949613340191 232.275702670173 2596.09682114705 179 182 187
-879.066556666621 233.199808358829 2599.6257837438 181 184 189
-886.344066076257 233.638331798789 2604.68211718783 185 189 192
-895.578429176731 234.271439201983 2609.16688229846 190 194 195
-895.077242099075 233.93248177581 2616.60287768316 190 194 195
-861.369458399648 230.28667312807 2633.87966961192 179 183 182
-748.081172757217 227.989453258362 2259.86510479695 203 207 208
-747.022522456217 227.567053206563 2268.36553006908 179 183 184
-739.593994757518 226.489469986035 2279.75867050025 184 188 189
-732.133908418843 225.411643913652 2291.09369581159 189 193 194
-729.195597831396 224.801713182479 2300.31079171316 188 192 193
-726.238684933597 224.191693883873 2309.49364794242 186 190 189
-723.263221377703 223.581571860742 2318.64235523995 185 189 190
-723.012820511163 223.252418161472 2326.54254035064 182 186 187
-725.499163181528 223.204342337662 2333.21571942594 182 186 187
-726.148103367919 222.96897314281 2340.68336029272 181 185 186
-726.788833795613 222.73362436322 2348.13590805669 184 188 189
-726.501647023533 222.404579186369 2355.96846981946 186 190 191
-727.124580547723 222.169299151849 2363.38830650827 188 192 195
-723.127470093422 221.465101316359 2372.74503195647 186 190 193
-720.032890725732 220.854609682023 2381.67455242251 184 188 191
-722.469361622245 220.806885402226 2388.25611393549 184 188 191
-723.97631308489 220.665428986482 2395.21523614344 184 188 191
-725.477825897797 220.524072188027 2402.1638813966 183 187 190
-724.186916954687 220.101105558416 2410.23747456889 185 189 192
-721.022375517611 219.490327383594 2419.03823587297 186 190 193
-722.496187543059 219.348963823865 2425.93643654147 185 189 192
-724.897164027845 219.301599800345 2432.45282570069 182 186 189
-725.426877279468 219.06639146912 2439.70123488563 182 186 189
-724.077785936076 218.643295230956 2447.66727680256 183 187 190
-724.588279454249 218.408094385185 2454.88033964676 183 187 190
-726.028276361751 218.266874724117 2461.71639142541 184 188 191
-727.462543904983 218.125705014934 2468.54192088083 184 188 191
-727.010166269195 217.79650971636 2476.07062140161 187 191 194
-728.430572691324 217.655398418062 2482.87017105114 188 192 195
-729.845001677536 217.514287914037 2489.65923158974 188 192 195
-731.25366055882 217.373212104586 2496.43769028742 187 191 194
-735.493863533545 217.51450743982 2502.16338311599 186 190 193
-740.682729041398 217.750039764785 2507.54788320536 188 192 195
-745.876436639034 217.985764586102 2512.94084242385 187 191 194
-750.125002394198 218.127467834107 2518.68254284142 186 190 193
-751.523159326319 217.986785880059 2525.44130073776 186 190 193
-755.771812164696 218.128696975421 2531.18322382134 186 190 193
-759.069052577648 218.176513714211 2537.26182922794 187 191 194
-766.184640374319 218.601363224533 2542.01675152553 187 190 195
-769.48579151576 218.64943334278 2548.10262567097 187 190 195
-775.658382648197 218.980392116889 2553.20976964277 187 190 195
-779.92079090984 219.122939721717 2558.97718286798 187 190 195
-792.824457135161 220.114459300488 2561.85804146806 187 190 195
-800.947398623448 220.63476549692 2566.37907306144 190 193 198
-810.045092304287 221.249665563215 2570.60649863045 188 191 196
-815.302299512409 221.487341198727 2576.11733609791 189 192 197
-827.319830850716 222.385942596676 2579.45528800916 191 194 199
-836.46079173636 223.001697650231 2583.7625469642 190 193 198
-848.51968466526 223.901027938137 2587.17678956959 179 182 187
-855.756240289158 224.328499711056 2592.15498231261 179 182 187
-867.853865164129 225.22852757502 2595.64066979998 180 183 188
-878.03090991348 225.939961370157 2599.76744909288 182 185 190
-884.334132691321 226.273672256113 2605.11567608099 186 190 193
-888.696170322889 226.418499391436 2611.06701137383 188 192 193
-883.306079914667 225.617932976121 2619.94761209649 188 192 193
-743.57484851455 220.229656250059 2261.93342195526 202 206 207
-747.94916830069 220.366107987209 2267.90432346415 184 188 189
-739.608024045175 219.230286509745 2279.7162815802 190 194 195
-733.051985766942 218.275978280648 2290.63636113855 190 194 195
-725.556257014819 217.230553423904 2301.91507304694 188 192 193
-723.502552818523 216.730525438771 2310.67737207441 187 191 190
-722.346396231719 216.321409573038 2319.00296460153 186 190 191
-721.177052302336 215.912315825062 2327.30380561012 184 188 189
-723.659048739549 215.867142679971 2333.96986406788 184 188 189
-725.220373782708 215.731105157314 2341.03061877384 184 188 189
-726.776083175956 215.595118940657 2348.08106070521 189 193 194
-726.486085242131 215.277163731705 2355.91178721818 191 195 198
-726.185256914462 214.959182959232 2363.722586976 190 194 197
-724.028112869457 214.459045893651 2372.29460847148 188 192 195
-722.779059459406 214.049963153411 2380.4488525318 184 188 191
-722.441551613195 213.731942561469 2388.19268424122 183 187 190
-723.020113649433 213.50507319908 2395.53293870266 183 187 190
-724.51802299508 213.369373660615 2402.47716202517 183 187 190
-724.151992379746 213.051399382005 2410.16804484855 186 190 193
-723.774849163657 212.733394292287 2417.83898455279 187 191 194
-724.318974457431 212.506631881895 2425.11593573299 187 191 194
-725.787564206708 212.37110023058 2432.00628546279 184 188 191
-725.381843266542 212.053126027619 2439.62417056972 185 189 192
-724.029375812183 211.643858766307 2447.58866611444 186 190 193
-726.411434299957 211.59968183768 2454.0712200573 187 191 194
-726.913729692554 211.372965998575 2461.27175667651 188 192 195
-727.407694504949 211.146269135986 2468.4569775475 188 192 195
-726.952553053473 210.828238229954 2475.98395227757 186 190 193
-728.370638095812 210.692888091802 2482.7814692339 188 192 195
-729.783192597248 210.557577388019 2489.56832213256 188 192 195
-731.189751644024 210.42229680828 2496.34466160063 187 191 194
-733.536731739067 210.378455545561 2502.7628009296 186 190 193
-737.775057749228 210.517540361756 2508.48488117231 188 192 195
-742.01538697144 210.656767209621 2514.21068839892 188 192 195
-746.257973184024 210.796140998217 2519.94018658627 187 191 194
-749.551130185167 210.844160238472 2526.01134275102 187 191 194
-752.843705298949 210.892275954776 2532.08145773129 187 191 194
-756.135673901229 210.940458309565 2538.15047726601 187 191 194
-763.24733396611 211.354920529973 2542.8950520705 186 189 194
-770.368729819362 211.769616861838 2547.65760316602 186 189 194
-777.499861460987 212.18454730516 2552.43813055256 186 189 194
-780.804910809287 212.233299046659 2558.53137918928 186 189 194
-791.791543244788 213.015114927443 2562.05299959483 187 190 195
-799.913309403184 213.522361415659 2566.56844645476 190 193 198
-809.97313887869 214.213225131808 2570.4734596421 188 191 196
-814.265824249542 214.354347732102 2576.29562521471 187 190 195
-826.283556569879 215.229107355415 2579.62728128457 187 190 195
-836.390812155106 215.920907014604 2583.61929694298 184 187 192
-846.515270014636 216.613013037196 2587.64354709218 175 178 183
-854.718526410247 217.121894661585 2592.30936106657 178 181 186
-865.846077940852 217.906393119325 2596.09096407223 181 184 189
-876.021592438687 218.59944688602 2600.20940168889 184 187 192
-885.241388224664 219.200999235 2604.65738133498 187 191 194
-885.705882850602 218.976300215292 2611.78900195719 188 192 193
-880.307454934742 218.200422216347 2620.66169281526 187 191 192
-739.970463384107 212.59100508379 2263.58169706539 203 207 208
-743.430923726055 212.636703104647 2269.95985651765 188 192 193
-738.712279819417 211.888847653274 2280.09122100485 192 196 197
-734.880087043157 211.229070764163 2289.76411418998 191 195 196
-727.38115475688 210.216281910546 2301.04725279858 189 193 194
-724.413968118464 209.644474050617 2310.22270473801 188 192 191
-721.428203793837 209.072607460818 2319.36397126621 187 191 192
-721.169594605674 208.765484725836 2327.25568495665 185 189 190
-721.816652548868 208.546697035201 2334.7248504457 185 189 190
-723.373261930323 208.416261099035 2341.77861670658 185 189 190
-724.924505635737 208.285910876963 2348.82203604362 188 192 193
-724.628889895474 207.978966010721 2356.64624567482 189 193 196
-724.322647287904 207.672058980294 2364.4504176948 187 191 194
-724.005579491412 207.365141220495 2372.23467699338 185 189 192
-723.677656175185 207.058227142314 2379.99897212036 182 186 189
-723.338630668048 206.751311921322 2387.7433521957 182 186 189
-722.062107635964 206.355979948996 2395.8512097639 183 187 190
-721.700256490935 206.049090249958 2403.55311276318 184 188 191
-722.257022201491 205.830630712355 2410.85631306716 188 192 195
-722.805467741693 205.612219819566 2418.14422569041 188 192 195
-725.209936211685 205.570894879369 2424.66885332729 186 190 193
-725.744390976665 205.352568510819 2431.93105978393 184 188 191
-725.335627818349 205.045723953778 2439.54720086225 184 188 191
-723.980231148039 204.650324309414 2447.50997508805 185 189 192
-724.485840196326 204.432023749299 2454.71913677696 185 189 192
-724.983092138047 204.213727077652 2461.91292939352 186 190 193
-724.532193619451 203.906840595583 2469.45105901521 187 191 194
-725.011507016471 203.688551893662 2476.61186177622 186 190 193
-727.367523239858 203.647610173426 2483.04749214566 187 191 194
-729.720203983918 203.606715480143 2489.47750634688 188 192 195
-731.124888545918 203.477234700646 2496.25163817501 187 191 194
-732.523624100592 203.347755053951 2503.01533327936 186 190 193
-734.864373961902 203.30707470642 2509.42296462764 186 190 193
-738.150853944201 203.355206474701 2515.48187437771 186 190 193
-742.386940745495 203.492226066988 2521.19921525063 187 191 194
-746.625048777584 203.629358361175 2526.92030742711 186 190 193
-750.865338924121 203.766666248805 2532.64496147035 185 189 192
-754.153311197804 203.815258952416 2538.70675442923 185 189 192
-760.307018867193 204.130482084071 2543.77443622994 186 189 194
-769.33805318787 204.712532761519 2547.869384581 186 189 194
-777.425866784305 205.205976584107 2552.31823573843 186 189 194
-780.729474572605 205.255198641039 2558.40897451749 187 190 195
-787.874901103474 205.660180372584 2563.21280102106 188 191 196
-798.877766706532 206.42121307841 2566.75802723745 190 193 198
-810.863582236279 207.271573088569 2570.02364503212 190 193 198
-816.120909494556 207.499472864777 2575.5312592412 184 187 192
-825.245843026948 208.083528027429 2579.79950814291 179 182 187
-835.352601477761 208.756898984837 2583.78557182255 177 180 185
-847.413623450981 209.608703013241 2587.18943797283 177 180 185
-851.739964583528 209.748392751486 2593.07357597543 180 183 188
-862.864762066448 210.511761869441 2596.8442639884 185 188 193
-872.0652983171 211.097293426472 2601.25200404743 188 191 196
-883.227771907074 211.861364206745 2605.09169204687 191 195 198
-883.687262819294 211.64521777721 2612.21668187334 190 191 193
-878.281778584543 210.894028678904 2621.083819352 187 188 190
-736.362232281271 204.979871099975 2265.23167797666 206 210 211
-741.631726612937 205.196659369282 2270.75832818452 189 193 194
-737.815189623203 204.558769226182 2280.46659702298 189 193 194
-733.066947930245 203.83526039003 2290.55084733248 188 192 193
-725.559833125457 202.85506490885 2301.82873831791 189 193 194
-723.499133199479 202.387866011013 2310.58804332756 188 192 193
-719.59398778665 201.749555919016 2320.13321884338 187 191 192
-720.245507043736 201.539005135525 2327.61306651446 186 190 191
-721.805619531554 201.414135705703 2334.6749495929 186 190 191
-725.196595863063 201.46058693065 2340.92554179401 186 190 191
-728.587149465399 201.507225159921 2347.17541275531 190 194 195
-727.37343271784 201.125773545307 2355.4029566428 188 192 195
-725.224018952469 200.65864092485 2363.99912066859 185 189 192
-723.982128866269 200.277134492357 2372.17483216806 182 186 189
-724.576013839339 200.067020082668 2379.54881111636 182 186 189
-723.30958424578 199.685500217026 2387.6798901949 182 186 189
-722.957122611816 199.389698050229 2395.40239647226 185 189 192
-721.665042716926 199.008153411124 2403.4862925231 187 191 194
-722.219341568399 198.798114178785 2410.78748798837 190 194 197
-723.696642964228 198.673944545947 2417.69677257975 189 193 196
-725.16803228894 198.549820802256 2424.59570183897 183 187 190
-725.700030604682 198.33994440727 2431.85593152438 184 188 191
-723.41870027184 197.87255752987 2440.2088962421 184 188 191
-724.866472838087 197.748536633398 2447.06442090772 184 188 191
-722.557926007309 197.281030584309 2455.36779793324 184 188 191
-723.050132595931 197.071167829638 2462.5548474841 185 189 192
-722.593858635869 196.775385096442 2470.08642982259 185 189 192
-724.951283513235 196.73742935649 2476.52554891106 185 189 192
-725.419824095111 196.527609773912 2483.66908534618 186 190 193
-728.712421930807 196.575770077296 2489.73925552447 187 191 194
-732.004421762625 196.624041436982 2495.80835926166 187 191 194
-734.348994982549 196.5864034814 2502.22444161893 186 190 193
-736.690578215874 196.548864757534 2508.63455044315 187 191 194
-736.181076110964 196.253186790202 2516.06826803008 188 192 195
-740.413520397444 196.38787332109 2521.77820805345 188 192 195
-746.551855776498 196.694906883344 2526.81515463387 188 192 195
-750.790879274422 196.829908114415 2532.53728966289 187 191 194
-755.032101003315 196.965070358676 2538.2630118153 186 190 193
-759.275088282458 197.100355145296 2543.99252223138 186 189 194
-769.262526949868 197.752805975423 2547.75284396196 186 189 194
-776.392323684733 198.14706903027 2552.52470108912 187 190 195
-780.653087957063 198.282921925056 2558.28657323296 188 191 196
-787.798477668442 198.677592244143 2563.08723115807 188 191 196
-798.802487745015 199.417512489571 2566.62871754857 190 193 198
-808.863109794858 200.071543854063 2570.52411215417 187 190 195
-815.081939197435 200.380762031967 2575.70975887069 179 182 187
-824.206236721514 200.94910680529 2579.97211358952 178 181 186
-833.345371063541 201.517761205476 2584.26184903129 178 181 186
-846.374174493572 202.432109122114 2587.34965059394 179 182 187
-851.668324577421 202.655971418574 2592.9237745327 184 187 192
-860.85210491084 203.225497224658 2597.29588413768 188 191 196
-867.132759752415 203.53607016607 2602.59615075166 191 194 199
-877.316385002596 204.192602195821 2606.71801841382 194 195 199
-880.691171538654 204.244267246003 2612.94040253918 187 188 190
-877.230064854589 203.690669289778 2621.21342586802 184 185 187
-731.843778086594 197.313616631081 2267.30531192723 202 206 207
-735.289693692798 197.359555073455 2273.65679326018 186 190 191
-733.278592208944 196.908915510346 2282.51229858567 188 192 193
-730.340859989676 196.375467185675 2291.75345809559 187 191 192
-726.47237556804 195.759114817305 2301.37316725188 191 195 196
-725.32294970486 195.391236251349 2309.72303549394 185 189 192
-718.672066939482 194.526145196848 2320.49550825826 184 188 191
-718.403946919506 194.241052687987 2328.37635475291 187 191 194
-720.876742015082 194.20469236312 2335.02814046906 185 189 192
-726.101930445945 194.417213790395 2340.4725251665 186 190 193
-730.412340784196 194.547069484846 2346.32390198589 189 193 196
-727.355716272618 194.013505337524 2355.34636207699 184 188 191
-724.280237574593 193.479832964191 2364.33461758198 183 187 190
-721.186333566389 192.946120334714 2373.28846923448 184 188 191
-722.699041363891 192.827350543509 2380.26449649687 183 187 190
-722.353351908542 192.542619513838 2388.0027873707 182 186 189
-723.851878615076 192.423989182202 2394.95327920536 187 191 192
-721.629115222355 191.973177916643 2403.41944807972 188 192 193
-721.250789536799 191.688501418686 2411.0977313785 187 191 192
-719.929887759654 191.320706216902 2419.13275348413 186 190 191
-718.595745587201 190.952902956782 2427.14291742301 183 187 188
-720.984504327695 190.917595255592 2433.64046151649 183 187 188
-720.563686375784 190.632913124946 2441.2410963452 182 186 187
-722.942300708247 190.597780067176 2447.72003554292 182 186 187
-720.627684124009 190.146761340779 2456.01720727396 186 190 191
-720.175614258391 189.862093024719 2463.55986404942 186 190 191
-718.771917599905 189.49416868443 2471.44257244782 186 190 193
-721.122408238979 189.459202982494 2477.86983737653 186 189 194
-724.412853904721 189.507603556807 2483.93612157671 186 189 194
-728.6471654304 189.639402205538 2489.6486273457 184 187 192
-732.883715927707 189.771377124769 2495.36479975576 183 186 191
-734.280808484189 189.653533154591 2502.12897218211 181 184 189
-737.568957830023 189.702408637995 2508.19117584683 179 182 187
-736.108343738703 189.334591334966 2515.9687306599 185 188 193
-738.437749633193 189.300199909572 2522.35789384269 185 188 193
-744.57312069291 189.599531416862 2527.38707232824 182 185 190
-749.762195143514 189.815657486825 2532.7656165844 182 185 190
-754.955622146006 190.031936905251 2538.15271633567 184 187 192
-761.109877188431 190.331877360056 2543.21680902965 183 187 190
-769.186219724279 190.799010188325 2547.63614629781 183 187 190
-774.398725728397 191.015917535787 2553.058020397 184 188 191
-777.695678905428 191.065961451691 2559.13676728387 185 189 192
-785.798414552799 191.533775987213 2563.60535554095 185 189 192
-794.876174516068 192.085450153197 2567.77710600035 186 189 194
-806.860499974898 192.888183605688 2571.02515672178 186 189 194
-815.006564387425 193.356927722378 2575.57371401757 180 183 188
-827.030978755721 194.160433998371 2578.8957279524 178 181 186
-834.239091248851 194.546175451772 2583.80905940211 179 182 187
-847.271230491749 195.434106136581 2586.8950519098 187 190 195
-849.654961506886 195.402017986598 2593.38431728769 188 193 197
-857.865011754448 195.872129707757 2598.05096746044 189 194 198
-863.168839270206 196.091380149309 2603.64150307705 190 195 199
-874.32223299563 196.813166376489 2607.45227993205 192 197 200
-879.642867409625 197.032794221196 2613.07383998999 182 186 187
-879.107292008411 196.749864369607 2620.46343766343 189 193 194
-734.578160810965 190.320822471455 2266.00185967359 203 207 208
-737.118123819216 190.28693123952 2272.77792192825 186 190 191
-730.55730202814 189.452266821217 2283.72467892568 187 191 192
-723.967313579807 188.617371375643 2294.61822789525 185 189 190
-720.998039232322 188.102869443361 2303.80707326676 188 192 193
-721.664904076177 187.908883731147 2311.32012573669 186 190 193
-717.748771191518 187.314153648232 2320.85819872407 185 189 192
-718.392764126907 187.120235336429 2328.32920585566 186 190 193
-721.781297794141 187.167026778272 2334.57540786254 184 188 191
-727.007062913413 187.374414357936 2340.01930933803 188 192 195
-728.55712016476 187.26115617931 2347.06568651031 191 195 198
-725.494051767997 186.746704345601 2356.08204260102 188 192 195
-723.335052867331 186.312443838555 2364.67046315914 187 191 194
-722.084023384433 185.958435870742 2372.83813925913 187 191 194
-723.595923949523 185.845373296415 2379.81439815535 188 192 195
-725.101920951116 185.732401029051 2386.78033072385 188 192 195
-726.602465088677 185.619528209712 2393.73576014399 187 191 192
-724.380085232293 185.185281112843 2402.20761560885 188 192 193
-722.141624200643 184.750990242474 2410.64988169868 187 191 192
-718.023271387821 184.155800156918 2419.81640130382 185 189 190
-716.683366828357 183.801769800512 2427.82010896768 182 186 187
-718.133176206077 183.689000006954 2434.6827631463 186 190 191
-719.577459746066 183.576343564617 2441.53478414562 184 188 189
-720.078819087355 183.383267580122 2448.74371541462 184 188 189
-717.756823132318 182.948735353618 2457.03227297883 186 190 191
-718.237655025046 182.75565128226 2464.2034480978 186 190 191
-716.828413720382 182.401563414285 2472.07961555869 185 189 190
-720.116741351432 182.450160349504 2478.14206335704 183 186 191
-724.347957215673 182.579469954925 2483.84812713241 183 186 191
-729.525956029853 182.789538608971 2489.20498392552 183 186 191
-732.816444024138 182.838604434942 2495.27154603091 182 185 190
-735.159018425523 182.807178419766 2501.6853160151 182 185 190
-737.498409723616 182.775817905269 2508.0932513898 177 180 185
-736.984578691255 182.502556858073 2515.52574853435 181 184 189
-739.313524456942 182.471291653292 2521.91500557736 181 184 189
-744.497313599861 182.6822583873 2527.28227766778 180 183 188
-750.639498771496 182.974122458875 2532.32174293021 180 183 188
-756.788828925417 183.266219334838 2537.37441912615 181 184 189
-761.032282668719 183.397004164563 2543.10343422221 181 185 188
-766.235620960472 183.608720716428 2548.50688624547 182 186 189
-771.443324116182 183.820605535538 2553.91892089438 184 188 191
-777.616083921391 184.113498438516 2559.01492787029 183 187 190
-784.757569743118 184.487441233253 2563.80217262426 182 186 189
-792.871853298287 184.94252860946 2568.28766801681 177 180 185
-804.855277452798 185.721453364816 2571.52690129452 177 180 185
-814.930221179811 186.338946432198 2575.43764823204 176 179 184
-827.9230809861 187.199627433594 2578.44320414033 178 181 186
-834.164451874018 187.494120284679 2583.6658805371 182 185 190
