ply
format ascii 1.0
comment KinectMotionCapture
element vertex 750
property float x
property float y
property float z
property uchar red
property uchar green
property uchar blue
end_header
-1081.81469311315 296.968736120089 2147.07386922332 163 167 168
-1070.87874510371 296.171307608913 2141.38737352143 162 166 167
-1060.82643450647 295.614315613034 2137.53132726233 192 196 197
-1050.80933569835 295.055292416683 2133.66233398056 189 193 196
-1041.24144326576 294.616026946732 2130.70571930198 194 197 202
-1032.93792858045 294.54022699354 2130.51705577602 194 197 202
-1025.87584960458 294.828848718516 2133.1047512505 195 198 203
-1019.21950143235 295.238867709151 2136.620745342 195 198 203
-1012.55765887161 295.648670874494 2140.13897377208 198 201 206
-1005.08773679232 295.813788158054 2141.79872481234 200 203 208
-998.02116928273 296.100441434681 2144.38790261711 207 210 215
-990.558130928957 296.264204067043 2146.04530463603 210 213 218
-985.067254105831 297.039648326519 2152.3653341554 213 216 221
-979.1646094143 297.692799772579 2157.75919097959 216 219 224
-973.63456362614 298.468643329085 2164.09348218252 218 221 226
-966.926340419255 298.876447801069 2167.62841163854 223 226 231
-960.212582739679 299.284005844994 2171.16507907769 223 226 231
-953.493378782249 299.691062115352 2174.70368749449 223 226 231
-946.768876193475 300.097894909931 2178.2444585467 222 225 230
-940.414447821551 300.627472622935 2182.72633097028 219 222 227
-934.795612023807 301.403570426786 2189.09290210153 213 216 221
-929.156149101059 302.179865159993 2195.46723700581 207 210 215
-923.128048299065 302.832917264226 2200.90666925087 208 211 216
-916.719021051881 303.362425364976 2205.4083742439 208 211 216
-909.936849521369 303.768071632311 2208.96975475774 209 212 217
-903.149515684753 304.173369992347 2212.53323898635 209 212 217
-897.072197576077 304.82602306076 2217.99052361936 215 218 223
-892.399779049281 305.974796957254 2227.24126783775 218 221 226
-886.986347756118 306.876071554969 2234.60920882506 221 224 229
-882.597271194682 308.150535751908 2244.83329834326 225 228 233
-877.124886026307 309.052982870874 2252.222747956 227 230 235
-871.282076637896 309.831461852236 2258.67087676759 232 235 240
-866.103411074342 310.859134145935 2267.02986599952 231 234 239
-861.233772280288 312.012102148971 2276.35258419955 231 234 239
-857.33984282608 313.5398768187 2288.54899333326 230 233 238
-851.721842531168 314.445083064587 2295.99181287576 229 232 237
-848.402621195329 316.225010362606 2310.13180106581 230 233 238
-845.022011658563 318.006576321452 2324.29396322898 230 233 238
-840.599429742335 319.414780096786 2335.60687360305 227 232 238
-835.482185918599 320.573613559793 2345.01999856735 226 231 235
-833.547302208776 322.986230320954 2364.03777783258 222 227 231
-836.633420241999 327.407723144926 2398.4489828357 219 222 227
-840.500825787392 332.211501831023 2435.80508384116 222 226 229
-833.50425113074 332.751929005978 2440.52134503991 225 229 232
-1103.66891626984 288.764782338432 2140.64752028842 210 217 209
-1102.10325857209 290.598781797794 2155.22100902299 213 220 213
-1093.64474320282 290.540413911491 2155.08997834376 173 177 176
-1082.23257211703 289.651379624725 2148.50304433032 163 167 168
-1071.29251167707 288.878395302033 2142.82014148719 168 172 173
-1061.23567508972 288.340458128991 2138.96717740707 192 196 197
-1051.21395509404 287.80050716721 2135.10104790158 187 191 194
-1041.22762599215 287.258742521452 2131.2221770152 193 196 201
-1032.92152140093 287.191083287089 2131.03506872955 192 195 200
-1025.44770616716 287.360567211955 2132.69681807435 190 193 198
-1018.79071117019 287.767931647683 2136.21284689117 191 194 199
-1012.53176419569 288.294300078714 2140.66003949712 197 200 205
-1005.46002662492 288.581691375913 2143.2511514641 201 204 209
-998.387820607005 288.868505462113 2145.84239008404 206 209 214
-990.523329550275 288.915421922549 2146.57002817333 209 212 217
-984.242125586436 289.44057587522 2151.02521594502 212 215 220
-978.34105355422 290.0854477024 2156.41787665255 216 219 224
-972.424237030261 290.73045843324 2161.81626840571 218 221 226
-965.720368473179 291.135307472674 2165.34913835656 222 225 230
-959.777268000476 291.780213934613 2170.75707218812 223 226 231
-953.818492943661 292.425137464391 2176.17070247253 225 228 233
-947.844085256341 293.070195526123 2181.59002282933 224 227 232
-940.727791696868 293.353849367449 2184.19704166328 223 226 231
-935.102659692558 294.119295245807 2190.56509673803 220 223 228
-929.827171255866 295.005636838791 2197.88204549141 215 218 223
-923.422583270199 295.53008819379 2202.38175599448 213 216 221
-916.277275595051 295.81261297989 2204.99923155724 212 215 220
-909.494397807876 296.215487911284 2208.56065957893 214 217 222
-902.346251600223 296.496992146148 2211.17908948492 215 218 223
-896.270486933176 297.141545002324 2216.6351985203 216 219 224
-891.24406388466 298.14998736296 2224.93742139998 219 222 227
-887.243954109166 299.523100106913 2236.09418410525 222 225 230
-883.197714225251 300.897598822256 2247.26781218505 224 227 232
-877.369079267764 301.665280925128 2253.70997625185 224 227 232
-871.519960566869 302.433168045059 2260.15959830074 224 227 232
-865.992567318508 303.323101513651 2267.5683445451 226 229 234
-860.439532531559 304.213395713153 2274.98618023585 227 230 235
-855.872061796821 305.470117801481 2285.27374838628 229 232 237
-850.594722465458 306.48361589235 2293.6672657322 230 233 238
-847.278145803774 308.230864963915 2307.80382738844 230 233 238
-843.900258668759 309.979914622908 2321.96280129932 229 232 237
-839.480716005847 311.36353749556 2333.2724984249 228 233 239
-834.691176098397 312.625841686283 2343.641173824 223 228 232
-833.720463499151 315.360119369672 2365.53282636364 216 221 225
-836.79557294557 319.692595528945 2399.94131475027 212 215 220
-840.651469637738 324.399218496399 2437.29426680019 217 221 224
-833.96282724391 325.057301965452 2442.97407823634 221 225 228
-1095.77178928263 283.646530419581 2160.19683413983 176 180 179
-1087.31258562593 283.595752519083 2160.06662621782 162 166 167
-1076.76150219619 282.964293684561 2155.31962798057 170 174 175
-1064.99434831487 281.982667135928 2147.78813007648 189 193 194
-1052.03410365193 280.649809828603 2137.46344861479 191 195 198
-1041.62706595326 280.010994464991 2132.66355809202 189 192 197
-1032.90473019414 279.83521153731 2131.55296787825 190 193 198
-1025.42791149487 280.007446815358 2133.2157617836 193 196 201
-1018.76779904784 280.412120456958 2136.73297456763 195 198 203
-1013.71567190502 281.283136187243 2143.96735710867 201 204 209
-1007.03403579145 281.687592764047 2147.49211956593 204 207 212
-999.151966138782 281.741137717547 2148.22689905492 208 211 216
-990.883887608324 281.676875619898 2148.02623079274 210 213 218
-984.203506361842 282.079675254321 2151.55041229072 213 216 221
-978.298875354672 282.716468014652 2156.94375652901 216 219 224
-971.990474817133 283.236134145732 2161.40841177237 218 221 226
-964.900451274533 283.520964733956 2164.00597451007 219 222 227
-959.341837839483 284.275056842261 2170.34900423046 220 223 228
-954.142868941676 285.147033530236 2177.63706670669 224 227 232
-948.162251754631 285.78418935477 2183.05779266627 225 228 233
-940.289819412533 285.832414863037 2183.78866919777 224 227 232
-934.290843757994 286.469083435739 2189.21628301935 222 225 230
-929.386726380589 287.459882703498 2197.47273645606 219 222 227
-923.716468284056 288.215062701657 2203.85641295775 216 219 224
-916.565504625088 288.497808532162 2206.47596022999 215 218 223
-909.776806428123 288.898171548317 2210.03931349712 217 220 225
-903.342816891297 289.416612045686 2214.54950746433 218 221 226
-897.255785313724 290.053446624658 2220.00912783508 223 226 231
-891.153298504934 290.690289698826 2225.47436431273 225 228 233
-886.796390343021 291.92057350472 2235.68317805701 226 229 234
-882.398464256684 293.151924386395 2245.9069756662 226 229 234
-877.265411247636 294.146430241114 2254.24688968334 226 229 234
-870.378959248843 294.546623648969 2257.84574778055 228 231 236
-865.197287627587 295.54201721095 2266.20339374428 226 229 234
-861.003143412015 296.895438361507 2277.42917068632 226 229 234
-856.762977010995 298.250122161937 2288.67176448562 227 230 235
-851.80822044864 299.367291122706 2298.02270807252 228 231 236
-846.486031765668 300.365615573967 2306.43163030209 229 232 237
-841.462403575606 301.484166001172 2315.80770177161 229 232 237
-837.056304901438 302.843012163243 2327.11089905408 226 231 237
-834.224441087485 304.801816775853 2343.22042100788 222 227 231
-834.535846297626 307.961502023555 2368.94480893319 218 223 227
-837.275917230612 312.085135407565 2402.39271563561 215 218 223
-840.485021058128 316.454583931019 2437.82186469285 218 222 225
-833.479004103249 316.984601238228 2442.54077119201 221 225 228
-1105.5282789987 276.534024813071 2163.58168739305 216 223 216
-1103.43866763731 278.187705498096 2177.2653865935 204 208 207
-1092.81221176268 277.581464729187 2172.54767673938 161 165 166
-1080.96240353818 276.633453578289 2165.04849229239 166 170 171
-1066.2379791588 274.889488782469 2151.06755990824 189 193 194
-1053.26929158412 273.594882281814 2140.74908646316 194 198 201
-1043.26613882714 273.091544701814 2136.87897332069 188 191 196
-1034.53117375147 272.9271533377 2135.77383132357 190 193 198
-1025.8161549045 272.761386926173 2134.66133836297 193 196 201
-1019.15017228821 273.163445184759 2138.18023235987 194 197 202
-1013.28515737504 273.793151365025 2143.55864788967 197 200 205
-1006.60285345711 274.194835103114 2147.08344377022 198 201 206
-998.322471414148 274.139675174083 2146.8881869146 207 210 215
-990.848043748837 274.311817006907 2148.55010501693 209 212 217
-984.164517092622 274.712046043632 2152.07548970993 210 213 218
-978.646781508417 275.455250493191 2158.40284548073 212 215 220
-972.720316174052 276.084202000189 2163.80353131498 213 216 221
-966.39273033481 276.598616875081 2168.27450677803 214 217 222
-960.437408243241 277.227564662426 2173.68567707522 215 218 223
-954.846602702582 277.971540481253 2180.03964010634 219 222 227
-948.102111519602 278.370936303358 2183.58711263403 220 223 228
-940.601892638955 278.539679258097 2185.25814520269 221 224 229
-934.224284537336 279.053296001748 2189.74748971719 221 224 229
-928.946162582215 279.912644419346 2197.06335864853 221 224 229
-923.274739916206 280.657031491734 2203.44664393856 219 222 227
-916.488076096752 281.055230686163 2207.00909477613 218 221 226
-909.333847454061 281.337389494826 2209.62978404784 219 222 227
-903.618428286097 282.08182856493 2216.02905884261 220 223 228
-897.882490361524 282.826519881052 2222.43606220984 221 224 229
-892.480481110573 283.687329236724 2229.79679997313 221 224 229
-887.052872917722 284.548529827878 2237.16712261796 220 223 228
-881.948994144298 285.526247060864 2245.4949155061 218 221 226
-876.814443347073 286.504553793049 2253.83415147627 218 221 226
-870.616059503081 287.134723092557 2259.33372740121 222 225 230
-865.085976802851 287.997606019864 2266.74140981789 226 229 234
-860.88720760364 289.326864901439 2277.96678980314 225 228 233
-857.315889165971 290.89047976614 2291.1154969817 226 229 234
-852.685878108706 292.105650890042 2301.4223989881 227 230 235
-847.020401253155 292.971502703146 2308.87949919324 230 233 238
-841.329394723075 293.837770427204 2316.34565236378 231 234 239
-836.592326200124 295.05532527169 2326.69188652872 221 226 232
-835.376999358751 297.561577814028 2347.58840120517 215 220 224
-835.992534784636 300.774142724581 2374.27308759934 210 215 219
-838.073991285826 304.57726177582 2405.80274356039 215 218 223
-838.421147062864 307.798826572513 2432.58562141562 222 226 229
-832.054275499765 308.557886948857 2439.22269653138 227 231 234
-1122.24289054455 273.315485460048 2199.93135284225 218 225 218
-1107.26422463994 271.632208685473 2186.04712065498 201 206 202
-1096.18929717963 270.938174514702 2180.41892267498 164 168 167
-1082.63367992659 269.578799423833 2169.24225969287 170 174 175
-1067.48024560488 267.773376732958 2154.34575509299 197 201 202
-1053.25524459553 266.184903436153 2141.26165176228 196 200 203
-1043.25020588905 265.700503810937 2137.39390706028 188 191 196
-1034.5127271245 265.546943712044 2136.29024131174 189 192 197
-1025.79526182079 265.391992246932 2135.17945324572 192 195 200
-1019.53183964068 265.902575676716 2139.62708085838 192 195 200
-1013.25758356176 266.413119788031 2144.07838756144 195 198 203
-1006.57213422846 266.812113824919 2147.60437765253 197 200 205
-999.085003473717 266.98796791425 2149.27119135998 206 209 214
-991.602655581659 267.163204527765 2150.93647498952 208 211 216
-985.303608966127 267.672500380584 2155.39694914769 210 213 218
-979.384218493908 268.293552752913 2160.79446841651 211 214 219
-973.061274659033 268.802783854833 2165.26336614109 213 216 221
-967.112981988801 269.423893835266 2170.67139101048 215 218 223
-960.001082549095 269.708864744298 2173.27691267055 216 219 224
-954.789265797971 270.554128344822 2180.56762770928 217 220 225
-948.041445796046 270.95086901596 2184.11585508128 218 221 226
-941.288235452529 271.347224831181 2187.66601192881 220 223 228
-934.529736959016 271.743237657272 2191.21831858601 221 224 229
-928.875295739036 272.47665859691 2197.59460646674 220 223 228
-922.832906610735 273.09757513824 2203.03680551779 219 222 227
-916.774982730511 273.718622386279 2208.48465878965 218 221 226
-909.977220020911 274.113920437847 2212.05092337496 218 221 226
-904.612584882975 274.960809126181 2219.3972856881 218 221 226
-899.579121958079 275.921184195057 2227.69818536007 220 223 228
-894.160492745482 276.769051568133 2235.06423959158 220 223 228
-887.660418571171 277.277523001474 2239.5974381023 221 224 229
-881.150143747013 277.78584343361 2244.13458580418 217 220 225
-876.016661855482 278.747910284843 2252.47220807581 215 218 223
-869.819818335916 279.369801229167 2257.97059972792 214 217 222
-864.632580072031 280.332777923513 2266.32782235755 211 214 219
-860.770971658272 281.75144101576 2278.50425540071 216 219 224
-857.194704628515 283.28542748727 2291.65227077378 219 222 227
-852.560301990733 284.479093362965 2301.95914580098 222 225 230
-847.553752661771 285.559683165471 2311.32640199439 224 227 232
-842.511410389744 286.641089982993 2320.70647044803 224 227 232
-838.412224299861 288.066119928996 2332.9697047723 221 226 232
-837.499123048184 290.636105456898 2354.82802884032 216 221 225
-839.374175144803 294.239646964208 2385.35106459112 212 217 221
-841.100859934221 297.848166855544 2415.92812907825 214 217 222
-838.887038750891 300.085988517751 2435.03432253886 217 221 224
-829.690065339404 299.801817471726 2433.02119740965 206 210 211
-1111.94631510098 263.107994987544 2178.36974032902 216 224 213
-1107.67863293724 264.160496608923 2187.46616473018 194 199 192
-1095.75256615796 263.275494034745 2179.99944197771 165 169 168
-1083.88227348451 262.387821617965 2172.51250725941 165 169 168
-1067.88448703369 260.41842633162 2155.77730302818 186 190 191
-1054.48799343564 259.092090816004 2144.54506302987 189 193 196
-1044.47334255123 258.627004341401 2140.68226800114 192 196 199
-1035.72583954845 258.484601200678 2139.58334055036 193 197 200
-1026.18210593799 258.124310166394 2136.62390681172 196 200 203
-1018.69617171507 258.304331984391 2138.29085454127 198 202 205
-1011.61778889613 258.592161643528 2140.88441405158 201 205 208
-1005.33967680958 259.096722611655 2145.33667034932 202 206 209
-998.653017006951 259.49250229437 2148.86260341596 205 209 212
-991.565583844233 259.77919685808 2151.45936561129 210 214 217
-984.870468794929 260.174221359836 2154.98856811223 211 215 218
-978.950099147544 260.787093842837 2160.38582596644 214 218 221
-973.013995492586 261.400045267898 2165.78880653279 214 218 221
-965.90703894388 261.685299416169 2168.39255362579 217 220 225
-959.564644926 262.188739955831 2172.86808142514 216 219 224
-954.351527144738 263.020476578014 2180.15824854486 216 219 224
-947.980342790084 263.523970354074 2184.64424097153 217 220 225
-941.973514743605 264.137065513417 2190.07292921032 219 222 227
-935.206647501486 264.530666017207 2193.6280945346 221 224 229
-929.173632567495 265.14360725376 2199.06603153408 221 224 229
-923.125125644075 265.756663834528 2204.50986036327 217 220 225
-917.061069980436 266.369732564965 2209.95933955042 216 219 224
-910.257592551127 266.762619983218 2213.52775292714 218 221 226
-904.527027390541 267.485914551949 2219.93093544343 217 220 225
-899.84642802622 268.54043981088 2229.17754085712 221 224 229
-894.775620948078 269.485526581227 2237.49110984112 219 222 227
-888.267006170904 269.988853022931 2242.02702327577 216 219 224
-882.446566787374 270.713442902089 2248.46321251093 216 219 224
-877.298695587928 271.659649486567 2256.8046119708 219 222 227
-871.088030707251 272.274041089205 2262.30745960515 226 229 234
-865.203571329721 272.999405962578 2268.76696818292 223 226 231
-860.315366061627 274.058114351403 2278.0893202418 226 229 234
-856.400463198301 275.451228207334 2290.28318942926 222 225 230
-851.766807602776 276.623128457809 2300.58815077678 222 225 230
-847.0923653955 277.796132604605 2310.90826902806 217 220 225
-842.705666891051 279.081521446301 2322.19862072292 215 218 223
-839.577548210094 280.814305420331 2337.33217334005 209 214 220
-838.647874945249 283.330746413036 2359.19247862212 211 216 222
-840.183935832814 286.744596666429 2388.75781386434 213 218 222
-842.532022351759 290.498752155458 2421.25345498527 217 221 224
-837.772560923949 291.795598748027 2432.68036425995 216 220 223
-1116.22202870164 256.585809013231 2188.05698518643 214 222 209
-1107.24049518606 256.46678503405 2187.04485380491 193 198 191
-1098.27858897926 256.3464121626 2186.02523500369 171 176 172
-1087.23309810401 255.699391330746 2180.39014314361 173 177 176
-1072.05132581644 253.997981748216 2165.51178274607 192 196 197
-1056.96613868788 252.292201952932 2150.59799959353 190 194 197
-1046.10804244306 251.635905935245 2144.89386609389 191 195 198
-1036.93743294801 251.399285175709 2142.87500401405 193 197 200
-1028.19980393394 251.266768840787 2141.77323494765 198 202 205
-1019.48198225392 251.132866802006 2140.66391027411 199 203 206
-1012.39543006615 251.420956180573 2143.26045761916 201 205 208
-1005.70872203437 251.814520637985 2146.78649537223 201 205 208
-999.016289009177 252.207697233521 2150.31432966036 208 212 215
-991.132948859914 252.282238010763 2151.05090063165 211 215 218
-984.829724410001 252.780799148899 2155.51208280258 210 214 217
-978.515841656165 253.279240862918 2159.97712852485 213 217 220
-972.191245599679 253.777549217594 2164.44580242487 214 218 221
-965.086365475193 254.062722216065 2167.04878895209 215 218 223
-958.745786261729 254.560599367836 2171.52349190359 216 219 224
-953.154117492502 255.27194472656 2177.87530655775 217 220 225
-947.541647746979 255.983477724353 2184.23469314543 218 221 226
-941.533819551353 256.588393814064 2189.6631276521 220 223 228
-935.138319867216 257.08633302574 2194.15778995562 221 224 229
-928.732260686808 257.584073315226 2198.65601960644 225 228 233
-923.049777012231 258.296304108702 2205.04115183894 219 222 227
-916.617711789751 258.793959044205 2209.54882402139 218 221 226
-910.537135210518 259.399038417007 2215.00370306782 219 222 227
-904.441048340544 260.004068884953 2220.4642138954 218 221 226
-899.042909447271 260.824515782978 2227.82075430577 219 222 227
-892.556575695391 261.322207299535 2232.34814704308 220 223 228
-886.411552841456 261.927482807627 2237.82645664007 222 225 230
-879.902140277314 262.424931102429 2242.36247073037 225 228 233
-875.461084808482 263.570485860144 2252.59546540937 225 228 233
-869.259656829717 264.176298313707 2258.09430961987 224 227 232
-864.749553593841 265.323525489688 2268.35277243757 230 233 238
-859.520880593137 266.255024372159 2276.72242050671 230 233 238
-855.606402911451 267.620906410354 2288.91408052558 229 232 237
-849.972650806293 268.445559072725 2296.35654539578 230 233 238
-845.968743504496 269.813745118524 2308.58087239516 231 234 239
-841.256700066268 270.965900521283 2318.91282520946 231 234 239
-840.08935871576 273.316382015015 2339.78040608589 225 228 235
-839.795053256796 275.996909834041 2363.55560577639 217 220 227
-842.27565644134 279.662632868037 2395.99642624616 213 216 221
-843.642974511224 283.006315495736 2425.61777783168 217 221 222
-838.552955294931 284.170026963165 2436.08793536435 219 223 224
-1120.49414237256 250.002723070931 2197.74094303367 211 219 206
-1110.6332279499 249.691273682259 2194.9004381758 197 202 195
-1101.64855930646 249.582555597043 2193.89022350013 173 178 174
-1091.84257569194 249.267887495769 2191.02951735978 170 174 173
-1075.37862293226 247.31175131647 2173.39813303854 189 193 194
-1059.85744110694 245.555641124469 2157.57240938663 189 193 196
-1048.15397914941 244.719078828809 2150.028460839 189 193 196
-1038.14763048592 244.29097713248 2146.16543986221 192 196 199
-1028.1765827552 243.860930079602 2142.28944595057 196 200 203
-1018.64600133804 243.531925732088 2139.32759415667 196 200 203
-1011.96413387306 243.922932629613 2142.8514258728 202 206 209
-1005.27677027033 244.313693994278 2146.3774903216 205 209 212
-998.981188058673 244.807414436001 2150.83527623684 207 211 214
-991.490129345156 244.990852327398 2152.50434363446 207 211 214
-985.180974240857 245.484136697232 2156.96728249425 207 211 214
-977.691538396393 245.666423146275 2158.63541905918 209 213 216
-970.98152276894 246.055449504401 2162.16958293022 210 214 217
-964.265949945573 246.444200546595 2165.70549086096 212 215 220
-959.073596886178 247.248357090004 2172.98603241644 213 216 221
-953.475665117779 247.949019449509 2179.33931660404 218 221 226
-947.102832039999 248.441649893461 2183.82508841799 219 222 227
-940.719554708308 248.934138856625 2188.31489865191 220 223 228
-935.441446860892 249.739546427051 2195.62643822908 220 223 228
-928.660203415567 250.127664260604 2199.18641329165 220 223 228
-923.707509898087 251.038180387659 2207.45445877312 218 221 226
-916.538536574246 251.321510959389 2210.08059375262 218 221 226
-911.177663540134 252.127919923691 2217.42228058708 220 223 228
-903.636518604884 252.305871277639 2219.109132222 220 223 228
-897.526513338098 252.902751125717 2224.57408514856 218 221 226
-890.693067302152 253.28961767841 2228.15267865635 221 224 229
-884.90868332287 253.991581910245 2234.57380616263 225 228 233
-878.754937394425 254.588533533345 2240.05465712977 230 233 238
-874.317287364917 255.712294408181 2250.28502440676 229 232 237
-868.807384396299 256.520746144537 2257.68101354358 225 228 233
-864.295474621778 257.646337269033 2267.93850026998 229 232 237
-858.388153479163 258.350277357744 2274.40444454609 225 228 233
-854.140573168664 259.58318327887 2285.64028945642 224 227 232
-849.180167429704 260.605693210354 2294.98639773166 224 227 232
-844.183933788221 261.62896197126 2304.34532657902 229 232 237
-840.137059975172 262.971195149289 2316.58330674021 231 234 239
-839.29702439733 265.376224991391 2338.40263713507 226 229 236
-840.294093931068 268.422068072281 2366.00267466871 220 223 230
-842.761458543659 272.004102156638 2398.44199074395 215 218 223
-841.889321747181 274.527319525941 2421.34871269743 215 219 220
-838.385457710699 276.201777613932 2436.6143869319 220 224 225
-830.746561772285 276.491920411105 2439.41177643824 194 199 195
-1114.06058160805 240.874977678752 2184.45698975736 212 220 207
-1111.46987718049 242.268851395965 2197.23634149373 202 207 200
-1103.74665087488 242.469938216241 2198.99109573635 182 187 183
-1094.34611642468 242.271646255168 2197.05841169123 177 181 180
-1077.8671665963 240.375707597998 2179.43701836743 192 196 197
-1059.00834686007 237.875486291239 2156.23462672461 192 196 199
-1047.30875507814 237.068505207124 2148.69175825174 189 193 196
-1038.12586053523 236.859325474734 2146.67917595522 190 194 197
-1028.96813031779 236.648642400333 2144.65759138992 192 196 199
-1019.8353408179 236.43640277761 2142.62657317598 194 198 201
-1012.33769122944 236.624296656652 2144.29837149737 204 208 211
-1005.64447318935 237.012471799407 2147.82611364329 208 212 215
-998.945743279611 237.400372248196 2151.35609203761 205 209 212
-992.636102970144 237.888597587643 2155.81857117348 206 210 213
-985.923675255763 238.276050761636 2159.35349274704 208 212 215
-978.426206500319 238.461271430926 2161.0247693618 210 214 217
-970.933583529504 238.645872165314 2162.6944928512 210 214 217
-965.368470326912 239.33527698871 2169.03500342229 211 214 219
-960.546557701595 240.227491263186 2177.25415039024 213 216 221
-954.555266765725 240.816456223198 2182.67537275118 217 220 225
-948.171450870484 241.304082981545 2187.16501180435 218 221 226
-941.402734987407 241.689997906284 2190.72001461485 219 222 227
-935.000368483353 242.177202080449 2195.21610761095 219 222 227
-928.587617157314 242.66438155486 2199.71622624449 219 222 227
-922.5310096188 243.253219352721 2205.16117098552 219 222 227
-916.094798837442 243.740124620894 2209.66979263088 219 222 227
-910.732628274498 244.533125573743 2217.01093925042 221 224 229
-903.550028797243 244.81579763892 2219.6419754378 222 225 230
-896.723679730898 245.200242964267 2223.21780766454 222 225 230
-888.476953666867 245.174943108491 2223.01257531806 222 225 230
-882.704229289414 245.865643002469 2229.42861654084 222 225 230
-876.213547123884 246.351415433597 2233.9566899061 224 227 232
-872.135577055022 247.555555521831 2245.12899292325 226 229 234
-867.667871624374 248.658232302047 2255.36843532233 230 233 238
-863.841320418182 249.967573864194 2267.52413658666 225 228 233
-858.271257257673 250.763726993778 2274.94105623096 224 227 232
-853.347438938405 251.766300095698 2284.27211235172 223 226 231
-848.721240825661 252.872924123602 2294.56969322571 222 225 230
-844.384817012641 254.083754434358 2305.83615267692 222 225 230
-840.330686664549 255.399145335552 2318.07474411715 222 225 230
-838.830565129119 257.543435180785 2337.98112280556 214 217 224
-838.207546847364 260.001249321833 2360.79214156387 214 217 222
-841.002747715006 263.602483076987 2394.18060160445 216 219 224
-842.044508008792 266.690872957846 2422.83416776806 220 224 225
-836.009882191237 267.499748988151 2430.42109474048 218 222 221
-831.201134586898 268.724750693149 2441.86023641726 190 195 191
-1110.62662685881 232.49808994045 2177.60622264871 211 219 206
-1110.60398184795 234.441918848593 2195.89384298943 201 206 199
-1101.19162572339 234.258024032178 2193.96654049011 205 210 206
-1091.80430982967 234.072660499489 2192.03028342282 200 204 203
-1073.67024744188 231.847491219517 2170.71868011222 198 202 203
-1057.74436530845 230.102208174332 2153.97425996863 192 196 199
-1045.63849038623 229.227491553835 2145.50708812129 191 195 198
-1036.46366703362 229.031411640755 2143.49281596576 190 194 197
-1028.53620200491 229.126316617889 2144.24695567424 193 197 200
-1019.80867521618 229.025176391166 2143.14388346746 199 203 206
-1012.30804662905 229.215761115327 2144.81671289424 205 209 212
-1005.61171113889 229.601245463953 2148.34563900739 205 209 212
-999.306870141481 230.084340434467 2152.80598727843 206 210 213
-992.20206176415 230.371326960746 2155.40908457079 207 211 214
-985.096842625177 230.657882901245 2158.01229861989 212 216 219
-977.601699430384 230.845738378493 2159.68318337685 213 217 220
-971.27220598495 231.327788125316 2164.15266424953 211 215 218
-966.085228918595 232.104920144165 2171.42895915605 211 214 219
-960.872372502446 232.882662788779 2178.71495738018 212 215 220
-955.254229517713 233.56222972386 2185.07399337824 215 218 223
-947.354956720266 233.649779960421 2185.81733486344 216 219 224
-940.588234053053 234.0329234622 2189.37165866073 218 221 226
-934.1875993922 234.514610957927 2193.86670617096 218 221 226
-927.77657990372 234.996154650397 2198.36577033413 221 224 229
-922.087997428287 235.675943513198 2204.75041638928 222 225 230
-915.650968404893 236.157461540053 2209.25892885675 222 225 230
-909.926163808901 236.837534532743 2215.65675720666 219 222 227
-902.745612789146 237.12009676517 2218.28704082544 219 222 227
-895.56496387106 237.402245960577 2220.91732885006 220 223 228
-888.737855215202 237.783415843483 2224.49318992684 221 224 229
-882.9588477371 238.463403747908 2230.91070579933 223 226 231
-877.159389453584 239.143730570509 2237.33593209462 226 229 234
-872.723188559896 240.223945866908 2247.56223295746 227 230 235
-867.559234578903 241.105200699337 2255.9048294877 227 230 235
-863.046205064362 242.187346640951 2266.15919074402 227 230 235
-857.815721557374 243.070040286593 2274.52606851028 230 233 238
-853.561733945685 244.254380172451 2285.76083135409 230 233 238
-849.26173463695 245.44001207421 2297.01240946005 229 232 237
-845.246308767968 246.727359991226 2309.23482222155 225 228 233
-842.491892833148 248.418608451952 2325.29601691344 223 226 231
-839.340482858501 250.011343427303 2340.42746521167 215 218 225
-838.060101868115 252.210990976589 2361.32473697244 216 219 224
-838.604592301532 255.019309146511 2388.00448131306 220 224 227
-839.021303028627 257.831952378912 2414.73123345782 224 228 229
-834.581894929441 259.132177947451 2427.10866652535 217 221 220
-1024.69702332904 202.566876206247 1960.17702456206 197 206 189
-1105.06064844033 225.584618463941 2184.43995466492 213 218 212
-1095.25679506937 225.318775272997 2181.58241274978 212 217 213
-1085.90296919747 225.14542643205 2179.63463972229 205 209 208
-1071.14612123083 223.744080072826 2165.69133915321 200 204 205
-1056.89564561388 222.432936693802 2152.63716238403 195 199 202
-1045.61861082502 221.77962746217 2146.01891411078 193 197 200
-1036.44156312433 221.597182528614 2144.00647892542 191 195 198
-1028.51137872319 221.697553450528 2144.76201909829 196 200 203
-1020.59096024625 221.796963271387 2145.5141927328 202 206 209
-1013.08231972212 221.9904813961 2147.19015452693 204 208 211
-1005.57840263157 222.183324815713 2148.86460351794 201 205 208
-998.476139119965 222.470688299686 2151.46680460707 206 210 213
-991.373424642351 222.757533441335 2154.06913043932 206 210 213
-984.270274930629 223.043889401762 2156.67157749897 213 217 220
-977.945493402835 223.520752643296 2161.13895502491 211 215 218
-971.996831377287 224.093104083606 2166.54343518524 210 214 217
-966.416677047751 224.761270979526 2172.88780832706 212 215 220
-960.434002169546 225.33399886378 2178.30467503739 212 215 220
-954.056449189706 225.810853869593 2182.79097148701 212 215 220
-946.538739739497 225.999621046172 2184.4701242012 213 216 221
-939.399857184457 226.283800388447 2187.08539011544 216 219 224
-932.6321232951 226.663602645448 2190.6395749202 217 220 225
-926.965671372642 227.332105036885 2197.01532853206 215 218 223
-922.011163030221 228.193651131577 2205.28033854045 221 224 229
-915.570751696899 228.669911900698 2209.78968325965 221 224 229
-909.119926756111 229.146043682593 2214.30280190122 216 219 224
-901.941431188005 229.428555360791 2216.93233488283 215 218 223
-895.474892366651 229.904094143011 2221.45086391931 213 216 221
-888.644554463109 230.282680620075 2225.02770338095 213 216 221
-882.510930300488 230.854965557409 2230.49938221407 212 215 220
-876.710323395051 231.524469055053 2236.92420920969 213 216 221
-871.580683908227 232.388615272944 2245.25279281799 215 218 223
-866.763606581318 233.35071991543 2254.54201251774 218 221 226
-862.251426300631 234.41114209861 2264.7946804285 219 222 227
-857.698225309037 235.47252605402 2275.06207096604 223 226 231
-853.439713154653 236.632686054238 2286.29665333515 225 228 233
-849.46816184853 237.89172938052 2298.50098919371 225 228 233
-845.445486435832 239.15223474747 2310.72401067344 220 223 228
-842.027502399672 240.610005171975 2324.87557581094 218 221 226
-838.873467257829 242.167558264516 2340.00532340176 209 212 219
-836.298466250251 243.923303501936 2357.07275253498 214 217 222
-836.528571673205 246.565341566747 2382.78787672482 220 224 227
-836.318262730307 249.113256603281 2407.58910771782 223 227 228
-832.839835123419 250.680956489971 2422.83748486539 217 221 220
-1119.58664799528 219.229618646252 2197.88215673156 207 215 202
-1102.49638602912 217.430310710131 2179.42335646443 208 213 207
-1092.28322188379 217.08863215035 2175.6420000827 211 216 212
-1083.78500478091 217.111228276015 2175.53150339826 211 215 214
-1068.20592583815 215.574774863674 2159.74338939821 202 206 207
-1055.63234299405 214.67594925344 2150.37777810419 194 198 201
-1044.77378758984 214.141335634736 2144.68299256571 195 199 202
-1035.5995982304 213.972207937791 2142.6705236444 200 204 207
-1028.07892055912 214.169799380084 2144.35116632446 209 213 216
-1019.75370369894 214.182418593987 2144.17705938099 206 210 213
-1013.45350003853 214.655284150312 2148.63520521297 202 206 209
-1005.14516893235 214.666201285816 2148.45483461641 202 206 209
-998.439304907154 215.045967649411 2151.98653706782 204 208 211
-990.544922291219 215.147694853713 2152.72942574653 205 209 212
-984.619193224396 215.711914488053 2158.12495994398 209 213 216
-979.066862160103 216.369078623629 2164.45839367281 209 213 216
-972.720285816264 216.840762816813 2168.93304500119 205 209 212
-966.363202302213 217.312427091797 2173.41176678149 207 210 215
-959.232400040047 217.597690112762 2176.02417858716 209 212 217
-952.859269635364 218.068998918782 2180.50870398476 215 218 223
-945.346245430502 218.260187186161 2182.18608274328 216 219 224
-938.211991128519 218.54406654558 2184.79964440518 219 222 227
-932.562661290345 219.201524064776 2191.16859787283 220 223 228
-927.261203298407 219.952818273562 2198.48453849485 211 214 219
-922.300120588832 220.798333870175 2206.75072769105 210 213 218
-915.490106444247 221.17550076944 2210.3200756584 211 214 219
-907.952803776594 221.364557263701 2212.00636915378 214 217 222
-901.137367805462 221.740834346701 2215.57761993626 214 217 222
-895.028540781922 222.305093278662 2221.03968346259 212 215 220
-889.964266829158 223.151991687306 2229.34347024811 211 214 219
-883.466095495224 223.622380975451 2233.87335833205 213 216 221
-876.957549716716 224.092564109306 2238.40674598139 216 219 224
-871.475779868293 224.846216665777 2245.78863291875 213 216 221
-866.654511213158 225.789458291759 2255.07795224073 213 216 221
-862.137900082302 226.82833090086 2265.33034979073 221 224 229
-857.242407952486 227.773460910864 2274.64677977007 219 222 227
-852.981949300311 228.909191391893 2285.88022612869 220 223 228
-848.342656840636 229.95117742951 2296.17768763108 221 224 229
-843.992666382394 231.089289154859 2307.44358962059 220 223 228
-841.890734204997 232.895122997676 2325.40972488992 220 223 228
-840.357300789354 234.894127812939 2345.31724504792 217 220 227
-839.699506534002 237.182268103596 2368.12809706046 222 225 230
-836.694190896709 238.805517596388 2384.27532240594 215 219 222
-835.522154772055 241.004490773194 2406.19973376311 216 220 221
-832.988352426182 242.824076282784 2424.32382126851 216 220 219
-1102.04631592155 207.941482645789 2160.73820904397 206 214 201
-1105.03230563589 210.365123362833 2185.43528424113 204 209 203
-1093.95711472813 209.865595869718 2179.82185782092 206 211 207
-1083.34719378819 209.452579977724 2175.11271932958 206 210 209
-1066.9362520886 207.792383255392 2157.48414889877 200 204 205
-1054.36937734122 206.92846085718 2148.11873380438 195 199 202
-1044.75323647751 206.685398735054 2145.19445344869 201 205 208
-1035.98633261463 206.619086914894 2144.10831627062 202 206 209
-1028.46030926301 206.819464089193 2145.79136573028 207 211 214
-1020.53436907719 206.929792957314 2146.54611516328 209 213 216
-1013.02007887695 207.128788528442 2148.22479728425 206 210 213
-1004.31249458139 207.058103870606 2147.11677714207 203 207 210
-997.211842562272 207.345225719429 2149.7183744837 208 212 215
-991.687453610144 207.99126334622 2156.04081628099 208 212 215
-985.358920735864 208.457732516453 2160.50877256271 207 211 214
-979.797797561144 209.104342270235 2166.84460445049 208 212 215
-972.669807606953 209.390477987675 2169.4560602854 210 214 217
-966.309265801801 209.856693234139 2173.93537314957 213 216 221
-959.175424061484 210.142104818439 2176.54890052115 215 218 223
-952.420130121036 210.517506565174 2180.09848770502 217 220 225
-945.283088051256 210.802001065604 2182.71310868103 217 220 225
-938.519435113659 211.176671252349 2186.26542349986 217 220 225
-932.863768050025 211.823402812612 2192.63561592352 217 220 225
-927.555979579635 212.561293358372 2199.95309962358 220 223 228
-921.856300316005 213.208762376269 2206.33933897471 218 221 226
-914.318817772611 213.401011924971 2208.02593874676 218 221 226
-907.14715275671 213.683792621614 2210.65301023011 218 221 226
-900.33362179391 214.057285644279 2214.22335878973 217 220 225
-895.649324701772 214.978827228206 2223.46127389616 217 220 225
-889.869515088188 215.626777803539 2229.87666394695 213 216 221
-883.718551552901 216.183452955495 2235.3534650421 212 215 220
-876.856033351659 216.556746382442 2238.94159744532 212 215 220
-871.71586332323 217.388715589971 2247.27183369329 213 216 221
-866.887849763201 218.313313100812 2256.56219696427 220 223 228
-862.024070232726 219.238699189992 2265.86586916023 221 224 229
-857.124389396433 220.16496608103 2275.1823978015 217 220 225
-851.518407439726 220.907645930552 2282.60833344899 215 218 223
-846.88502512037 221.927724113127 2292.90199459281 214 217 222
-842.870939478785 223.133642032423 2305.11777637601 215 218 223
-839.788403073074 224.618397632251 2320.21605310382 215 218 223
-839.23925137567 226.845955945804 2342.98286018814 210 213 218
-838.9051605247 229.169744859608 2366.7455988856 211 215 218
-839.09819968034 231.682915971212 2392.4642131197 208 212 215
-837.899363224976 233.82862524722 2414.39434319712 219 223 222
-835.024684584679 235.512904473149 2431.5655185491 225 230 226
-1109.26480319611 203.604304797116 2195.12022589889 202 207 200
-1095.62936407933 202.614203889773 2184.00042752438 201 206 202
-1084.16811349149 202.051020058277 2177.45591187438 202 206 205
-1066.50124214092 200.192016088846 2157.0687445097 198 202 203
-1053.52141786094 199.276892429968 2146.78295003428 195 199 202
-1043.49636754903 198.963414558684 2142.93537261933 196 200 203
-1035.55348242839 199.080628830086 2143.69679829818 194 198 201
-1028.43399586369 199.370392421032 2146.3054382612 199 203 206
-1020.90969248017 199.572846243412 2147.98801947828 206 210 213
-1012.58649510353 199.600959344791 2147.81434781915 208 212 215
-1003.87907037273 199.5410771139 2146.70708476147 206 210 213
-996.777962162449 199.828067911708 2149.30883796647 210 214 217
-991.64645703529 200.550358381195 2156.56083995179 210 214 217
-985.706022679151 201.098686630608 2161.96051810272 207 211 214
-979.749780909323 201.647156242765 2167.36595034673 207 211 214
-973.005074457535 202.020847764732 2170.91130735392 210 214 217
-966.63869195336 202.481798811961 2175.39259947641 216 219 224
-959.499251903443 202.767339858876 2178.00817069226 218 221 226
-952.359476247243 203.052417606896 2180.62382888984 221 224 229
-944.843333232411 203.249103514337 2182.30300994012 221 224 229
-938.452530857801 203.708968079074 2186.79283843652 221 224 229
-932.42224552571 204.256907193588 2192.22513346046 222 225 230
-927.11318399049 204.981269668081 2199.54205899821 221 224 229
-921.046564679423 205.529556835942 2204.9875817824 220 223 228
-914.237801720052 205.901136513818 2208.55605358239 221 224 229
-907.784529038841 206.360987195025 2213.06883314494 221 224 229
-901.320779010867 206.820665519446 2217.58515221118 219 222 227
-896.269066078747 207.63497457071 2225.88191618712 214 217 222
-890.833425599367 208.361171160345 2233.24471669054 211 214 219
-885.372178756855 209.087908155152 2240.61711602701 209 212 217
-879.189438239506 209.637041299975 2246.10489383662 211 214 219
-872.99131186507 210.186329108405 2251.59827357554 212 215 220
-866.434996513569 210.646468777013 2256.14825990922 219 222 227
-861.22933790094 211.463667785605 2264.50117618413 211 214 219
-854.980064645922 212.013316815296 2270.01316676027 217 220 225
-850.725965790995 213.100025770738 2281.24060361333 218 221 226
-846.425849991295 214.187937619378 2292.48485091077 218 221 226
-843.39950473428 215.635778448482 2307.55992600563 217 220 225
-839.324525066077 216.816354806638 2319.79592081429 215 218 223
-837.147345515594 218.537631660498 2337.78276201503 208 211 216
-839.722363980126 221.611159609632 2370.14485010831 207 211 214
-840.54020821978 224.239819172171 2397.77852975934 203 207 208
-839.005130330681 226.241822870174 2418.75342992422 220 224 223
-835.800077555433 227.795728955094 2434.96799520208 232 237 233
-1096.45568246422 195.16770953322 2186.33826815038 195 200 196
-1084.56831660313 194.548433449939 2178.87753338902 197 201 200
-1067.73362963288 192.924313771641 2160.33909136171 194 198 199
-1054.74532667282 192.047515560449 2150.0592692254 195 199 202
-1044.29889289504 191.669558438873 2145.2933749486 192 196 199
-1037.166699607 191.960116387101 2147.90669167692 191 195 198
-1030.03396272211 192.25024894095 2150.52017381772 193 197 200
-1021.28407590315 192.203712048955 2149.42909145319 199 203 206
-1011.34958854837 191.903548017282 2145.54961366533 207 211 214
-1003.04641119588 191.938441792321 2145.36917959225 208 212 215
-996.740292037436 192.393911184067 2149.82816217841 203 207 210
-991.998932441963 193.187158378099 2158.01057398123 203 207 210
-985.269778110386 193.558395991954 2161.55009516782 201 205 208
-978.146353509876 193.844710599638 2164.15990573584 201 205 208
-971.794937451309 194.30004460318 2168.63533617167 201 205 208
-966.200092272206 194.925074572919 2174.98179230089 206 209 214
-958.679139399082 195.12564067235 2176.66301372 208 211 216
-951.541440161461 195.410518167067 2179.2779023673 214 217 222
-944.403436775708 195.694871581593 2181.89286198034 215 218 223
-937.638502416406 196.064083300988 2185.44523053772 218 221 226
-931.239040068864 196.518347209014 2189.93803725427 219 222 227
-925.565530079874 197.143444149494 2196.31308031619 219 222 227
-919.871283788599 197.768815529278 2202.69567836234 219 222 227
-913.793271697721 198.308853372338 2208.14471814656 220 223 228
-909.1419002561 199.192096689715 2217.36778046229 220 223 228
-902.664612079111 199.646841418822 2221.8889005041 218 221 226
-896.176876272733 200.101501957536 2226.41355590447 210 213 218
-890.031719378146 200.642139157793 2231.88703713991 209 212 217
-884.922013983439 201.441355274416 2240.20373316936 214 217 222
-879.086013008307 202.06869352997 2246.6379844196 215 218 223
-872.539208632785 202.523624103143 2251.18437632921 213 216 221
-866.324741366613 203.06485596647 2256.68308549385 217 220 225
-860.774970195249 203.779285073779 2264.08646608845 217 220 225
-854.524724762035 204.320873044414 2269.59820167367 226 229 234
-850.603579303897 205.469919355989 2281.77592374429 225 228 233
-847.29602065939 206.794206200162 2295.87729564074 223 226 231
-844.586600670582 208.294231901865 2311.90771355312 222 225 230
-839.8423023283 209.274100057539 2322.23864074271 219 222 227
-838.628346916339 211.213841689718 2343.09191297452 210 213 218
-841.182478296806 214.203979604637 2375.45529821859 206 210 213
-841.980234856209 216.76282549155 2403.09100892493 204 208 209
-839.158273166738 218.364127169919 2420.2365151352 224 228 227
-835.00217210303 219.617671539069 2433.57430048895 237 242 238
-1086.73451428507 184.024664068266 2147.43082812551 196 201 195
-1096.4370337154 187.54248167004 2186.83626455971 193 198 194
-1085.8064931786 187.195093825019 2182.13956968322 195 199 198
-1068.13108834575 185.472022947065 2161.76575922194 192 196 197
-1054.31096107834 184.471420371356 2149.64546207807 199 203 206
-1043.45365299678 184.034155075917 2143.95756842687 195 199 202
-1036.3235745768 184.324451716316 2146.57009702812 196 200 203
-1029.19292459465 184.614324055262 2149.18280128514 197 201 204
-1020.44586359712 184.578441921664 2148.09175041735 199 203 206
-1011.31742796653 184.459931738455 2146.06647662034 207 211 214
-1003.01168867344 184.502965139397 2145.88758754426 210 214 217
-997.098495287934 185.034685734449 2151.2761149535 204 208 211
-991.169443800202 185.566519897299 2156.67041277568 202 206 209
-984.051105410082 185.853052591221 2159.27839178742 203 207 210
-977.320919702551 186.221055160391 2162.81804362233 204 208 211
-971.357285549236 186.752871173301 2168.22490525622 205 209 212
-965.377896414366 187.284766947966 2173.63749728473 210 213 218
-957.859089185522 187.487823613718 2175.31787272264 212 215 220
-951.101884468487 187.854932999863 2178.86752849156 216 219 224
-943.58757960931 188.056860876402 2180.54618288055 217 220 225
-937.197845456776 188.505742235431 2185.03504885659 218 221 226
-930.426886167377 188.871943841723 2188.5893793795 219 222 227
-925.122953222214 189.568741802507 2195.9023617213 219 222 227
-919.42760702983 190.183287953251 2202.28454262202 219 222 227
-914.074575696851 190.881081699445 2209.61543938557 220 223 228
-909.056036048166 191.662485941086 2217.89741323614 218 221 226
-903.648867322547 192.361353300899 2225.2480611534 215 218 223
-896.439597652515 192.644501934867 2227.88882358128 210 213 218
-890.288350051382 193.177218564037 2233.36392017941 209 212 217
-884.471766230949 193.793406167868 2239.79027511367 213 216 221
-878.634640120386 194.409920180577 2246.22411846145 215 218 223
-872.432012307353 194.943096477743 2251.71791810281 215 218 223
-866.214018406758 195.476367114029 2257.21730793888 218 221 226
-860.66047558557 196.177352107279 2264.62129884089 216 219 224
-855.418578537347 196.962810672821 2272.98473272799 221 224 229
-851.819887812187 198.169261061258 2286.11643665646 213 216 221
-849.493597234499 199.714001024803 2303.07757926545 209 212 217
-845.442439713012 200.839841269988 2315.30078866645 213 216 221
-841.667305287902 202.051579444873 2328.49700018929 211 214 219
-839.782901202507 203.771659992634 2347.44418534803 200 203 208
-843.284454934501 206.93191252828 2382.67584060396 197 201 204
-840.863290427912 208.574544460174 2400.74565112228 193 197 198
-837.72674733962 210.050350649489 2416.92943149619 210 214 213
-832.633314927377 211.019268573741 2427.38638599249 237 242 238
-1095.99616508069 179.832619163864 2186.41472725343 202 207 203
-1084.52803187801 179.350813951595 2179.87885246265 198 202 201
-1068.52773199062 178.007555844842 2163.19180450739 191 195 196
-1055.1185545781 177.128682533134 2151.99793475304 202 205 210
-1044.66604913435 176.79422712929 2147.23752881456 197 200 205
-1036.70740981648 176.928076549467 2148.00593373345 198 201 206
-1028.75843074117 177.061042241923 2148.77076204476 198 201 206
-1019.20401312314 176.878738716431 2145.82889395432 198 201 206
-1010.48213980232 176.852158597812 2144.72913900429 203 206 211
-1002.97637424769 177.060736397939 2146.40544679586 205 208 213
-997.455783025257 177.663212296213 2152.72322193334 214 217 222
-991.127146003362 178.108038434806 2157.1895830545 211 214 219
-983.614845239199 178.315472172048 2158.86817901174 204 207 212
-976.884040666598 178.680699989881 2162.40784634415 208 211 216
-970.91945879627 179.204275332169 2167.81443054746 214 217 222
-964.555761109369 179.648549950345 2172.29323460655 219 222 227
-957.039319639896 179.854210077096 2173.97320121579 220 223 228
-949.905808201709 180.13880480255 2176.58654694289 219 222 227
-942.771996113876 180.422934862951 2179.19996684758 217 220 225
-936.757053850615 180.946066515165 2184.62481539577 215 218 223
-930.726468469857 181.46933310918 2190.0553578576 218 221 226
-925.416067089121 182.152819732918 2197.36943175807 220 223 228
-918.618481966332 182.516296458473 2200.93348515481 220 223 228
-912.903886358848 183.120131172019 2207.3218518959 220 223 228
-907.168624367994 183.724356696058 2213.71775699745 217 220 225
-902.128084774693 184.489724084629 2222.00676855318 214 217 222
-895.991346434185 185.014161703797 2227.47596872752 209 212 217
-890.191653171116 185.619356951013 2233.89535729711 208 211 216
-883.671486486066 186.063360873829 2238.43124630019 211 214 219
