ply
format ascii 1.0
comment KinectMotionCapture
element vertex 776
property float x
property float y
property float z
property uchar red
property uchar green
property uchar blue
end_header
-766.245780356497 3.37608913626633 2462.50614705136 36 39 32
-1009.6707539247 -14.4345980188099 2365.25046540277 86 92 78
-1008.9946087958 -13.9575795478002 2385.79822046852 41 47 35
-1006.75520855368 -13.5139536680512 2402.64496604477 5 8 0
-983.338828506467 -13.609147997219 2365.28035525782 14 17 10
-971.340896874605 -13.4207786469739 2356.85442939872 23 26 19
-960.838883415732 -13.1970115672189 2352.15387605394 22 25 16
-942.900117429575 -13.1775967310863 2327.74100296997 23 26 17
-927.584650950614 -13.0961347334667 2309.84581618318 14 15 7
-921.857648284425 -12.7536927620123 2317.28552461226 23 26 19
-914.363019681395 -12.4602851471717 2320.03074271348 18 21 14
-906.522552046287 -12.1772138255611 2321.83428099559 20 23 16
-890.449221604378 -12.1380931469143 2301.01133691002 23 26 19
-881.658584840381 -11.8891776090149 2299.95760719375 21 24 17
-876.269633157724 -11.5379547746101 2308.34196207801 21 24 17
-871.856573838305 -11.1545045132709 2319.57409324599 19 22 15
-865.732476444932 -10.8222864565628 2326.09075345401 17 20 13
-857.935960136537 -10.5428235909144 2327.87805030479 16 19 12
-851.128190679999 -10.2316219799209 2332.50816174376 16 19 12
-843.659831856149 -9.94205485327848 2335.24354527669 17 20 13
-837.159811267755 -9.61993529702862 2340.82947431363 19 22 13
-830.964756195978 -9.28653711921271 2347.372005153 21 24 15
-820.938601021626 -9.08632379694613 2342.49703175949 17 20 11
-819.458970290716 -8.58457370162033 2363.33858935946 17 20 11
-812.88309199218 -8.26076987633309 2368.95220743207 21 24 15
-807.841500550244 -7.87954196048182 2379.34572970214 28 31 22
-798.764322831556 -7.64700216576894 2377.32831926219 30 33 24
-794.284284129625 -7.24126556134244 2389.65302433282 33 36 27
-793.983742309189 -6.66957939518789 2415.40448693223 34 37 28
-786.969230338873 -6.35381033715984 2420.11031461699 36 39 30
-773.112959649484 -6.3123572889083 2402.74848469887 44 47 38
-762.309789019033 -6.15506184522155 2394.95266896092 47 50 41
-761.196635740571 -5.60006640381808 2418.8650120035 48 51 44
-760.839160297725 -5.0044468468006 2445.70552277603 56 59 52
-764.942588450987 -4.20709177705564 2488.00686664238 43 46 39
-1009.56478379712 -22.5850402226061 2365.74056068761 36 42 28
-1019.94556948653 -21.9674015323561 2414.28050344052 0 3 0
-1007.37041956801 -21.74394083296 2405.00013981772 24 27 16
-987.95293077738 -21.649009957352 2377.93031704945 17 20 11
-970.865784532855 -21.520603255393 2356.41591085387 23 26 17
-957.138390505581 -21.3363998227173 2343.28475950921 20 23 14
-939.226994130638 -21.2389114043131 2318.86757848885 24 27 16
-925.704687165633 -21.063348378848 2305.66125938002 27 29 18
-916.128213186808 -20.8132485361286 2302.75977641315 34 37 28
-911.805821552009 -20.4563882757165 2313.9569583483 22 25 16
-903.634918858427 -20.1784948119595 2314.81335487612 17 20 11
-893.75887630056 -19.9384106027035 2310.95340449118 20 23 14
-884.599774666322 -19.6850131670026 2308.96707952342 13 16 7
-879.8598283605 -19.3338701123609 2319.24898714185 14 17 8
-873.401913602477 -19.0199914843929 2324.81899575815 17 20 11
-862.269216315948 -18.8153234210155 2317.1462294641 16 19 10
-854.495681507745 -18.5339448816763 2318.92532081344 16 19 10
-845.416665894627 -18.2851661253918 2316.90954909988 18 21 12
-839.289612300326 -17.964622607889 2323.42665684934 19 22 13
-836.045098708125 -17.5696333810465 2338.5015613589 15 21 11
-830.174197973772 -17.238897247274 2345.99267013601 17 23 13
-824.277969335506 -16.9074678233174 2353.49328810689 14 20 10
-819.930559256266 -16.532804718175 2365.76745967296 15 21 11
-814.595319482066 -16.182309648562 2375.19880033018 19 25 15
-804.578812520829 -15.961437894454 2370.32162578494 21 27 17
-795.525266143093 -15.7160056162808 2368.29660194982 16 22 12
-785.584002442353 -15.4986253373491 2363.39182526494 20 26 16
-782.630576500036 -15.0759118920113 2380.49642531634 22 28 18
-772.713398711125 -14.8600225849842 2375.5830391242 29 35 25
-767.587785271522 -14.4987213006187 2386.00558624525 34 40 30
-756.241111674333 -14.3315639111559 2376.27462286551 46 49 42
-752.83884755016 -13.913376037282 2392.47515067996 43 46 39
-760.065118243007 -13.1412741621171 2444.30626847129 57 60 53
-758.431780970014 -12.647389196431 2467.33619246864 55 58 51
-1015.30529637753 -29.9154568989386 2426.0331207445 0 3 0
-996.923976430612 -29.7194451532948 2401.79436865318 30 33 24
-961.728922106522 -29.7170643733564 2333.51785588259 32 35 26
-955.590594663972 -29.4031073765403 2340.038562881 28 31 22
-930.575982486441 -29.3107778845407 2296.86920708963 19 22 11
-924.532259968109 -29.0011149065997 2303.3549622704 23 25 14
-920.57167282212 -28.6646011095721 2315.48570811168 25 26 18
-908.902282477726 -28.4251885864612 2306.9440078483 18 19 11
-903.513385435485 -28.1058132457629 2315.32593993539 20 21 13
-895.007302285467 -27.8277895256918 2315.23757370117 23 24 16
-886.85704996002 -27.5458335481401 2316.08702800314 18 19 11
-877.028112784493 -27.2890696593653 2312.21122097223 18 19 11
-871.928285087529 -26.9640473962006 2321.5551056171 15 16 8
-866.459975890755 -26.6430573049183 2329.96601295772 19 20 12
-851.058299573714 -26.4769423713227 2309.97516986175 21 22 14
-839.710374661341 -26.2524145295528 2301.31580036673 23 24 16
-835.89806040168 -25.9065229393385 2314.45993690701 22 23 15
-830.417601097593 -25.5862043768273 2322.87520816999 19 25 15
-825.546161708398 -25.2538038669675 2333.20322370358 19 25 15
-819.999464791625 -24.9315219328977 2341.64270971829 21 27 17
-817.254430105186 -24.5562122982153 2358.66801670719 21 27 17
-813.808469292927 -24.1899894924328 2373.81394408463 22 28 18
-807.819672231318 -23.8694295416072 2381.34712121571 23 29 19
-801.191703381022 -23.5603388999776 2386.97855560881 20 26 16
-789.06923266449 -23.3623456733687 2375.39842829019 22 28 18
-778.533499891339 -23.136162452389 2368.57719626544 21 27 17
-771.640986086582 -22.8356423949709 2373.23754687363 31 37 27
-767.112415345203 -22.4831987732544 2385.57586441614 37 43 33
-762.82718131319 -22.1224872024039 2398.89294866116 39 45 35
-752.071227715015 -21.9068599150836 2391.08437843292 45 48 41
-756.401264870963 -21.3413095485462 2433.28564239814 40 43 36
-1029.65887349635 -38.5283696031684 2440.43416346194 127 133 119
-1015.91521591559 -38.2344447577342 2428.38375617028 84 87 76
-1005.88660562341 -37.932401450526 2425.65072482837 32 35 26
-970.636657363267 -37.7203519809477 2357.40997692372 28 31 22
-948.31290537515 -37.4761573567622 2321.80760185373 25 28 19
-927.977500546582 -37.2331961348608 2290.81572801965 20 23 12
-929.715094515687 -36.9006089428768 2317.94198572636 22 24 13
-919.753598378942 -36.6180892809891 2314.11628565845 23 24 16
-908.784261523905 -36.3425490555472 2307.45632234522 17 18 10
-898.902232172638 -36.0637157065126 2303.60147087162 20 21 13
-894.197561358797 -35.7570084644798 2313.86695452079 24 25 17
-880.606761239983 -35.502797019846 2299.62489945834 19 20 12
-869.471755323561 -35.2372958323427 2291.95756193259 19 20 12
-874.811409565154 -34.8630800203724 2330.57788888499 13 14 6
-865.991255182203 -34.5810762031991 2329.53738059171 17 18 10
-857.191693799922 -34.3001463717183 2328.48905474874 19 20 12
-840.556339015821 -34.0819383983403 2304.68415892327 21 22 14
-833.483818623068 -33.7922071875973 2308.34228810653 22 23 15
-827.050854196962 -33.4970649992282 2313.90181763596 20 23 14
-821.881346450013 -33.190132910111 2323.26965472726 19 25 15
-821.11544496301 -32.8405417149755 2345.97377383733 19 25 15
-815.209609000457 -32.536161651457 2353.47558728723 20 26 16
-811.462177903617 -32.2089116903989 2367.6615533398 20 26 16
-810.747307826168 -31.8469326169192 2391.41436743971 21 27 17
-806.851743582787 -31.5145037949789 2405.6545465808 18 24 14
-791.637589058831 -31.3080925800258 2384.53205395647 21 27 17
-782.58602774968 -31.0357311118581 2382.50834072177 20 26 16
-773.560545012119 -30.7646431258278 2380.47480177114 26 32 22
-764.264755692468 -30.4985495619469 2377.47279658369 30 36 26
-763.231860533795 -30.1259876948967 2401.34195962754 32 38 28
-758.881076950012 -29.7928910578406 2414.68103120079 33 36 29
-751.008091493054 -29.5065699878345 2416.49637532222 24 27 20
-756.02403520304 -29.033950781555 2461.64158919587 38 41 34
-1040.02474760782 -47.2291600742095 2444.54457639257 81 87 75
-1019.96128246222 -46.8590025178252 2416.66341684323 12 18 6
-999.701179464026 -46.4941452443364 2387.78649275288 45 48 39
-969.810542245054 -46.0942577182686 2333.61254795534 31 34 27
-963.309954016214 -45.8004626641473 2339.19654610845 24 27 20
-939.967146865243 -45.4424263063366 2300.77284426697 22 25 18
-938.532258436809 -45.1703045750687 2319.44745270129 22 25 16
-930.658184483217 -44.8742030388157 2321.26418457147 22 23 15
-920.336992628763 -44.5711662320942 2316.50416727989 19 20 12
-907.622550235378 -44.2633005695941 2305.14741555338 14 15 7
-901.543385415528 -43.9750161521919 2311.64443520677 20 21 13
-890.989879321466 -43.6763456714276 2305.90194071917 23 24 16
-883.882882894978 -43.3863390186478 2309.57261712276 16 17 9
-871.371283326627 -43.087472694138 2298.14148596584 16 17 9
-869.65371177428 -42.8065203889038 2316.91972438126 15 16 8
-863.860827147513 -42.5181374716507 2324.37929135881 17 18 10
-855.074567227344 -42.2267389661758 2323.32717677855 18 19 11
-844.345819739694 -41.935500227296 2316.58098279085 20 21 13
-833.019316791114 -41.6463781764519 2307.91844932287 20 21 13
-823.687052936026 -41.3596846296314 2304.93099670028 20 23 14
-820.136764404853 -41.0718953287688 2319.04235608534 21 24 15
-818.426638403253 -40.7805737352729 2338.88497356409 24 27 18
-811.280370630829 -40.4917258239513 2342.57008559883 26 29 20
-805.376387590104 -40.2012193194707 2350.07017903046 24 27 18
-806.559352927461 -39.8976155814703 2379.52913408009 26 29 20
-805.145632515645 -39.5938144478046 2401.39836465809 23 26 17
-788.120986447331 -39.3239392029546 2374.53863403111 27 30 21
-785.729224418026 -39.0203753932845 2393.56353723978 25 28 19
-772.787027662249 -38.7464178984055 2379.08705578337 28 31 22
-763.790922193537 -38.4628841112602 2377.04403632854 29 32 23
-759.52216301852 -38.1625022565691 2390.35058266588 18 21 14
-758.692670445243 -37.8455282782679 2415.2084582595 18 21 14
-756.590976410651 -37.5295659775594 2436.26201683315 19 22 15
-756.681420234129 -37.1987660998144 2465.05316742731 31 34 27
-750.679184187953 -36.8949480914476 2473.65677478257 30 33 26
-1061.62682912577 -56.1168907088898 2476.55706983402 167 173 159
-1039.53300188301 -55.6264661346651 2444.08965592984 6 12 0
-1016.52950959394 -55.1305418371398 2408.75299513905 23 29 19
-993.370710502787 -54.6387925201405 2372.40589189554 24 27 20
-978.050112318511 -54.245849502625 2355.60288193305 22 24 19
-958.872454007296 -53.8113337375294 2328.47128766184 24 26 21
-949.520994303254 -53.4938431917324 2326.55994383751 22 25 18
-935.931604743858 -53.1298120032371 2313.39221857833 18 21 14
-932.305378016397 -52.8782280418121 2326.46162686855 21 22 16
-917.768002130559 -52.5073769353082 2310.43893219903 18 19 11
-908.894552226567 -52.1997523750361 2309.41972129601 14 15 7
-900.386581395123 -51.8967770911125 2309.33392356268 19 20 12
-893.948674850646 -51.6155853245377 2314.89419616771 20 21 13
-883.756685953559 -51.2968155616619 2310.08816736098 12 13 5
-876.304332106231 -51.0061767056442 2312.81781654857 13 14 6
-866.17416524796 -50.6903578116389 2307.98935713093 17 18 10
-860.735571239344 -50.4195551053664 2316.38568110942 17 18 10
-857.903081046361 -50.1716510120376 2332.36634047396 18 19 11
-841.263326415786 -49.8001793331138 2308.57435296401 18 19 11
-833.528262763088 -49.5096891853071 2310.34015378321 18 19 11
-823.545257169399 -49.200857277293 2305.45769797233 20 21 13
-817.116214971057 -48.9223493533643 2311.0145473273 20 21 13
-817.957569852162 -48.700639040873 2338.45782220958 22 23 15
-810.496655886275 -48.4120328289918 2341.19042824347 23 24 16
-804.905873690728 -48.1373815812772 2349.64233828421 24 25 17
-805.156860124382 -47.9033781520971 2376.23474179751 25 26 18
-798.843426143247 -47.6208409949583 2382.81644659508 26 27 19
-794.94136210411 -47.3536949754455 2397.05406166437 32 33 25
-783.745397424881 -47.0390946764457 2388.34602111536 32 33 25
-774.703163844195 -46.7397038934359 2386.32095817158 33 34 26
-761.53984190494 -46.4178763876971 2370.86187542989 33 34 26
-760.22108697848 -46.1638185532776 2393.75940450675 33 36 29
-759.377361467851 -45.9088624493902 2418.61777211335 28 31 24
-757.839178399574 -45.6468829050185 2441.59587968556 21 24 17
-759.911394714242 -45.3979114556529 2477.12720609624 14 17 10
-750.47377127679 -45.0945497420162 2474.17929220644 18 21 14
-1068.38540460903 -64.9195009864886 2471.3041420693 42 48 34
-1061.50220746898 -64.6258654789987 2477.02689006521 0 6 0
-1041.26421762688 -64.0684748671104 2449.22326892532 0 3 0
-1014.20412886425 -63.380907847687 2403.64235450374 15 21 11
-998.73790062406 -62.9246581573486 2386.89677969392 4 6 1
-987.007588398145 -62.5430489489043 2379.45475414765 12 14 9
-976.054001265552 -62.1777377226685 2373.86239797158 23 25 20
-938.677302855726 -61.3104103402408 2298.97767206287 23 25 20
-937.239030588298 -61.1311614841141 2317.64650256625 15 17 12
-925.841793883887 -60.7636710803911 2310.08239288819 16 17 11
-917.30081052659 -60.4506961571772 2310.00934433402 19 20 12
-905.648354141758 -60.0809015661977 2301.47132886241 15 17 6
-904.403096694691 -59.903029521809 2321.13673649302 18 20 9
-896.561885632073 -59.6038364518775 2322.94150699666 18 20 9
-894.161355399701 -59.4028401520666 2339.82849036026 13 15 4
-881.569340223566 -59.018872813686 2328.43299822101 15 17 6
-874.073159483094 -58.7267295678984 2331.17868487339 16 17 9
-864.585077967927 -58.4000304490158 2328.2511194479 16 17 9
-858.75171312563 -58.1375933519712 2335.7234367544 17 18 10
-847.989747195278 -57.7902388970016 2328.99354629482 17 18 10
-835.333471614059 -57.4121288864237 2316.55440419184 17 18 10
-824.69004536263 -57.0699133322666 2309.78105607694 19 20 12
-821.120009350654 -56.8467551025685 2323.89471394586 19 20 12
-818.438373962689 -56.6370816193591 2340.88423377131 18 19 11
-814.10988383737 -56.3991594997883 2353.14121368188 17 18 10
-807.861626834643 -56.1294261691282 2359.69852547161 17 18 10
-802.519848279188 -55.87391386957 2369.12507531194 17 18 10
-796.836211720376 -55.6124571339178 2377.60972728294 20 21 13
-793.552302693598 -55.3877783750277 2393.75265167402 26 27 19
-792.606566054458 -55.1975314765953 2417.57639079901 26 27 19
-774.526316232335 -54.7457468817988 2386.84770105962 28 29 21
-765.508221787261 -54.433678200957 2384.81456972373 29 30 22
-759.45139554365 -54.1660649213566 2392.36872380579 25 28 21
-758.897194971952 -53.9778947646474 2418.1834132602 27 30 23
-756.490279594135 -53.7605636691653 2438.2738720909 34 37 30
-755.420611486992 -53.5600363523423 2463.21022638907 54 57 50
-750.551493224812 -53.3042461317487 2475.6649849815 42 45 38
-738.053524325489 -52.9434322897929 2462.10020854963 18 21 14
-1060.75349345453 -73.2216492618945 2453.18459731623 9 15 1
-1064.36066220323 -73.2222407926856 2484.93946492039 0 3 0
-1040.0305394173 -72.4636314555291 2446.90497010341 165 171 161
-1015.19038474867 -71.6942648542983 2406.923233896 59 65 55
-1000.44749299267 -71.2001175624946 2392.05106999164 19 21 16
-990.516587025626 -70.836699483745 2389.28691551846 14 16 11
-969.453212857479 -70.1758950652368 2357.52451098293 24 26 21
-946.791964148255 -69.4751200508011 2321.01240032309 25 27 22
-927.186009030806 -68.8585531993254 2291.91704593636 17 20 13
-922.907534313256 -68.6505470418473 2303.08703992643 17 18 12
-910.536619551782 -68.2285302972293 2292.68064082913 19 20 12
-906.224572458475 -68.0196736074484 2303.86289709812 15 17 6
-897.385264413395 -67.6917958126503 2302.83280931447 18 20 9
-900.882901456721 -67.6866150004251 2335.69471997579 18 20 9
-903.19743337218 -67.6487670349942 2365.78878462699 15 17 6
-889.524803833578 -67.1948364277964 2351.59153039556 18 20 9
-875.9446966344 -66.7447897169748 2337.3603662774 18 20 9
-868.43041009266 -66.4521770765309 2340.11266686391 19 21 10
-868.160399144783 -66.345344580409 2363.68459571891 20 22 11
-850.788511488935 -65.8010139072382 2338.03854964418 23 25 14
-836.81233800583 -65.3452593989759 2321.81835516334 24 26 15
-828.405925726 -65.032035169807 2321.69643069351 25 26 18
-822.567290423645 -64.783921552878 2329.16983653189 26 27 19
-818.918275379459 -64.5906398555022 2343.30968191189 27 28 20
-814.266394568313 -64.371717750468 2354.6161719845 29 29 21
-807.700780356578 -64.1048297783864 2360.2217663369 28 29 21
-805.133766928248 -63.9368827028176 2378.23330191846 29 30 22
-800.035549882435 -63.7057009962133 2388.63607717087 23 23 15
-796.414773870085 -63.5103935684486 2403.83262563738 26 26 18
-790.620457687153 -63.2613900428012 2412.35655205776 24 25 17
-783.30342985441 -62.9752491849679 2416.10324907845 29 30 22
-775.094169642419 -62.6677469757423 2416.97607066559 34 34 26
-767.188946881654 -62.3679132274992 2418.80414736329 34 35 27
-763.069562143866 -62.1588380802116 2433.11634166373 33 36 29
-757.448146102544 -61.9134338199566 2442.6437316366 41 44 37
-755.219157105982 -61.7478674478655 2463.73219363745 42 45 38
-750.345637394178 -61.5189864212675 2476.18652110017 18 21 14
-740.933321506472 -61.183547593511 2473.23183229663 0 3 0
-1011.76347239324 -79.8781402451947 2399.01766056835 10 13 2
-999.964578973049 -79.4336289593419 2391.60529920768 41 44 35
-987.496857290765 -78.9666607473921 2382.30427590292 31 34 27
-970.416450623105 -78.3417804682645 2360.82488069017 30 33 26
-943.820367687418 -77.3912358150334 2314.0284070659 28 31 24
-931.688448161228 -76.9381356576369 2304.6043278601 19 22 15
-918.214232445971 -76.4396562548856 2291.40489995053 17 20 13
-914.617856145737 -76.2797577237599 2304.45654464739 22 23 15
-904.023020696187 -75.8806308260806 2298.73664626381 18 19 11
-897.608674646976 -75.6246718870205 2304.28645459898 24 25 17
-889.127112522975 -75.2983868716886 2304.19282034693 26 27 19
-896.612454106404 -75.5162916036355 2348.3884537972 22 23 15
-882.315037894333 -74.9921525727839 2332.29013858532 22 23 15
-871.797225901063 -74.5972132142705 2326.54168442573 18 19 11
-871.939815907615 -74.5646404113452 2351.02490738923 18 19 11
-862.41988613228 -74.2040485025514 2348.11121659257 17 18 10
-850.971680839447 -73.7785295520363 2339.50344782587 32 33 25
-839.261267431442 -73.3447163168974 2329.92476438882 40 41 33
-832.760524535753 -73.0874651735467 2335.50606144178 30 31 25
-824.969169771669 -72.7868409950106 2337.29282525926 28 31 24
-817.815896203987 -72.5079622068988 2340.97973057625 26 29 22
-812.226260090469 -72.2819512659982 2349.42729990827 26 27 21
-805.361667322352 -72.0131469500348 2354.07511275196 24 25 19
-806.510224354487 -72.0136399842992 2383.52362504398 23 26 19
-804.761213905934 -71.9164397978478 2404.43228016988 22 23 17
-800.184143638579 -71.7242009100137 2416.77613170855 22 23 17
-787.733464268159 -71.2685486878089 2404.26839377007 20 23 16
-783.121428600957 -71.0754494900798 2416.62501446337 26 29 22
-777.867069671059 -70.8608547819002 2427.08327041057 28 29 23
-775.503960015875 -70.742648835509 2447.15007952109 25 28 21
-768.980580057006 -70.4857309329443 2453.80638686836 30 33 26
-759.268735374547 -70.1229702759232 2449.8960333628 25 28 21
-753.304653254041 -69.8850201403526 2458.48055382258 23 26 19
-745.612992160003 -69.5898673838973 2461.29749290095 13 16 9
-739.323824421433 -69.3413567659324 2468.93462404727 12 15 8
-994.007854498882 -87.4384767628568 2377.16626157854 46 49 40
-979.768731276564 -86.8616610594095 2363.18385334825 33 36 29
-956.987148235844 -85.9264916649995 2326.7331501004 29 32 25
-944.065844777033 -85.4047886787469 2315.46794744032 29 32 25
-934.058522444625 -85.0054238621611 2311.66771390378 29 32 25
-925.143167798475 -84.6520646439524 2310.66692501502 27 30 21
-913.102750675612 -84.1675240439717 2301.21197178137 27 28 20
-902.86376189146 -83.7587646137887 2296.43006396802 50 51 43
-894.387623907334 -83.424264993557 2296.33507872731 33 34 26
-887.294065380252 -83.1481529072646 2299.99982427016 20 21 13
-883.248502648535 -83.0006259865894 2312.14718557134 27 28 20
-879.488337238516 -82.865515420366 2325.25672501652 16 17 9
-866.985143082782 -82.3621787382173 2313.83796747254 22 23 15
-865.499610593698 -82.3236173814373 2333.58016483547 20 21 13
-856.355598325536 -81.9623061681818 2331.59649960119 18 19 11
-850.174976631932 -81.7262885084852 2338.12643873664 19 20 12
-840.088170597958 -81.325456709824 2333.28863906255 20 21 13
-833.576465789103 -81.0759208754699 2338.87333685785 18 21 14
-827.686927152384 -80.8529747250512 2346.36308455845 18 21 14
-821.139818239303 -80.6025316596402 2351.96071444643 18 21 14
-808.620094710221 -80.099190852112 2339.48140671837 18 21 14
-807.689375604506 -80.0872787704375 2362.21993183061 17 20 13
-810.352155444852 -80.2285263521641 2396.44068544766 17 20 13
-807.340543648753 -80.1296014454784 2413.54174193732 18 21 14
-798.18678705504 -79.7701116314449 2411.56173406023 16 19 12
-789.660564223619 -79.4374510508213 2411.48480776697 14 17 10
-782.044683949229 -79.1436817990959 2414.27410844002 19 22 15
-777.680722922016 -78.9887120627455 2427.60427360899 20 23 16
-771.795795818864 -78.7693079365334 2436.15888905757 19 22 15
-765.59023764612 -78.536555909972 2443.76445269782 31 34 27
-754.753403594457 -78.1062853384579 2436.00121024906 24 27 20
-754.245209737412 -78.1176224943323 2462.85094113365 38 41 34
-749.085308661821 -77.9306563088649 2474.33960292159 50 53 46
-735.474307728857 -77.3820572660092 2456.92692226513 20 23 16
-1005.65169901792 -96.1533701776783 2385.07750072673 30 33 22
-985.13772887449 -95.2179855382516 2355.26956137272 28 31 22
-968.787193641749 -94.4869796086575 2335.66609628241 28 31 24
-953.998245201221 -93.8322836604803 2319.75622391624 23 26 19
-936.812470294381 -93.0578168049504 2297.25984325046 27 30 23
-932.88105897335 -92.9408050337819 2309.36342664048 27 30 23
-926.786631191976 -92.7169100863071 2315.86113361266 25 28 19
-914.732685785772 -92.1963180947841 2306.41381584746 25 26 18
-901.011592409586 -91.5920008792632 2292.245517258 29 30 22
-892.201819249213 -91.2325238282672 2291.2070825559 29 30 22
-884.095809969018 -90.9082744184667 2292.04339849976 28 29 21
-883.459705561291 -90.9589449283881 2313.60334652897 25 26 18
-873.298836241605 -90.5322464936566 2308.79440850698 21 22 14
-862.845144045995 -90.0905338679228 2303.02618633462 21 22 14
-856.745565325207 -89.8681050660829 2309.5256542135 21 22 14
-859.831982297812 -90.1103105894646 2342.51831087559 20 21 13
-852.967212611598 -89.8509097501843 2347.16522418767 20 21 13
-841.561176866616 -89.3615020251163 2338.54695415064 20 21 13
-836.317750504266 -89.1847199446901 2347.9318286249 20 23 16
-828.49043430951 -88.8770317154439 2349.73244587983 20 23 16
-819.720591409167 -88.5214240307685 2348.67895675958 20 23 16
-814.105584789256 -88.3269803560257 2357.13361665397 19 22 15
-810.014273632697 -88.2111605584358 2370.36201826556 19 22 15
-808.332784898963 -88.219906815587 2391.23814638837 19 22 15
-801.663173525015 -87.9736089479983 2396.8799732591 20 23 16
-793.159870420126 -87.6332388608832 2396.79530106303 21 24 17
-785.273585804378 -87.3247348530879 2398.61740531162 19 22 15
-781.266750721386 -87.2171129638932 2412.88105128539 23 26 19
-771.881252493181 -86.8315671612676 2409.9203992703 22 25 18
-763.112857524666 -86.4778758629575 2408.86649377289 21 24 17
-749.140337029036 -85.8529776296213 2390.52436740855 29 32 25
-747.94111834495 -85.8937401309655 2414.42303035699 25 28 21
-754.328825972518 -86.3333704362449 2464.33403569357 40 43 36
-747.466553683394 -86.0814946088028 2470.04603007078 59 62 55
-737.789427988891 -85.6820074065205 2466.12583292953 22 25 18
-1000.76319957703 -104.130492332621 2373.45235178841 22 25 14
-965.701555508056 -102.271046488833 2306.33429512926 30 33 24
-962.521193701288 -102.223179030736 2320.29288945153 17 20 13
-954.246642795154 -101.885433546516 2321.1917155032 17 20 13
-935.989175873091 -100.975861157308 2295.89499170406 20 23 16
-926.035061971235 -100.540417951021 2292.07814771861 21 24 17
-918.227220435618 -100.228043022224 2293.87178841221 20 23 14
-908.329365725128 -99.7952153732824 2290.03430600177 22 23 15
-896.734263466987 -99.263775543748 2281.48764801341 27 28 20
-886.577017049029 -98.8147080936101 2276.67908143311 27 28 20
-882.948909473027 -98.7444307098745 2289.73549323543 25 26 18
-879.942163817143 -98.711653036663 2304.69667828434 25 26 18
-876.532362225031 -98.6567976273706 2318.73941825444 25 26 18
-870.05699936269 -98.4238975920413 2324.30965645817 19 20 12
-860.916635255434 -98.0350820024372 2322.32674095914 19 20 12
-856.403082889161 -97.9182335425076 2333.57526949335 21 22 14
-851.191299265916 -97.7613129530787 2342.94714839096 20 21 13
-840.120763809243 -97.2586637028236 2335.27453383131 20 21 13
-833.600002714849 -97.0250018175615 2340.86132440044 21 24 17
-823.243675476422 -96.5636458159371 2335.05920800673 21 24 17
-816.723443956736 -96.3303917143596 2340.64577539355 20 23 16
-810.501348631614 -96.1155020137356 2347.18918931859 19 22 15
-805.191044913471 -95.9559519231263 2356.59706266661 18 21 14
-803.850392026577 -96.0362871761898 2378.41076136498 18 21 14
-799.963272296904 -95.9653084061142 2392.6281454732 21 24 17
-789.955784874729 -95.5252946766833 2387.76448270792 24 27 20
-784.796056618829 -95.3789673849243 2398.18320489187 25 28 21
-777.213169309712 -95.0861153490566 2400.9604487762 26 29 22
-767.859296263252 -94.6852054248076 2397.98946539242 24 27 20
-754.146387321246 -94.0164814469673 2380.62312966617 18 21 14
-751.276471549508 -94.0125233625258 2398.73234781317 25 28 21
-754.076258983155 -94.3606426579813 2436.08763564274 29 32 25
-752.986997706923 -94.4723988617439 2461.00754658474 39 42 35
-748.956113259914 -94.4043008923214 2476.34350469019 54 57 50
-739.261937569656 -93.9847495280135 2472.43076202052 25 28 21
-720.176388613813 -92.9767191105239 2435.70945881033 20 23 16
-973.614572609877 -110.801669475036 2327.3481233182 17 20 11
-948.661028981673 -109.381842540058 2285.32329706883 19 22 15
-946.948969589307 -109.461367530069 2303.00552357927 20 23 16
-933.739132403405 -108.796334836684 2290.78915997056 22 25 18
-923.798794068465 -108.342343628579 2286.96871028067 22 25 18
-911.784703474162 -107.752129860183 2277.51216483982 22 25 16
-905.421694404948 -107.530647900795 2283.04071917905 20 21 13
-902.854192625138 -107.559192563521 2298.90423980149 28 29 21
-889.898094476814 -106.905044093352 2286.59486203938 23 24 16
-884.533228023071 -106.750822164243 2294.95560182258 20 21 13
-880.153811884602 -106.66299203198 2306.15320414866 24 25 17
-877.409079046097 -106.685384411017 2322.08158367017 22 23 15
-867.920230604483 -106.259815313004 2319.16150249042 18 19 11
-867.400602222364 -106.434168500704 2341.73660889247 18 19 11
-847.721454350545 -105.324577236874 2309.50487033851 20 21 13
-843.550382818742 -105.255070013746 2321.69220129466 19 20 12
-840.944725446792 -105.293109131752 2338.63542514226 19 20 12
-826.714519651655 -104.544690987995 2321.46305584163 20 23 16
-818.956431033726 -104.234037159006 2323.23848957207 20 23 16
-817.832161545067 -104.376708549893 2344.96886469457 20 23 16
-816.918618991016 -104.537096220514 2367.68814862908 20 23 16
-794.783539266777 -103.240353879137 2325.69679221109 20 23 16
-803.991345259918 -104.101450968533 2379.88438505474 20 23 16
-798.875437633773 -103.978155819923 2390.28544774626 23 26 19
-794.627400775022 -103.916685860787 2403.56669290911 24 27 20
-784.318646257632 -103.433800079217 2397.74891601555 24 27 20
-775.247246885735 -103.03639465793 2395.74159115475 27 30 23
-762.956102179206 -102.411686385548 2383.1886438306 26 29 22
-757.475741324557 -102.265842053659 2392.65727120132 19 22 15
-754.56972202249 -102.304035175784 2410.77642674089 21 24 17
-750.719993452676 -102.277825115521 2426.04340360331 26 29 22
-755.633970867531 -102.880971809185 2471.144243101 29 32 25
-748.749912789037 -102.644173486564 2476.86326975708 18 21 14
-969.499033356113 -118.593642291978 2317.58921120388 26 29 20
-968.81300545447 -118.792777713728 2338.08928585591 28 31 24
-936.065909666417 -116.674222557064 2275.48310689382 24 27 20
-948.606005172685 -117.83330359077 2330.57083723073 22 25 18
-930.4141299017 -116.762556777577 2305.26244238916 19 22 15
-916.593455571976 -116.006406074234 2291.14178137895 18 21 12
-908.098059251999 -115.63802808579 2291.05634959187 15 18 9
-904.119850184392 -115.601904924393 2303.17083318591 18 21 12
-898.715334818189 -115.462331562302 2311.54487365022 21 24 15
-888.503693843455 -114.967607076067 2306.75926124618 20 23 14
-884.427833386522 -114.928188629437 2318.90947389174 24 27 18
-869.786537472254 -114.368965256032 2325.33795707719 21 24 15
-850.715843321875 -113.205700324002 2295.02281528545 20 23 14
-837.734733350936 -112.495937205477 2281.6601652344 19 22 13
-837.871009273763 -112.777581246608 2306.12197417898 21 24 15
-834.334318116536 -112.784257651913 2320.20592091443 25 28 19
-825.285909523422 -112.37231072809 2318.19159412514 26 29 22
-814.673187779219 -111.839538156454 2311.42146774094 25 28 21
-815.153685971062 -112.15934557736 2337.88844079504 22 25 18
-805.806097952071 -111.724259108486 2334.91800680487 21 24 17
-812.937565293382 -112.567691327783 2382.3949420266 22 25 18
-799.822886476401 -111.842125674905 2368.01520433718 23 26 19
-798.39881313952 -112.028448621666 2389.85121587711 23 26 19
-787.490800868472 -111.473254231727 2382.12351515536 21 24 17
-779.040264239567 -111.110023884017 2382.02139576011 19 22 15
-767.630608612111 -110.5115721023 2372.34585796785 24 27 20
-764.251465045021 -110.550440190758 2388.50349961341 25 28 21
-761.970517169151 -110.68033619937 2408.52199088053 23 26 19
-759.887535239383 -110.830130799468 2429.53360854185 21 24 17
-750.813971800557 -110.419494729605 2427.5280682414 26 29 22
-744.613468413976 -110.241087782379 2435.12769486499 31 34 27
-757.006716618516 -111.580261101034 2506.25455287343 10 13 6
-997.792810196592 -128.906349030898 2390.79495541225 26 29 20
-967.253933407832 -126.785452166074 2334.85302651743 25 28 21
-960.012995909112 -126.516026625795 2338.57081586484 23 26 19
-952.0539576479 -126.189300027074 2340.42072916863 21 24 17
-938.084504151763 -125.377982399777 2326.35803334415 18 21 14
-925.963798306676 -124.712571462527 2316.94589897426 18 21 12
-915.304556190639 -124.163269809415 2311.26047857123 18 21 12
-907.806717683864 -123.869960066163 2314.00685556646 20 23 14
-896.529626607915 -123.267446558322 2306.41682533809 21 24 15
-894.856937019251 -123.45200218721 2325.14337882833 20 23 14
-887.682126867323 -123.186514611854 2328.83709880679 24 27 18
-880.502144931212 -122.921004767628 2332.53244526363 27 30 21
-875.316872356426 -122.821828530797 2341.8903347981 22 25 16
-854.220973328023 -121.395480970359 2305.93077565806 22 25 16
-835.632988816294 -120.170193059508 2276.51148329693 19 22 13
-834.150359175721 -120.377887884606 2296.23404552382 20 23 14
-835.482563929609 -120.828053698986 2324.51509262972 24 27 18
-824.178754225397 -120.211308130981 2315.86903357137 25 28 21
-818.658737449758 -120.085339453129 2324.28401354018 24 27 20
-808.063172403067 -119.525984970277 2317.50965913112 21 24 17
-818.473211336026 -120.772702554029 2374.431262934 22 25 18
-802.225814147178 -119.728181294451 2350.54775420161 25 28 21
-799.04216686874 -119.811857479581 2366.6309838613 26 29 22
-792.431586990126 -119.600054433619 2372.2487596835 23 26 19
-783.68870988672 -119.202145660756 2371.18891886645 20 23 16
-763.570346192796 -117.801028483105 2333.80572451849 20 23 16
-759.427152859734 -117.803759881117 2347.04377769094 22 25 18
-770.851061773965 -119.194569394464 2411.05278906592 22 25 18
-766.647219310142 -119.596001918997 2453.08184856131 22 25 18
-759.232675506131 -119.324599197842 2456.86311908582 20 23 16
-756.36570676316 -119.466492897332 2476.02681795403 30 33 26
-764.125918401958 -120.58303610601 2531.78765861004 17 20 13
-1035.34566527225 -139.70266862752 2441.40050131044 19 22 11
-982.022614247077 -135.820006015075 2351.20454544143 26 29 20
-958.467900949367 -134.131166537478 2312.95850258687 20 23 16
-953.797437139705 -134.087012956188 2323.19174745382 19 22 15
-944.09820677036 -133.602446407712 2320.35255738104 18 21 14
-940.088529354048 -133.619322830096 2332.47447570471 18 21 14
-940.942898878178 -134.070479931045 2357.72914048271 19 22 13
-929.474892150656 -133.430111369079 2350.21133330457 22 25 16
-911.143822343093 -132.173059858552 2323.901013815 21 24 15
-900.183466401041 -131.570298159123 2317.26247678155 18 21 12
-893.023656625841 -131.307951303965 2320.9502552822 16 19 10
-881.46122578712 -130.647124093423 2312.40148902472 20 23 14
-874.996028522849 -130.447121773805 2317.96555149972 22 25 16
-871.846809036446 -130.551186842068 2332.96817763842 25 28 19
-853.094482932183 -129.226322212813 2303.61610997203 24 27 18
-837.468845205988 -128.180681441437 2282.70644585828 19 22 13
-839.544852274181 -128.768355549732 2312.84023321007 19 22 13
-836.629175570169 -128.899635016348 2328.82250735298 22 25 16
-827.556397387998 -128.459207843846 2326.81918383081 24 27 20
-815.650046641403 -127.75129629094 2316.26581670554 22 25 18
-825.561345957887 -129.099186459364 2371.22763092778 21 24 17
-813.309657126599 -128.360651652338 2359.73549243365 23 26 19
-809.195739034481 -128.393640587656 2372.96062583214 25 28 21
-801.951212078843 -128.13007461608 2376.67927725023 24 27 20
-790.433650902896 -127.455548956635 2367.04868549162 24 27 20
-777.169477496571 -126.608283169587 2351.66614533799 21 24 17
-777.791573496454 -127.106022521194 2380.20161212261 21 24 17
-777.383999091144 -127.511411724036 2405.91824178278 22 25 18
-773.023787850444 -127.535772644194 2419.23351372908 21 24 17
-777.953199302037 -128.481551687877 2463.23659137147 20 23 16
-767.609511302741 -127.923597779612 2457.43717113383 24 27 20
-762.477081423651 -127.883450948654 2468.90477384967 20 23 16
-756.161711497456 -127.72746603768 2476.54418971716 37 40 33
-749.82141305327 -127.570669453438 2484.19297859871 16 19 12
-988.093426543844 -144.568117826863 2367.53801614216 27 30 21
-977.142322414708 -143.957459443679 2361.96352393772 20 23 16
-945.434953816547 -141.366099520108 2302.21491562815 19 22 15
-946.119643771834 -141.85583427917 2326.46176438239 19 22 15
-941.736738712159 -141.865354192903 2337.65328914814 20 23 16
-940.465976720758 -142.178102098915 2357.29069117354 20 23 14
-937.012392074685 -142.284737459816 2371.3371544349 24 27 18
-917.935411544946 -140.87345795412 2343.17612229136 23 26 17
-900.400888456688 -139.603263958882 2318.71049156112 18 21 12
-891.532292494036 -139.176055415263 2317.69853984143 16 19 10
-881.33184800612 -138.616275147596 2312.9140222011 19 22 13
-872.179095034671 -138.158088765913 2310.94084217873 20 23 14
-864.384055586283 -137.833788958121 2312.73098544969 25 28 19
-856.924640059619 -137.542911340906 2315.4632184255 26 29 20
-848.154044775287 -137.120254878384 2314.41531591723 20 23 14
-849.487353295744 -137.717810024517 2342.68484122284 19 22 13
-841.646688416913 -137.392322624501 2344.49165153185 21 24 15
-831.890555479242 -136.871099255003 2340.60909157208 20 23 16
-824.07607398182 -136.546918012489 2342.40628992365 18 21 14
-820.676887029119 -136.677801149305 2357.49771516415 19 22 15
-815.336693076018 -136.611971351423 2366.90937741129 24 27 20
-810.890489306754 -136.641749694174 2379.188928682 26 29 22
-802.705903500515 -136.283528225704 2380.05661197999 24 27 20
-789.961104821095 -135.444670174892 2366.61758727573 27 30 23
-777.606318541188 -134.641335173315 2354.10124099717 24 27 20
-780.313318364866 -135.435419538515 2389.32322649323 24 27 20
-778.391012968239 -135.746172138518 2410.26431979782 22 25 18
-776.960546162204 -136.116660762878 2433.15531496817 21 24 17
-767.250151663665 -135.598839068344 2429.25613415922 18 21 14
-768.570282295996 -136.278961001546 2461.79069694554 22 25 18
-759.695694400274 -135.854622424931 2460.78070577656 26 29 22
-748.853015964621 -135.212251611848 2453.03584441917 22 25 18
-741.446860687796 -134.946463151483 2456.81338916654 16 19 12
-1017.2852183052 -155.281867319184 2420.12137845163 12 15 4
-994.522051427521 -153.452001616197 2384.79804642278 24 27 18
-989.661556839523 -153.444175878613 2395.09784991944 20 23 16
-960.381788916753 -150.924845378351 2341.92817065482 19 22 15
-936.393115494148 -148.933097495287 2301.72928995354 19 22 15
-938.082519157847 -149.59390233715 2328.79810399267 20 23 16
-941.742985185536 -150.469261800205 2361.53441459913 21 24 15
-930.265376095544 -149.768415246527 2354.02465948094 25 28 19
-912.968018428689 -148.450966188583 2330.54297935386 23 26 17
-898.216136414397 -147.393452721339 2313.58347635066 19 22 13
-891.403922389751 -147.173065211259 2318.20835059921 17 20 11
-887.623080108261 -147.277393661433 2331.30733667217 18 21 12
-880.431908604946 -147.019567897191 2335.00616894288 19 22 13
-867.577926285874 -146.151286685082 2322.67584532243 23 26 17
-850.843413194399 -144.856652086052 2298.98819554169 26 29 20
-851.947160730465 -145.495930849286 2326.271424623 21 24 15
-852.592362127225 -146.094557894031 2352.65751743155 20 23 14
-842.465746180146 -145.516596486201 2347.8475469058 23 26 17
-835.260106522006 -145.259046454633 2351.55161519603 21 24 17
-824.24085532894 -144.577758341183 2343.87384572496 20 23 16
-819.889815794915 -144.638180731883 2356.11650811282 20 23 16
-812.052806672963 -144.310559542343 2357.92189684063 22 25 18
-810.724905329922 -144.718437083908 2379.70624883553 25 28 21
-798.852403210231 -143.935622003016 2369.14623482374 25 28 21
-787.052225491621 -143.155767460825 2358.55971926355 24 27 20
-782.874108427473 -143.246543663604 2371.80381841793 23 26 19
-781.035408122046 -143.612165365593 2392.71039489178 22 25 18
-779.396480941854 -144.00864683315 2414.60861410571 21 24 17
-776.478282065063 -144.263683591964 2432.71583374351 19 22 15
-779.021231478923 -145.167591528157 2469.05594909317 17 20 13
-766.638161268738 -144.319932580544 2456.55296943592 27 30 23
-756.630502726182 -143.748497288398 2451.69903050662 30 33 26
-753.481218166634 -143.995120719702 2469.89084705026 17 20 13
-756.44250457767 -144.984824006086 2509.2724144798 20 23 16
-1002.39835574985 -162.599338140391 2405.77868172197 22 25 16
-979.432014206477 -160.624058275379 2369.47358617259 20 23 16
-967.789694826028 -159.886187269181 2362.02647004259 19 22 15
-950.867122165697 -158.557572521299 2340.54282569705 18 21 14
-932.311997624153 -157.037120850322 2314.33378766932 20 23 16
-941.265138609892 -158.591393382737 2361.09520640732 21 24 15
-923.175971797 -157.115055419726 2335.7800962257 20 23 14
-907.313828677875 -155.879681971922 2316.03748957913 19 22 13
-898.090445390259 -155.390954306944 2314.0922765917 16 19 10
-893.998106898316 -155.48741451772 2326.23822406452 15 18 9
-889.17888495252 -155.504330231889 2336.52116487825 13 16 7
-886.329851173525 -155.75216669303 2352.4704307324 12 15 6
-866.443911522003 -154.026936955435 2320.36053260917 20 23 14
-855.660322147915 -153.349698497313 2313.66338903359 25 28 19
-850.823418296762 -153.366415675426 2323.95251502218 23 26 17
-851.794609078735 -154.071700727372 2351.27892667045 22 25 16
-842.316433614809 -153.548414720659 2348.36234049389 26 29 22
-834.468391836081 -153.217123029004 2350.17226905074 28 31 24
-825.674011325375 -152.772068557553 2349.13469857399 27 30 23
-819.103080007013 -152.593490380673 2354.73530741059 21 24 17
-811.892988418621 -152.338802309212 2358.44103162007 19 22 15
-806.535248795736 -152.310444655673 2367.85624153483 20 23 14
-799.607095831827 -152.092657411939 2372.52304455979 22 25 16
-792.973524758868 -151.912151060786 2378.14681256071 25 28 19
-785.117698094827 -151.581448401969 2379.95952521528 23 26 17
-782.055673574844 -151.848463497341 2397.05154208849 23 26 19
-783.664178860577 -152.708431982 2429.46775782397 21 24 17
-783.937594648646 -153.41380932719 2458.11424660585 19 22 15
-775.909301088762 -153.076924699875 2459.99008939998 17 20 13
-766.15276390872 -152.518739848809 2456.1107194247 30 33 26
-768.46268746563 -153.509338592899 2492.5287065542 17 20 13
-760.374694070031 -153.170493004826 2494.42638849826 26 29 22
-753.417708942612 -152.978575400307 2500.16852596809 0 3 0
-985.561804963338 -168.977827778536 2363.41617472311 15 18 9
-967.046642575855 -167.402190723344 2338.26333700685 21 22 17
-957.997948337732 -166.934296864553 2337.31989152613 21 22 17
-949.325198367427 -166.509559581575 2337.3031513794 18 19 14
-931.488658826595 -164.989213442255 2312.96612894718 20 21 15
-921.511351871809 -164.400254725671 2309.16929485926 23 24 16
-914.353159044862 -164.148570098064 2312.85593568504 20 21 13
-905.117662187923 -163.645582760387 2310.91619992734 16 17 9
-898.649966612154 -163.477856684029 2316.47873483863 16 17 9
-896.249213197559 -163.809624952522 2333.32560135527 14 15 7
-889.719791678459 -163.639696161127 2338.91047551297 9 10 4
-879.489487715249 -163.013197227749 2334.14184097124 12 13 7
-874.620110746923 -163.050247745306 2344.44123147988 15 16 10
-857.50282093928 -161.55905937855 2319.84093291331 23 24 18
-850.027765814765 -161.267540766259 2322.57889670646 23 26 19
-849.048528193108 -161.797414114648 2344.22736129907 19 22 15
-839.589184650872 -161.258368222113 2341.30512188669 20 22 17
-834.955609400624 -161.333595882777 2352.58276679202 25 28 21
-824.885706607989 -160.714155928673 2347.75506556473 23 26 19
-819.889401993602 -160.747078451177 2358.10113942296 24 27 18
-807.053740181188 -159.764424696339 2344.70597832271 21 24 15
-806.371336000031 -160.363391500805 2368.3747457475 20 23 12
-804.96267834003 -160.877353410434 2390.18043531014 26 29 18
-800.713667638734 -161.025095747633 2403.44624890471 27 30 19
-789.168523695653 -160.206835626178 2393.83652399594 26 29 18
-783.373468190816 -160.15250177267 2402.34577659685 23 26 17
-783.478846502987 -160.896416735691 2429.98385574204 19 22 13
-785.803071439192 -161.954220865358 2465.32527395752 20 23 16
-775.714420036755 -161.335202004548 2460.5043530321 21 24 17
-770.288885879355 -161.352607620241 2471.00755287818 22 25 16
-775.128397756452 -162.792934763183 2516.07228190047 29 32 25
-769.245899065573 -162.764368472393 2525.67817223368 20 22 17
-753.488527265445 -161.356690079401 2501.64401966057 3 5 0
-969.465924663896 -175.201713090021 2322.92958624428 20 23 14
-954.671754671707 -174.000610840192 2307.06283829193 25 26 21
-932.855439902966 -172.555694212474 2294.83270597654 24 25 19
-920.43217142966 -171.634224477117 2284.48301347458 23 24 18
-918.590071147115 -172.05950962419 2302.18640056804 18 19 11
-909.015333082315 -171.49841591574 2299.3077518622 13 13 5
-907.065162599686 -171.919685947419 2317.05070786474 12 12 4
-899.551080716762 -171.625957263953 2319.80301829824 13 13 5
-895.437326836768 -171.776271470354 2331.95268341581 13 14 6
-887.897565689758 -171.481740189934 2334.71438464755 11 12 6
-879.353159355318 -171.054753443228 2334.65118216367 13 14 8
-859.192837677777 -169.085239722687 2301.59285271393 10 11 5
-862.310944683589 -170.202912520624 2334.50793979297 14 15 9
-849.886806243509 -169.251336780291 2323.09427869133 19 21 16
-846.629341221074 -169.529067749408 2338.12313112883 18 20 15
-842.983258522088 -169.760615892586 2352.23011129308 19 21 16
-837.678317806785 -169.771921257187 2361.62314474382 20 23 16
-829.48542919355 -169.390508584092 2362.49534027158 17 20 13
-817.216668113373 -168.445532552129 2351.02498108669 18 21 12
-807.207652511211 -167.806698511949 2346.17662057128 19 22 11
-802.805924158427 -167.947046049311 2358.43166963063 20 24 10
-799.886463369024 -168.300973150644 2375.46533009698 21 25 11
-795.065840576465 -168.394060012807 2386.80933458838 24 28 14
-790.50101284314 -168.528368358858 2399.12409944442 22 25 14
-785.287484003593 -168.575237594075 2409.54804671963 20 23 12
-781.811532449727 -168.876764755127 2425.7210442959 19 22 13
-775.913880998432 -168.834901077973 2434.26688726762 21 24 17
-775.519514615834 -169.599335574592 2461.01843795905 20 23 14
-773.842663889922 -170.189328376167 2483.9823917196 12 15 6
-775.205860678633 -171.240523275038 2517.54011944884 22 25 18
-772.152383825358 -171.652542861189 2536.75120228822 6 8 3
-961.732569051199 -182.2958863429 2303.87148747958 35 38 29
-953.8409713398 -181.952895150648 2305.69812428849 28 29 24
-938.79715256421 -180.653700190209 2288.8629281288 28 29 24
-934.874899157283 -180.838267086837 2300.94042951263 23 24 18
-928.784768386067 -180.735169813756 2307.42746084221 20 21 15
-910.768916427505 -179.015554371999 2282.10406829497 14 15 7
-909.243344467898 -179.530945751805 2300.75220633995 14 14 6
-903.490188911793 -179.475139511904 2308.17978997242 14 14 6
-895.656716626859 -179.135097351685 2309.98508512185 15 15 7
-893.266357177533 -179.549304522155 2326.82195497376 14 15 7
-891.136229588868 -180.007617379844 2344.62750121073 14 15 9
-878.212389054982 -178.961322540806 2332.33599111563 14 15 9
-863.045676694258 -177.590593974369 2313.4174773553 11 12 6
-853.600395161614 -177.018823043475 2310.49259784314 12 13 7
-843.53199498235 -176.355120340381 2305.66769035508 18 20 15
-845.185525709191 -177.367862176861 2334.85635095123 18 20 15
-844.442097561104 -178.050149527686 2357.47419346396 19 21 16
-838.162640217036 -177.940895034146 2364.03073312489 19 22 15
-828.378458691829 -177.322525773774 2360.16569408292 16 19 12
-818.630625451866 -176.705657746496 2356.2875893787 17 20 11
-806.114486754843 -175.676115350136 2343.84668189669 20 23 12
-800.789120771504 -175.70605006269 2353.24598530557 21 25 11
-795.734551477035 -175.780504548626 2363.60984095195 20 24 10
-791.247184183235 -175.944913931162 2375.89419035006 21 25 11
-788.81832784031 -176.426782702621 2394.87305486817 21 24 13
-793.174535793481 -177.952333632816 2435.8404768304 20 23 12
-780.145680605186 -176.835612145799 2421.45932383119 20 23 14
-777.487294163944 -177.308830625031 2440.52223793226 21 24 17
-774.160085835949 -177.68834487157 2457.70211780115 19 22 13
-775.661055770507 -178.832034836439 2491.20255416682 18 21 12
-778.142245597083 -180.149564182363 2528.60045693545 18 21 14
-769.387613406899 -179.708056437772 2528.61473303236 0 1 0
-948.563094416644 -188.519850365279 2270.85483279951 51 54 45
-951.209041422548 -189.646726521574 2299.6740453699 20 23 16
-947.630200554531 -189.908629376067 2312.68774750285 19 20 14
-956.424012902948 -191.934264113677 2358.40493504976 19 20 14
-939.244558854045 -190.274944766584 2335.97276700715 18 19 13
-921.153799363896 -188.470387745036 2310.68300015709 19 20 12
-911.902598375973 -187.925739348494 2308.75236799861 20 20 12
-902.33210603236 -187.332125040922 2305.87463039395 22 22 14
-896.557470718232 -187.289254429693 2313.30904241534 20 20 12
-893.474884294072 -187.644273493891 2328.26852338042 18 19 11
-895.045596410054 -188.69328555533 2356.41798220429 16 17 11
-882.090849291637 -187.602012221543 2344.14109533127 13 14 8
-859.922185553517 -185.126619440622 2305.45054101689 11 12 6
-840.778620684853 -183.903787597299 2298.63213336738 15 17 12
-840.17546310123 -184.648826018714 2321.19452995303 15 17 12
-837.855930493079 -185.14399111925 2339.06611358601 15 17 12
-831.624462912921 -185.047451773886 2345.60400307999 21 24 17
-818.724284931877 -183.922295058944 2332.24328950783 20 23 16
-812.820230928638 -183.875293345408 2339.72503589749 19 22 13
-806.579386873953 -183.778644370639 2346.2663404885 22 25 14
-801.553983875623 -183.875892068728 2356.61813344517 23 27 13
-797.100463590807 -184.068724062843 2368.88804042237 20 24 10
-792.899722063976 -184.308098685334 2382.12914790563 18 22 8
-793.46192778142 -185.318963464768 2410.64765894608 19 22 11
-788.212277285725 -185.407815708555 2421.08156289047 21 24 13
-793.579796487179 -187.228516087714 2465.92574725471 21 24 15
-776.710826530545 -185.436868573192 2439.12452810313 20 23 16
-776.292767133087 -186.336662744133 2465.87421994779 18 21 12
-773.440294813872 -186.848789973301 2485.00497131506 10 13 4
