ply
format ascii 1.0
comment KinectMotionCapture
element vertex 759
property float x
property float y
property float z
property uchar red
property uchar green
property uchar blue
end_header
-787.468719847489 648.322458102847 2410.66028496859 16 17 9
-772.763041887657 642.91775027017 2389.99648636318 15 16 8
-763.88634016111 642.009226690607 2387.81988610753 14 15 7
-768.733204254467 652.001678852728 2430.54489653664 15 16 8
-755.952779144605 648.012278978203 2415.68796024441 17 18 10
-758.483533587138 656.353311080814 2451.66324143146 23 24 16
-749.236290844411 655.208674080546 2448.53715557564 21 22 14
-711.550416877905 630.560954704691 2348.37359637475 20 21 13
-746.537268232193 672.671418778725 2525.49968085519 16 17 9
-904.819420144793 662.541232396792 2484.29166345198 163 164 156
-897.435355961074 663.0696149419 2488.08099481863 42 39 30
-886.107431425937 660.799688148674 2480.29270408733 44 41 32
-865.716435220385 651.995850710755 2445.43851026508 23 19 8
-854.249412608077 649.484425402766 2436.6157270977 25 21 9
-843.164464595648 647.203573474755 2428.73832955198 22 16 4
-836.270213945705 647.95618862355 2433.43316821259 24 18 6
-831.889833412822 650.577826097022 2445.8888569869 47 43 32
-823.703510448625 650.395883294918 2446.71641520283 31 28 19
-806.837097249855 643.665479217252 2420.33782092117 15 15 7
-801.821278546782 645.818365287667 2430.85565342422 19 18 13
-791.880595054279 644.227670001614 2425.81449804449 16 17 9
-763.81782442575 628.587468063049 2362.29951372803 16 17 9
-779.026276510185 646.42738269201 2438.11732881616 15 16 8
-753.674234289865 632.648330902704 2382.29107463513 17 18 10
-750.463326707129 636.203765681246 2398.65878572057 18 20 9
-756.249105642375 647.031236837641 2445.37213589872 18 20 9
-739.188769251223 639.567520603144 2415.80874860473 14 16 5
-897.611720628038 655.398059830731 2489.57145060824 46 44 31
-885.951766920697 652.927404500882 2480.82184271306 37 33 21
-866.866047879616 645.15067481758 2449.83736885324 30 22 9
-855.064714371036 642.441335840581 2440.05456424952 40 31 16
-845.252474348576 641.113471862338 2436.05312781282 27 14 0
-836.429787503747 640.476332108046 2434.94418880781 44 32 18
-830.780893895794 642.147318866341 2443.52256865108 40 32 19
-828.854744332589 646.591550168781 2463.75701927167 24 20 8
-827.147187528135 651.269825927629 2484.99651650454 18 18 8
-796.115047845077 633.983009758982 2413.90321729552 15 20 13
-783.472568247658 630.330138663297 2400.0883623946 14 17 10
-773.034995056176 628.293504872981 2393.06073215054 14 17 10
-765.94878895367 628.801194790619 2396.74027919861 15 16 10
-769.268575554882 637.415660241128 2434.58287313361 14 15 9
-744.094536681509 623.791096909977 2378.70360005268 16 15 10
-744.368953664424 630.090868510185 2406.81171849978 17 17 9
-749.72729257465 640.569363578261 2452.58723234548 16 16 8
-729.871202196692 630.871359656226 2413.20474160386 13 13 5
-719.060309871547 628.359779980985 2404.14355001528 13 13 5
-902.851816022215 645.598617755855 2480.52829757439 160 160 148
-896.134950768054 646.576763990579 2486.24251268237 72 69 54
-884.484027886289 644.137973279819 2477.4920277855 65 58 42
-869.640848896577 639.417623121571 2459.06293682227 44 31 15
-857.815526304319 636.744178617328 2449.29155664884 50 32 18
-848.298672575728 635.664151513085 2446.2683055091 95 76 61
-840.401074695674 635.723127522363 2448.07543870027 106 87 72
-829.987628286607 633.955353414002 2442.12613872512 65 49 36
-831.811863479433 641.091280762758 2474.00071855545 39 27 15
-820.771022138155 638.865650350786 2466.11120764602 19 17 5
-796.256702794686 626.581092294993 2415.42662902001 19 19 9
-779.342065722368 619.772859830081 2387.99287346384 17 18 12
-770.448262457767 618.905724386925 2385.82586394544 16 17 11
-757.082622722417 614.604361870413 2369.02490754969 13 14 8
-759.674498150426 634.668616032658 2459.19414346293 14 15 9
-739.399789057807 624.862403070658 2418.88903183905 18 18 10
-730.258987220685 623.761261379751 2415.72729949018 18 18 10
-713.466836069603 616.464588161372 2386.07907408924 19 19 11
-897.707758855443 634.327288210097 2466.61408236698 133 129 117
-889.373992415419 634.170892631589 2467.4968856084 89 83 69
-882.033861315162 634.688744529736 2471.26945988181 90 81 66
-866.883799941117 629.801804967739 2451.87274513964 51 33 19
-858.30444469305 629.415502984828 2451.76087697519 79 60 45
-849.420514853302 628.80255268097 2450.67601498285 134 111 95
-841.827370127153 629.090192829207 2453.45659252675 119 96 82
-833.604405583327 628.926191592552 2454.29856341912 92 73 59
-824.767055380173 628.309693882026 2453.19650963804 50 34 21
-811.921793207726 624.756993670599 2439.46289131519 33 25 12
-796.090216250489 618.941900714214 2415.97728686758 32 28 17
-788.321112798633 618.996019931159 2417.73762105996 18 18 10
-780.557339385491 619.049229911055 2419.49569574047 16 16 8
-772.474194152734 624.809916014743 2447.39983252506 14 14 6
-764.07374319636 624.410726547108 2447.22198933149 15 15 7
-738.751663417124 610.877299899906 2390.33682524215 17 17 9
-740.661942839316 618.398936280028 2424.34261111509 17 17 9
-726.054922947398 613.008622504835 2402.57724184049 18 18 10
-906.209124969974 632.241011818963 2492.16685676094 193 191 179
-894.174488921143 629.647269387684 2482.47754167562 117 105 91
-883.84435002441 628.162386681593 2477.5856194929 107 91 78
-870.304826137051 624.450435142759 2463.02568051931 76 53 39
-859.759787018809 622.737722028294 2457.12809325196 90 64 49
-850.860620091774 622.136146099905 2456.04962568044 143 112 94
-843.568980600968 622.647100516174 2459.80406070505 141 110 92
-834.383511020646 621.820365590742 2457.74607279609 68 41 24
-824.286864823622 620.32308228429 2452.76837830178 50 24 7
-813.302195433553 618.15461610276 2444.86302545069 38 19 2
-802.066731558269 615.760271973017 2435.96494225995 41 24 8
-795.157564552318 616.488682809649 2440.66362864412 44 34 22
-789.144579578922 617.887123935498 2448.28692200782 37 31 19
-781.608843953853 618.168649578175 2451.04617932013 30 24 12
-771.697723788286 616.661124349362 2446.00055778711 24 18 6
-759.766846880578 613.586118327897 2434.10386422268 23 17 5
-752.290743711534 613.863824647425 2436.84116665022 17 17 9
-736.714485598753 607.873510229863 2412.18301830157 17 17 9
-738.199889374111 615.089483609382 2445.25330414878 18 18 10
-739.811687386748 622.534826994173 2479.36178309878 19 19 11
-713.8023969011 620.678502577991 2475.87218038507 24 25 17
-896.329766703798 623.279945202598 2489.74698204924 122 109 93
-884.670246412604 620.938665439335 2481.00723257605 124 107 91
-869.82324110138 616.396227127992 2462.59295559207 87 61 44
-858.95677273445 614.487776744037 2455.73083071488 108 81 62
-850.699774962098 614.336777742419 2456.58614819667 147 114 95
-841.818778974441 613.744615482791 2455.50178871682 147 115 94
-832.643715802304 612.930827167575 2453.44074230613 94 63 42
-821.933839089241 611.014232181575 2446.52110727714 93 65 43
-813.132704954808 610.417281347766 2445.40736968128 64 42 21
-804.352230175739 609.819165803922 2444.28603788653 58 37 16
-797.114738249992 610.322406176392 2448.02021703034 58 45 28
-789.5705151761 610.604739936306 2450.78261912528 51 39 23
-780.23048387054 609.561765309795 2447.69766312214 42 30 14
-771.218207412292 608.738087792389 2445.57697833409 31 22 7
-763.997246381297 609.238597797309 2449.30494517244 29 20 5
-756.479820969182 609.517859500748 2452.05737887892 24 16 3
-746.649654336494 608.027299014801 2446.98362390418 27 21 9
-739.726524398014 608.747038696603 2451.68647498838 27 23 12
-741.314726077212 616.106775406121 2485.79706821211 26 23 14
-735.984369954509 618.157779463757 2496.42175111669 25 22 13
-734.518561531149 623.310962567907 2520.80891331386 27 24 17
-724.37312724371 621.597804325685 2514.76635532419 27 27 17
-897.1630669932 616.001160582789 2493.16149609202 128 113 94
-883.530989544433 612.39037212733 2478.64281821927 131 114 96
-869.0168384553 608.123963214013 2461.19524019781 110 85 65
-859.120430012984 606.893970713293 2457.23151556295 128 101 80
-851.497344941603 607.183078734828 2460.02308231205 142 110 87
-842.289200291661 606.384683393864 2457.97547137434 148 113 91
-832.163178602329 604.932140089174 2453.01182580414 124 92 67
-821.454386814582 603.042301040613 2446.09381535925 120 90 66
-812.653372046187 602.456183980707 2444.98085181876 80 54 31
-804.179838504922 602.086351269701 2444.83177728702 77 53 29
-795.721916580682 601.715551121911 2444.67695747388 66 49 29
-787.581398705382 601.561534566843 2445.48998006076 58 43 24
-778.254585274372 600.53430102416 2442.40140919732 41 28 11
-771.035165721026 601.032428263178 2446.12863617546 38 25 8
-763.811052288973 601.530367943631 2449.85780876967 36 24 8
-757.165121770822 602.464545744234 2455.54267883032 30 21 6
-749.059424080031 602.306607633605 2456.34275404889 31 23 10
-743.828545760552 604.33307314331 2466.92918715384 33 27 15
-739.976581496931 607.453834214028 2482.43046514316 30 26 15
-738.027895805119 612.107754545808 2504.82229213784 29 25 14
-732.07477734731 613.701303078278 2513.50536545626 32 28 19
-725.539010319143 614.857445704924 2520.23376712714 33 30 21
-891.731255397624 604.629609032466 2478.27771472733 123 110 91
-880.429635068329 602.566013815034 2470.49543473709 127 110 92
-868.210596018101 599.85641132721 2459.79756781836 126 106 82
-859.927473003226 599.717674950263 2460.66355712174 133 109 85
-851.654661356259 599.578013313972 2461.52547580038 151 124 97
-841.173984284578 597.934187516056 2455.60970104247 138 108 80
-830.739569626337 596.288242262452 2449.67721180134 145 118 91
-820.351279407488 594.639912568629 2443.72752960412 136 109 82
-811.555473680151 594.064192162977 2442.61345786756 148 122 97
-802.78027056021 593.487263404498 2441.4915549526 122 98 74
-794.329969555182 593.124026265458 2441.3345368144 107 86 65
-786.498465476654 593.190410250548 2443.11846889421 108 90 70
-778.672386634287 593.255867586856 2444.90035986486 94 77 59
-770.851733039367 593.320636481389 2446.68022769533 86 69 51
-763.330420460534 593.600288308633 2449.43410319092 84 68 52
-757.557592902885 595.173405322265 2458.04987415861 92 79 63
-750.310554722274 595.668310513673 2461.78714721786 78 66 52
-744.203758019577 597.026111358397 2469.44145953176 48 38 26
-736.937028717548 597.520773726963 2473.18586879353 40 30 20
-732.758258971351 600.391471825104 2487.72020929438 39 30 21
-727.12566100817 602.183294320756 2497.36834180471 49 42 32
-720.629667945124 603.327089942355 2504.08161480437 58 54 45
-890.58776908111 596.087912614812 2475.91533483418 135 123 107
-880.60026280188 594.900294478215 2471.98816098329 126 113 96
-869.026627723234 592.651967243259 2463.22396529845 131 114 94
-861.698588232823 593.154444926194 2466.99124053208 143 122 101
-851.172619029079 591.537341443553 2461.09393834803 131 107 81
-840.692824015727 589.917778333214 2455.17967376373 144 118 93
-829.630899126706 587.871792448901 2447.31163207071 131 107 81
-820.806841981626 587.3084910052 2446.20876216569 148 124 98
-812.621596850673 587.168384730096 2447.03883109184 142 120 96
-803.527310632981 586.390253652135 2444.95138008081 142 122 98
-793.546850319939 584.972993269797 2439.93750874896 131 112 95
-785.114667698019 584.616611123426 2439.77442474189 117 98 81
-777.295877441363 584.684463444574 2441.55384820106 96 79 63
-768.593577608068 584.113247292236 2440.40614211473 102 85 69
-761.087093628884 584.392200491647 2443.15457711061 101 85 70
-754.454565529565 585.309583155812 2448.83356465456 69 55 44
-747.518392516648 586.013932233504 2453.53999353187 51 39 27
-739.428076219982 585.865397707562 2454.33518962779 44 34 24
-732.198934839453 586.355746285181 2458.06536199842 40 30 21
-726.089064762817 587.69919613951 2465.71970817935 47 38 31
-719.397215121229 588.616157793632 2471.42021770152 58 51 43
-710.483451679045 587.824897322564 2469.26618535304 65 60 54
-707.609020115088 591.732003068443 2488.73809921831 86 85 80
-880.223027362715 581.708441795414 2446.59730483665 179 175 166
-875.541455939295 583.879800569188 2458.06189708819 117 109 98
-867.247366749001 583.752821312045 2458.93250360315 123 111 99
-859.285404959332 583.833951183515 2460.76494846936 119 107 93
-849.094843262391 582.449602212623 2455.83015238432 127 111 95
-838.628713952233 580.853861737543 2449.91271999271 136 120 104
-827.580705885113 578.836883377667 2442.04155615445 134 118 103
-818.146592794438 577.864865522587 2438.996391704 130 117 101
-809.361151911017 577.310192404797 2437.87988777662 117 105 91
-801.209204022401 577.173654384511 2438.69838209995 182 170 158
-790.941037514618 575.56749738983 2432.70823644482 217 204 196
-782.526711126422 575.218516448081 2432.53922303016 240 230 221
-774.127999842452 574.868389277677 2432.36444957694 255 252 246
-765.448813845178 574.306989136844 2431.20908599971 255 247 241
-757.084006955187 573.954524549775 2431.02181744507 251 242 237
-750.190104087737 574.652265150405 2435.71264367621 255 253 250
-743.574837163717 575.560278649853 2441.38465266851 255 252 249
-735.514929084709 575.415929083627 2442.16886177363 255 254 251
-728.59918174445 576.113034602747 2446.86757700418 255 253 253
-721.673593262572 576.809823797498 2451.56958971862 255 254 253
-716.129629553087 578.560307348108 2461.18239898655 255 254 255
-708.344607317209 578.62493430433 2462.9493098967 255 254 255
-701.384660703932 579.32162333087 2467.66405295799 251 249 250
-694.956163524085 580.440165094904 2474.35064241938 255 254 255
-848.221013034908 549.068428466316 2329.89930632559 224 223 219
-850.44554818052 555.3268305896 2360.49567523303 187 183 180
-855.461803012101 563.446360646228 2399.8179016643 94 87 81
-853.154174776507 567.033106029199 2417.99289235074 104 95 88
-846.263676758826 567.732261911564 2422.68258825735 102 92 82
-838.087227338351 567.604913296457 2423.51042395739 109 99 87
-829.921286672008 567.476604325309 2424.33462327725 113 100 91
-819.254818517752 565.693376490482 2417.40927905319 99 89 79
-809.884917225904 564.735060938936 2414.34156360022 110 100 91
-801.780950287252 564.602676179886 2415.14268370747 255 246 239
-795.21850962949 565.504337414857 2420.79501964487 242 235 229
-784.997333806844 563.920806077176 2414.78976195632 255 251 248
-774.822341841409 562.334709321552 2408.76727606791 255 248 246
-765.887800846654 561.575658391289 2406.6229689406 250 245 242
-759.051065865384 562.266996154091 2411.29254082743 255 249 249
-752.497902569225 563.165555430077 2416.9412719032 255 253 252
-746.802404592838 564.68698272405 2425.52530036332 252 248 249
-740.788272545304 566.001202794371 2433.142655889 251 249 250
-733.320188355367 566.277047371648 2435.87690424886 248 246 249
-726.135746581165 566.76015655844 2439.59054365549 248 246 249
-719.227234159582 567.450859175466 2444.28589275394 251 251 253
-713.699510406342 569.181770551859 2453.89132468409 254 253 255
-707.03430391765 570.080897326137 2459.58080807808 251 249 254
-701.71929903454 572.021309144744 2470.19156893977 255 253 255
-695.281999260097 573.129356488584 2476.88056489359 255 253 255
-690.700125824464 575.696683262508 2490.47192201486 252 251 249
-870.06877312284 540.710725667357 2322.39740312523 224 225 220
-859.713004445455 539.164090152124 2316.44357761883 238 237 233
-849.403333053862 537.61499801474 2310.47281788129 246 246 244
-840.797725190527 537.080379156463 2309.29274129534 251 251 253
-833.857804645146 537.561747068922 2312.9171512695 255 255 255
-830.177749592768 540.078272688829 2326.1772651819 252 250 253
-827.737231803565 543.410816888084 2343.31480351108 254 250 251
-824.256237113405 546.134531947247 2357.58478032976 251 246 243
-818.482354739571 547.433050199474 2365.1136593993 255 254 251
-811.101931620665 547.712079106175 2367.81629746272 255 250 247
-803.09435175256 547.582702615599 2368.58287781139 246 242 241
-795.408302037056 547.656338469489 2370.31425371848 247 245 246
-789.579272772011 548.954556628033 2377.86340138732 255 253 254
-783.112871599884 549.844484545087 2383.47995727531 237 235 238
-775.417432447123 549.916700796525 2385.2146376063 254 253 255
-766.824684805985 549.374730877164 2384.02933376938 254 253 255
-759.147839857677 549.445253917895 2385.7573846774 251 250 255
-753.547178520068 550.947848679568 2394.30553448047 251 252 255
-747.622922902806 552.246348111288 2401.88904837649 254 255 255
-743.417846714857 554.774578675852 2415.34080534109 254 255 255
-738.004294045626 556.484413104024 2424.90316433938 254 255 255
-732.555382707333 558.194974331991 2434.47842530823 252 252 255
-725.655882692698 558.880487338414 2439.17036260162 252 252 255
-718.185592685381 559.155286636991 2441.90533354982 238 241 248
-712.105426800647 560.456246614241 2449.54568115323 236 239 246
-705.724801761426 561.55237207016 2456.21318552188 237 236 242
-699.869973962894 563.059599925911 2464.85403311963 255 254 255
-693.984950604646 564.567650558644 2473.50591397804 240 238 243
-689.140757809945 566.899293182301 2486.10824259078 255 255 253
-977.909822257445 474.801332511634 2009.44997776186 42 43 45
-998.423711004223 491.750471577287 2091.80587653907 77 78 82
-974.095648245463 483.527792218445 2054.15953690008 110 111 115
-871.130144331639 520.336049558318 2257.54306975421 221 221 219
-865.675627191569 521.614761655017 2264.95441703467 235 235 233
-863.953760765329 525.09689573419 2282.90893967314 255 255 255
-858.42021965695 526.377372374882 2290.3493867719 252 252 252
-850.168880133462 526.054656080336 2290.12313581799 247 247 247
-840.931018830011 525.128757431294 2287.00989118561 252 252 252
-834.04390018563 525.605977450407 2290.61480328101 253 253 255
-827.480735696518 526.283526967675 2295.18393638911 251 252 254
-823.19160419143 528.366849463347 2306.49904369743 252 252 254
-817.885441582497 529.848466023094 2314.9386082138 252 252 252
-813.833603209228 532.134968894064 2327.24963884238 251 251 251
-806.863068210497 532.612338562396 2330.8851248285 251 251 251
-800.203639171165 533.2905076865 2335.48902690794 252 252 252
-794.161331357393 534.371386430114 2342.03245753447 250 250 250
-787.476919567911 535.049327189373 2346.64567386 247 247 249
-782.324656602426 536.734836229306 2356.11126110695 250 250 252
-775.913413132128 537.614688102263 2361.70701587683 244 244 246
-769.790456740495 538.696157984238 2368.27979376275 250 250 252
-762.143566283708 538.768666606817 2369.9971108944 253 253 255
-755.396756767926 539.446306577959 2374.63297596227 253 253 255
-749.526969966941 540.729694979991 2382.19555914047 252 252 254
-744.218293358414 542.417684238133 2391.71816447438 254 254 255
-739.455293590062 544.510937063003 2403.20644948306 254 254 255
-734.358723036435 546.402985633061 2413.73394156008 254 254 255
-729.792595215063 548.700774038107 2426.23268437058 254 254 255
-724.327173752043 550.392552908397 2435.81278123414 254 255 255
-717.705089048143 551.274749141382 2441.48531942793 249 250 252
-710.234729093697 551.548836551253 2444.2202620774 241 242 244
-703.315250208101 552.227997829995 2448.91872489166 237 238 240
-698.022231001227 554.124315763204 2459.51817057745 221 221 223
-692.958844306475 556.224319498449 2471.11585249907 216 216 218
-688.11761454806 558.528690673032 2483.71504685507 250 250 250
-683.490931663351 561.03766714785 2497.31853661399 249 249 247
-930.243581050917 414.645153533827 1744.90532165731 10 10 8
-1003.86186200033 459.898723449656 1964.76385880675 11 11 9
-1008.44887400445 468.604159160583 2008.55273204945 5 5 3
-1012.26368196019 473.740633029263 2034.22016458975 18 18 16
-1010.09643558126 476.158209293072 2046.9228981062 53 55 54
-1004.13244248249 476.826158317968 2051.27360537416 108 109 111
-996.092661712113 476.520245321254 2050.97175501593 237 238 240
-992.583007398651 478.356408645689 2060.9184441961 252 253 255
-984.137163694354 477.854433328353 2059.68278229862 235 236 240
-977.738197654977 478.326332085315 2063.10992872259 239 240 244
-971.736647021592 478.993128633549 2067.47419509713 244 245 249
-970.127367863894 481.807627291599 2082.13751337656 246 247 252
-964.872042705759 482.86614637501 2088.39331657753 252 253 255
-960.38629488483 484.315759435544 2096.53237887607 254 255 255
-954.691823826157 485.179390026993 2101.86647938922 249 250 255
-948.591663071979 485.847314713542 2106.26640533847 196 196 198
-941.31868386179 485.92795913027 2107.84848033086 176 176 176
-935.975166472308 486.987125961983 2114.13637595513 86 86 86
-910.709191004673 505.303856949839 2212.16244939608 206 207 202
-891.109849199449 502.908473326906 2203.10353001441 175 175 175
-891.893690936626 507.518760472705 2226.63234745688 175 175 175
-887.251132724638 509.176548185828 2235.91064820682 198 198 198
-880.110821469081 509.454768625804 2238.52598361291 243 243 243
-874.367185608838 510.521579051873 2244.9600883305 255 255 255
-867.90980601713 511.19369788562 2249.49012175368 255 255 255
-860.75420683165 511.470788797024 2252.11092661411 253 253 255
-855.647583134929 512.932756253645 2260.47650859389 251 251 253
-849.493568058908 513.802197940635 2265.97801716291 251 251 253
-843.660639755279 514.869474596781 2272.44434605105 252 252 254
-835.804524231893 514.749662134627 2273.15661533634 254 254 255
-829.946252304585 515.81661911696 2279.63212839483 253 254 255
-823.738998160829 516.685818944636 2285.15296246785 253 254 255
-818.821157205546 518.347576211543 2294.53158328569 253 254 255
-812.573346309816 519.217050917476 2300.06717388979 253 254 255
-807.915543825548 521.078373943029 2310.43292675812 253 254 255
-801.62466629697 521.948340720884 2315.98420221489 252 253 255
-796.26646987945 523.413946626362 2324.44146453859 253 254 255
-790.564436045057 524.681548450045 2331.94190564161 251 252 254
-783.904685911677 525.353225278744 2336.54568883777 249 250 252
-778.1598309526 526.621236336383 2344.06197364612 254 255 255
-771.166747840641 527.093843483462 2347.70503856347 247 248 250
-766.594215291513 529.158392546475 2359.12195393385 249 249 249
-759.871682108406 529.830095096664 2363.74829620522 252 252 252
-753.735424149428 530.900114899724 2370.32504312335 253 253 253
-746.988117961634 531.571699991623 2374.96063180051 252 252 252
-741.695625378734 533.2401192614 2384.47588028326 254 254 254
-735.787001877683 534.510421562929 2392.05184123116 253 253 253
-729.277575117861 535.381783351915 2397.68262908695 253 253 253
-724.7501604936 537.651081793104 2410.16515632582 253 253 253
-721.302978538117 540.720993660967 2426.5820812851 254 254 254
-716.944239707889 543.193190244988 2440.08518749978 255 255 255
-708.920758198347 543.067234152137 2440.85780358643 250 250 250
-702.008123568302 543.740768279425 2445.55335504805 244 245 247
-695.903414111819 545.01456528639 2453.20082506857 240 241 243
-691.663275645582 547.690604655149 2467.7427758181 229 229 231
-686.292871845837 549.567019428396 2478.36883650741 244 244 244
-681.94144187607 552.246157648374 2492.95145745294 255 255 255
-680.677031699496 557.333531605923 2519.39409978383 132 132 130
-1139.63656315177 452.043759483415 1939.37171495711 142 145 138
-1075.43116153653 455.801593759272 1968.31677295716 240 242 239
-1066.07750558394 454.937330776084 1965.25025137882 252 254 251
-1056.30790111856 453.880726719931 1961.25379083737 255 255 255
-1052.78265940054 455.493121010142 1970.1227035386 254 254 254
-1047.81557646368 459.676109710922 1992.50913882564 247 247 247
-1043.73305652245 461.101090788439 2000.49983477002 251 251 251
-1040.05269466415 462.718177715575 2009.42546251062 255 255 255
-1034.61316581596 463.571070605542 2014.66612276776 253 253 253
-1029.58599189317 464.615492181513 2020.83796637739 252 252 252
-1023.26104309842 465.085808373546 2024.23810014966 255 255 253
-1017.77674172223 465.939021796951 2029.4950521324 255 255 253
-1013.53831506844 467.367713870171 2037.542674841 249 249 249
-1007.17889546371 467.837888437054 2040.95532246724 248 249 251
-1000.39853553846 468.115917018369 2043.43985956121 254 255 255
-993.204981683409 468.201496873448 2044.99344872601 254 255 255
-989.298631968281 469.823366221288 2054.00154718312 248 249 251
-982.501838857591 470.100548239797 2056.49199119599 243 244 248
-976.920347389195 470.954284646621 2061.78429544908 252 253 255
-971.3231918265 471.808097263189 2067.08229680603 249 250 254
-968.110989701909 473.817338688206 2078.0007799971 248 249 254
-963.659773983034 475.24989418162 2086.12575416019 247 248 253
-959.572638891609 476.875910854221 2095.19985165608 243 244 249
-954.272251389011 477.92438608225 2101.47152417941 249 250 255
-948.561220962444 478.780028818839 2106.81103863639 255 255 255
-940.897905293719 478.670322489153 2107.45376471256 247 247 247
-934.783762403153 479.332526981949 2111.85859360456 246 246 246
-931.334574269047 481.347411206424 2122.86335416574 57 57 57
-933.154536513488 486.071000760984 2147.09106950734 179 179 179
-929.200205298693 487.89642056125 2157.19877019457 255 255 253
-922.957410570675 488.561284579271 2161.65028949072 96 96 96
-919.30827818172 490.581884921263 2172.72838290394 5 5 3
-912.657445593948 491.053384083684 2176.24701175361 12 12 10
-903.800138420564 490.36115538185 2174.07993882762 0 0 0
-898.611484679279 491.607323842001 2181.3922324816 171 171 169
-894.84433682412 493.630154332465 2192.51337361396 194 194 192
-893.90481386192 497.207771334692 2211.25740206791 223 223 223
-890.025082421368 499.233810724752 2222.41969116145 242 242 242
-885.036992560552 500.677984738212 2230.74086280347 255 255 255
-877.55737698859 500.761345148975 2232.3982214723 243 243 243
-872.874781331551 502.400569056618 2241.68966866084 255 255 255
-866.424186569112 503.067063061381 2246.21681249842 252 252 254
-859.619625712497 503.53860127963 2249.79155385343 251 251 253
-852.468619800867 503.814917160322 2252.41063132767 251 251 253
-845.995170299068 504.480398703286 2256.9460027585 253 253 255
-839.511661072005 505.145842841225 2261.48528074829 252 252 254
-832.684318050689 505.615962589586 2265.06793838822 250 250 252
-826.84530322389 506.671388088251 2271.53558455006 251 252 254
-821.314578232357 507.922455154666 2278.97278944847 252 253 255
-816.084420334871 509.369360192789 2287.38211955912 253 254 255
-809.206540382553 509.838894270796 2290.98309497422 252 253 255
-804.890840292325 511.873515610815 2302.30443537258 253 254 255
-799.255975045714 513.126046045285 2309.77933444479 254 255 255
-794.858916817147 515.162536843465 2321.13037636378 253 254 255
-789.476459698152 516.612297268739 2329.59525794463 250 251 253
-782.820878817443 517.278346076692 2334.19684734631 250 251 253
-776.771684274575 518.336552805904 2340.74132384572 254 255 255
-770.091119832008 519.002446523871 2345.35197901188 250 251 253
-765.521672799995 521.042518288594 2356.76592644676 248 248 248
-758.803506261427 521.708676824843 2361.39051815274 252 252 252
-752.373241207255 522.571062911535 2366.99161205167 254 254 254
-745.33739971764 523.04038462487 2370.65021910743 253 253 253
-739.17514044238 524.099391122555 2377.23558230875 254 254 254
-732.992809038112 525.158586550787 2383.82825272344 252 252 252
-726.790454449767 526.218088100448 2390.42822141023 254 254 254
-721.138345012076 527.671657585856 2398.99136520478 253 253 253
-716.868825454742 530.111530553172 2412.4598701438 253 253 253
-713.663558542618 533.341459411849 2429.86752805776 255 255 255
-707.330116453773 534.403701984858 2436.51533257098 254 254 254
-701.251725231205 535.663428577619 2444.15217855353 254 255 255
-695.420581747537 537.121136495012 2452.78068439181 254 255 255
-691.447835832254 539.962436409296 2468.30476110055 243 244 246
-685.004056502457 541.02660905412 2474.99280090407 231 231 231
-679.863858045806 543.079815661207 2486.61511481061 238 238 238
-676.513167287768 546.51908206934 2505.15796175893 255 255 255
-678.792300588403 554.315558979763 2545.45031235774 255 255 253
-1152.04849438005 444.268118466699 1933.20875344966 185 186 178
-1142.53404938715 443.431280273513 1930.20272181222 255 255 251
-1132.57300603783 442.406157339002 1926.27819350758 250 252 247
-1126.43880883268 442.873544611858 1929.60879907215 233 238 234
-1121.71316714521 443.901596358517 1935.66984956705 236 241 237
-1114.62227800358 443.995133845569 1937.18673720198 249 254 250
-1107.53587028584 444.088138880623 1938.70195639297 248 253 249
-1103.70035685124 445.491139334716 1946.60124712417 248 253 249
-1099.83367956655 446.89517906363 1954.51193926739 252 254 253
-1095.01840549637 447.925244982852 1960.60570854555 254 255 255
-1090.18216092008 448.955713598142 1966.70712758018 254 255 255
-1084.8714435709 449.799105950197 1971.90026895154 250 252 251
-1077.28972801716 449.703897467623 1972.5144405272 248 250 249
-1069.71778014814 449.60799579857 1973.12526513942 249 251 250
-1063.04725772219 449.887031879976 1975.56997016251 247 247 247
-1059.47974206033 451.482438567017 1984.45296083332 245 245 245
-1054.11272345615 452.32600649398 1989.66657181239 243 243 243
-1050.48293600216 453.923013130795 1998.57230888263 249 249 249
-1045.50976963732 454.955914815479 2004.72366032404 245 245 245
-1042.24825664877 456.743195276253 2014.57650215193 237 237 237
-1036.36195429421 457.400068527942 2018.89814577011 252 252 252
-1029.18081380887 457.490820676656 2020.44761494933 251 251 251
-1022.85526363584 457.958540089529 2023.84777129379 251 251 251
-1016.94714827226 458.614836581919 2028.17729687991 250 250 250
-1012.28941583053 459.838171519307 2035.29496406155 245 247 246
-1005.9345657486 460.305533529119 2038.70599350188 253 254 255
-998.328261397547 460.204973516557 2039.32869532955 254 255 255
-991.144593403489 460.292787299167 2040.87886114319 243 244 246
-986.426557180314 461.516632891838 2048.01847748306 242 243 245
-981.275006855725 462.551384631392 2054.23478210575 247 248 252
-976.102797959265 463.586632288605 2060.45888448645 254 255 255
-971.312156728298 464.811767046405 2067.62497822187 242 243 247
-966.495735769719 466.037419208791 2074.80073204472 232 233 237
-961.256028215559 467.073770158519 2081.04918816257 231 232 236
-955.995542402687 468.110218531686 2087.30520115288 250 251 255
-951.498963458357 469.52738226101 2095.44575045145 251 252 255
-946.191957308214 470.564695889542 2101.71873131223 251 252 255
-940.477112703496 471.411852669973 2107.05899132443 247 248 252
-934.746698390219 472.259141523273 2112.40491836157 252 253 255
-930.146927352766 473.678194288673 2120.58310375368 254 255 255
-927.413750845346 476.051308976201 2133.48810624208 248 249 251
-925.001186263495 478.616963383615 2147.35795634953 248 249 251
-920.280734352966 480.039124639828 2155.58022417553 254 255 255
-915.157546839469 481.270883760192 2162.86764428271 240 241 243
-907.79304772643 481.35653415787 2164.48334960204 254 255 255
-901.533629031272 482.01490164222 2168.94041883592 254 255 255
-897.449015022577 483.820996827694 2179.09399808183 246 248 247
-894.046585431319 486.010776690172 2191.16177620626 251 253 252
-891.670157309105 488.776648232315 2206.10015952082 253 255 254
-886.731700102576 490.203160834955 2214.40196517396 254 255 255
-882.116460895448 491.822065447582 2223.66740611146 248 250 249
-874.302879190346 491.715551908132 2224.36497038293 240 242 241
-868.941433927547 492.951427798506 2231.7395234002 251 252 254
-862.861851335313 493.803549000789 2237.21268099435 250 251 253
-856.76688173387 494.655630171458 2242.6911719411 251 252 254
-849.974422709713 495.123420079369 2246.26123342989 253 254 255
-843.854094579917 495.975406674899 2251.74918525173 253 254 255
-838.726687568649 497.404539572789 2260.1198411703 250 251 255
-832.234651312772 498.064196809387 2264.66152641368 249 250 254
-826.063513626885 498.916382563372 2270.16795428219 250 251 253
-819.87717326866 499.768507390308 2275.67990125545 252 253 255
-814.327269577414 501.006104785544 2283.12280388226 252 253 255
-808.105486625986 501.858364173537 2288.6476386335 251 252 254
-803.472194504475 503.675540505713 2299.00140933331 252 253 255
-798.161852216041 505.107475505052 2307.43874393113 251 252 254
-793.452234894526 506.926278739956 2317.82011488961 253 254 255
-787.449786590348 507.973024845047 2324.34648769732 251 252 254
-780.80619290098 508.633231816563 2328.94353523158 247 248 250
-774.460596865903 509.486697343584 2334.51344693096 252 253 255
-768.099930993707 510.340096752155 2340.08882907936 249 250 252
-763.844078144412 512.549115895327 2352.46813955773 248 250 249
-756.534672765005 512.821915313326 2355.1445041845 252 254 253
-750.118799794642 513.675745294811 2360.73997763234 253 255 254
-742.507190584023 513.753796780195 2362.44463967489 253 255 254
-736.656856019208 514.995320483263 2369.99725067204 253 255 254
-730.781260943146 516.237190026116 2377.55881155048 252 254 253
-724.880630713012 517.479488322632 2385.12975529597 253 255 254
-719.239797524576 518.916538112384 2393.68755556828 252 254 253
-713.568723318691 520.354114696365 2402.25638328538 253 255 254
-708.986857618944 522.570277039899 2414.75468544143 253 255 254
-704.07701457949 524.593115581557 2426.29075694975 252 254 253
-700.495480917728 527.590608797858 2442.75128713177 249 250 252
-694.937609511567 529.226760340238 2452.36052305561 254 255 255
-690.153365740778 531.448330746745 2464.93276481205 228 229 231
-683.449044259699 532.306525716399 2470.6333717817 229 230 232
-678.052535437045 534.139906026728 2481.26541608199 242 243 245
-674.449635472487 537.34051874319 2498.8155913723 243 243 243
-673.883678699159 542.886201911957 2528.23870822591 255 255 253
-673.437339344565 548.631817246385 2558.70000501773 252 252 250
-670.05127827537 552.232322144126 2578.33493387787 255 255 251
-666.327143583723 555.640090164855 2597.01109042813 221 220 216
-1146.9329569693 429.88794304388 1894.51703496018 200 191 174
-1152.9725524422 434.942577107831 1920.43649993831 196 188 177
-1154.06425038871 438.164695833527 1937.3488760994 155 146 139
-1143.5798869288 436.976916267522 1932.53566070391 255 248 245
-1133.6119615177 435.971059338417 1928.61508656164 254 250 247
-1126.04821059429 435.883902894647 1929.22333845165 246 250 251
-1122.2642365026 437.269643836542 1937.10260074628 246 250 251
-1117.04290648419 438.103528058405 1942.26254693986 241 245 246
-1110.87329104545 438.568726417684 1945.60585612179 249 253 254
-1105.16168446872 439.218474534778 1949.86348860049 248 252 253
-1100.822417133 440.422157598716 1956.86396268411 244 248 251
-1095.54004227502 441.257057852432 1962.04616542164 249 253 255
-1090.24182155952 442.092279626922 1967.23414981355 246 250 253
-1084.02093246441 442.557860246711 1970.5963717878 251 252 255
-1077.79431663794 443.023261504063 1973.9604066602 246 247 251
-1071.11376168546 443.303285190403 1976.4088313933 246 247 249
-1065.32406104084 443.953419199291 1980.69461319055 254 255 255
-1060.41025141107 444.974518695619 1986.82376191229 240 241 243
-1055.47535509812 445.99592001594 1992.96034068578 241 242 244
-1050.5195337255 447.017781808076 1999.10455706261 235 236 238
-1044.67175686865 447.668683035372 2003.41175232189 236 237 239
-1039.67918204871 448.691147481762 2009.56936807761 243 244 246
-1034.23531082449 449.528131075578 2014.81040570124 241 242 244
-1028.77562869375 450.365315720505 2020.05720319061 247 248 250
-1022.87475878944 451.01634038424 2024.38344415613 254 255 255
-1016.54058198911 451.481346102516 2027.78678443092 254 255 255
-1010.20073087826 451.945872650358 2031.19189593638 251 252 254
-1003.85538806003 452.410196959399 2034.59898752614 242 243 247
-997.089391819637 452.687723738042 2037.07826789217 247 251 254
-991.560740103608 453.524626225596 2042.35010333277 244 248 251
-986.426353008023 454.548583383633 2048.55935744139 244 248 251
-982.086103015204 455.946476579499 2056.6416525685 237 241 244
-976.095241382148 456.597252797549 2061.0008264683 241 245 248
-971.30077175903 457.809018902001 2068.16730251611 245 249 252
-965.281147760151 458.459966367026 2072.53693978443 237 241 244
-960.045400276635 459.485264560432 2078.78312311178 227 231 234
-953.99960419025 460.136103384851 2083.16226148526 243 247 250
-949.511788110174 461.536786093545 2091.29838338683 250 254 255
-944.213852690962 462.562847233419 2097.56721949219 245 246 251
-939.282192104719 463.776878271428 2104.78371306189 254 255 255
-933.555905789364 464.615966294935 2110.12752147665 237 238 242
-928.195922266644 465.642904020147 2116.41896812795 242 243 248
-923.194691720383 466.858032365892 2123.66107617567 254 255 255
-919.674875664696 468.826115995822 2134.68822163881 250 251 255
-916.857298397829 471.171800431854 2147.62182043646 240 241 245
-911.753302251982 472.389277560559 2154.90144430523 252 253 255
-906.254439377513 473.418903515282 2161.24355387177 254 255 255
-900.368451727684 474.260183381919 2166.64555315691 248 249 251
-896.651019602785 476.2329666931 2177.74460025256 254 255 255
-891.080351288559 477.263717769628 2184.11313862948 244 245 247
-887.642479604921 479.427310250526 2196.19181831732 254 255 255
-883.440706171649 481.214474909286 2206.38628333831 244 245 247
-878.136717128486 482.435778088213 2213.7388608189 254 255 255
-870.699659390226 482.522848633316 2215.38078225881 254 255 255
-864.662467479108 483.365750057159 2220.83784207955 254 255 255
-859.648328061033 484.77675935786 2229.16597617346 253 254 255
-854.603540375049 486.188192265029 2237.50527789587 252 253 255
-848.164121502458 486.842384987271 2242.02768726681 248 249 253
-843.068257803627 488.254636676323 2250.38535429596 247 248 252
-837.941877747267 489.667471780899 2258.75440738871 246 247 251
-831.451596877988 490.32174660733 2263.29530302804 245 246 250
-825.281968935112 491.165774305024 2268.80056681184 244 248 251
-819.425341899579 492.199615719013 2275.27298359686 247 251 254
-814.525444995719 493.803978332492 2284.64075414869 246 250 253
-808.943776357404 495.028749219179 2292.09448469839 243 247 250
-803.657189042749 496.444107389736 2300.52168316869 244 248 251
-797.068207934809 497.09854735536 2305.09845277136 243 247 250
-792.361865026027 498.895605295306 2315.4769932955 249 253 255
-785.737584649916 499.550233772489 2320.06660267144 250 254 255
-779.723988135427 500.586041160837 2326.59620069898 240 244 247
-773.074696226505 501.240396537457 2331.19487709822 244 248 251
-767.33109693667 502.467102772456 2338.7073348547 250 254 255
-762.470344242873 504.267144444156 2349.14245768508 249 250 252
-755.768252933523 504.921849988493 2353.76009020481 252 253 255
-749.35391067451 505.767401990488 2359.35438290097 249 250 252
-741.449597293093 505.656917156308 2360.08486806255 249 250 252
-735.310509748181 506.693400741762 2366.66011271433 253 254 255
-729.731220497724 508.11291912833 2375.19422899036 252 253 255
-724.696333821567 509.916028143457 2385.69259836674 252 253 255
-718.481872691949 510.953670886765 2392.29531653278 252 253 255
-711.682938141771 511.608157545426 2396.94837362877 253 254 255
-705.153969386308 512.454199349551 2402.58435139218 253 254 255
-701.381339986007 515.219312869954 2418.02996987068 253 254 255
-698.09194253297 518.370229003976 2435.46223393338 254 255 255
-694.182468322066 521.139320933773 2450.95787344805 248 249 251
-689.129218752173 523.141607060843 2462.54475352719 247 248 250
-683.229789377516 524.568277340194 2471.19572835475 232 233 235
-677.035867758053 525.803114107024 2478.8724185868 222 223 225
-672.387890610809 528.193223550946 2492.4746766437 253 255 254
-668.980563289811 531.547505784204 2511.03194389585 250 250 250
-666.77562925185 535.867455930381 2534.55823319157 248 248 248
-663.701696534033 539.612727885589 2555.15723324294 253 253 251
-661.291217404527 543.93928180021 2578.75870305442 249 249 247
-657.279972890553 547.111665757722 2596.45511534975 252 252 250
-654.178726835583 551.058278560151 2618.14553278287 255 255 253
-650.005458248406 554.235684522594 2635.90119342701 254 255 255
-1181.26006133058 422.285515000907 1885.73757272912 194 178 155
-1176.6943733129 423.288139816558 1891.73858754626 196 180 155
-1175.07198824303 425.374527388518 1903.15180753405 195 179 154
-1174.87259152158 428.004876822782 1917.28896822404 193 177 152
-1166.29398172102 427.565200441129 1916.10624578946 196 179 159
-1158.22146966634 427.305111425399 1915.81974542856 194 177 159
-1153.06685058873 428.129956881662 1920.95477104276 182 168 155
-1150.78418448184 430.04165131859 1931.52815881436 152 139 130
-1142.70980220479 429.780742116048 1931.24227609107 255 252 246
-1132.26888653849 428.612478698732 1926.41449269984 251 243 240
-1124.23657803552 428.349210567102 1926.11314500941 244 248 251
-1119.04571584926 429.174043214191 1931.2613381396 244 248 251
-1115.71319104565 430.725726022949 1940.05564877022 241 245 248
-1110.01429096655 431.369915642611 1944.30824510364 236 240 243
-1104.30457878562 432.014230056259 1948.56477929561 243 247 250
-1098.58399775487 432.658625621101 1952.82501436662 241 244 249
-1094.22778360449 433.849200820768 1959.83091116039 247 250 255
-1089.84540008159 435.040395587342 1966.84610871204 240 243 248
-1083.17068992391 435.321143680054 1969.29246446931 238 241 246
-1077.39686369378 435.966236763738 1973.57235245502 243 246 251
-1070.26778454786 436.063827504005 1975.10342177715 236 239 244
-1065.3712177159 437.073785689245 1981.22521060794 240 244 247
-1060.01069331563 437.901497225015 1986.43526560879 241 245 248
-1054.63430557671 438.729471412885 1991.65110417385 243 247 250
-1050.55584450536 440.106249202156 1999.63643405805 236 240 243
-1044.26937300175 440.568854558507 2003.02226009585 223 227 230
-1038.84296225363 441.397473580286 2008.25632255248 212 216 219
-1032.54010921321 441.859839565219 2011.64782825159 241 245 248
-1027.51490182275 442.871966728716 2017.81652068118 248 252 255
-1022.04362766501 443.701028939449 2023.06691713866 242 246 249
-1016.55660202984 444.530349430575 2028.32305618709 241 245 248
-1010.63373443517 445.176026712393 2032.65714057639 247 251 254
-1004.70011333913 445.821601981827 2036.99487011432 243 247 250
-997.926000173327 446.099565085919 2039.47713258563 243 247 250
-993.625981054266 447.480700273531 2047.54354590698 241 245 248
-988.065308652749 448.310278709769 2052.82646305376 241 245 248
-982.488940704424 449.140113240548 2058.11510230488 240 244 247
-976.087383878899 449.601572569755 2061.54240238727 238 242 245
-971.289160092739 450.800072532325 2068.70949581716 217 221 224
-966.065363795231 451.814601183152 2074.95052425063 241 245 248
-959.629580850533 452.275790220598 2078.39023957351 244 248 251
-952.793852913743 452.55187358908 2080.89474717598 201 205 208
-947.91773865375 453.751392865891 2088.09021804904 223 227 230
-941.847468301136 454.396651168098 2092.47757347799 223 224 229
-937.314211268012 455.781780186101 2100.62903223352 245 245 253
-932.365782143132 456.98263684068 2107.85087872003 237 238 243
-927.391463281902 458.183744822388 2115.0818965778 237 238 243
-920.874633185973 458.644111330352 2118.55099731324 244 245 250
-916.612429724469 460.216749315817 2127.68493052065 250 251 255
-913.062265812989 462.16102089504 2138.72105153699 254 255 255
-909.09452210637 463.920981412532 2148.82868647878 251 252 255
-903.609805666481 464.93915651242 2155.1647921291 250 251 255
-898.470981532268 466.143404565377 2162.4560721591 246 247 249
-893.306402250399 467.348017789257 2169.75648324894 251 252 254
-888.116265218382 468.55319929437 2177.06647761219 254 255 255
-883.976625664745 470.316913859781 2187.23659771431 254 255 255
-879.439873923107 471.895531149684 2196.47048146521 251 252 254
-874.160089634881 473.102370097466 2203.8131731 252 253 255
-867.801411329645 473.75032435063 2208.30552138294 244 245 247
-861.432582837562 474.398006526696 2212.80179138656 245 246 248
-857.129240344892 476.165260361239 2223.03165795771 251 252 255
-851.754893869122 477.373353316021 2230.40880220329 250 251 255
-847.036676370968 478.955370346765 2239.70887579426 251 252 255
-842.282743648877 480.538187663872 2249.02198645023 253 254 255
-838.164601202684 482.495769784763 2260.26573400524 247 248 252
-832.001485322924 483.331979894688 2265.76804186247 243 244 248
-825.823138805516 484.16813017049 2271.27587906776 240 244 247
-818.973440566442 484.629654848501 2274.86601068606 244 248 251
-813.746374026315 486.027785200338 2283.27053746252 242 246 249
-808.811757265497 487.613971707572 2292.64955162603 238 242 245
-803.521149981939 489.01321563496 2301.07724916186 240 244 247
-797.246567702614 489.850149356821 2306.62011154579 239 243 246
-791.587402148321 491.062479147343 2314.1008066296 246 250 253
-784.964816912353 491.711622156431 2318.68938621014 248 252 255
-779.262710569104 492.924439100705 2326.18572005172 238 242 245
-772.612572455658 493.573467880685 2330.78430200862 242 246 249
-766.867605720897 494.786709284797 2338.2962406662 251 255 255
-761.097477988172 496.000384360741 2345.81760828574 248 249 251
-754.102272435645 496.460985427995 2349.46053848756 250 251 253
-747.399755184907 497.109679189417 2354.07812647442 247 248 250
-739.802835824298 497.19256210142 2355.7780699869 247 248 250
-734.257351583494 498.595170440463 2364.29837343804 252 253 255
-728.39194939354 499.809531841362 2371.85440963019 252 253 255
-723.075759562824 501.402055333281 2381.37254175537 253 254 255
-716.301144110635 502.050648760244 2386.01631815603 252 253 255
-710.080837689674 503.077085988852 2392.62031466195 250 251 253
-703.840546534116 504.103768284361 2399.23159086316 250 251 253
-700.626923518021 507.212047807299 2416.63336053211 251 252 254
-696.513898770014 509.754546909297 2431.11905026775 254 255 255
-693.699426206678 513.245662132338 2450.53779162712 246 247 249
-688.913460007637 515.413226763129 2463.10658438442 246 247 249
-683.543551977185 517.202855097833 2473.72591676675 237 238 240
-677.076514425532 518.234766321943 2480.41997298001 241 242 244
-671.112942291546 519.646494701762 2489.0931258907 236 237 239
-665.896562811221 521.628357854561 2500.73773624653 254 254 254
-662.173966600572 524.75118284362 2518.32527816467 253 253 253
-658.629481309473 528.066280624971 2536.92942352878 252 252 252
-656.763930491159 532.714695201114 2562.49055210133 255 255 255
-652.790608516696 535.845161374022 2580.17002295011 251 251 249
-649.726599343326 539.739163853211 2601.84294129283 255 255 255
-645.103696617968 542.493677170958 2617.59669619965 254 255 255
-639.450212152163 544.488216210063 2629.40107962781 253 254 255
-632.796799423461 545.721642538114 2637.24486812118 228 230 229
-1261.04834230775 417.473074549438 1886.24999661824 195 181 170
-1231.71264184976 412.565214585813 1863.47292030146 185 169 154
-1222.07207231845 411.786128032109 1860.51707189878 178 160 146
-1211.94716564069 410.828568886785 1856.65717909094 187 170 154
-1201.34555984445 409.692298196015 1851.89044866611 185 166 149
-1195.36670271015 410.148731291202 1855.16378683903 198 177 160
-1192.42202801474 411.669058224475 1863.81481110897 203 182 163
-1190.44925489044 413.545475900453 1874.27294143419 194 171 153
-1185.42075554359 414.358663046417 1879.36126337572 204 179 157
-1180.87525448424 415.349958245599 1885.35408867513 206 180 157
-1174.32290677468 415.630926585143 1887.75600217773 200 172 148
-1171.22732774888 417.156615121183 1896.46226019951 197 170 143
-1168.09539032242 418.683665046663 1905.18183131269 201 174 147
-1163.94960415558 419.855833033964 1912.10988286396 197 171 146
-1156.37366794109 419.781658700851 1912.72354164881 201 176 154
-1147.83997439983 419.350291188534 1911.52512636789 192 171 154
-1145.58118951606 421.236755151383 1922.08793351472 168 150 136
-1138.96834227918 421.518480003704 1924.51188584772 216 199 191
-1131.87866925127 421.621214193095 1926.02877122349 252 241 237
-1123.8464799902 421.366159558286 1925.72799992945 220 224 227
-1119.59680960576 422.540600942107 1932.69396804969 220 224 227
-1115.78944798369 423.894740587346 1940.57934354412 237 241 244
-1111.01903927555 424.891788372724 1946.65432028043 230 234 237
-1104.83763619936 425.351968639391 1950.00153373062 225 228 233
-1098.65067581835 425.812054643354 1953.35101355134 214 217 222
-1093.37420005591 426.630480384403 1958.52957559238 218 221 226
-1088.53774853214 427.628904494413 1964.62890631496 234 237 242
-1082.32082944534 428.089043535813 1967.98902095507 230 233 240
