ply
format ascii 1.0
comment KinectMotionCapture
element vertex 778
property float x
property float y
property float z
property uchar red
property uchar green
property uchar blue
end_header
-861.593767471204 -449.344983622653 2625.87834634792 32 33 35
-851.355431090794 -481.341215612757 2348.96177500692 24 27 20
-833.933574123954 -475.978118013652 2364.72769848222 19 22 13
-823.902675481188 -472.533928728144 2377.73765367138 15 18 9
-820.349969749385 -470.766809745162 2388.383635961 15 18 11
-795.438772944405 -463.499749525122 2406.48187916763 16 19 12
-808.578693656676 -466.039886326267 2411.19673516146 12 14 9
-826.381448661642 -469.771931821435 2414.37664626477 13 15 10
-803.277868761911 -462.99036179256 2431.61194028386 9 12 5
-750.545128733656 -446.970377856469 2476.89294646648 26 29 22
-726.387536448335 -439.96902228979 2493.91187743037 15 18 11
-713.394868066463 -435.833242443674 2507.13410510097 12 15 8
-722.796090292622 -437.41824397386 2513.03903626661 18 21 14
-719.124253729971 -435.667190030052 2523.16950853048 22 25 18
-739.758493875958 -440.105930552522 2525.57192223588 23 26 19
-690.237039770059 -426.695053894722 2550.08487214102 21 24 17
-675.293282315785 -422.094974753605 2563.54920549717 22 24 19
-711.861241999537 -430.573105869962 2561.07625543769 22 24 19
-733.473842284949 -435.241322833557 2563.36736476419 22 24 19
-756.050622109591 -440.142141038571 2565.48869255823 17 20 13
-728.896731090674 -432.455044100906 2582.5700952867 16 19 12
-732.706513656265 -432.605198729892 2590.33369250038 18 21 12
-721.477978667554 -428.959201407793 2602.50388223025 16 19 10
-736.571664961028 -431.954640784464 2606.98313519908 17 20 11
-735.680808780145 -430.917799128744 2616.11689204538 18 21 14
-726.308745436791 -427.749019217756 2627.63563530226 18 20 15
-768.762561394806 -437.605780196902 2624.56940950878 20 22 19
-862.337117892579 -493.418143930944 2345.21903444428 14 17 10
-834.911022702635 -484.516858371916 2374.05710730071 11 14 5
-848.061178549719 -487.088197683142 2378.83541748252 13 16 9
-831.530337914896 -481.916700934101 2394.08395875382 14 17 10
-774.235052274726 -465.301143894138 2432.58085900152 13 15 10
-674.998352528038 -436.247935088487 2502.2223625141 26 29 22
-702.07829360221 -442.443019078427 2502.16425084319 14 17 10
-704.935224082258 -442.364729781625 2510.15107647297 12 15 8
-727.398718553999 -447.345898853903 2511.81937719305 19 22 15
-749.889472875598 -452.322072904506 2513.60594899169 24 27 20
-720.058922159768 -443.811416796032 2532.07836339789 24 27 20
-692.057265507203 -435.788597973428 2549.78405490706 22 25 18
-675.248823811148 -430.658562041996 2563.83371214312 23 25 20
-695.882266272738 -435.149767480488 2566.26346894246 23 25 20
-679.986991521433 -430.263421969944 2579.92290328763 22 25 18
-698.770405234996 -434.269078607319 2583.0286838302 16 19 12
-743.854945089499 -444.994207002325 2578.39538154936 15 18 11
-742.039874558182 -443.708125655766 2587.86741616397 17 20 11
-743.979030168721 -443.382155281602 2596.22072593359 15 18 9
-730.919965317564 -438.414067775785 2617.77473476246 18 21 14
-730.0237337853 -437.369871580549 2626.88156542964 17 19 14
-757.391224319708 -443.510937225663 2628.0577038237 19 21 18
-779.273004376627 -446.58948201551 2648.82777752702 5 9 18
-825.199590963928 -492.824783273962 2358.93360649489 25 28 21
-819.810629694265 -490.534915970264 2370.29333926008 22 25 16
-828.308718058897 -491.918109276924 2376.65733859234 20 23 14
-857.211314669451 -498.682653407027 2375.85193497358 18 21 14
-875.945415598542 -502.750364487661 2378.77691342312 18 21 14
-824.151379226604 -488.233344503348 2406.2941793837 13 15 10
-827.092035364528 -488.146250999722 2414.64477006879 11 13 8
-870.004555540453 -498.562671700725 2409.37154005588 14 17 10
-656.317634986988 -439.972927410592 2508.67352800884 22 25 18
-669.396832372445 -442.585441830693 2513.16445866286 14 17 10
-697.467390205882 -448.289232534211 2521.73901748726 23 26 19
-734.873933171565 -457.225614767854 2518.67338361714 23 26 19
-716.258517597998 -451.546080204261 2533.55117591621 22 25 18
-690.135395042065 -443.923863892237 2550.65649200869 25 28 21
-702.339911961183 -446.28076980139 2555.6991428705 27 30 23
-698.640746342885 -444.501516065843 2565.69151499015 22 25 18
-705.240660927641 -445.396508241654 2572.51782335165 20 23 16
-725.965698512612 -449.124953657366 2584.01538237132 17 20 11
-727.895845785715 -448.80112218308 2592.33025425622 12 15 6
-775.858443239509 -460.365734243463 2587.20386796488 14 17 10
-648.086046962277 -425.766348637159 2641.75744140498 9 11 6
-718.675183807747 -443.139527060327 2630.3905752162 19 21 18
-762.981472468024 -453.715018147617 2626.79624477687 24 26 25
-763.044423633489 -452.901495782906 2635.70905490334 28 29 31
-850.055232428297 -508.61491716715 2350.15995406912 26 29 22
-828.952109425916 -502.091676676845 2367.24954074855 20 23 14
-810.597065207139 -496.315682409888 2383.21685812786 19 22 13
-810.749880018009 -495.491656276161 2392.51948118589 17 20 13
-823.113085816773 -497.057229970315 2406.90878271582 11 13 8
-833.48223484222 -498.949953148083 2412.70354189098 10 12 7
-684.202848207231 -455.927986745818 2499.67769697089 20 23 16
-664.688223527969 -449.939790433535 2514.96791800366 17 20 13
-694.557818260178 -457.019303889905 2514.05251295455 22 25 18
-716.068590592803 -461.874953395701 2516.0051514562 22 25 18
-675.057857581256 -450.225383644944 2538.04626346501 22 25 18
-698.44786055478 -455.570767121316 2539.45510654906 23 26 19
-730.27949567439 -463.125497057222 2538.35227473818 24 27 20
-708.833316447015 -456.653274698039 2553.9590791743 24 27 20
-728.541306653577 -461.003736942023 2556.78438650757 19 22 15
-730.476845739913 -460.680359959477 2565.1232851398 18 21 14
-762.404780737187 -468.217483633364 2564.4344505471 20 23 14
-754.186272526512 -463.553373991627 2593.82613499993 22 25 18
-781.506310764627 -469.847506583307 2594.8842866746 11 14 7
-692.255780354993 -445.738766064914 2629.41911715895 12 14 9
-651.816273219884 -434.391508806024 2649.59769685497 31 33 30
-769.508954618094 -464.200723784885 2625.27401425782 12 14 13
-864.526005370275 -522.63619193066 2335.59512611167 18 20 15
-826.059500292587 -510.452839146875 2368.53361592635 17 20 11
-768.952151843514 -493.284482156168 2407.53245023952 15 18 11
-796.887532044284 -499.960021216309 2406.97007735452 12 15 8
-845.266487174083 -512.127409274154 2399.47544321028 9 11 6
-825.943012596519 -506.048656182035 2415.55471898797 9 11 6
-789.871347276252 -495.47955226223 2437.21149586909 8 11 4
-748.271122239982 -482.598612175026 2469.60101951519 25 28 21
-696.24570023134 -467.810214998233 2495.94013849105 20 23 16
-698.16851726764 -467.49228136056 2504.22617805159 23 26 19
-676.791982506006 -460.944214141031 2520.09526658894 23 26 19
-681.497729622957 -461.375287042235 2527.41473347909 22 25 18
-691.806634144314 -463.299172433452 2532.96343572727 22 25 18
-707.730271703063 -466.714151286129 2536.78919833236 23 26 19
-732.153217477772 -471.544075140426 2547.00301094625 19 22 15
-725.671329860026 -468.983542639304 2557.94497760256 16 19 12
-743.522934415195 -472.884644173669 2561.43958116031 16 19 12
-744.600351170503 -471.489180511783 2579.03683724645 19 22 13
-719.385010294542 -463.147679012775 2604.27570744344 20 23 16
-718.491529826567 -462.080415252491 2613.38109329371 26 28 23
-699.733786825704 -456.304277123614 2627.57489002835 29 31 26
-777.836707950462 -476.049773482048 2614.25889167486 17 19 16
-729.010938872024 -461.526281508796 2645.73943191323 9 13 16
-826.52449971247 -521.486363218048 2349.73162062054 12 14 9
-815.605962613211 -517.612725835536 2363.1350353037 9 12 5
-798.196580324952 -511.970445187155 2378.79172303562 16 19 10
-788.165443320964 -508.355374727226 2391.7001211421 15 18 9
-773.488148702876 -503.478456943979 2406.17581555868 12 15 8
-808.831912866653 -512.251279522355 2403.03917624466 12 15 8
-818.255125667529 -513.943373401767 2409.1039987524 11 13 8
-800.777586773295 -508.310526623471 2424.46589797337 10 12 7
-852.917766662324 -521.61227719481 2415.98586798309 10 13 6
-699.840309909058 -478.320356082966 2486.06367676119 25 28 21
-709.210435115141 -480.019231859972 2491.89964009495 21 24 17
-691.590366504772 -474.408036238382 2506.64620591596 23 26 19
-702.82634166676 -476.609592351325 2511.88593905703 22 25 18
-692.632263637387 -473.017365615825 2524.0897612251 24 27 20
-671.227422050601 -466.406936269598 2539.79852065488 24 27 20
-701.135941729756 -473.638885913288 2539.14429929617 18 21 14
-723.608772658615 -478.852273810149 2540.9903253447 15 18 11
-720.870266446905 -477.273226737317 2550.77835076968 13 16 9
-708.772215786093 -473.182014461626 2563.41149944393 16 19 12
-719.119832847291 -475.121769210387 2569.13903883488 16 19 10
-757.577209871319 -484.591438789831 2566.46232682823 14 17 8
-764.217227284953 -485.519588529077 2573.48376710369 14 17 8
-740.852116208965 -478.41836314183 2589.37859350195 16 19 10
-741.854018236952 -477.842200912565 2598.01216265192 26 29 22
-725.012230162513 -472.503167140598 2611.7919508619 24 26 21
-780.504224773842 -486.460835488076 2604.79634293761 17 19 14
-814.541789784461 -493.810403075695 2613.29343714293 22 23 25
-844.772936420008 -500.98298155116 2614.02488911567 10 13 18
-767.31208459494 -514.232212023978 2371.61631461567 20 22 17
-802.556129302674 -523.118816841022 2368.10609061231 16 19 12
-801.787212000206 -522.024423052019 2377.74441641369 16 19 10
-795.464066308773 -519.396489256325 2389.34516164469 14 17 8
-785.426781080761 -515.747859600056 2402.20672871676 12 15 8
-838.369622686656 -529.470289824402 2392.95362553213 13 16 9
-824.634590314323 -524.797864558145 2407.14642558206 13 15 10
-822.010886967832 -523.191250443914 2417.4230380144 11 13 8
-814.73991040735 -520.309518896148 2429.25531214724 17 20 13
-722.083836958241 -493.138050963325 2478.87897979647 26 29 22
-686.821295358209 -482.625360215285 2499.57799554938 22 25 18
-703.630701906151 -486.384217471212 2502.95281782366 20 23 16
-726.048334828994 -491.66704289591 2504.59645059749 21 24 17
-692.575011263021 -481.674487704046 2524.37290483736 23 26 19
-652.526857985674 -469.908443536746 2546.03078434037 21 24 17
-704.811081500276 -483.327137345227 2538.25318919131 17 20 13
-707.669369898599 -483.261716216364 2546.25356722613 17 20 13
-687.168143559542 -476.843263720612 2561.49959726121 18 21 14
-712.455398244607 -482.874934330146 2562.55966228053 17 20 11
-737.774083429828 -488.901028918725 2563.75386211636 17 20 11
-751.964787600677 -491.042702817273 2577.42220389732 13 16 7
-726.72557731407 -483.362589186973 2593.83208652544 15 18 9
-694.88382055658 -473.91374256314 2612.00296933606 7 10 3
-718.385396981776 -479.420875194734 2613.99860478865 15 17 12
-860.416204194615 -515.988784828834 2591.53659731061 7 9 8
-790.943441701029 -496.4166628659 2620.19980853835 27 28 30
-822.091206062478 -503.926127493783 2620.61214484284 14 17 22
-844.800396306757 -509.152941896122 2623.50868941645 3 10 20
-791.362138737276 -529.070370837637 2372.40316482853 18 21 14
-749.115465884069 -515.50179482035 2406.09602858195 10 13 4
-764.965075417941 -519.053733087305 2409.67722259841 20 23 16
-817.877331186504 -532.927536467651 2400.37837337021 23 26 19
-787.453970168511 -523.5670390192 2420.29616810857 19 21 16
-773.679651968869 -518.856018046821 2434.29206506425 17 19 14
-748.749483940374 -511.054034719882 2451.99099943684 18 21 14
-690.419378091733 -493.147758827406 2489.72513398877 26 29 22
-697.919757849337 -494.37640239963 2496.15816025495 21 24 17
-673.793552825002 -486.851028601452 2513.00719113264 23 26 19
-647.771076868378 -478.816397141479 2530.31344490603 22 25 18
-649.661307623067 -478.503876548433 2538.45907434433 19 22 15
-671.129602923233 -483.590393276079 2540.36032317099 17 20 13
-658.107096674816 -479.162656151316 2553.27934830439 18 21 14
-665.602267344611 -480.389801178447 2559.68853893846 19 22 15
-689.962850756033 -485.406035966735 2569.73821553017 19 22 15
-751.738405866064 -501.509936742501 2559.79691819802 18 21 14
-691.017118811959 -483.16702596614 2595.8501306876 18 21 14
-687.303504267355 -481.309819542372 2605.73406971305 20 23 16
-684.520437149112 -479.709623178552 2615.31329483302 18 21 14
-632.931718027479 -464.793688623675 2638.94427218046 15 18 11
-740.974939564188 -492.567799572127 2625.58266895863 16 18 13
-741.031627134086 -491.729965320567 2634.45357862276 20 22 17
-775.900846755255 -500.351726447366 2633.69229328438 20 24 23
-798.573373802536 -505.643392282161 2636.46433580972 59 66 72
-778.470501668132 -533.592093561965 2386.60624885856 14 17 8
-775.972381104812 -531.116562603935 2406.03908112318 18 21 14
-793.695796787505 -535.226510468169 2409.09056096279 20 23 16
-795.69174327056 -534.899959282546 2417.69378236484 19 21 16
-755.972597256824 -522.844275851943 2440.63110073975 17 19 14
-625.337179003866 -483.605441155598 2511.73788138947 25 28 21
-673.689849865441 -496.307794173186 2504.44207256051 24 27 20
-702.572656334153 -503.53684327319 2503.82266884797 25 28 21
-681.28332091707 -495.882200640255 2528.5390547023 24 27 20
-667.352188761418 -491.149023821485 2541.8309078332 21 24 17
-647.804831554988 -484.860462489092 2556.80022563029 19 22 15
-653.425327250581 -485.585877295046 2563.76731717733 19 22 15
-643.176333496271 -481.898248995992 2575.67303699333 25 28 21
-706.731132643871 -498.706476829709 2564.87356240909 25 28 21
-662.837706768039 -485.680020302332 2587.07233623633 25 28 21
-719.935568735912 -500.657486890313 2578.64010353493 24 27 20
-723.738660292848 -500.853474777342 2586.40008753119 23 26 19
-731.292007331822 -502.084542832143 2593.06794410394 21 24 17
-677.914123572308 -486.485656295726 2617.52704136525 15 18 11
-740.033153174978 -500.200972127406 2635.03609765301 20 23 16
-720.335204566395 -493.931958341189 2649.35332034997 20 25 19
-774.812575410316 -540.672303691562 2397.43478664531 23 26 17
-830.439076988921 -555.640004429385 2387.06955586345 13 16 9
-748.470717267258 -529.630546534311 2443.46198037796 6 8 3
-794.945592085738 -541.944433731714 2436.77693765899 7 10 3
-783.27538419224 -535.965883487024 2468.41204741237 13 16 9
-705.367533315016 -512.191611890965 2512.11505813528 16 19 12
-682.159743554542 -504.782035227955 2528.52177058075 17 20 13
-654.260567159829 -496.064775421199 2546.2706015387 17 20 13
-658.950943988934 -496.538688610432 2553.54753535892 19 22 15
-654.316586642114 -494.38826535204 2563.75809746043 20 23 16
-676.744797185423 -499.843263230039 2565.55069393829 21 24 17
-704.80537105158 -506.866135895796 2565.74320021915 20 23 16
-758.138388585781 -520.957182414115 2558.4262446444 19 22 15
-744.194660934311 -516.178475852506 2571.63690207939 16 19 12
-790.235213138036 -527.305285247871 2576.00900167313 11 14 7
-791.273405987933 -526.713217456905 2584.79204751407 11 14 7
-692.024264113188 -496.454268887838 2640.00032916083 18 21 14
-711.784169263188 -501.096091145656 2643.22685844833 19 22 15
-779.523314347128 -519.048882997116 2633.3114170576 19 21 16
-754.260754769978 -544.639077394903 2395.78300365832 13 16 7
-783.951484464625 -552.311572130884 2394.42818860472 11 14 5
-785.01963099161 -551.720592792368 2403.34386776653 9 12 5
-876.419438394652 -574.353814760947 2409.31023711672 10 13 6
-843.219661805793 -563.915697483398 2430.02894518649 18 21 14
-805.332023278249 -552.156038520571 2452.09715246301 22 25 18
-764.604973490517 -539.607751197404 2474.85973958715 15 18 11
-723.821368289622 -527.068305600707 2497.37831144859 16 19 12
-719.25422603591 -524.890099054643 2507.8687206857 18 21 14
-659.767646590164 -507.057678062311 2535.99271408816 18 21 14
-669.116839012839 -508.865990243787 2541.80080245809 18 21 14
-662.63336638998 -506.164921569877 2552.65312588316 16 19 12
-663.599561365384 -505.585498485522 2561.12634488399 16 19 12
-668.297397722162 -506.065495643637 2568.43972806518 20 23 16
-764.510448982243 -532.497788549741 2547.72569613952 19 22 15
-724.425208072983 -520.258636877086 2568.94187982228 16 19 12
-754.411466376277 -527.87511085458 2568.85638420691 13 16 9
-766.657804482128 -530.458955837213 2574.21680142182 13 16 9
-797.643453368295 -538.328424767777 2574.12650647739 13 16 9
-808.993033963532 -540.640410832332 2579.93180178696 14 17 10
-772.542545358075 -529.475003405937 2599.56962556115 15 18 11
-711.65057059193 -511.450959663377 2625.94433862604 17 20 13
-679.776680270284 -501.624254935876 2643.75246508614 18 21 14
-772.793230696285 -526.903189123024 2626.50115446605 18 21 14
-795.431499749423 -532.376731664637 2629.23029691589 18 21 14
-828.382343997209 -577.976044986624 2341.02001197076 10 12 9
-782.479251977807 -563.635472829138 2367.26042539521 9 11 6
-811.222589239046 -571.123355057495 2366.17867733376 17 20 13
-785.547083100889 -562.718538614413 2384.79614896477 23 26 17
-778.306501026675 -559.702533268653 2396.68338322229 22 25 16
-789.53786923601 -562.069330463964 2402.00000488844 21 24 17
-782.285572528135 -559.05448650145 2413.83630082024 21 24 17
-799.082545341214 -563.031659863377 2417.28473931128 18 20 15
-832.568416863435 -571.842737247871 2415.09646866727 16 18 13
-823.469804978615 -568.288188534105 2427.59329971109 16 19 12
-804.156593902765 -561.781494056594 2443.46610123333 20 23 16
-777.392105820624 -553.131433101361 2461.69705327478 24 27 20
-744.089750645329 -542.608616041499 2481.91500986089 21 24 17
-703.307700280859 -529.947036791648 2504.3685981998 22 25 18
-714.535538542693 -532.310916483036 2509.66794890654 16 19 12
-720.19394445358 -533.063938861327 2516.81724612753 19 22 15
-696.065430342125 -525.241318707526 2533.48127124062 21 24 17
-675.62917737923 -518.495366207211 2548.8209865326 22 25 18
-659.824533667181 -513.092574870805 2562.57712320412 22 25 18
-658.922295542818 -511.975369101715 2571.61454352496 15 18 11
-700.02275520843 -522.897603887241 2567.76773442031 14 17 10
-805.046149064944 -549.399008423308 2572.24748396882 17 20 13
-787.364397900417 -543.459589825582 2586.53027735569 17 20 13
-749.039014953101 -531.651836944042 2606.64124368388 17 20 13
-810.177026160237 -547.268042016977 2607.27401890952 18 21 14
-790.564310885599 -540.802437008227 2621.85120015989 18 21 14
-829.547278677612 -585.666241101956 2359.79040474438 20 23 16
-818.65652302526 -581.529988880419 2373.16069257846 21 24 15
-794.823195308002 -573.589923886093 2391.05531508647 20 23 14
-820.844866783898 -580.33052609712 2391.21220731 19 22 15
-803.4478429286 -574.297052970543 2406.69326676546 19 22 15
-811.928310040126 -575.871287227681 2413.09198076986 18 20 15
-786.165669316924 -567.399356769887 2431.28601303333 16 18 13
-781.672337901887 -565.174464018554 2442.07421597568 18 21 14
-771.60881914829 -561.322893762759 2454.70082001331 19 22 15
-703.167789868435 -539.531128466805 2495.71881782189 23 26 19
-685.594331012384 -533.523704204654 2510.43772428128 22 25 18
-691.23105590142 -534.291547789237 2517.50128621054 19 22 15
-714.544170504541 -540.202384907449 2518.90389627852 21 24 17
-682.045422555822 -529.868937777391 2538.21689730494 21 24 17
-683.959050384739 -529.552914037023 2546.46356727193 18 21 14
-665.370771784645 -523.286489657106 2561.11575126063 16 19 12
-695.24722266224 -531.082203910879 2560.6518042502 15 18 11
-676.637386455519 -524.818600878226 2575.20956603929 14 17 10
-708.423790914309 -533.146599585191 2574.36223336029 14 17 10
-716.890464620087 -534.716599070067 2580.69767493113 16 19 12
-748.741275222454 -543.033078455371 2580.12629106364 17 20 13
-760.983871154521 -545.676014585531 2585.50388718117 18 21 14
-765.750010106592 -546.158167891877 2593.12060546704 18 21 14
-748.972456633158 -540.437815494073 2606.9591691103 18 21 14
-772.482057648249 -546.310655276563 2609.20526252387 17 20 13
-799.772933177586 -553.255851714217 2610.5167546119 17 20 13
-828.035869548139 -560.464131518228 2611.71112330721 18 21 14
-777.659140836964 -580.310930960309 2369.4985077182 18 20 15
-887.492642976563 -612.136831794161 2339.06843226545 15 18 11
-860.965940597305 -603.287085421678 2358.23084284249 25 28 19
-819.634365020211 -590.049975035894 2382.48080440572 24 27 18
-803.181254273705 -584.232638754025 2397.69200654922 20 23 16
-831.988622634285 -591.863199271787 2396.9763350482 19 22 15
-796.096127004865 -580.288277493258 2418.83213382883 16 18 13
-763.855147112418 -569.817907672405 2439.20047570782 15 17 12
-782.500623043529 -574.42847345227 2442.05312443946 11 14 7
-745.677350409939 -561.727694163751 2472.81549615132 22 25 18
-654.850432204327 -534.029415876107 2511.96182442566 20 23 16
-671.606608361329 -538.096210043298 2515.28320141716 21 24 17
-705.106918066078 -547.083461082584 2513.26217329945 17 20 13
-649.394518948798 -529.810890771432 2540.11995144813 18 21 14
-707.178407664786 -545.035422752261 2539.41246893365 17 20 13
-739.850843523281 -553.730755005686 2538.12806139411 16 19 12
-693.326214751815 -539.209105498914 2561.52312263779 15 18 11
-743.752072213537 -553.08470828779 2554.9391351594 18 21 14
-719.56635502971 -545.121032925216 2571.26812656895 17 20 13
-757.928964307374 -555.436808897116 2568.67037910426 16 19 12
-779.616589992282 -559.962688617479 2580.32227374517 17 20 13
-761.08075452555 -552.768293232193 2603.77256206406 16 19 12
-766.868490208536 -552.656972437411 2620.09836699991 18 21 14
-800.731975556838 -561.577018723083 2619.63708559118 19 22 15
-861.869180000741 -578.37501240778 2611.84858325808 20 22 17
-838.130448967091 -608.53257409493 2338.15409206492 12 14 11
-838.704984475851 -605.880584811992 2366.46662117308 15 18 9
-805.677756775881 -595.014444880845 2387.69392994014 17 20 11
-824.305427323199 -599.677487211037 2390.50006931395 22 25 18
-791.368186999042 -587.941075410344 2420.72594709438 14 16 11
-831.294012126361 -598.967746930179 2416.32085489682 11 13 8
-811.099045860307 -591.995151196058 2432.59160041003 11 14 7
-708.431404772864 -560.402821875294 2476.50816339333 15 18 11
-690.903860636023 -554.277757893598 2491.36020467167 21 24 17
-687.264042483112 -552.303520258407 2501.50049910539 18 21 14
-699.396204978901 -555.028370196915 2506.4407274259 18 21 14
-655.814085419651 -541.17422582966 2529.52447697116 17 20 13
-673.56354364555 -544.690111807453 2541.45520580614 16 19 12
-745.271976479068 -565.072753430622 2527.67677108487 15 18 11
-706.251348590805 -552.611779535181 2548.89737746735 13 16 9
-719.434133680754 -554.729941644411 2562.66682520175 15 18 11
-754.029215233712 -564.053402223744 2561.11024656963 16 19 12
-755.052800288573 -563.452901857693 2569.8239622989 17 20 13
-769.156500366392 -566.706902506003 2574.64924990159 18 21 14
-744.941899402554 -558.672560410464 2590.80939889987 18 21 14
-790.968444149907 -570.398853238919 2595.47237016167 16 19 12
-779.828810806213 -566.218891365517 2607.72133757007 18 21 14
-772.422064192444 -563.140725635594 2618.83979459123 18 21 14
-775.322196708089 -563.086147929697 2627.0298532097 18 21 14
-815.184879798834 -609.841613077171 2356.28789825571 22 24 19
-812.772183969636 -607.227887828385 2376.01587966112 22 25 16
-837.845735181665 -613.900992336562 2376.51042832996 21 24 15
-827.879123493696 -609.933044792446 2389.49561131321 17 20 13
-816.04961020413 -605.40767036509 2403.05781650276 16 19 12
-832.851046397908 -609.554993062337 2406.62599949839 14 16 11
-795.110566961745 -597.203274509016 2428.99444425274 14 16 11
-788.780681748518 -594.362126252756 2440.44117190274 12 15 8
-730.583412963192 -575.877059312467 2469.30525218027 17 20 13
-724.291094951098 -572.166909214501 2489.52030239418 20 23 16
-707.681165447945 -566.266210957183 2503.99144011234 20 23 16
-707.759651194174 -565.390741687942 2512.93518297942 18 21 14
-678.104351462043 -555.591039924124 2531.42276586751 17 20 13
-685.596313089445 -556.948791135711 2537.89463390745 16 19 12
-657.742959400428 -547.715281307465 2555.54174465836 15 18 11
-664.295898496706 -548.794870515391 2562.26853953536 14 17 10
-697.929168011249 -557.073605965815 2569.5294950411 18 21 14
-697.052356238825 -555.920293296898 2578.65772159292 19 22 15
-764.312537733781 -575.07265830349 2567.338327324 19 22 15
-786.825260432944 -580.863495029374 2569.69977599823 18 21 14
-714.086701124483 -557.42062379553 2609.0359685815 16 19 12
-754.385854259811 -568.486430878721 2606.30007897239 16 19 12
-799.525702980485 -580.044341129057 2611.51421282813 18 21 14
-748.053590585949 -563.898213971723 2634.93546736753 17 20 13
-829.596639867344 -624.399385516774 2341.77857604914 8 10 7
-791.141166182012 -611.620434684649 2365.30146683013 17 19 14
-832.737598776556 -623.46110669644 2359.62398850286 23 26 19
-849.510350522884 -627.657423030659 2363.09458778278 14 17 8
-829.423265766981 -620.542540662329 2379.75703292488 14 17 8
-816.687880988302 -615.69276585642 2393.69305160692 14 17 10
-817.781547357391 -615.083105672353 2402.71019840715 14 17 10
-829.960511918582 -617.86182065561 2407.88725879494 13 15 10
-816.268118005945 -612.733689006449 2421.99991680952 13 15 10
-819.206798297106 -612.687938446806 2430.36503093627 14 17 10
-726.163155148483 -580.65649865751 2498.20548317328 22 25 18
-703.978961638478 -573.013258125416 2514.42890996769 17 20 13
-683.620344004905 -565.937917697358 2529.91808236036 16 19 12
-667.879667282466 -560.274458545886 2543.80169167147 15 18 11
-669.785963583803 -559.960543587907 2552.01729502825 15 18 11
-695.018268751388 -565.798122076012 2561.83387418486 15 18 11
-706.258287607615 -568.291012481392 2567.26277948464 14 17 10
-684.873543675158 -560.947420061808 2582.62887816263 15 18 11
-768.065927869825 -584.177127066225 2575.5625698061 17 20 13
-746.753057392731 -575.947351157282 2599.83697204029 18 21 14
-777.049883640758 -581.365846592592 2627.16784691909 15 18 11
-984.517988509065 -682.802376609287 2275.04354892234 77 79 76
-795.628016622546 -622.119064581375 2363.90745294751 12 14 9
-828.009978640625 -631.219775430965 2361.58148105635 25 28 21
-837.406419666205 -633.176218360368 2367.68489961323 11 14 5
-823.027656259971 -626.812220541396 2391.71534070659 15 18 11
-818.58896480892 -624.488135513889 2402.68597709829 15 18 11
-815.065409547969 -622.450081402134 2413.3010579336 12 14 9
-791.203550837064 -614.142815338951 2430.85506720856 10 12 7
-812.620902514991 -619.800560328043 2432.86780694398 12 15 8
-736.899567984069 -595.550433427528 2467.69927334921 16 19 12
-704.596737572342 -584.697183925232 2487.56986894351 20 23 16
-740.817726732723 -594.910565782352 2484.58858501766 17 20 13
-712.178616279433 -585.201799508248 2503.05007520895 16 19 12
-707.62308555165 -582.893266883953 2513.51499796458 13 16 9
-622.282690325219 -555.852797089807 2549.88439474752 12 15 8
-651.10346651934 -563.7855240391 2549.40661670967 12 15 8
-649.28036823873 -562.337228984861 2558.74786763867 12 15 8
-702.341525726839 -577.644083300809 2550.94803878433 13 16 9
-706.197173919861 -577.007117791286 2567.56359993401 14 17 10
-720.243666408182 -580.375594396048 2572.20412901419 14 17 10
-717.516044862441 -578.636582515895 2581.94603246215 15 18 11
-734.460071532542 -581.960939808141 2594.77132169283 17 20 13
-761.638280584596 -589.285360032398 2595.81047394036 18 21 14
-763.597910688627 -588.958388626509 2604.25341732974 17 20 13
-804.978029384947 -599.620806914832 2610.60002955026 19 22 15
-879.121617021829 -621.067300709319 2599.06519857888 18 21 14
-872.530493188203 -656.340562678526 2326.47639460826 2 7 3
-837.810910799651 -644.473063692856 2348.77114696308 22 27 21
-811.323268748195 -635.207627644453 2367.8611847179 17 20 13
-809.657841566771 -633.729302479245 2377.87956246169 17 20 13
-812.594463077415 -633.691734560544 2386.24150359014 18 21 14
-810.000985209757 -631.925565861349 2396.55746206994 17 20 13
-798.175523180473 -627.280951826641 2410.06738659948 15 18 11
-780.792800433042 -620.912094668619 2425.41420302717 11 12 7
-777.241698376246 -618.862382244681 2435.90103979834 9 10 5
-785.701247961561 -620.55218252988 2442.27555131531 13 16 9
-757.167380620919 -610.740231481532 2461.14011327569 23 26 19
-673.052434305535 -583.690858418937 2498.34790016769 20 23 16
-687.936367580712 -587.40007216107 2502.32267947229 21 24 17
-694.495819222462 -588.521256678934 2509.1026373731 16 19 12
-684.366041867897 -584.473331679906 2521.32177845988 16 19 12
-634.310102853732 -568.086920702749 2546.2857743289 16 19 12
-643.626166806831 -570.072211896446 2552.05197288361 15 18 11
-683.622263232615 -581.519441074585 2548.20389472241 16 19 12
-714.369055570793 -590.090906814197 2547.47503845998 16 19 12
-696.762326835922 -583.753243496565 2561.85310287131 16 19 12
-705.204469341128 -585.440707688649 2568.1495347682 15 17 12
-703.405136852378 -583.976176125722 2577.58596166055 15 18 11
-685.748815887742 -577.645152066641 2591.7504855909 16 19 12
-675.531634428617 -573.607304805893 2603.59040132028 15 18 11
-693.30994182002 -578.153767314083 2607.14159566685 15 18 9
-752.220231703781 -595.278776267041 2598.84517866605 13 16 9
-795.422243360429 -606.628427952282 2604.51040897335 15 17 12
-824.552076086671 -614.581076929469 2605.40514284111 15 17 12
-795.635929235448 -604.822904551852 2622.61679227301 15 17 14
-891.678047036987 -671.779755654395 2319.68382194255 3 7 6
-790.048884784249 -637.647244964313 2375.79636658775 15 17 12
-781.927898142964 -634.124174427535 2388.06328517669 17 20 13
-759.978206821824 -626.240842256406 2405.17884942483 18 21 14
-761.959788181743 -625.920568611388 2413.72246207681 17 20 13
-801.916640577026 -636.607989824621 2418.36845628825 11 12 7
-799.305789664214 -634.830367514719 2428.60112249948 9 10 5
-757.875562824194 -620.860604786969 2451.98653409084 12 15 8
-717.312713324428 -607.190088653237 2474.81153737473 22 25 18
-701.67776988052 -601.360982971622 2489.06472685339 19 22 15
-704.539175571848 -601.335055165257 2497.10207015655 20 23 16
-716.668022498749 -604.207451324366 2502.11447004193 16 19 12
-722.320487814816 -605.048656095651 2509.28945558914 17 20 13
-693.64828917696 -595.169723512577 2527.5050539435 16 19 12
-676.076789443098 -588.772114238896 2542.00418575172 15 18 11
-689.139001910944 -591.931475101808 2546.74082189794 15 18 11
-668.747650071702 -584.66986609912 2561.97510505092 15 18 11
-644.605486977041 -576.255445616282 2578.23090726783 15 17 12
-675.353282757049 -584.908134702542 2577.55424566708 15 17 12
-695.893021999139 -590.374155437877 2580.1433603001 15 18 11
-684.764008832409 -586.010063688899 2592.33082713686 16 19 12
-672.722389258663 -580.465607665602 2613.47179149723 15 18 9
-750.280369053283 -603.53135771058 2599.70733301132 14 17 10
-755.037450991329 -604.071440120959 2607.3171264809 17 20 13
-799.078797832359 -616.72588810275 2603.77917096846 15 17 12
-761.755755523577 -604.282915769492 2623.3759189045 15 17 14
-790.871209536631 -612.314493353125 2624.25480153143 15 17 16
-721.773976636273 -625.890407365335 2391.55159170257 22 27 21
-747.640270257893 -633.21125763456 2391.36399628393 21 24 17
-768.018275691175 -638.764896364496 2393.29303918995 17 20 13
-766.32399465957 -637.270164054266 2403.17462012809 17 20 13
-770.15294795768 -637.536056544322 2411.09076784507 16 19 12
-792.423990204961 -643.667154480027 2412.58736398036 15 18 11
-807.3417704682 -647.447737242659 2416.75326950802 12 13 8
-798.274390292665 -643.604492434355 2429.21683740045 11 12 7
-803.049483144297 -644.158116326348 2436.91396197126 10 13 6
-694.124278907677 -608.683598946744 2482.87082763909 20 23 16
-658.129658988505 -596.364185114377 2503.83763574118 18 21 14
-687.806363567064 -604.834163339236 2502.89007170318 20 23 16
-717.520399496186 -613.297617341861 2502.10317373192 17 20 13
-711.12284174963 -610.347078760232 2513.18735746234 18 21 14
-742.742547457964 -619.386208703512 2512.02263197245 16 19 12
-693.654632296623 -602.988393305011 2536.68918399317 15 18 11
-680.720178337965 -597.996971274354 2549.66467710481 15 18 11
-625.015588919494 -579.57201730749 2575.87798843649 15 18 11
-644.562983608891 -584.81024791546 2578.51886232586 15 17 12
-689.316732396239 -597.024557034095 2582.41660378212 15 18 11
-736.125175547451 -608.895502055971 2595.16764119662 15 18 9
-721.264174566142 -603.327057972565 2608.4270865353 14 17 10
-762.439615880217 -615.238165392373 2605.49339869724 17 20 13
-741.961976838714 -607.922832862371 2620.31585238597 14 16 11
-725.19700356392 -601.776104744592 2633.95907134613 15 17 14
-758.024425604194 -611.05405726569 2633.70030027549 15 17 16
-777.55422233672 -653.774668434869 2362.1203361887 15 20 16
-775.87845401609 -652.267576027564 2372.07731138387 17 22 16
-716.29055997856 -632.087630077609 2402.93052289305 19 22 15
-731.122989761163 -635.921005352454 2406.75137594646 17 20 13
-764.381253638422 -645.675335852776 2404.11383938022 17 20 13
-764.524799906535 -644.762579948959 2413.32343195522 16 19 12
-799.688494154357 -655.097995195661 2410.31128059162 15 18 11
-770.339157471335 -644.712351146895 2429.80139411788 12 13 8
-802.780490466267 -654.15199901939 2427.93639658476 11 12 7
-768.771607293128 -642.29371769286 2448.81191397647 11 14 7
-664.482805386323 -607.976795113453 2493.09609160107 21 24 17
-630.331278818713 -596.140792075965 2513.35614351945 18 21 14
-652.577773234856 -602.331853139398 2514.77983614583 20 23 16
-664.666024327202 -605.26953765914 2519.65174791755 18 21 14
-719.390643351035 -621.783892821008 2510.77948790644 17 20 13
-700.010458605297 -614.678175908198 2526.004839487 16 19 12
-687.096802325445 -609.641440414372 2539.04532723379 15 18 11
-673.235241250889 -604.312721871395 2552.29347236823 14 17 10
-681.65002424704 -606.061880026308 2558.50562890688 14 17 10
-717.034068835252 -616.355251110999 2556.43973887143 14 17 10
-700.366919124934 -610.143677330451 2570.47588461744 15 17 12
-690.191589532947 -605.996993319079 2582.43620952169 15 18 11
-684.658124602042 -603.324389509381 2592.93406293303 16 19 12
-712.671795522774 -611.247068802942 2593.45021114337 15 18 11
-729.527366665101 -615.633342347322 2597.39748694173 15 18 9
-759.470162813959 -624.132841374162 2597.63983857289 15 18 11
-755.826684812393 -622.042506073849 2607.69463434292 17 20 13
-744.698743918501 -617.601690963995 2619.84170005532 13 15 10
-770.96315388384 -624.914094030935 2621.40346584958 15 17 14
-746.724074762812 -616.362588596037 2637.15048501206 14 16 15
-705.17686522195 -637.36452388918 2407.18461353642 19 22 15
-731.031649640131 -644.825228021768 2407.02855942306 17 20 13
-730.236268535044 -643.611933999818 2416.48033725591 16 19 12
-752.454916209413 -649.868954801613 2417.8212028969 16 19 12
-732.320495057829 -642.380724665861 2434.05437928043 14 17 10
-756.40963610374 -649.229754237158 2434.8720163559 13 14 9
-788.831708615546 -658.760209898146 2432.97555623226 12 13 8
-669.965107014022 -618.436678709934 2491.50941287948 21 24 17
-645.074203483488 -609.476924325001 2508.70149249801 18 21 14
-679.349395369948 -619.60129902221 2506.20636754265 20 23 16
-666.519237540336 -613.611646568956 2528.16822122193 17 20 13
-662.868519442796 -611.512197075397 2538.18683870483 15 18 11
-644.370933739851 -604.650258778364 2552.88731951115 15 18 11
-657.401906256654 -607.910733449087 2557.54685271594 14 17 10
-708.52624978112 -623.365633354722 2550.4121951493 14 17 10
-745.775801499544 -634.348244758837 2547.85937913406 14 17 10
-734.714494574262 -629.863330034904 2560.27304807239 15 17 12
-696.649156804262 -616.761951783016 2580.76905481834 15 18 11
-717.196611037018 -622.385570489792 2583.48594652785 16 19 12
-752.678184963524 -632.756403885837 2581.89538765127 15 18 11
-749.042006313667 -630.650039214468 2591.97400702106 15 18 9
-723.938280782694 -621.718355472215 2608.24478073936 16 19 12
-739.880808589496 -625.846004339266 2612.57295386946 17 20 13
-747.433389475842 -627.30077249422 2619.36900742626 13 15 10
-777.431445846279 -635.869146319359 2619.89537728284 15 17 14
-764.432350770333 -630.797573507461 2632.53888238237 14 16 15
-748.895230186307 -662.5319673901 2373.12864234506 13 18 14
-715.076858731265 -650.439999375452 2394.70621705876 14 19 13
-740.915577147923 -657.97279256978 2394.52176733434 16 19 12
-709.799173014808 -646.794066703708 2414.87259892005 17 20 13
-726.466693285822 -651.305765353584 2418.06498537545 16 19 12
-725.666898514953 -650.08502092433 2427.49293197215 15 18 11
-742.36278337292 -654.591227870795 2430.80707907056 14 17 10
-779.354175163357 -665.722573712604 2427.20414267437 13 14 9
-819.159703882883 -677.74953844026 2422.85729511392 13 14 9
-736.392248142816 -648.79950652505 2469.44248739819 20 23 16
-689.377442676117 -632.532468935429 2494.20737391702 16 19 12
-709.800951211588 -638.23459861274 2496.42426718749 17 20 13
-676.580816804994 -626.491144790203 2516.28551067856 16 19 12
-655.351058264257 -618.662579910314 2532.04931916751 15 18 11
-674.859355034325 -624.060989182402 2534.61103058614 14 17 10
-639.687987912591 -611.731065571544 2554.64297650658 14 17 10
-666.629561959605 -619.529059771355 2554.91791957076 14 17 10
-701.031964029639 -629.722560899909 2553.02510016729 15 18 11
-744.768371926223 -642.909489273526 2548.45550945011 15 18 11
-711.399896379671 -631.186928763834 2567.67536532649 15 17 12
-759.847966713878 -645.862330437729 2561.96042422416 15 18 11
-780.431575996828 -651.533083526076 2564.86435878278 16 19 12
-715.341866703988 -629.627681333826 2593.24275370079 15 18 11
-716.344056547103 -629.007225659331 2601.85045276124 15 18 9
-730.47880643 -631.657127611772 2615.57115091144 15 17 12
-798.732294785824 -652.582463251552 2605.11414899006 12 14 9
-766.137286707138 -641.181336119713 2623.37608442371 15 17 14
-831.321746216877 -698.937249126551 2343.09739884447 15 19 18
-749.856571565252 -670.891843837484 2382.28187166677 12 17 11
-678.379630162274 -646.213411796525 2417.33794986651 20 23 16
-714.308362814608 -657.166210674184 2413.50263021156 21 24 17
-742.007670528825 -665.372376929449 2412.80025110502 17 20 13
-744.900013741705 -665.358850694927 2420.98121712096 15 18 11
-779.097340407509 -675.684383351352 2418.26128776238 13 16 9
-792.148179788305 -679.010330851076 2423.04578836526 13 14 9
-795.072885399593 -678.99015761745 2431.36545217357 13 14 9
-773.090658872105 -670.766566515742 2448.1375183998 13 16 9
-737.229455217272 -657.99200738935 2469.42453369753 18 21 14
-764.134182093756 -665.8705498045 2469.58448276589 19 22 15
-697.709261747851 -643.088699516482 2500.67757008236 15 18 11
-716.293967564576 -648.234881396727 2503.5774626367 15 18 11
-758.967180954858 -661.262941503284 2498.78687670867 13 16 9
-748.899355307666 -656.998709952319 2511.15178819921 13 16 9
-733.254755836037 -650.918044458678 2525.21338198979 12 15 8
-682.342524739966 -633.32631742706 2550.25262731388 12 15 8
-699.111158004969 -637.857700292639 2553.90215338731 13 16 9
-687.109829457607 -632.998386982453 2566.50974337843 13 16 9
-699.252592444456 -636.011728852886 2571.66636509187 16 18 13
-700.249937759589 -635.391186700889 2580.25266551254 17 20 13
-723.579822262175 -642.030102518923 2582.1574055157 14 17 10
-718.144618152398 -638.363842641592 2601.61771494308 17 20 11
-740.676695378639 -643.762058083319 2612.94742215058 16 19 12
-765.032773221283 -650.684892055659 2614.98474561572 16 18 13
-828.658424382783 -670.281123517567 2606.13729843596 16 18 15
-782.60744664002 -691.873933762696 2361.22917331467 18 23 19
-747.427030695882 -676.157701949815 2411.127630125 17 20 13
-776.996068096047 -685.046836221031 2409.95215647316 16 19 12
-794.637836164974 -689.941017890446 2413.10511068025 14 17 10
-779.145221600456 -683.789583381554 2427.79589977056 12 13 8
-745.197400076328 -671.50928486473 2448.69227317773 11 12 7
-769.441965712748 -677.611746245839 2458.86850532344 17 20 13
-750.1875961836 -670.244267869691 2474.49431156518 20 23 16
-717.142642481814 -657.358345883126 2503.56943790406 17 20 13
-712.612287522474 -654.898727984114 2514.05752256116 14 17 10
-695.187941173994 -647.229823196413 2537.57017427776 13 16 9
-711.107731988911 -650.569899721976 2550.44882918687 14 17 10
-700.976324952441 -646.279887858496 2562.51840137044 14 17 10
-677.823001182577 -637.716196757327 2578.48630987517 14 16 11
-738.303175448366 -656.634522128944 2569.04966454679 13 16 9
-738.485333821384 -654.768364364087 2586.98145638711 15 18 11
-717.148991865875 -646.820240404264 2602.20418989387 14 17 8
-706.096439425421 -641.30036326124 2623.16160340527 14 16 11
-766.822779473491 -660.174544749062 2614.78374210162 15 17 12
-808.014187288818 -672.639026520285 2612.24480216146 16 18 15
-814.56513275503 -711.817466653372 2349.74068723785 22 27 23
-750.085899320424 -686.050348269115 2410.43486923538 18 21 14
-760.484289062251 -687.579717236448 2425.25866511671 15 18 11
-753.261417234872 -684.165489054483 2436.98971924074 12 13 8
-769.058446621957 -688.485692242501 2440.79108322582 11 12 7
-758.139334334598 -683.83510506861 2453.73390039564 11 14 7
-737.978038900979 -676.095768187512 2469.70096044935 16 19 12
-763.020857375851 -683.502245227341 2470.49251518554 20 23 16
-735.441175738679 -673.295313927772 2488.77196126609 16 19 12
-717.990038544094 -666.491101723974 2503.56232908278 18 21 14
-747.687727626953 -675.434894109896 2502.98591685509 13 16 9
-633.953901949928 -636.537596202355 2548.52317943772 12 15 8
-664.556876617755 -645.792279269455 2547.56133951353 12 15 8
-677.588147094054 -649.180380742998 2552.29725161653 12 15 8
-749.064555016155 -671.988924642014 2538.92321818171 13 16 9
-733.394619542539 -665.810295451943 2552.81663433958 13 16 9
-765.06493901777 -675.348421529529 2552.1684354461 13 15 10
-748.450794519061 -668.86328474882 2566.27725181715 11 14 7
-745.760987134769 -667.000052775142 2576.11272400658 14 17 10
-740.273766380147 -664.214033194956 2586.74764840312 15 18 11
-718.088844895097 -654.953878979067 2611.12966345994 16 19 12
-763.847225479495 -669.084046180002 2606.91201762581 17 20 13
-761.146762737115 -667.219825153197 2616.69995445048 11 13 8
-773.378825957744 -670.272612833002 2622.27219867997 13 15 12
-818.103010471144 -722.256935710461 2348.6876496609 19 24 20
-811.882412130803 -719.118041628149 2360.44083375673 16 21 15
-849.679962548409 -730.985533454044 2356.26578055742 18 20 15
-772.790455568436 -703.781368925176 2393.3249507979 16 19 12
-750.90513803525 -695.338337629884 2410.39498623362 15 18 11
-692.223449632339 -674.407418129913 2440.24335686304 14 17 10
-751.186528143165 -693.452272361068 2428.75234122595 13 16 9
-763.288417840883 -696.566529366867 2433.78820670667 11 12 7
-771.720340307571 -698.430041681938 2440.14314899239 11 12 7
-737.086593035171 -683.747931882836 2479.38738841083 20 23 16
-713.193972115464 -674.703916163671 2496.37142320437 17 20 13
-720.684564813657 -676.256243983513 2502.95278897184 18 21 14
-695.819728667965 -666.907563501765 2520.02989644134 14 17 10
-705.154689693446 -669.082689967774 2525.99102127275 14 17 10
-651.538378905107 -650.093419092681 2551.96176455533 13 16 9
-709.030880936674 -668.448529755029 2542.69875690063 14 17 10
-709.114965631852 -667.508643555151 2551.63037043269 14 17 10
-724.968914140826 -671.854058376497 2555.6962950538 14 17 10
-725.059043909901 -670.912141599096 2564.65335233881 12 14 9
-747.442974722818 -677.426910918972 2566.87306339854 11 14 7
-733.599402723279 -671.823231862948 2580.03875594972 13 16 9
-695.549035457718 -658.149422526545 2600.26404607921 15 18 11
-731.913540214879 -669.315521072272 2598.47553125554 15 18 9
-759.009372629482 -677.370441568684 2599.58134106364 15 18 11
-744.195085381147 -671.460854454012 2612.84598478681 13 16 9
-787.186225896417 -684.779507764843 2609.62728605515 16 18 13
-807.832306493886 -690.648978234655 2612.92338422897 14 16 13
-819.806604078057 -732.091136810148 2348.30851445272 16 21 17
-837.415307030201 -737.12837263878 2351.40099093341 15 20 14
-827.536801926112 -732.702512379141 2364.50509289403 18 20 15
-732.308928533226 -698.964590155951 2408.04656885625 18 21 14
-700.305304920672 -686.989606453795 2428.57587427021 16 19 12
-718.909421162911 -691.402064513225 2440.24364630636 13 16 9
-758.587708029341 -703.993820075434 2435.66937589398 13 14 9
-755.04635346991 -701.785583628212 2446.10592709137 13 14 9
-759.789320621709 -702.409623800669 2453.70290390854 11 14 7
-719.363943500277 -687.62142497545 2476.4773915101 16 19 12
-692.719698731253 -677.558048728282 2494.40693884762 20 23 16
-705.731290734503 -681.015741015073 2499.09706732419 16 19 12
-685.503699508897 -673.158878596343 2514.7028653063 18 21 14
-718.859077984463 -683.524700375012 2512.85401712433 14 17 10
-697.683626879979 -675.356698257483 2528.65640310335 14 17 10
-689.435520470241 -671.587736223473 2540.21853353317 13 16 9
-721.927479076709 -681.628151949018 2538.9288871814 13 16 9
-729.435825261598 -683.191115410769 2545.59474055914 14 17 10
-703.641428818118 -672.517646525088 2571.46677781295 12 14 9
-713.93160811242 -675.019877870019 2577.27313014316 13 16 9
-685.202920914973 -664.361171762753 2594.78117009479 13 16 9
-729.896776396038 -678.451251902327 2590.4054424894 14 17 10
-716.954756134071 -673.119469103233 2603.14740502873 16 19 10
-757.167607229668 -684.679089775796 2609.43447598492 12 15 8
-782.438713645129 -692.172326628856 2611.28194156202 19 21 16
-759.224675342983 -683.400241889938 2626.85973658653 14 16 13
-806.862088476862 -736.848811564678 2353.30346616413 15 20 16
-820.793251254903 -740.660969964919 2357.69674535263 12 17 11
-759.576804642586 -718.393702353409 2389.25982151843 19 22 15
-738.634491005329 -710.127452770621 2406.03284572392 16 19 12
-738.772813956241 -709.175234090588 2415.19512423246 14 17 10
-721.457504856112 -702.18643557813 2430.47546111451 12 15 8
-715.146072328701 -699.012725977831 2441.80681377888 11 14 7
-738.254579812455 -706.000592816411 2442.94128090924 12 13 8
-752.188423610656 -709.809220689065 2447.34429767349 12 13 8
-756.929107578415 -710.441582009547 2454.93610769615 12 15 8
-774.575624284462 -715.51392103784 2458.21585988021 17 20 13
-706.480371673468 -691.090976550015 2490.09607651807 20 23 16
-652.13348102292 -671.437799338114 2517.01446911152 16 19 12
-681.742679412451 -680.635210303788 2516.19728616062 17 20 13
-701.224860302977 -686.341227625459 2518.82484100252 13 16 9
-677.271911740211 -677.157408206843 2535.46189594452 12 15 8
-706.950621731569 -686.342155174001 2534.94248612897 12 15 8
-719.074493581247 -689.506464340383 2540.10465666016 12 15 8
-744.183441157708 -697.097790026171 2541.29524977723 13 16 9
-704.503485909547 -681.59168897356 2571.48974061829 13 15 10
-643.308568474037 -659.77844193137 2598.85723439902 14 17 10
-729.736877718049 -688.222311034702 2581.77755046968 13 16 9
-701.937779129246 -677.791710655821 2598.95965082965 13 16 9
-713.168569531824 -680.630544974559 2604.55027675625 18 21 12
-715.10340783199 -680.309748070786 2612.88760483964 18 21 14
-742.187546714246 -688.50924033633 2614.02691861193 11 14 7
-732.954609959198 -684.398575310486 2625.60474756971 18 20 15
-735.831961638808 -684.389728499248 2633.72240455184 13 15 12
-765.722715520457 -730.626741027339 2377.96999437307 15 20 14
-736.562810820288 -719.403916188942 2397.80245176563 17 20 13
-737.619830243777 -718.767297388118 2406.64334127921 15 18 9
-763.449931103545 -726.783949664426 2406.70550775271 14 17 8
-793.903300900187 -736.397135296007 2405.29528222317 11 14 5
-780.293544289858 -730.628864160482 2419.39449216902 10 13 4
-763.904685537781 -723.90273169487 2434.35538772895 10 11 5
-759.45185592271 -721.341647970865 2445.1243283454 11 12 6
-770.641393835424 -724.221573874384 2450.55842721463 10 13 6
-692.574915876019 -695.114439721179 2494.98222617011 19 22 15
-655.766058474164 -681.372784094968 2516.08092543256 16 19 12
-684.445441909967 -690.331181732552 2515.58335558336 15 18 11
-710.389935063413 -698.324721944579 2516.13600653251 14 17 10
-677.20940157154 -685.870470729039 2535.75368661686 14 17 10
-685.604926151426 -687.792007027525 2541.98236669166 14 17 10
-725.47867021044 -700.564651389577 2538.37578596874 14 17 10
-720.946405041106 -698.011368427649 2548.79927600036 13 16 9
-720.112907578245 -696.734965610495 2558.04597270648 13 16 9
-645.120229765414 -668.996940821015 2598.59325804082 14 17 10
-650.728296383444 -669.959659100619 2605.64406766631 14 17 10
-707.451636530139 -688.443646419542 2597.62389739564 14 17 10
-754.949175428753 -703.730004504628 2592.63611869232 13 16 7
-783.897015603429 -712.637909500474 2593.29182551085 11 14 7
