ply
format ascii 1.0
comment KinectMotionCapture
element vertex 762
property float x
property float y
property float z
property uchar red
property uchar green
property uchar blue
end_header
-810.92999986594 642.951313650097 2658.86493823378 107 84 66
-812.366795203397 642.458051734922 2665.58873091565 70 51 34
-812.839325585053 641.708534149554 2672.57730666855 63 46 28
-819.061676053292 642.49534893811 2677.91305270991 110 91 76
-830.095881901971 644.562524070341 2681.90920835852 131 109 96
-833.452328587869 644.581102652773 2688.08791235428 140 117 103
-843.552942853243 646.392271084098 2692.40483562117 147 124 106
-850.776872013952 647.435224533689 2697.54439016492 151 130 113
-861.874769525827 649.502626310362 2701.65775454396 120 106 95
-501.586886149286 542.945291827645 2888.91398312277 212 216 215
-492.582501393563 539.88703858753 2896.81270151249 209 213 212
-484.534668393085 537.084827217078 2904.43339504359 215 219 218
-484.372611699226 536.332420952289 2910.25398085153 199 201 200
-479.249907668481 534.298960892402 2917.1402929979 200 200 200
-473.114263020622 532.009153012443 2924.2018370937 199 199 199
-465.962257535761 529.463120965234 2931.4318556724 198 198 198
-464.750873940186 528.454674086748 2937.36034056205 196 196 196
-462.533114829427 527.189972337821 2943.47615977171 188 188 190
-454.320500097302 524.387735782015 2950.79327785626 190 191 193
-446.079443355409 521.585485525493 2958.05808178244 190 191 193
-442.807672332355 520.064643057094 2964.27315338178 187 188 190
-443.523666535746 519.569059329707 2969.67106746927 179 180 182
-441.228193265934 518.304778312329 2975.64357845933 182 183 185
-438.919522597216 517.040515518839 2981.59232675245 184 185 187
-434.588559847138 515.263736548599 2987.89718553097 182 183 185
-430.239588379608 513.487068117648 2994.16895623831 185 186 188
-423.857850974504 511.197756899846 3000.77804027071 184 185 187
-419.470140536385 509.421218050656 3006.97860192063 177 178 180
-416.074218913331 507.901127790147 3012.96556415043 177 178 180
-415.69622617458 507.150286358805 3018.38947480552 183 184 186
-411.260923956436 505.374081887365 3024.50260705494 183 184 186
-404.780387680495 503.085309627863 3030.92963979431 183 184 186
-401.321422230786 501.565709501487 3036.80080033363 183 184 186
-395.814547811688 499.533433986205 3042.98141359923 175 177 176
-397.410200119635 499.296215355373 3047.95957154966 156 155 150
-403.078687511683 500.084958264811 3052.2772423034 114 114 106
-400.593880928032 498.822512663556 3057.90259102416 108 104 93
-396.053662851575 497.04737808099 3063.82308563211 113 106 96
-377.177935241674 491.68207201721 3071.90753252723 138 126 114
-367.464185046508 488.624824873578 3078.50215329945 129 115 102
-357.719582655889 485.567549157295 3085.04027479236 143 125 111
-349.997581769066 483.023356531857 3091.22252112322 145 126 112
-344.305733619998 480.992262113246 3097.06303705486 131 109 96
-335.506246310141 478.191811726911 3103.30132667611 117 95 82
-330.800250898063 476.417494058522 3108.9174243436 90 71 57
-327.108344450462 474.899892416824 3114.36051280924 76 57 43
-338.895872951122 477.230604315561 3117.70636575735 71 51 40
-345.535613893554 478.279097543144 3121.77340977573 71 51 40
-358.3992743871 480.867455373768 3125.06089372012 75 55 44
-359.883744414092 480.634037779626 3129.83596237219 75 55 44
-366.556869507718 481.683962598671 3133.96483643738 75 55 44
-370.122258019479 481.96452840284 3138.49180834472 76 56 47
-374.731455322742 482.50213365056 3142.90078060757 74 54 45
-378.30437835606 482.7836025889 3147.44162934252 65 45 36
-386.053364590872 484.092011184629 3151.51214033808 60 40 31
-390.682110728628 484.631030994071 3155.95749185825 56 36 27
-394.270797789597 484.913898968862 3160.52775423232 59 40 34
-391.579765803725 483.65713803707 3165.77527424165 58 39 33
-382.585917440835 480.860576560072 3171.65752007216 60 43 36
-367.266134013319 476.523925411096 3178.13163317643 60 42 38
-352.954110561446 472.443957352441 3184.42159125454 74 59 54
-342.810710889241 469.390929938825 3190.22727731603 114 103 99
-708.083103780788 622.970004022088 2569.44948138766 15 14 9
-745.171740624918 630.376677831634 2578.55586859979 15 16 11
-714.686288850011 621.280043401767 2595.8903383993 15 15 13
-712.32663177679 619.780683607396 2603.78941404171 14 15 10
-717.486567766157 620.307298677116 2609.20773799451 15 14 9
-726.424003432923 621.846904234662 2613.41849845477 18 15 10
-727.820102974152 621.36012828928 2620.06989886519 21 17 8
-759.476712702793 628.978707866886 2617.13472372833 22 18 7
-767.532676756196 630.265054562277 2621.76293626165 25 18 8
-772.755543933341 630.79129444685 2627.2973935531 33 20 4
-779.882791652663 631.824233309051 2632.25612171105 49 32 14
-791.774360106878 634.123640087164 2635.78416109788 65 42 24
-798.927584157587 635.156504200022 2640.79064198359 100 73 56
-803.229622136769 635.429223361329 2646.67008683162 122 95 76
-807.533718387737 635.701878399592 2652.55329793334 118 93 73
-809.927697773344 635.467799470349 2659.00066901484 118 95 77
-814.233266709069 635.740294779365 2664.88654061818 107 89 69
-818.540918540719 636.012755802901 2670.77623273627 103 84 67
-824.770743688609 636.791948527946 2676.12343395908 126 105 88
-833.891688954851 638.331287144086 2680.67162173445 135 112 96
-835.32691619816 637.843560891562 2687.39419509679 141 115 100
-842.539563306801 638.876096677355 2692.51037132237 152 126 109
-849.762025887688 639.908690257456 2697.64461736982 149 126 110
-852.162113825131 639.674270448325 2704.10312068135 135 121 108
-518.396639774214 543.317558712318 2867.0681150369 205 210 206
-510.450535991329 540.545484531006 2874.88446578368 189 193 192
-503.46017292727 538.026785458134 2882.41999383237 175 179 178
-494.472175447758 535.00098788846 2890.35911576225 185 189 188
-485.452984091979 531.975099532241 2898.24083916852 182 186 185
-477.391128080221 529.202681021218 2905.84419692835 172 176 175
-474.248738163217 527.697929814039 2912.30206293976 185 186 188
-471.090659364525 526.193183821312 2918.73107580723 186 187 189
-467.916887879697 524.688472542071 2925.13123740467 189 190 192
-462.740623314812 522.676680656786 2931.92555804996 189 190 192
-461.522644754153 521.679190055524 2937.84520838241 187 188 190
-456.309670339912 519.667372761758 2944.57250952909 186 187 189
-450.078856266618 517.402063201383 2951.46588263201 188 189 191
-442.826012576579 514.883104300937 2958.5185828482 187 188 190
-440.546711969814 513.632190755941 2964.52536243919 186 187 189
-440.256899879353 512.888618465988 2970.11363935876 184 185 187
-438.956839743475 511.89153901838 2975.88245036124 179 180 182
-437.646370834641 510.894586749619 2981.63215597908 185 186 188
-431.300120015103 508.629481299508 2988.31378549663 180 181 183
-425.937161743947 506.618140021712 2994.76487790654 175 176 178
-418.537928070906 504.099415487881 3001.5489149938 173 174 176
-418.17577472001 503.356549492676 3007.00385130823 172 173 175
-415.785163829317 502.106393336807 3012.80613876862 174 175 177
-414.393291722181 501.110111426711 3018.40633066369 175 176 178
-408.939930983487 499.099139418715 3024.69177175515 173 174 176
-403.466206480832 497.088310881767 3030.93929907508 171 172 174
-405.079276857388 496.853574579936 3035.95023851641 172 173 175
-400.590085423182 495.096729910767 3041.97008058222 167 169 168
-402.190170506971 494.862354118479 3046.95775036101 146 145 140
-402.768852846908 494.37451749109 3052.10494838601 131 131 123
-416.608451019997 497.18570573592 3055.13957008485 94 90 81
-399.823707201839 492.384446688569 3063.00973948389 109 102 92
-377.875253228236 486.314266353587 3071.57581420133 117 107 95
-366.108408059216 482.781685198012 3078.48157903776 123 111 97
-352.254651803035 478.741564754099 3085.62610488997 112 96 81
-345.548115136666 476.477989242274 3091.64556317374 99 81 67
-340.875112382726 474.722205618747 3097.32766180991 74 55 41
-341.331683700383 474.235705885505 3102.25092956998 73 55 43
-345.906298595766 474.764833720404 3106.59374914554 79 61 49
-347.390222144204 474.5327834305 3111.36822390141 77 59 49
-361.271850985579 477.347398010988 3114.48092590739 78 60 50
-365.870540672627 477.877728403821 3118.86838504611 75 58 48
-373.582391391265 479.170080605832 3122.86576856252 72 54 44
-381.307554089087 480.462975403747 3126.88779840429 69 50 43
-390.084471727794 482.010241872619 3130.80564076226 69 52 44
-390.5591981456 481.526691182216 3135.76318589929 69 52 44
-385.823905311286 479.773784044149 3141.33183887027 64 45 38
-387.325193023521 479.544792499469 3146.13891719487 55 36 30
-392.998832430389 480.332001365018 3150.46560212302 52 35 27
-396.590860956556 480.61176171455 3155.04132765352 52 33 27
-399.13984604891 480.637978909867 3159.73725974719 58 43 38
-395.4046633411 479.140675919185 3165.10685952054 55 40 35
-388.508152283508 476.881574294833 3170.77826567727 49 34 31
-377.388913651722 473.60655871268 3176.83750095146 41 27 24
-364.134140169269 469.823571606892 3183.04619142044 43 32 28
-342.42024193867 464.008179243169 3190.00547774259 118 108 106
-749.30194480007 625.182576074468 2569.78548634734 14 15 9
-779.856951322913 632.470173747751 2566.83952820629 15 16 10
-738.128907897892 620.464124914131 2588.00150934406 15 16 11
-730.152410979587 617.478086804363 2597.81241737787 14 15 9
-724.970974015623 615.243337738621 2606.64548062183 15 15 7
-725.427290505829 614.511915022981 2613.60967758568 19 16 9
-754.221556581884 621.29833729654 2611.50478569888 22 15 5
-784.031351892693 628.335716829471 2609.22780174608 23 17 5
-781.699158908572 626.852342577637 2617.1821960446 28 20 9
-785.043479962843 626.872549427917 2623.33908844916 30 13 0
-790.28744719097 627.39390174485 2628.91037853954 84 63 42
-799.341026698284 628.917693655411 2633.33049742923 71 44 25
-802.694000663143 628.937589924115 2639.5032107145 112 83 65
-805.092593419654 628.706815808247 2645.96006045324 106 78 57
-808.443169976659 628.726535806846 2652.12831146048 129 102 81
-810.83675750399 628.495495278169 2658.57587555479 125 103 82
-817.058358938721 629.267144901742 2663.90568349988 124 106 84
-822.327892572232 629.787972535788 2669.52434132884 120 102 82
-831.443711011756 631.31165069096 2674.05839050254 132 109 91
-837.689497776741 632.083204237887 2679.4326507844 138 112 95
-839.127849440597 631.601276337008 2686.1627142129 141 115 98
-845.381318811659 632.372771759925 2691.55159097202 146 120 103
-851.642280841497 633.144328748402 2696.95376236593 145 122 106
-855.976953225764 633.41445443024 2702.89194367277 138 124 111
-535.02820054835 543.552612184219 2844.85325484332 142 147 143
-525.194362449094 540.309004860358 2853.28602103534 196 201 197
-516.307620230396 537.31604025581 2861.42124340911 186 191 187
-511.318669097874 535.326271724852 2868.56719472057 181 185 184
-502.374844686259 532.333146296553 2876.59687993371 180 184 183
-497.338878163959 530.343216753272 2883.65631295704 185 189 188
-490.309918804639 527.851578625358 2891.12899318709 174 178 177
-483.25491685041 525.359866736027 2898.55375415836 184 188 189
-473.207800928452 522.115536669272 2906.5940462297 185 189 190
-467.087047651774 519.874611844757 2913.69717419931 187 191 192
-462.925297822963 518.135345390111 2920.32452718182 186 190 191
-460.730257491976 516.897814297074 2926.49030116023 183 187 188
-456.534595950884 515.158557641319 2933.05528727165 185 186 188
-456.301129671342 514.422938998582 2938.7495862347 190 191 193
-453.070487232931 512.934656669842 2945.05009232057 193 194 196
-446.83108678641 510.693661371051 2951.93548957744 187 188 190
-441.567511035516 508.703623238017 2958.57577085829 182 184 183
-440.284224444614 507.717335175586 2964.37867666492 178 180 179
-439.991976829385 506.982050614506 2969.96496650676 185 187 186
-435.680564647303 505.243099623388 2976.31715801874 189 189 189
-431.35109069504 503.504228995467 2982.63615481131 182 184 183
-427.003215009783 501.765329390212 2988.92180299388 176 178 177
-424.650954637592 500.528527904301 2994.79813583438 169 171 170
-417.245845005004 498.036916077487 3001.5790150842 169 171 170
-415.870509607785 497.051275010637 3007.21282092945 169 171 170
-414.484647196841 496.065698738882 3012.82778940761 170 172 171
-413.088721682427 495.080314737953 3018.42380358087 171 173 172
-409.656139890579 493.593025307292 3024.35320498665 168 170 169
-405.193837009646 491.854862634099 3030.42811807414 163 165 164
-407.823282586581 491.874031440014 3035.26991205899 161 163 162
-403.334042404115 490.136109338928 3041.29535488595 155 157 156
-399.845099406349 488.64937484711 3047.12126464657 137 136 131
-398.379951340695 487.664924429765 3052.59024668371 121 121 113
-407.112827516386 489.191399035408 3056.42083621173 85 81 72
-411.772822197243 489.713907307866 3060.91844200452 100 93 83
-390.853308160215 483.959381646963 3069.3570495107 113 103 91
-372.948721568159 478.957922149662 3077.22247089917 113 101 87
-360.122859749982 475.211979968338 3084.23114826472 96 80 67
-351.367568892438 472.470478860026 3090.56870263645 80 64 51
-349.78398997515 471.487026027561 3095.82016875354 67 49 37
-353.339346966936 471.759495404746 3100.32625610029 72 55 45
-368.239740769147 474.795073012496 3103.26404934952 78 61 51
-380.074009900215 477.077741064038 3106.68141902823 79 62 54
-392.965419646279 479.612097295883 3110.00369947651 74 60 51
-391.393524145778 478.630334667701 3115.27716180618 67 53 44
-389.811555846461 477.648805680812 3120.5324208064 68 51 43
-394.445066511512 478.174883661158 3124.98239115553 67 50 43
-399.084028289792 478.701365369909 3129.44276062683 64 49 42
-399.568129822929 478.223273843907 3134.41918999583 63 48 41
-393.799218087912 476.238015664554 3140.131755882 65 48 41
-395.308868792487 476.011796525747 3144.95530111662 63 45 41
-394.72853614526 475.283377639982 3150.01381474805 54 39 32
-398.322098632653 475.560453892567 3154.59130222579 46 28 24
-399.82565177962 475.335373461698 3159.40397537462 45 32 26
-393.992393790388 473.351431920762 3164.99859271612 40 29 25
-386.040966401671 470.865058397619 3170.77626933898 41 30 28
-374.913146705071 467.624788178684 3176.83017114005 52 42 40
-612.842181466467 585.18608585398 2588.07180012955 14 15 9
-787.705366262043 628.150384404868 2556.71083590488 12 14 3
-731.017404332611 612.308593586434 2583.04411779154 16 18 7
-732.446649755412 611.834148255965 2589.76018759534 11 13 2
-734.81164162808 611.607376125993 2596.15644266855 14 16 3
-741.886608263826 612.619954918307 2601.01339792645 16 17 3
-759.354786925741 616.359416473847 2602.54058611264 22 19 4
-778.751516023366 620.594811466361 2603.53426906472 21 18 1
-790.619523097094 622.846964064158 2607.00426020026 34 27 9
-788.293017483459 621.380202367086 2614.97411035739 30 22 3
-787.848697795607 620.409119327241 2622.32460163709 100 80 55
-790.244492745566 620.181618973809 2628.77779443368 111 85 58
-797.395880584752 621.193839272976 2633.77469015864 118 88 64
-801.69792065954 621.462126808516 2639.65280617689 119 89 65
-807.910555433337 622.226254027908 2644.96386065205 127 96 75
-812.219192947873 622.494383771284 2650.85406311264 136 110 87
-813.659318746261 622.018472610444 2657.5897031033 127 102 80
-817.968353185568 622.28649079012 2663.4800977873 130 109 88
-823.23857521484 622.802422261475 2669.09854932139 128 107 86
-831.395830114286 624.062380719943 2673.90511867318 132 107 87
-839.565210088657 625.322274866796 2678.73447315115 138 111 92
-845.820489963141 626.086230385745 2684.12390810271 142 115 98
-851.118430798615 626.602139288605 2689.79282854113 150 129 112
-858.352636627377 627.614103037996 2694.94246873292 131 112 97
-858.826498816685 626.889802632272 2701.9410772642 153 140 131
-533.892280732894 537.730236781909 2838.8983800996 187 192 188
-520.157244848802 533.52949675704 2848.32800404874 183 188 184
-517.15846889562 532.057861341352 2855.05996092879 187 191 190
-511.19986828275 529.841762411366 2862.4692871101 185 189 188
-506.20054437938 527.873794147052 2869.60221256515 184 188 187
-498.228302725431 525.16123411274 2877.38889241645 181 185 184
-492.19815727175 522.94496463115 2884.6660790671 186 190 191
-485.157896972236 520.480461355352 2892.12613483533 185 189 190
-479.079274135406 518.264011564913 2899.31461276677 182 186 187
-471.988268594226 515.799347178094 2906.68129033996 183 187 188
-466.851746967699 513.830984133689 2913.56226970905 183 188 191
-463.677977817376 512.359024668134 2919.971780522 182 187 190
-460.4882555972 510.887035839672 2926.35244614669 182 186 189
-455.294370469568 508.918610139813 2933.12790474342 181 185 186
-455.057185574286 508.191293491196 2938.81786108051 180 184 185
-449.828392553481 506.222971019914 2945.52864450029 180 184 185
-446.574739723264 504.751062917173 2951.79175436048 175 177 176
-440.307531989805 502.534494643608 2958.63335467526 172 174 173
-443.022560186808 502.552156529412 2963.63209752924 180 182 181
-439.726236451502 501.080495567739 2969.81629789663 181 181 181
-434.40767600803 499.112254485011 2976.36251138919 182 182 180
-426.055193197685 496.399304620253 2983.44923699721 171 173 172
-423.708643662856 495.175967609478 2989.34062640578 156 158 157
-424.370570337291 494.697690116564 2994.64380056432 158 160 159
-420.993767719159 493.226280240375 3000.68056535316 166 168 167
-418.610988433728 492.0032651851 3006.50541846794 158 160 159
-416.21555904319 490.780411594544 3012.30655004637 158 160 159
-414.819385748031 489.806000364651 3017.90540825097 158 160 159
-413.412658912782 488.831638841808 3023.48537576437 155 157 156
-409.966572111079 487.360853486792 3029.39439787839 141 143 142
-411.58480924021 487.131878881031 3034.41707682748 145 147 146
-407.096846942064 485.412969006459 3040.45058729681 143 145 144
-402.590991543048 483.694156275773 3046.45121830664 133 134 129
-398.067212712348 481.975455099962 3052.41891840675 137 138 130
-400.673666540663 481.995620525879 3057.21872608145 105 102 93
-408.392402254673 483.258051495743 3061.22002653089 85 81 72
-402.815735267261 481.29149539686 3067.29153752691 83 76 66
-386.968194270703 476.840768846535 3074.87600694721 86 78 67
-373.127436571198 472.886851074715 3082.07036248774 76 64 52
-366.438837582046 470.672001912125 3088.13721235429 75 62 53
-363.842807002618 469.45108685768 3093.57023687651 90 77 68
-373.596028684403 471.211940725591 3097.23311122727 81 68 59
-388.524741783982 474.215651288413 3100.21365784914 78 64 55
-402.451830032318 476.971466454409 3103.39253787685 78 64 55
-408.135470095965 477.739856487378 3107.73195661239 70 57 48
-403.474062773416 476.023534456712 3113.44724829867 60 47 39
-399.83168589339 474.555920748187 3118.99646309679 62 49 41
-402.401430820053 474.579681845389 3123.72983770748 63 50 42
-403.932343473823 474.355281744531 3128.59303456408 61 48 40
-404.420780653067 473.882648461432 3133.57907938581 64 51 45
-398.654021229384 471.918894645703 3139.30207058352 60 47 41
-389.738098412163 469.209560120503 3145.35386668789 49 36 30
-367.2183739675 463.268554893274 3152.90811661811 78 65 59
-718.564903869303 607.008168691948 2543.74314660847 13 14 8
-701.406849965122 598.2940652827 2585.70416463131 18 20 7
-720.644217723635 602.483777885754 2586.39101537945 20 22 9
-740.865592726914 606.918843035382 2586.84611392233 13 15 2
-752.657344473269 609.147218377324 2590.16921153482 26 28 14
-770.130047927052 612.846848957754 2591.69274361759 18 16 1
-773.47663222995 612.868382709755 2597.85419757628 25 22 5
-784.387156839257 614.851538160748 2601.59761438769 27 22 3
-789.636742320622 615.363325925801 2607.17636120559 37 31 9
-792.99452769731 615.384549895504 2613.35832282177 33 25 4
-791.604616692293 614.179416426435 2621.01411473993 105 85 58
-793.053243509517 613.709781262693 2627.76727697878 113 87 60
-796.400317119448 613.730611777263 2633.92941938383 121 93 69
-801.653556887616 614.241881715266 2639.5147313794 128 98 74
-807.865718824857 614.998319889129 2644.82310820669 133 102 81
-812.173605755043 615.26419721188 2650.71074861119 125 100 78
-815.526187111983 615.284709236497 2656.88292498984 135 113 92
-816.002753434972 614.569245244456 2663.88916421293 124 106 86
-819.350375006562 614.589580030425 2670.05216534319 121 103 83
-826.541677297887 615.591135529731 2675.11976813049 135 109 92
-835.66753269748 617.0833503079 2679.6628153969 133 106 89
-844.808328324312 618.575624817459 2684.23335842591 125 99 82
-849.139249508419 618.841183659081 2690.16377149031 130 113 97
-856.370945230413 619.842806544023 2695.30568542084 140 122 110
-855.872418606443 618.881625334823 2702.55945795892 151 141 132
-563.006450554871 540.227533275103 2819.17261540688 137 139 138
-534.707229472763 532.392111783797 2832.44702963019 176 178 177
-520.992301242687 528.237464014358 2841.92749613888 184 189 185
-515.065966966321 526.046034758974 2849.40358468722 183 188 184
-514.018219242854 525.081696232639 2855.64629007941 186 190 189
-509.032871215048 523.135518961994 2862.81197697467 183 187 186
-500.09499741516 520.207521026367 2870.87219166718 183 187 186
-493.094034747758 517.770250991426 2878.41321679901 183 187 186
-489.023860426506 516.069330431486 2885.22052525045 186 190 191
-483.948610193246 514.122926502963 2892.2202932043 185 189 190
-477.864212331055 511.930944516148 2899.40550780003 181 185 186
-470.76700027386 509.493431329516 2906.7689354019 181 185 186
-466.615872324184 507.792344468097 2913.42730537001 182 187 190
-462.446493115323 506.091261852589 2920.05210922382 181 186 189
-461.238589294203 505.126700209176 2926.00019127491 178 182 185
-454.052905145405 502.68903459613 2933.20085674228 176 180 181
-455.803519311982 502.461089770455 2938.46731085992 176 180 181
-450.571808697692 500.514506733577 2945.17926580329 176 180 181
-448.314331479151 499.30455038803 2951.23849928126 181 183 182
-442.045374993423 497.112455433638 2958.0837387248 180 182 181
-443.760418973628 496.884796101069 2963.28485864242 174 176 175
-440.461926911787 495.429506426555 2969.46999425596 177 177 177
-433.133245398031 492.991820136156 2976.40815954002 165 165 163
-425.779003395124 490.554171117515 2983.29882139165 148 150 149
-425.441882308228 489.835770475973 2988.80715385204 150 152 151
-427.111301682971 489.608646212365 2993.92452271373 163 165 164
-422.726273141239 487.908009159631 3000.15284214188 162 164 163
-419.33305746627 486.453037298566 3006.16436358887 156 158 157
-416.935754803578 485.24382565741 3011.96615230239 160 162 161
-417.56297581609 484.771617983437 3017.20782599251 146 148 147
-417.171226840488 484.053923983602 3022.61640455817 134 136 135
-414.74178433962 482.845112545102 3028.35920260264 134 136 135
-415.348384799343 482.373397929326 3033.56309961205 144 146 145
-412.897125947486 481.16485849905 3039.26585521062 145 147 146
-405.338213649114 478.727963047969 3045.78031771043 128 130 125
-398.773839557641 476.53679478634 3052.0830132702 120 121 115
-399.337055563792 476.065686231839 3057.20730062007 104 104 96
-410.123473687589 478.05210757184 3060.72294086982 93 90 83
-416.834039053155 479.055959727009 3064.90707151048 72 68 59
-410.225188808364 476.865473159671 3071.12817232042 76 69 59
-393.326856496052 472.217526106761 3078.83553595476 71 62 53
-390.771255959563 471.010240668667 3084.34676528565 73 64 55
-393.348980856531 471.031954827117 3089.09420095777 83 74 67
-392.835352932396 470.316605935998 3094.27932715395 71 62 55
-399.53685444637 471.32207850229 3098.44727501208 57 48 41
-403.149673524422 471.590534590221 3103.05783872413 49 42 34
-403.662445159424 471.12188506846 3108.08958492354 48 41 33
-400.027621480299 469.670166581087 3113.65772358692 50 43 35
-399.488537821829 468.95615427297 3118.79643398835 54 47 41
-399.980403148883 468.488288906476 3123.79021761232 51 44 38
-393.19085890373 466.29963911438 3129.67954158931 47 40 34
-386.378658227738 464.111089776478 3135.52697434855 96 89 83
-361.828322317938 457.742510795264 3143.44808213599 148 140 137
-749.841990133227 607.157796330281 2539.97868550045 18 19 13
-701.83038546372 592.193555681916 2578.30366865244 15 17 6
-722.932616504201 596.822960953147 2578.32246484899 21 23 12
-742.204396831741 600.967496428515 2579.05902086004 22 24 13
-760.57894325947 604.869723559353 2580.18733228059 25 25 13
-769.573807009361 606.34696535491 2584.48495934183 31 32 18
-777.640127648132 607.581612720723 2589.11717668033 34 32 17
-780.051192934558 607.361091291817 2595.60004887487 40 34 18
-788.134463827576 608.595556425448 2600.26338601829 37 32 13
-785.810978472536 607.162099505523 2608.24830219108 62 54 33
-787.265182971839 606.698557805993 2615.01355523765 75 64 44
-789.66364038842 606.477443077064 2621.4730608444 109 93 68
-792.058742509487 606.256197873087 2627.92686045871 118 98 74
-795.403208088531 606.277381407531 2634.08431238033 126 104 83
-798.747108900236 606.298528672368 2640.24071468486 124 101 83
-806.86542677969 607.532556247979 2644.96787379514 125 102 86
-809.258454545253 607.310933697506 2651.41724057163 129 112 96
-806.860502788787 605.876144976966 2659.2653032072 113 100 84
-803.487759926578 604.198597067417 2667.36234384064 105 93 79
-804.896959377452 603.733987648126 2674.04450331694 101 89 75
-803.416130329598 602.541389576681 2681.53735429274 114 98 85
-824.956266219754 605.514604716231 2696.66808932671 108 98 88
-835.055544283628 607.233697078381 2700.95486584615 90 80 71
-587.024203349282 542.030215712179 2794.09432459867 232 231 236
-571.530339768151 537.437195837777 2804.40077565794 229 230 234
-556.961107020943 533.08655753761 2814.36638552715 219 220 222
-540.394001190398 528.250195114277 2824.74107380792 180 182 181
-521.821154339405 522.928086849899 2835.51086764327 185 189 188
-512.973211605842 520.03308247388 2843.74640381683 183 187 186
-508.011433925767 518.108797563099 2850.96202437378 183 187 186
-508.913453490518 517.641001543869 2856.7099251058 185 189 188
-506.863630360507 516.444907292744 2863.15524091467 183 187 186
-500.867608395504 514.27776276843 2870.50995979643 177 181 180
-492.878552267557 511.624933196695 2878.28367698494 180 184 185
-486.832722482377 509.457548204134 2885.54722214018 175 179 180
-481.750709187163 507.532897006721 2892.54109309903 177 181 182
-477.636222489593 505.851036669656 2899.27263483022 182 186 187
-472.513525049179 503.926268421202 2906.19214927739 181 185 186
-469.352349474285 502.487134958361 2912.63469344633 177 182 185
-465.182982074013 500.805167670246 2919.26526740318 177 182 185
-461.988856832464 499.365994486633 2925.64770343061 174 179 182
-456.789238818873 497.441137506801 2932.42572024488 173 178 181
-456.549758462346 496.730515619139 2938.11647527966 173 177 178
-451.315152976487 494.805716603746 2944.82965694463 172 176 177
-448.057129357937 493.366594985348 2951.09458772082 171 173 172
-441.783394027738 491.198874404893 2957.93887213451 167 169 168
-441.494259919731 490.48845893577 2963.53836694752 165 167 166
-438.189647957428 489.049493492937 2969.71715599217 165 165 163
-433.86522746328 487.367598322137 2976.06308498892 148 148 146
-431.533298981872 486.171618097519 2981.98908770136 116 118 117
-430.194810760863 485.218619136689 2987.70047839195 127 129 128
-431.868944114855 484.994461124616 2992.82740913522 148 150 149
-429.504631351315 483.798789558793 2998.69394407245 151 153 152
-426.116877625122 482.360191213455 3004.72043490235 160 162 161
-422.713679461198 480.921689626431 3010.71854969446 166 168 167
-421.320878794933 479.969255228988 3016.33021967835 151 153 152
-420.931819049557 479.25985089511 3021.74623710699 127 129 128
-418.50434684278 478.064682858822 3027.49676174208 100 102 101
-419.1139524068 477.59858790784 3032.70787563839 106 108 107
-419.718499479349 477.132639530534 3037.90973012502 121 123 122
-417.260276630828 475.937917783839 3043.60383293573 128 130 127
-411.727300665594 474.014202336485 3049.76908702003 120 122 117
-410.261458505983 473.062729907378 3055.24670967333 107 108 102
-417.993881667095 474.298824483583 3059.26475967507 93 92 87
-422.665712953473 474.806064447351 3063.78004788143 69 66 59
-419.137439664514 473.369177503975 3069.54810804276 72 68 59
-404.296472591518 469.258508814819 3076.97131363524 81 74 66
-399.695161550387 467.578680606237 3082.80810780029 81 74 66
-398.164781850114 466.628241866489 3088.16734500951 41 36 30
-388.377443911123 463.733158867479 3094.67539071484 42 37 31
-388.881008622402 463.269288353784 3099.69189297518 121 116 110
-378.491415360134 459.667697495267 3111.22497374914 98 95 90
-371.714307493027 457.502433361467 3117.14395093344 91 88 81
-729.139077316177 596.291127780251 2532.47372860824 19 20 14
-757.643585627119 602.788199048147 2529.74890540333 17 18 12
-714.350068136795 590.824243999845 2552.27395158704 18 19 13
-690.553892133162 583.894271378107 2567.75817600306 14 15 9
-773.378458319374 604.298105174604 2546.45245984042 1 2 0
-735.520313008087 593.771029160264 2566.71644158479 28 29 21
-747.289036189794 595.952007057929 2569.98293205286 4 5 0
-761.9002105145 598.852461515051 2572.34816358432 20 21 13
-772.777261136215 600.793708561556 2576.01741288613 15 15 7
-777.077866212541 601.056219750207 2581.89064836657 41 41 31
-781.38028339123 601.318602908685 2587.76768237604 41 39 27
-781.904813572932 600.621554852169 2594.86767393753 57 51 39
-785.259878792257 600.643780481979 2601.04493390916 63 57 43
-783.87663149899 599.466675308499 2608.72141031112 85 76 59
-783.428453498555 598.529165893478 2616.07540599694 90 79 61
-786.770191520899 598.550966923522 2622.22802713885 117 105 83
-788.208560297076 598.09297014031 2628.96531863533 121 109 87
-787.735705205549 597.155050579341 2636.27330107071 129 112 96
-784.389593793444 595.497198996781 2644.42574914112 123 105 91
-785.801770432429 595.038742595003 2651.11473030787 105 91 80
-771.366440926197 589.802834452968 2669.52009462985 151 147 136
-761.22789063133 586.464723780424 2679.47881970783 150 146 137
-748.534862104944 581.707170041627 2697.00234147778 185 176 169
-718.072293662524 573.329234219004 2712.48022653129 246 233 225
-579.989991382002 534.569084252476 2789.48790716516 231 230 235
-566.451929296938 530.507627805694 2799.3216873505 218 219 224
-555.789728834371 527.165896162764 2808.31623545497 205 206 210
-543.141662127304 523.343929012664 2817.74409952273 188 189 191
-528.499947351134 519.041574600483 2827.5909217245 187 189 188
-513.811689884602 514.739022375452 2837.35157970781 187 191 190
-506.904770882485 512.356600481696 2845.08155803233 185 189 188
-504.870592198074 511.174312465052 2851.55979865509 182 186 185
-507.728760873683 511.192334605242 2856.82191126648 185 189 188
-507.639406852221 510.490162675421 2862.7913170672 185 189 188
-499.672741036365 507.867367536031 2870.61474186695 175 179 180
-491.677366044869 505.244422564983 2878.38532020415 179 183 184
-486.611885296041 503.341607578332 2885.41666838444 170 174 175
-483.500671306297 501.918991570973 2891.95657240542 170 174 175
-479.384947461606 500.256216916525 2898.69157826773 177 181 182
-473.270581522419 498.113143252659 2905.83638388086 178 182 185
-470.107226207642 496.690469574081 2912.27986891768 173 178 182
-463.949906362515 494.54731280652 2919.34564948026 171 179 182
-458.763053930453 492.644234295192 2926.15369377292 171 179 181
-456.541322214273 491.461649931765 2932.28639683512 171 176 179
-457.295876499015 490.9995559492 2937.7653010156 168 172 173
-455.051841446157 489.817045756757 2943.85700648263 166 170 171
-450.796441501538 488.154203228739 2950.33510213626 162 166 165
-446.522879387952 486.491336463182 2956.77978696316 167 169 166
-444.234295699178 485.308870011576 2962.79007676948 172 174 171
-438.924127643636 483.405905562687 2969.37085121867 146 146 144
-435.601534525666 481.983298486268 2975.52199319394 132 132 130
-435.27991936399 481.281448166091 2981.06432515318 133 135 132
-435.95721542259 480.819896634634 2986.40130050541 127 129 126
-436.629537095226 480.358597970627 2991.72869885411 116 118 115
-435.277522108466 479.41678107139 2997.4190782852 127 129 126
-430.883382095584 477.75433975334 3003.64212632632 140 142 139
-427.483140360119 476.332211390559 3009.6506023053 132 134 131
-425.080754904635 475.150489318645 3015.45130953402 126 128 125
-423.679975678749 474.209142444224 3021.05163974666 122 124 121
-422.268931725079 473.267909691775 3026.6331255735 122 124 121
-425.932780403111 473.52836126738 3031.33513489099 112 114 111
-430.617578164889 474.02932974284 3035.87238483846 103 105 102
-431.229313766011 473.56933340496 3041.0887459996 97 101 100
-426.731167714457 471.907751227411 3047.12076634683 99 105 103
-424.259433858064 470.726959353401 3052.79471320481 94 96 93
-424.845680008708 470.267457183393 3057.96434322895 96 98 95
-423.377055187921 469.327309529215 3063.44075790565 105 106 101
-413.690115624213 466.464355943092 3070.14286439114 101 100 95
-392.67146735158 460.957043811186 3078.47348833339 118 117 112
-376.737113427105 456.65152890683 3085.94170906518 127 126 122
-363.846356361427 453.067085284354 3092.87985041463 159 160 155
-732.985091260387 588.449663908508 2545.64885574136 17 18 12
-697.048506890721 578.516318492259 2565.39588698172 11 12 7
-768.675167435014 595.846826221454 2547.95057615027 6 6 4
-760.796355303422 593.025508801444 2557.99067931522 0 0 0
-759.457812837169 591.863514218404 2565.754424359 174 174 172
-764.687096497004 592.361070984555 2571.29155286439 193 193 191
-768.97934759355 592.62136838649 2577.14926236518 187 186 184
-773.273638044416 592.881527579267 2583.01068104772 177 176 172
-776.625992722282 592.904459540308 2589.18316824853 127 122 118
-781.868502595931 593.401568145739 2594.74448739958 104 97 91
-781.435825866967 592.475649321976 2602.12997404101 77 68 61
-778.148406290131 590.83801256622 2610.39594187424 72 60 48
-772.943866101731 588.725774655788 2619.22335578507 77 63 52
-774.368994014058 588.273541952649 2625.93853254564 89 83 69
-766.270678242981 585.449330004495 2635.57405807653 127 124 109
-755.281281353346 581.913142785935 2646.02365895521 216 212 201
-741.389658879801 577.665043400606 2657.26584896793 221 214 208
-721.716744764025 571.993182994627 2670.13734360763 203 202 198
-701.981548030473 566.320863483352 2682.89364685824 207 207 205
-679.595355538155 559.245190693075 2703.04207202282 197 203 203
-673.147508579976 556.89312654998 2711.62549670234 190 194 197
-646.685078774187 548.866566298229 2732.45123235772 191 187 188
-641.105125046338 546.751056383136 2740.58670416147 182 178 175
-637.433343811324 545.109891459462 2748.14469987713 198 197 195
-619.2337412484 539.90919383567 2759.63746872376 238 234 231
-596.134233162161 533.521629246101 2772.33600315137 188 188 190
-576.844098170249 528.082821226599 2783.86627860448 228 227 233
-561.378670695705 523.592863746988 2794.25652613984 220 221 226
-552.670881927973 520.763888782821 2802.77019168391 206 207 212
-544.905596429548 518.172031517859 2810.97329525607 196 197 201
-535.161433702667 515.105354724208 2819.62419756521 189 190 192
-522.454465038536 511.326382243674 2828.95665961183 190 192 191
-511.661127878371 508.021910280727 2837.72122821252 181 185 184
-505.725589591368 505.904055002985 2845.20251416584 181 185 184
-503.68725075404 504.735575628742 2851.6767518174 182 186 185
-503.598408269986 504.041800382358 2857.64962348965 185 189 188
-502.51861438881 503.110596413829 2863.84385866799 186 190 189
-498.476271149652 501.467190333845 2870.71964937596 175 179 180
-490.474449542714 498.874141327319 2878.48736156418 180 184 185
-486.390297150091 497.230606686715 2885.28621896012 169 173 174
-483.275567276762 495.824434552775 2891.82460165253 166 170 171
-481.134422632092 494.655676382243 2898.10967685255 170 174 175
-476.008547074316 492.774536820427 2905.03646623543 171 175 178
-470.862010255893 490.893419009707 2911.92475809239 162 167 171
-467.680527838053 489.487131503935 2918.34033599795 161 169 172
-461.500409844399 487.368417094086 2925.37153694747 166 174 176
-461.270447109031 486.674512460619 2931.08482385509 170 175 178
-459.038936965834 485.50571226644 2937.20368780075 172 176 177
-458.790537181948 484.811927843851 2942.88310176676 171 175 176
-453.536811922222 482.930639655085 2949.57470755744 167 171 170
-451.264802138117 481.761933304374 2955.61911350489 165 167 164
-447.977593167564 480.355716298371 2961.84026221673 153 155 152
-443.67157530167 478.71203617261 2968.23102483154 133 133 131
-440.351904476895 477.305846230457 2974.39247841738 129 129 127
-440.034303275799 476.612389984186 2979.94471705779 125 127 124
-438.701768978646 475.681442910463 2985.67368956996 126 128 125
-437.358880863493 474.75063844216 2991.38366240877 123 125 122
-439.034538923348 474.532540403487 2996.51521972663 127 129 126
-435.652869347571 473.126781066478 3002.56227156093 134 136 133
-432.255494950347 471.721054411389 3008.5809534392 130 132 129
-427.829213801865 470.077788707433 3014.75065459003 107 109 106
-427.444243719294 469.385022219266 3020.17919700728 99 101 98
-428.067650932414 468.93002302391 3025.41903138039 96 98 95
-432.755761060601 469.425714849338 3029.96028232851 96 98 95
-436.430195732821 469.684002797123 3034.68111056931 99 101 98
-440.107221106347 469.942513633266 3039.40677060912 98 104 104
-436.638040960693 468.537660256622 3045.29365124594 97 103 103
-431.108503957276 466.657580318528 3051.47784808795 98 102 101
-417.367603705508 462.876104465144 3058.90796873856 94 98 97
-401.535628501612 458.619154435531 3066.57883495876 117 119 116
-381.551750073449 453.411213609291 3074.78781719792 139 140 135
-741.358686856908 583.393894817328 2542.60964375824 22 25 18
-755.926189591883 586.230840702736 2544.87545690269 13 15 10
-757.4111819596 585.786322875742 2551.70305533151 138 140 137
-757.014705283345 584.872785808235 2559.15884392281 187 189 188
-756.607331949724 583.959074666448 2566.59453922795 167 169 168
-759.010582267847 583.748372302075 2573.06599107308 172 174 173
-761.410451767595 583.537406209204 2579.53164991243 174 174 172
-763.807392945873 583.32639236067 2585.99140442992 186 186 184
-764.312340972181 582.646291151798 2593.06047711664 193 189 186
-765.754537318603 582.200466011172 2599.80897272761 196 191 187
-758.668370298665 579.644275352199 2609.27182462732 202 193 186
-752.501384226766 577.322263791932 2618.38084110125 205 196 189
-746.30801261944 574.999967576134 2627.44124416595 209 202 192
-740.088255476689 572.677386704806 2636.45303382143 202 199 190
-715.751262663255 565.898977138156 2650.98817581333 192 192 184
-692.29242615957 559.354481616995 2665.09344664357 196 195 190
-679.262448610996 555.389095169701 2675.89108140084 194 193 191
-669.056328944501 552.126965613566 2685.74838322815 187 187 187
-658.813492751277 548.864517013113 2695.5380607294 182 188 188
-646.616712597016 545.132612644171 2705.82300678602 176 184 186
-644.937089449124 543.980518047405 2712.96191520131 175 183 185
-638.438012488636 541.655453039661 2721.45923778554 176 181 184
-627.100167289991 538.157276257108 2731.27940927976 184 183 188
-612.831822477379 533.955047286433 2741.84303672155 193 193 195
-605.272122615832 531.394635910231 2750.43370618551 186 186 184
-601.548819556136 529.772356726059 2757.90262322092 189 189 189
-589.0983175219 526.038509396536 2767.72034422101 175 175 177
-578.54402468327 522.773622366115 2776.93646291429 190 191 195
-562.131880581231 518.100727534196 2787.6453122251 198 199 204
-549.553656189315 514.365964941352 2797.22785329846 195 196 201
-539.85216713733 511.334880208838 2805.96794355981 191 192 197
-532.064922419985 508.772881905471 2814.13963935113 192 193 197
-525.224214562595 506.44532936728 2822.00789241537 189 190 192
-518.357356102612 504.117657465006 2829.82801386133 187 189 188
-512.442157355352 502.02444801451 2837.35411945788 154 156 155
-508.46190846695 500.400497694414 2844.34996375106 166 170 169
-505.443667297817 499.011133050514 2851.07086112054 184 188 187
-503.391356993292 497.856400799762 2857.52404099421 184 188 187
-501.325996785964 496.701618442558 2863.95270040679 184 188 187
-496.294037431264 494.842662351231 2871.05888983995 181 185 186
-490.2558322849 492.748935442158 2878.35810440122 176 180 181
-487.154719561059 491.359263480695 2884.92649346495 171 175 176
-484.037811850071 489.969536381501 2891.46581608828 169 173 174
-480.905190633255 488.579784659196 2897.9762313066 164 168 171
-476.766082158525 486.955272128866 2904.67973480672 162 166 169
-473.600695884127 485.565469999011 2911.12987395553 159 164 168
-471.413109233658 484.410428710788 2917.33365880267 154 162 165
-467.223016675199 482.785840858313 2923.94337063222 147 155 158
-465.006382683724 481.630747229671 2930.09422063076 147 152 155
-462.77688066955 480.475738609934 2936.2209253109 148 154 154
-461.532528426691 479.555485950508 2942.11580096974 149 155 155
-458.278403512 478.165707373255 2948.40223642907 148 152 151
-455.008437339588 476.775915536726 2954.66003718572 133 135 132
-452.725189037321 475.620959309219 2960.68841264859 112 114 111
-448.421749161961 473.996365980358 2967.08965646289 98 98 96
-446.110110722394 472.841531506414 2973.0653496603 105 106 101
-443.785221831193 471.686685080265 2979.01717351254 129 131 128
-443.46248999123 471.001661735383 2984.56251192577 135 137 134
-440.105541217652 469.612089741402 2990.66040194141 145 147 144
-439.763284433874 468.927232741379 2996.16988044884 142 144 141
-438.402010888368 468.007628225426 3001.84940719481 134 136 133
-435.005005917965 466.618243988476 3007.87368302852 134 136 133
-432.606606494494 465.463897895148 3013.68995383454 132 134 131
-432.225625748363 464.779495643324 3019.12834867188 120 122 119
-434.886414324728 464.800027418088 3024.02819801726 115 117 114
-438.564890918458 465.055674962443 3028.7556660628 120 122 119
-441.226992707049 465.076621223549 3033.65805528959 118 120 117
-441.848553654421 464.627865329541 3038.8958672929 124 130 130
-430.205300372987 461.359433677305 3046.10862761722 145 154 153
-759.08195537216 580.611207908755 2536.29973797151 4 9 3
-760.577178304277 580.172691230965 2543.14795694535 177 182 178
-763.003794347693 579.96570902185 2549.66350134636 176 180 179
-757.920923863893 577.904849889924 2558.73013870278 172 176 175
-756.572654952111 576.77057213762 2566.48382583665 169 173 172
-755.210643899834 575.63601067902 2574.21265759772 173 177 176
-755.719552624433 574.964716530539 2581.29166320035 178 180 179
-754.333361981378 573.829750850242 2588.97539848627 177 179 178
-748.209842542011 571.535747898777 2598.17278080081 174 176 173
-739.221785562155 568.54614499359 2608.23747710112 175 175 173
-726.410046924075 564.629003345216 2619.45100121494 190 189 185
-716.399896140357 561.406876424444 2629.68075516644 191 190 186
-708.252953376887 558.647984070601 2639.24648978736 193 192 188
-696.269460210528 554.961547453806 2649.93738259567 191 192 187
-676.623963621353 549.420171118354 2662.89854239352 185 185 183
-658.823837733251 544.342010867675 2675.1623669788 192 192 190
-651.47189736415 541.813423911579 2684.14521852746 189 189 189
-644.091244841704 539.28458557024 2693.0746833537 184 186 185
-636.681663323801 536.755535690944 2701.95087887229 181 185 184
-629.242916152143 534.226136618976 2710.7738326738 183 187 188
-628.497151076208 533.319593200771 2717.58931939438 178 182 183
-623.894498464569 531.485442497419 2725.49203741344 177 181 182
-612.530748752191 528.027846607005 2735.27676932302 204 205 207
-599.199695548658 524.106236401492 2745.53333129451 215 217 216
-590.651207120189 521.343727542278 2754.35996695732 187 189 188
-585.938169890744 519.508675995813 2762.05939664879 184 185 187
-577.331965614309 516.745745753328 2770.7797556321 179 180 182
-572.571598483158 514.910322638954 2778.39202527216 173 177 178
-557.113864373236 510.523418790611 2788.8274127223 180 184 187
-543.550526348371 506.600106125583 2798.65624861784 182 186 189
-534.808461528786 503.836222798658 2807.1264486949 192 196 199
-528.958314890523 501.7680143482 2814.77971530447 187 191 192
-522.108885485676 499.467686466299 2822.64011488614 191 195 196
-516.210439291181 497.399214965664 2830.20396646253 184 188 189
-512.244841032691 495.79456906472 2837.23256118236 154 155 157
-509.240296592141 494.421749857437 2843.98362489551 159 160 162
-505.239103732699 492.816916449459 2850.94669827128 181 182 184
-501.219298831571 491.211918610263 2857.87599550718 183 184 186
-498.164876044574 489.838935729866 2864.53477038908 190 191 193
-496.079113802169 488.697868237235 2870.9305353368 182 183 185
-492.008263080203 487.092707594769 2877.76539680492 180 181 183
-487.91902466278 485.487505257018 2884.56642741208 173 174 176
-485.788464460571 484.346303157297 2890.87976027003 169 170 172
-483.644958558794 483.205126052824 2897.1687869003 165 166 168
-480.496978045175 481.831810121685 2903.65589616468 164 165 167
-476.340879075558 480.226446809436 2910.33390962548 158 163 167
-475.147699797609 479.317264102206 2916.32572641656 161 166 170
-472.948759012395 478.17598633259 2922.51327216744 146 151 154
-471.733193014224 477.266862031241 2928.46393326491 144 149 152
-468.511818974739 475.893484596755 2934.8160399671 150 154 155
-465.274809106297 474.520142552813 2941.13940017357 144 148 149
-460.021954724216 472.682533153317 2947.84523856247 139 143 142
-455.749762277873 471.077043030302 2954.3096968319 129 131 128
-453.464631192328 469.935802499781 2960.33873411464 115 117 114
-452.170635898735 469.026807855842 2966.14518843825 98 100 95
-450.866211012496 468.117881054151 2971.93248124225 99 100 95
-450.557896199395 467.441168852881 2977.50683453214 114 116 113
-449.233866790248 466.53236313191 2983.25810745799 110 115 111
-445.881176453568 465.159224183041 2989.36877128065 130 135 131
-443.523284670462 464.018313761312 2995.26408765383 137 142 138
-443.175919969732 463.341934249759 3000.7667211321 124 129 125
-440.795035676867 462.201239401065 3006.61931067384 120 125 121
-439.415405129598 461.292835175992 3012.26844371414 116 121 117
-435.994252519033 459.920033205184 3018.25329427732 124 129 125
-437.641755418282 459.708528041178 3023.33505174221 124 129 125
-436.232501966503 458.800435813141 3028.92979668776 110 115 111
-433.793755459154 457.660233712721 3034.67611525408 122 127 123
-424.197110258894 454.894032807006 3041.57388935589 169 173 172
-755.691340524432 573.354496481596 2529.99683578016 138 143 139
-757.187949647155 572.921995698313 2536.84890907434 181 186 182
-756.806694300566 572.03128562211 2544.33955702538 172 177 173
-758.289017439925 571.598302618234 2551.16571502318 172 178 176
-758.827038555547 570.936174126047 2558.30101992487 173 179 177
-756.536954403879 569.586708766513 2566.3731292865 171 177 175
-751.407124376277 567.549871328047 2575.3606233189 171 175 174
-745.311009416422 565.283685716711 2584.61677272947 174 178 177
-737.300968040043 562.559070082965 2594.44460168323 176 180 179
-728.314091097048 559.605023068479 2604.52216069777 179 183 182
-713.614689175229 555.276163523037 2616.3697143694 187 189 188
-701.708645280317 551.634064579741 2627.21638377967 185 187 186
-690.709812430819 548.2207008755 2637.68506160403 183 185 184
-679.671444097825 544.806923582972 2648.08140633984 182 184 183
-669.545496851006 541.621884482168 2658.10934259194 181 183 182
-658.42982066877 538.207378643295 2668.36328501764 179 181 180
-648.229136457825 535.021656382503 2678.25356093444 183 185 184
-640.858053924344 532.523037681488 2687.20971440173 181 183 182
-635.371347292195 530.482378936973 2695.53969818529 181 183 182
-630.819040850286 528.670690567775 2703.54176688478 183 185 184
-627.204522762229 527.087890968794 2711.22313589803 182 184 183
-623.571670858186 525.504948798003 2718.87023856479 185 187 186
-617.034570301494 523.234294839885 2727.3139913856 181 183 182
-602.765924145444 519.12987069927 2737.90597234738 182 184 183
-590.379114235143 515.483450133694 2747.8671258531 189 191 190
-580.847799744091 512.52436761062 2756.94185073239 188 192 193
-577.084716262382 510.940317802769 2764.3491007088 183 187 188
-570.398147379332 508.668474857413 2772.51759648963 168 172 173
-567.563666734607 507.313324502738 2779.58675190923 161 165 166
-555.004283558873 503.665602309369 2789.23012030874 163 167 168
-545.319768987352 500.705345449877 2798.0227291781 176 180 181
