ply
format ascii 1.0
comment KinectMotionCapture
element vertex 752
property float x
property float y
property float z
property uchar red
property uchar green
property uchar blue
end_header
-1027.05931663513 217.121884226799 2357.00011253357 182 182 180
-1021.51620388031 217.305436730385 2358.99996757507 178 178 176
-1016.39461517334 217.58159995079 2361.99998855591 181 181 179
-1011.25943660736 217.85831451416 2365.00000953674 182 182 180
-1004.41062450409 217.767030000687 2364.00008201599 184 184 182
-997.991621494293 217.768371105194 2364.00008201599 186 186 184
-991.155207157135 217.678055167198 2362.99991607666 186 186 184
-985.576689243317 217.864632606506 2365.00000953674 185 185 183
-979.161143302917 217.867374420166 2365.00000953674 185 185 183
-973.981440067291 218.146994709969 2368.00003051758 185 185 183
-967.970013618469 218.242794275284 2368.99995803833 185 185 183
-963.172495365143 218.615427613258 2372.99990653992 186 186 184
-958.355247974396 218.988537788391 2377.00009346008 188 188 186
-953.918099403381 219.454169273376 2381.99996948242 188 188 186
-948.262155056 219.643890857697 2384.0000629425 185 185 183
-941.806733608246 219.649732112885 2384.0000629425 183 183 181
-936.529874801636 219.932422041893 2387.00008392334 184 184 182
-931.237936019897 220.215484499931 2390.00010490417 183 183 181
-926.70476436615 220.683261752129 2394.99998092651 181 181 179
-921.37736082077 220.967173576355 2398.00000190735 182 184 181
-917.179524898529 221.527934074402 2404.00004386902 182 184 181
-912.192523479462 221.904754638672 2407.99999237061 182 184 181
-908.313155174255 222.558453679085 2414.99996185303 182 184 181
-904.396951198578 223.212584853172 2421.99993133545 182 184 181
-900.443732738495 223.867058753967 2428.99990081787 183 185 182
-896.453499794006 224.521979689598 2436.00010871887 183 185 182
-891.695380210876 224.992915987968 2440.99998474121 183 185 182
-887.636303901672 225.648567080498 2447.99995422363 181 183 180
-883.539974689484 226.304620504379 2454.99992370605 180 182 179
-879.406332969666 226.961016654968 2461.99989318848 178 180 177
-874.52644109726 227.433443069458 2467.00000762939 177 177 175
-868.916451931 227.721810340881 2470.00002861023 176 176 174
-864.686846733093 228.379279375076 2476.99999809265 173 173 171
-860.073506832123 228.944912552834 2483.00004005432 172 172 170
-856.459140777588 229.78749871254 2492.00010299683 176 176 174
-850.750267505646 230.077117681503 2494.99988555908 177 177 175
-847.73176908493 231.104850769043 2506.00004196167 177 177 175
-844.654023647308 232.132941484451 2516.99995994568 184 184 182
-841.849744319916 233.253628015518 2529.00004386902 183 183 181
-1185.82940101624 212.766572833061 2378.00002098084 191 191 189
-1175.31192302704 212.036088109016 2369.99988555908 185 185 183
-1166.32294654846 211.574822664261 2365.00000953674 189 189 187
-1158.83731842041 211.382672190666 2362.99991607666 189 189 187
-1153.80573272705 211.638510227203 2365.9999370575 189 189 187
-1148.27716350555 211.805537343025 2368.00003051758 189 189 187
-1142.74191856384 211.973235011101 2369.99988555908 188 188 186
-1135.76173782349 211.873278021812 2368.99995803833 185 185 183
-1128.31461429596 211.684569716454 2367.00010299683 184 184 182
-1119.46070194244 211.228236556053 2361.99998855591 184 184 182
-1112.52272129059 211.130276322365 2361.00006103516 185 185 183
-1106.53102397919 211.211770772934 2361.99998855591 190 190 188
-1100.53765773773 211.293905973434 2362.99991607666 192 192 190
-1091.30132198334 210.750743746758 2357.00011253357 192 192 190
-1082.56161212921 210.297614336014 2351.99999809265 189 189 187
-1075.68275928497 210.202738642693 2351.0000705719 191 191 189
-1070.63186168671 210.46607196331 2354.00009155273 189 189 187
-1064.66364860535 210.55118739605 2355.00001907349 188 188 186
-1058.24363231659 210.547432303429 2355.00001907349 189 189 187
-1050.93336105347 210.365414619446 2352.9999256134 191 191 189
-1045.41265964508 210.541561245918 2355.00001907349 190 190 188
-1039.00146484375 210.53946018219 2355.00001907349 188 188 186
-1033.90824794769 210.80607175827 2358.00004005432 185 185 183
-1027.05848217011 210.715606808662 2357.00011253357 182 182 180
-1021.9486951828 210.983231663704 2359.99989509583 179 179 177
-1015.53416252136 210.983172059059 2359.99989509583 181 181 179
-1010.83254814148 211.341217160225 2364.00008201599 183 183 181
-1003.98683547974 211.252734065056 2362.99991607666 185 185 183
-997.993290424347 211.343541741371 2364.00008201599 187 187 185
-991.157293319702 211.255997419357 2362.99991607666 188 188 186
-984.745740890503 211.258351802826 2362.99991607666 187 187 185
-979.578137397766 211.529329419136 2365.9999370575 185 185 183
-973.984897136688 211.711391806602 2368.00003051758 185 185 183
-968.382477760315 211.893886327744 2369.99988555908 185 185 183
-962.365090847015 211.987406015396 2371.00005149841 186 186 184
-957.150399684906 212.26017177105 2374.00007247925 188 188 186
-952.321410179138 212.622776627541 2378.00002098084 186 186 184
-947.074472904205 212.896391749382 2381.00004196167 183 183 181
-941.812813282013 213.170424103737 2384.0000629425 180 180 178
-936.536252498627 213.444873690605 2387.00008392334 182 182 180
-930.854976177216 213.630259037018 2388.99993896484 183 183 181
-926.325023174286 214.084342122078 2394.00005340576 181 181 179
-920.616507530212 214.270517230034 2395.99990844727 183 185 182
-916.424334049225 214.814826846123 2401.99995040894 183 185 182
-911.822140216827 215.270102024078 2407.00006484985 183 185 182
-907.94575214386 215.904593467712 2414.00003433228 183 185 182
-904.032647609711 216.539517045021 2421.0000038147 183 185 182
-899.711787700653 217.085361480713 2427.00004577637 183 185 182
-895.727336406708 217.721030116081 2434.00001525879 183 185 182
-891.705632209778 218.357086181641 2440.99998474121 182 184 181
-888.009369373322 219.082951545715 2448.99988174438 181 183 180
-883.550882339478 219.630300998688 2454.99992370605 180 182 179
-879.417538642883 220.267444849014 2461.99989318848 178 180 177
-874.537885189056 220.725998282433 2467.00000762939 178 178 176
-869.631707668304 221.184894442558 2471.99988365173 178 178 176
-864.349901676178 221.554651856422 2476.0000705719 175 175 173
-860.432267189026 222.28267788887 2483.99996757507 172 172 170
-856.127977371216 222.921505570412 2490.9999370575 173 173 171
-851.445317268372 223.471209406853 2496.99997901917 175 175 173
-848.08337688446 224.3792116642 2506.99996948242 177 177 175
-844.332039356232 225.198075175285 2516.00003242493 182 182 180
-842.862367630005 226.643860340118 2532.00006484985 181 181 179
-1185.81473827362 206.295564770699 2378.00002098084 194 194 192
-1176.28979682922 205.760896205902 2371.99997901917 190 190 188
-1166.80264472961 205.227002501488 2365.9999370575 187 187 185
-1157.84394741058 204.780608415604 2361.00006103516 189 189 187
-1152.33075618744 204.942017793655 2362.99991607666 188 188 186
-1147.29595184326 205.19083738327 2365.9999370575 189 189 187
-1142.24910736084 205.440282821655 2368.99995803833 191 191 189
-1135.75172424316 205.430179834366 2368.99995803833 189 189 187
-1128.30531597137 205.247312784195 2367.00010299683 185 185 183
-1120.87380886078 205.065101385117 2365.00000953674 184 184 182
-1114.39943313599 205.05690574646 2365.00000953674 185 185 183
-1107.4606180191 204.962641000748 2364.00008201599 190 190 188
-1100.53074359894 204.868957400322 2362.99991607666 191 191 189
-1090.36910533905 204.169020056725 2355.00001907349 189 189 187
-1082.5560092926 203.903168439865 2351.99999809265 188 188 186
-1075.67775249481 203.811287879944 2351.0000705719 188 188 186
-1070.17254829407 203.980028629303 2352.9999256134 188 188 186
-1063.75551223755 203.975960612297 2352.9999256134 190 190 188
-1056.89215660095 203.885734081268 2351.99999809265 191 191 189
-1050.0373840332 203.796058893204 2351.0000705719 192 192 190
-1044.07858848572 203.88026535511 2351.99999809265 189 189 187
-1038.55848312378 204.051673412323 2354.00009155273 187 187 185
-1033.9070558548 204.396978020668 2358.00004005432 182 182 180
-1027.49347686768 204.396039247513 2358.00004005432 180 180 178
-1022.8146314621 204.742342233658 2361.99998855591 182 182 180
-1016.82531833649 204.829022288322 2362.99991607666 181 181 179
-1010.83326339722 204.916253685951 2364.00008201599 183 183 181
-1003.98802757263 204.830557107925 2362.99991607666 185 185 183
-997.572720050812 204.832002520561 2362.99991607666 187 187 185
-991.159439086914 204.833924770355 2362.99991607666 187 187 185
-984.748363494873 204.836294054985 2362.99991607666 185 185 183
-979.167103767395 205.012455582619 2365.00000953674 186 186 184
-973.577082157135 205.189093947411 2367.00010299683 187 187 185
-967.97776222229 205.366104841232 2368.99995803833 185 185 183
-962.775349617004 205.630257725716 2371.99997901917 187 187 185
-957.961440086365 205.981522798538 2375.99992752075 189 189 187
-952.326595783234 206.159815192223 2378.00002098084 187 187 185
-947.4778175354 206.511914730072 2381.99996948242 185 185 183
-941.42359495163 206.604301929474 2382.99989700317 183 183 181
-936.542570590973 206.957191228867 2387.00008392334 185 185 183
-930.472135543823 207.050353288651 2388.00001144409 184 184 182
-925.171375274658 207.317307591438 2391.00003242493 183 183 181
-919.85559463501 207.584634423256 2394.00005340576 185 187 184
-915.287673473358 208.025753498077 2398.9999294281 185 187 184
-911.072611808777 208.553969860077 2404.99997138977 182 184 181
-907.202064990997 209.169268608093 2411.99994087219 182 184 181
-902.921259403229 209.698244929314 2417.99998283386 182 184 181
-898.979604244232 210.314303636551 2424.99995231628 181 183 180
-894.632935523987 210.844039916992 2430.99999427795 181 183 180
-891.350269317627 211.634308099747 2440.00005722046 181 183 180
-888.019680976868 212.42493391037 2448.99988174438 179 181 178
-883.921384811401 213.042467832565 2456.00008964539 178 180 177
-879.428505897522 213.57361972332 2461.99989318848 177 179 176
-874.194741249084 213.93159031868 2466.00008010864 177 177 175
-869.643330574036 214.463382959366 2471.99988365173 179 179 177
-864.361822605133 214.821994304657 2476.0000705719 177 177 175
-860.79078912735 215.614721179008 2484.99989509583 174 174 172
-856.827914714813 216.321021318436 2493.00003051758 177 177 175
-852.822005748749 217.027679085732 2500.99992752075 180 180 178
-848.773062229156 217.734649777412 2509.0000629425 178 178 176
-844.345390796661 218.355163931847 2516.00003242493 181 181 179
-842.876017093658 219.757080078125 2532.00006484985 181 181 179
-1175.28438568115 199.138954281807 2369.99988555908 191 191 189
-1165.80379009247 198.621943593025 2364.00008201599 189 189 187
-1157.83178806305 198.357671499252 2361.00006103516 189 189 187
-1152.31919288635 198.514133691788 2362.99991607666 186 186 184
-1147.28510379791 198.755234479904 2365.9999370575 186 186 184
-1141.27457141876 198.828965425491 2367.00010299683 188 188 186
-1135.7421875 198.987275362015 2368.99995803833 189 189 187
-1129.24957275391 198.978215456009 2368.99995803833 187 187 185
-1122.76113033295 198.969781398773 2368.99995803833 186 186 184
-1115.33427238464 198.793992400169 2367.00010299683 186 186 184
-1106.9849729538 198.450803756714 2362.99991607666 189 189 187
-1097.72992134094 197.940275073051 2357.00011253357 189 189 187
-1088.97423744202 197.514325380325 2351.99999809265 188 188 186
-1082.55064487457 197.508841753006 2351.99999809265 186 186 184
-1076.13039016724 197.503909468651 2351.99999809265 187 187 185
-1069.7135925293 197.49952852726 2351.99999809265 188 188 186
-1061.94341182709 197.243750095367 2348.99997711182 191 191 189
-1056.43963813782 197.408378124237 2351.0000705719 193 193 191
-1049.5879650116 197.321608662605 2349.99990463257 194 194 192
-1044.07644271851 197.487235069275 2351.99999809265 187 187 185
-1038.11550140381 197.569385170937 2352.9999256134 185 185 183
-1033.90598297119 197.987928986549 2358.00004005432 180 180 178
-1027.92859077454 198.071092367172 2358.99996757507 180 180 178
-1023.24736118317 198.406592011452 2362.99991607666 180 180 178
-1016.82567596436 198.406726121902 2362.99991607666 178 178 176
-1010.83409786224 198.491305112839 2364.00008201599 181 181 179
-1003.98933887482 198.408380150795 2362.99991607666 184 184 182
-997.57444858551 198.409870266914 2362.99991607666 187 187 185
-990.322828292847 198.243916034698 2361.00006103516 187 187 185
-983.917474746704 198.246270418167 2361.00006103516 186 186 184
-977.928042411804 198.333024978638 2361.99998855591 185 185 183
-972.346544265747 198.504209518433 2364.00008201599 186 186 184
-967.16433763504 198.759734630585 2367.00010299683 187 187 185
-962.373673915863 199.099659919739 2371.00005149841 189 189 187
-957.562923431396 199.440017342567 2375 188 188 186
-952.331602573395 199.696779251099 2378.00002098084 181 181 179
-947.880923748016 200.121864676476 2382.99989700317 181 181 179
-942.219495773315 200.295448303223 2384.99999046326 183 183 181
-936.941087245941 200.553387403488 2388.00001144409 185 185 183
-930.868327617645 200.643718242645 2388.99993896484 184 184 182
-925.952136516571 200.986385345459 2392.99988746643 182 182 180
-920.247077941895 201.161444187164 2394.99998092651 183 185 182
-915.295362472534 201.504841446877 2398.9999294281 184 186 183
-911.080598831177 202.016577124596 2404.99997138977 183 185 182
-906.834304332733 202.528685331345 2411.00001335144 182 184 181
-903.303444385529 203.209161758423 2418.99991035461 183 185 182
-898.617923259735 203.638002276421 2424.00002479553 183 185 182
-894.274294376373 204.151198267937 2430.0000667572 183 185 182
-891.359925270081 205.000773072243 2440.00005722046 181 183 180
-888.392448425293 205.850750207901 2450.00004768372 178 180 177
-884.651601314545 206.533044576645 2457.99994468689 177 179 176
-879.082024097443 206.795543432236 2460.99996566772 176 178 175
-873.851120471954 207.142353057861 2464.99991416931 175 175 173
-870.006501674652 207.825675606728 2473.00004959106 177 177 175
-865.769684314728 208.425223827362 2480.00001907349 179 179 177
-861.495494842529 209.025144577026 2486.99998855591 179 179 177
-856.840074062347 209.541290998459 2493.00003051758 175 175 173
-852.493405342102 210.141822695732 2500 173 173 171
-848.109185695648 210.742652416229 2506.99996948242 175 175 173
-844.693958759308 211.595982313156 2516.99995994568 176 176 174
-843.222141265869 212.954059243202 2532.99999237061 178 178 176
-840.673446655273 214.060306549072 2546.0000038147 176 176 174
-1175.76730251312 192.772030830383 2371.00005149841 193 193 191
-1166.77761077881 192.353129386902 2365.9999370575 189 189 187
-1160.27212142944 192.341402173042 2365.9999370575 187 187 185
-1153.77116203308 192.330300807953 2365.9999370575 187 187 185
-1147.7597951889 192.401140928268 2367.00010299683 186 186 184
-1139.33610916138 192.066133022308 2362.99991607666 185 185 183
-1134.29474830627 192.300722002983 2365.9999370575 189 189 187
-1127.8110742569 192.292064428329 2365.9999370575 191 191 189
-1121.80531024933 192.365273833275 2367.00010299683 188 188 186
-1113.91317844391 192.113995552063 2364.00008201599 187 187 185
-1106.04131221771 191.863298416138 2361.00006103516 187 187 185
-1097.25797176361 191.450640559196 2355.99994659424 188 188 186
-1088.50562572479 191.038578748703 2351.0000705719 188 188 186
-1082.08525180817 191.033378243446 2351.0000705719 188 188 186
-1075.66833496094 191.028699278831 2351.0000705719 188 188 186
-1069.70953941345 191.105797886848 2351.99999809265 189 189 187
-1062.84427642822 191.020905971527 2351.0000705719 191 191 189
-1056.88607692719 191.099017858505 2351.99999809265 193 193 191
-1050.4789352417 191.096395254135 2351.99999809265 193 193 191
-1044.51835155487 191.175490617752 2352.9999256134 188 188 186
-1038.55538368225 191.25509262085 2354.00009155273 185 185 183
-1033.9047908783 191.578909754753 2358.00004005432 182 182 180
-1028.3637046814 191.740676760674 2359.99989509583 182 182 180
-1022.38142490387 191.821709275246 2361.00006103516 181 181 179
-1017.2563791275 192.065671086311 2364.00008201599 178 178 176
-1011.2624168396 192.147597670555 2365.00000953674 182 182 180
-1004.84049320221 192.148700356483 2365.00000953674 186 186 184
-996.731877326965 191.825225949287 2361.00006103516 189 189 187
-990.324974060059 191.827207803726 2361.00006103516 188 188 186
-983.919978141785 191.829591989517 2361.00006103516 187 187 185
-977.931082248688 191.913619637489 2361.99998855591 190 190 188
-971.938490867615 191.998064517975 2362.99991607666 188 188 186
-966.759562492371 192.245438694954 2365.9999370575 187 187 185
-961.566090583801 192.493170499802 2368.99995803833 188 188 186
-957.567572593689 192.985117435455 2375 180 180 178
-953.137576580048 193.396151065826 2380.00011444092 179 179 177
-948.681831359863 193.807601928711 2384.99999046326 178 178 176
-942.620396614075 193.894371390343 2385.99991798401 179 179 177
-936.947226524353 194.062784314156 2388.00001144409 181 181 179
-930.874884128571 194.150269031525 2388.99993896484 182 182 180
-926.345944404602 194.563210010529 2394.00005340576 181 181 179
-920.638501644135 194.732666015625 2395.99990844727 181 183 180
-915.302872657776 194.983765482903 2398.9999294281 182 184 181
-910.330891609192 195.316478610039 2403.00011634827 181 183 180
-905.714154243469 195.730805397034 2407.99999237061 180 182 179
-901.81827545166 196.308046579361 2414.99996185303 181 183 180
-897.885382175446 196.885630488396 2421.99993133545 184 186 183
-893.915355205536 197.463572025299 2428.99990081787 182 184 181
-891.004085540771 198.28574359417 2438.99989128113 179 181 178
-888.402283191681 199.189618229866 2450.00004768372 176 178 175
-885.021686553955 199.931234121323 2459.00011062622 176 178 175
-880.164086818695 200.347900390625 2463.99998664856 178 180 177
-874.925374984741 200.683623552322 2467.99993515015 175 175 173
-870.721042156219 201.263561844826 2474.99990463257 176 176 174
-866.479337215424 201.843842864037 2482.00011253357 179 179 177
-861.506998538971 202.261745929718 2486.99998855591 179 179 177
-856.851875782013 202.761307358742 2493.00003051758 176 176 174
-852.164506912231 203.261122107506 2499.00007247925 175 175 173
-848.459780216217 204.005256295204 2507.99989700317 175 175 173
-845.042109489441 204.831048846245 2517.99988746643 175 175 173
-843.900918960571 206.226661801338 2535.00008583069 176 176 174
-842.007458209991 207.459911704063 2549.99995231628 174 174 172
-1176.74672603607 186.478495597839 2372.99990653992 192 192 190
-1168.73836517334 186.23086810112 2369.99988555908 187 187 185
-1161.24176979065 186.062440276146 2368.00003051758 187 187 185
-1155.22360801697 186.130374670029 2368.99995803833 187 187 185
-1148.23472499847 186.041742563248 2368.00003051758 188 188 186
-1140.29121398926 185.79663336277 2365.00000953674 187 187 185
-1133.80670547485 185.787782073021 2365.00000953674 188 188 186
-1126.84965133667 185.700953006744 2364.00008201599 189 189 187
-1120.84984779358 185.77179312706 2365.00000953674 187 187 185
-1113.90626430511 185.686126351357 2364.00008201599 186 186 184
-1106.03475570679 185.443863272667 2361.00006103516 188 188 186
-1097.7178812027 185.123682022095 2357.00011253357 189 189 187
-1088.96327018738 184.725478291512 2351.99999809265 190 190 188
-1081.62021636963 184.56344306469 2349.99990463257 191 191 189
-1075.66404342651 184.637531638145 2351.0000705719 190 190 188
-1070.16050815582 184.790670871735 2352.9999256134 189 189 187
-1063.74502182007 184.787228703499 2352.9999256134 189 189 187
-1056.88321590424 184.705764055252 2351.99999809265 190 190 188
-1050.02987384796 184.624791145325 2351.0000705719 190 190 188
-1044.07274723053 184.701323509216 2351.99999809265 188 188 186
-1038.11275959015 184.778332710266 2352.9999256134 184 184 182
-1032.58860111237 184.934347867966 2355.00001907349 183 183 181
-1027.49192714691 185.169354081154 2358.00004005432 183 183 181
-1021.51536941528 185.247719287872 2358.99996757507 181 181 179
-1015.96593856812 185.405060648918 2361.00006103516 179 179 177
-1010.40804386139 185.562819242477 2362.99991607666 183 183 181
-1004.41694259644 185.642525553703 2364.00008201599 186 186 184
-998.000144958496 185.644090175629 2364.00008201599 189 189 187
-990.327119827271 185.410499572754 2361.00006103516 187 187 185
-984.33929681778 185.491397976875 2361.99998855591 185 185 183
-977.934062480927 185.494169592857 2361.99998855591 182 182 180
-972.764611244202 185.732960700989 2365.00000953674 182 182 180
-967.172026634216 185.893580317497 2367.00010299683 187 187 185
-961.976110935211 186.133116483688 2369.99988555908 189 189 187
-956.765711307526 186.373040080071 2372.99990653992 182 182 180
-951.941072940826 186.691895127296 2377.00009346008 178 178 176
-948.289334774017 187.246724963188 2384.0000629425 178 178 176
-943.021178245544 187.487781047821 2387.00008392334 178 178 176
-936.953186988831 187.572076916695 2388.00001144409 178 178 176
-931.270837783813 187.735259532928 2390.00010490417 181 181 179
-925.965666770935 187.977358698845 2392.99988746643 182 182 180
-921.413958072662 188.376903533936 2398.00000190735 182 184 181
-915.691792964935 188.541114330292 2400.00009536743 183 185 182
-911.096155643463 188.941314816475 2404.99997138977 182 184 181
-906.474471092224 189.341872930527 2410.00008583069 182 184 181
-901.826620101929 189.742773771286 2414.99996185303 183 185 182
-897.523283958435 190.222561359406 2421.0000038147 181 183 180
-894.292414188385 190.938398241997 2430.0000667572 180 182 179
-891.744017601013 191.811725497246 2440.99998474121 179 181 178
-889.137029647827 192.685425281525 2451.99990272522 176 178 175
-886.111199855804 193.480893969536 2461.99989318848 175 177 174
-881.960391998291 194.040954113007 2469.00010108948 174 176 173
-877.417385578156 194.522708654404 2474.99990463257 174 174 172
-872.490882873535 194.926157593727 2480.00001907349 173 173 171
-867.537498474121 195.329904556274 2484.99989509583 169 169 167
-862.211167812347 195.655345916748 2489.00008201599 168 168 166
-857.207179069519 196.05964422226 2493.99995803833 171 171 169
-851.835310459137 196.385592222214 2497.99990653992 172 172 170
-847.795248031616 197.026297450066 2506.00004196167 174 174 172
-845.39008140564 198.060438036919 2519.00005340576 176 176 174
-844.57927942276 199.488043785095 2536.99994087219 176 176 174
-844.661951065063 201.151996850967 2558.00008773804 173 173 171
-1176.2387752533 179.946705698967 2371.99997901917 195 195 193
-1170.20642757416 180.011168122292 2372.99990653992 188 188 186
-1161.72134876251 179.696932435036 2368.99995803833 191 191 189
-1154.72590923309 179.610878229141 2368.00003051758 185 185 183
-1146.28565311432 179.297894239426 2364.00008201599 185 185 183
-1138.83578777313 179.13718521595 2361.99998855591 188 188 186
-1132.36010074615 179.128721356392 2361.99998855591 188 188 186
-1125.88834762573 179.12083864212 2361.99998855591 187 187 185
-1119.8947429657 179.189309477806 2362.99991607666 186 186 184
-1113.42823505402 179.182514548302 2362.99991607666 186 186 184
-1106.02867603302 179.024592041969 2361.00006103516 189 189 187
-1098.64366054535 178.867191076279 2358.99996757507 190 190 188
-1091.273188591 178.710326552391 2357.00011253357 191 191 189
-1083.45675468445 178.47815155983 2354.00009155273 191 191 189
-1076.57492160797 178.398102521896 2352.9999256134 190 190 188
-1071.0666179657 178.546026349068 2355.00001907349 189 189 187
-1064.64624404907 178.542777895927 2355.00001907349 188 188 186
-1056.88071250916 178.312569856644 2351.99999809265 188 188 186
-1050.02784729004 178.234472870827 2351.0000705719 189 189 187
-1043.62714290619 178.232640028 2351.0000705719 186 186 184
-1037.67037391663 178.307041525841 2351.99999809265 182 182 180
-1031.27241134644 178.306117653847 2351.99999809265 182 182 180
-1026.62003040314 178.608864545822 2355.99994659424 182 182 180
-1020.64943313599 178.684622049332 2357.00011253357 180 180 178
-1015.96653461456 178.988203406334 2361.00006103516 179 179 177
-1009.98151302338 179.064780473709 2361.99998855591 183 183 181
-1004.41825389862 179.217591881752 2364.00008201599 186 186 184
-997.157692909241 179.067566990852 2361.99998855591 187 187 185
-989.909708499908 178.917899727821 2359.99989509583 184 184 182
-984.341979026794 179.071933031082 2361.99998855591 182 182 180
-978.76513004303 179.22630906105 2364.00008201599 182 182 180
-974.001944065094 179.532706737518 2368.00003051758 182 182 180
-967.992901802063 179.612025618553 2368.99995803833 184 184 182
-961.57431602478 179.615914821625 2368.99995803833 187 187 185
-955.560505390167 179.695948958397 2369.99988555908 181 181 179
-950.343906879425 179.928004741669 2372.99990653992 175 175 173
-946.305751800537 180.387899279594 2378.99994850159 178 178 176
-941.051304340363 180.620640516281 2381.99996948242 185 185 183
-935.781955718994 180.853769183159 2384.99999046326 185 185 183
-930.887401103973 181.163042783737 2388.99993896484 183 183 181
-925.97222328186 181.472659111023 2392.99988746643 182 182 180
-921.420812606812 181.85843527317 2398.00000190735 184 186 183
-916.080415248871 182.092890143394 2401.00002288818 184 186 183
-911.103665828705 182.403489947319 2404.99997138977 184 186 183
-905.729949474335 182.638555765152 2407.99999237061 184 186 183
-900.340974330902 182.873949408531 2411.00001335144 185 187 184
-896.048784255981 183.337166905403 2417.00005531311 185 187 184
-892.82900094986 184.028297662735 2426.00011825562 185 187 184
-891.387820243835 185.099065303802 2440.00005722046 185 187 184
-888.783812522888 185.942590236664 2450.99997520447 183 185 182
-885.041177272797 186.558872461319 2459.00011062622 181 183 180
-881.255745887756 187.175467610359 2467.00000762939 179 181 178
-877.782166004181 187.868237495422 2476.0000705719 181 181 179
-873.205006122589 188.333705067635 2482.00011253357 179 179 177
-868.246614933014 188.723564147949 2486.99998855591 171 171 169
-862.568557262421 188.961923122406 2490.00000953674 168 168 166
-856.874644756317 189.200505614281 2493.00003051758 169 169 167
-851.846754550934 189.591154456139 2497.99990653992 170 170 168
-848.145306110382 190.285682678223 2506.99996948242 172 172 170
-846.07321023941 191.359996795654 2520.99990844727 174 174 172
-845.590353012085 192.814216017723 2539.99996185303 174 174 172
-844.3443775177 194.116994738579 2556.99992179871 179 179 177
-1177.7149438858 173.713117837906 2375 198 198 196
-1171.18179798126 173.70218038559 2375 191 191 189
-1162.20140457153 173.326149582863 2369.99988555908 193 193 191
-1154.71625328064 173.170164227486 2368.00003051758 183 183 181
-1145.79153060913 172.795325517654 2362.99991607666 182 182 180
-1139.30940628052 172.786697745323 2362.99991607666 184 184 182
-1131.39319419861 172.559261322021 2359.99989509583 186 186 184
-1125.40435791016 172.624871134758 2361.00006103516 185 185 183
-1119.41397190094 172.690972685814 2361.99998855591 187 187 185
-1113.42179775238 172.75758087635 2362.99991607666 187 187 185
-1105.55422306061 172.532275319099 2359.99989509583 191 191 189
-1098.63829612732 172.453731298447 2358.99996757507 191 191 189
-1091.73130989075 172.375679016113 2358.00004005432 188 188 186
-1085.29341220856 172.371193766594 2358.00004005432 184 184 182
-1077.94380187988 172.220975160599 2355.99994659424 185 185 183
-1071.51794433594 172.217473387718 2355.99994659424 187 187 185
-1064.64326381683 172.141328454018 2355.00001907349 190 190 188
-1057.32750892639 171.992525458336 2352.9999256134 192 192 190
-1049.57914352417 171.771109104156 2349.99990463257 190 190 188
-1042.73772239685 171.696305274963 2348.99997711182 187 187 185
-1037.22810745239 171.841248869896 2351.0000705719 183 183 181
-1031.2716960907 171.913504600525 2351.99999809265 184 184 182
-1026.61979198456 172.205463051796 2355.99994659424 184 184 182
-1021.08252048492 172.351658344269 2358.00004005432 181 181 179
-1015.53678512573 172.498255968094 2359.99989509583 179 179 177
-1009.55498218536 172.572180628777 2361.00006103516 184 184 182
-1004.4196844101 172.792658209801 2364.00008201599 187 187 185
-998.003840446472 172.794282436371 2364.00008201599 189 189 187
-990.750908851624 172.650054097176 2361.99998855591 186 186 184
-984.34454202652 172.652438282967 2361.99998855591 184 184 182
-978.353977203369 172.72824048996 2362.99991607666 186 186 184
-974.416553974152 173.169925808907 2368.99995803833 185 185 183
-968.40512752533 173.246458172798 2369.99988555908 181 181 179
-962.390184402466 173.323377966881 2371.00005149841 183 183 181
-955.968201160431 173.327535390854 2371.00005149841 183 183 181
-950.348615646362 173.478230834007 2372.99990653992 187 187 185
-945.515334606171 173.775479197502 2377.00009346008 186 186 184
-940.661668777466 174.073070287704 2381.00004196167 179 179 177
-936.57249212265 174.517214298248 2387.00008392334 176 176 174
-931.282997131348 174.742355942726 2390.00010490417 178 178 176
-926.365554332733 175.040945410728 2394.00005340576 180 180 178
-922.195971012115 175.486087799072 2400.00009536743 178 180 177
-916.850447654724 175.712198019028 2403.00011634827 179 181 178
-912.2474193573 176.084846258163 2407.99999237061 179 181 178
-906.866014003754 176.31159722805 2411.00001335144 179 181 178
-900.722324848175 176.39234662056 2411.99994087219 180 182 179
-896.056890487671 176.765903830528 2417.00005531311 180 182 179
-892.469465732574 177.359193563461 2424.99995231628 180 182 179
-890.665829181671 178.318485617638 2437.99996376038 179 181 178
-888.067543506622 179.131850600243 2448.99988174438 180 182 179
-883.970737457275 179.652959108353 2456.00008964539 181 183 180
-880.550920963287 180.320620536804 2464.99991416931 182 184 181
-876.373946666718 180.842339992523 2471.99988365173 183 183 181
-873.215198516846 181.58383667469 2482.00011253357 183 183 181
-868.60603094101 182.032912969589 2487.99991607666 182 182 180
-863.272070884705 182.335987687111 2492.00010299683 180 180 178
-857.572913169861 182.566091418266 2494.99988555908 177 177 175
-852.880895137787 183.01597237587 2500.99992752075 176 176 174
-848.83326292038 183.612510561943 2509.0000629425 175 175 173
-846.084892749786 184.502020478249 2520.99990844727 171 171 169
-844.270586967468 185.611441731453 2536.00001335144 169 169 167
-843.696117401123 187.013983726501 2555.0000667572 183 183 181
-1168.21265220642 166.819185018539 2368.99995803833 191 191 189
-1159.7398519516 166.527688503265 2365.00000953674 194 194 192
-1153.24401855469 166.518360376358 2365.00000953674 186 186 184
-1144.81317996979 166.227981448174 2361.00006103516 183 183 181
-1138.33689689636 166.219756007195 2361.00006103516 183 183 181
-1130.90634346008 166.071265935898 2358.99996757507 187 187 187
-1125.39732456207 166.204869747162 2361.00006103516 188 188 188
-1118.93343925476 166.198208928108 2361.00006103516 186 186 186
-1112.00213432312 166.121631860733 2359.99989509583 185 185 185
-1104.14350032806 165.90479016304 2357.00011253357 191 191 191
-1096.30465507507 165.688440203667 2354.00009155273 193 193 193
-1090.80064296722 165.824502706528 2355.99994659424 188 188 188
-1083.90855789185 165.74989259243 2355.00001907349 190 190 190
-1077.48258113861 165.746122598648 2355.00001907349 187 187 187
-1070.15037536621 165.602043271065 2352.9999256134 189 189 189
-1062.83223628998 165.458410978317 2351.0000705719 193 193 193
-1055.97710609436 165.385603904724 2349.99990463257 191 191 191
-1049.57723617554 165.383607149124 2349.99990463257 192 192 190
-1043.62416267395 165.452435612679 2351.0000705719 188 188 186
-1038.10942173004 165.592029690742 2352.9999256134 183 183 181
-1032.14824199677 165.661677718163 2354.00009155273 184 184 182
-1027.05538272858 165.872469544411 2357.00011253357 185 185 183
-1021.0827589035 165.942907333374 2358.00004005432 181 181 179
-1015.96772670746 166.154503822327 2361.00006103516 184 184 182
-1009.9835395813 166.225716471672 2361.99998855591 185 185 183
-1004.84597682953 166.438087821007 2365.00000953674 185 185 183
-998.005568981171 166.369318962097 2364.00008201599 184 184 182
-990.753054618835 166.230529546738 2361.99998855591 182 182 180
-984.346985816956 166.232869029045 2361.99998855591 181 181 179
-978.770911693573 166.376322507858 2364.00008201599 180 180 178
-974.831104278564 166.801646351814 2369.99988555908 177 177 175
-968.408703804016 166.805028915405 2369.99988555908 174 174 172
-962.394177913666 166.879147291183 2371.00005149841 176 176 174
-955.97243309021 166.883215308189 2371.00005149841 181 181 179
-951.154232025146 167.169138789177 2375 181 181 179
-945.917963981628 167.384997010231 2378.00002098084 181 181 179
-940.666913986206 167.601197957993 2381.00004196167 178 178 176
-936.578035354614 168.028891086578 2387.00008392334 174 174 172
-931.678652763367 168.316140770912 2391.00003242493 172 172 170
-926.758646965027 168.603673577309 2394.99998092651 173 173 171
-922.202587127686 168.961942195892 2400.00009536743 177 177 175
-916.857361793518 169.179707765579 2403.00011634827 179 179 177
-911.87572479248 169.468179345131 2407.00006484985 179 179 177
-906.497240066528 169.686540961266 2410.00008583069 178 178 176
-900.729835033417 169.834733009338 2411.99994087219 179 179 177
-896.806299686432 170.335307717323 2418.99991035461 180 180 178
-892.477631568909 170.76575756073 2424.99995231628 179 179 177
-889.943778514862 171.548634767532 2436.00010871887 179 179 177
-886.988580226898 172.261387109756 2446.00009918213 182 182 180
-882.539987564087 172.692716121674 2451.99990272522 183 183 181
-878.774166107178 173.265218734741 2460.00003814697 181 181 179
-874.610960483551 173.767551779747 2467.00000762939 180 182 181
-872.169554233551 174.622371792793 2479.00009155273 177 179 178
-868.266999721527 175.195723772049 2486.99998855591 174 176 175
-862.935900688171 175.48756301403 2490.9999370575 175 177 176
-857.927262783051 175.850108265877 2496.00005149841 174 176 175
-853.573799133301 176.35378241539 2503.00002098084 171 173 172
-850.197613239288 177.069127559662 2513.00001144409 166 168 167
-846.096158027649 177.643820643425 2520.99990844727 166 168 167
-843.283355236053 178.500637412071 2532.99999237061 173 175 174
-840.735912322998 179.428204894066 2546.0000038147 180 182 181
-1170.1751947403 160.645976662636 2372.99990653992 193 193 191
-1160.22074222565 160.162672400475 2365.9999370575 192 192 190
-1152.747631073 160.018429160118 2364.00008201599 184 184 182
-1143.83494853973 159.671634435654 2358.99996757507 182 182 180
-1138.32926750183 159.799188375473 2361.00006103516 183 183 181
-1130.89895248413 159.656465053558 2358.99996757507 185 185 185
-1125.39052963257 159.784987568855 2361.00006103516 185 185 185
-1119.40109729767 159.84633564949 2361.99998855591 187 187 187
-1112.93876171112 159.840449690819 2361.99998855591 187 187 187
-1104.60650920868 159.56437587738 2358.00004005432 192 192 192
-1095.36838531494 159.153446555138 2351.99999809265 192 192 192
-1088.94443511963 159.148976206779 2351.99999809265 186 186 186
-1082.06355571747 159.077331423759 2351.0000705719 187 187 187
-1076.10654830933 159.141421318054 2351.99999809265 188 188 188
-1068.32814216614 158.935323357582 2348.99997711182 189 189 189
-1060.56928634644 158.729642629623 2345.99995613098 190 190 190
-1053.72834205627 158.659726381302 2345.00002861023 190 190 190
-1048.68233203888 158.860847353935 2348.00004959106 184 184 182
-1043.62285137177 159.062385559082 2351.0000705719 184 184 182
-1038.10858726501 159.196645021439 2352.9999256134 184 184 182
-1032.14764595032 159.263670444489 2354.00009155273 183 183 181
-1027.49109268188 159.53403711319 2358.00004005432 182 182 180
-1021.94917201996 159.669473767281 2359.99989509583 179 179 177
-1015.9684419632 159.737631678581 2361.00006103516 180 180 178
-1010.41209697723 159.873828291893 2362.99991607666 183 183 181
-1005.27215003967 160.078048706055 2365.9999370575 185 185 183
-999.273836612701 160.147324204445 2367.00010299683 186 186 184
-991.174638271332 159.878626465797 2362.99991607666 185 185 183
-984.349548816681 159.813284873962 2361.99998855591 185 185 183
-978.773832321167 159.951269626617 2364.00008201599 188 188 186
-974.422931671143 160.292536020279 2368.99995803833 188 188 186
-968.412339687347 160.363525152206 2369.99988555908 185 185 183
-962.803900241852 160.5024933815 2371.99997901917 182 182 180
-956.782877445221 160.574108362198 2372.99990653992 178 178 176
-951.959788799286 160.849094390869 2377.00009346008 184 184 182
-946.320533752441 160.989001393318 2378.99994850159 185 185 183
-941.067039966583 161.196917295456 2381.99996948242 185 185 183
-936.583399772644 161.540478467941 2387.00008392334 184 184 182
-931.68431520462 161.81668639183 2391.00003242493 182 182 180
-926.377713680267 162.02549636364 2394.00005340576 183 183 181
-921.440303325653 162.302285432816 2398.00000190735 182 182 180
-916.482329368591 162.579387426376 2401.99995040894 183 183 181
-911.88257932663 162.924453616142 2407.00006484985 182 182 180
-907.256543636322 163.269802927971 2411.99994087219 183 183 181
-901.857674121857 163.480073213577 2414.99996185303 184 184 182
-898.297071456909 164.029091596603 2423.00009727478 188 188 186
-893.221735954285 164.307594299316 2427.00004577637 188 188 186
-890.317320823669 164.992555975914 2437.00003623962 188 188 186
-886.271774768829 165.474742650986 2444.00000572205 189 189 187
-882.548809051514 166.024893522263 2451.99990272522 189 189 187
-879.140496253967 166.643053293228 2460.99996566772 186 186 184
-875.329315662384 167.193785309792 2469.00010108948 184 186 185
-871.827125549316 167.812466621399 2477.9999256134 183 185 184
-867.927730083466 168.363764882088 2486.00006103516 183 185 184
-863.638818264008 168.84757578373 2493.00003051758 182 184 183
-859.656095504761 169.399380683899 2500.99992752075 176 178 177
-855.971455574036 170.019179582596 2509.99999046326 172 174 173
-852.238178253174 170.639216899872 2519.00005340576 170 172 171
-847.785294055939 171.124055981636 2526.00002288818 171 173 172
-842.961549758911 171.54136300087 2532.00006484985 179 181 180
-839.756608009338 172.297686338425 2542.99998283386 181 183 182
-1169.17955875397 154.061332345009 2371.00005149841 193 193 191
-1160.21192073822 153.7274569273 2365.9999370575 194 194 192
-1151.76379680634 153.45910191536 2361.99998855591 190 190 188
-1142.85743236542 153.12634408474 2357.00011253357 189 189 187
-1135.91110706329 153.053924441338 2355.99994659424 189 189 187
-1131.37149810791 153.306797146797 2359.99989509583 188 188 188
-1126.33740901947 153.495162725449 2362.99991607666 188 188 188
-1119.86899375916 153.489127755165 2362.99991607666 187 187 187
-1112.9332780838 153.418600559235 2361.99998855591 188 188 188
-1104.60150241852 153.153672814369 2358.00004005432 192 192 192
-1095.36385536194 152.759313583374 2351.99999809265 191 191 191
-1088.47725391388 152.690142393112 2351.0000705719 186 186 186
-1080.67917823792 152.491539716721 2348.00004959106 188 188 188
-1074.73063468933 152.553096413612 2348.99997711182 190 190 190
-1065.59658050537 152.16052532196 2342.99993515015 190 190 190
-1058.30657482147 152.028128504753 2341.00008010864 189 189 189
-1051.92899703979 152.026027441025 2341.00008010864 190 190 190
-1047.34086990356 152.284055948257 2345.00002861023 187 187 185
-1042.73390769959 152.542501688004 2348.99997711182 187 187 185
-1037.22548484802 152.671441435814 2351.0000705719 186 186 184
-1032.14716911316 152.865678071976 2354.00009155273 182 182 180
-1027.05538272858 153.06031703949 2357.00011253357 181 181 179
-1021.94952964783 153.255298733711 2359.99989509583 182 182 180
-1015.96915721893 153.320789337158 2361.00006103516 185 185 183
-1010.84089279175 153.516486287117 2364.00008201599 187 187 185
-1004.84871864319 153.58267724514 2365.00000953674 187 187 185
-998.431265354156 153.584271669388 2365.00000953674 185 185 183
-990.757346153259 153.391391038895 2361.99998855591 183 183 181
-984.768688678741 153.458595275879 2362.99991607666 182 182 180
-979.190587997437 153.591081500053 2365.00000953674 186 186 184
-974.426090717316 153.85377407074 2368.99995803833 184 184 182
-968.007147312164 153.85702252388 2368.99995803833 182 182 180
-962.807655334473 154.055401682854 2371.99997901917 181 181 179
-956.78699016571 154.124200344086 2372.99990653992 181 181 179
-951.96408033371 154.388189315796 2377.00009346008 180 180 178
-946.72304391861 154.587492346764 2380.00011444092 181 181 179
-941.072106361389 154.722139239311 2381.99996948242 182 182 180
-935.803949832916 154.922038316727 2384.99999046326 182 182 180
-930.910468101501 155.18718957901 2388.99993896484 182 182 180
-926.3836145401 155.517622828484 2394.00005340576 182 182 180
-921.062171459198 155.718371272087 2397.0000743866 181 181 179
-916.870296001434 156.11432492733 2403.00011634827 180 180 178
-912.268102169037 156.44559264183 2407.99999237061 179 179 177
-907.263517379761 156.712144613266 2411.99994087219 179 179 177
-901.491343975067 156.849026679993 2414.00003433228 181 181 179
-898.304462432861 157.441020011902 2423.00009727478 182 182 180
-893.965423107147 157.838344573975 2428.99990081787 183 183 181
-891.421318054199 158.560872077942 2440.00005722046 184 184 182
-886.279881000519 158.828765153885 2444.00000572205 187 187 185
-882.557272911072 159.356877207756 2451.99990272522 187 187 185
-878.791987895966 159.88527238369 2460.00003814697 186 186 184
-875.3382563591 160.478934645653 2469.00010108948 188 190 189
-872.188329696655 161.137863993645 2479.00009155273 186 188 187
-867.937207221985 161.602035164833 2486.00006103516 181 183 182
-863.994956016541 162.13147342205 2493.99995803833 177 179 178
-860.009729862213 162.661164999008 2502.00009346008 161 163 162
-856.663644313812 163.321137428284 2512.00008392334 155 157 156
-853.601932525635 164.046391844749 2523.00000190735 155 157 156
-850.480735301971 164.771899580956 2533.99991989136 148 150 149
-845.302820205688 165.107518434525 2539.00003433228 147 149 148
-840.427994728088 165.5083745718 2545.00007629395 150 152 151
-1170.64988613129 147.798985242844 2374.00007247925 197 197 195
-1161.67449951172 147.479146718979 2368.99995803833 190 190 188
-1151.75592899323 147.035345435143 2361.99998855591 191 191 189
-1142.85004138947 146.716549992561 2357.00011253357 193 193 191
-1136.38615608215 146.709457039833 2357.00011253357 193 193 191
-1131.84428215027 146.951794624329 2361.00006103516 190 190 190
-1126.33121013641 147.070094943047 2362.99991607666 188 188 188
-1118.91555786133 146.939888596535 2361.00006103516 187 187 187
-1111.51456832886 146.81014418602 2358.99996757507 188 188 188
-1103.19137573242 146.556362509727 2355.00001907349 190 190 190
-1094.89369392395 146.303027868271 2351.0000705719 190 190 190
-1087.54742145538 146.174594759941 2348.99997711182 189 189 189
-1081.59601688385 146.233230829239 2349.99990463257 193 193 193
-1075.18517971039 146.230071783066 2349.99990463257 191 191 191
-1066.50364398956 145.91620862484 2345.00002861023 191 191 191
-1058.75635147095 145.727172493935 2342.00000762939 190 190 190
-1052.37638950348 145.725190639496 2342.00000762939 190 190 190
-1047.33943939209 145.910277962685 2345.00002861023 191 191 189
-1042.28889942169 146.095722913742 2348.00004959106 188 188 186
-1036.78357601166 146.219298243523 2349.99990463257 183 183 181
-1032.58538246155 146.52992784977 2355.00001907349 178 178 176
-1027.05538272858 146.65424823761 2357.00011253357 178 178 176
-1022.38297462463 146.903350949287 2361.00006103516 181 181 179
-1016.40021800995 146.966144442558 2361.99998855591 180 180 178
-1011.26956939697 147.153705358505 2365.00000953674 182 182 180
-1004.85026836395 147.154957056046 2365.00000953674 183 183 181
-998.432993888855 147.156536579132 2365.00000953674 182 182 180
-991.598427295685 147.096231579781 2364.00008201599 181 181 179
-985.604703426361 147.160679101944 2365.00000953674 180 180 178
-980.021357536316 147.287651896477 2367.00010299683 183 183 181
-974.017858505249 147.352740168571 2368.00003051758 186 186 184
-968.010425567627 147.418111562729 2368.99995803833 189 189 187
-962.811291217804 147.608250379562 2371.99997901917 187 187 185
-957.597374916077 147.798672318459 2375 184 184 182
-953.169763088226 148.113891482353 2380.00011444092 183 183 181
-947.52299785614 148.24266731739 2381.99996948242 182 182 180
-941.867053508759 148.371756076813 2384.0000629425 182 182 180
-935.809016227722 148.43887090683 2384.99999046326 184 184 182
-931.305587291718 148.755207657814 2390.00010490417 186 186 184
-926.776170730591 149.071827530861 2394.99998092651 182 182 180
-921.836614608765 149.326503276825 2398.9999294281 180 180 178
-917.258083820343 149.643674492836 2404.00004386902 178 178 176
-912.653386592865 149.961143732071 2408.99991989136 177 177 175
-907.646358013153 150.216594338417 2413.00010681152 177 177 175
-901.871800422668 150.34781396389 2414.99996185303 178 178 176
-897.940933704376 150.790557265282 2421.99993133545 181 181 179
-893.236756324768 151.109039783478 2427.00004577637 182 182 180
-889.967679977417 151.676848530769 2436.00010871887 183 183 181
-885.562598705292 152.058094739914 2441.99991226196 184 184 182
-882.205605506897 152.626439929008 2450.99997520447 184 184 182
-878.085911273956 153.070464730263 2457.99994468689 186 186 184
-874.6377825737 153.639331459999 2467.00000762939 187 189 188
-871.141672134399 154.208436608315 2476.0000705719 184 186 185
-867.247939109802 154.715493321419 2483.99996757507 182 184 183
-863.311409950256 155.222833156586 2492.00010299683 181 183 182
-859.331846237183 155.730411410332 2500 177 179 178
-856.673359870911 156.487390398979 2512.00008392334 175 177 176
-854.288458824158 157.30693936348 2525.00009536743 174 176 175
-851.162195205688 158.00216794014 2536.00001335144 175 177 176
-846.311986446381 158.386096358299 2542.00005531311 173 175 174
-841.098964214325 158.707901835442 2546.99993133545 161 163 162
-1168.66874694824 141.103714704514 2369.99988555908 201 201 199
-1161.66627407074 141.036063432693 2368.99995803833 190 190 188
-1152.23586559296 140.671223402023 2362.99991607666 188 188 186
-1144.2973613739 140.48545062542 2359.99989509583 189 189 187
-1136.37971878052 140.300169587135 2357.00011253357 191 191 189
-1131.35862350464 140.472427010536 2359.99989509583 191 191 191
-1123.94213676453 140.347540378571 2358.00004005432 191 191 191
-1117.96236038208 140.401631593704 2358.99996757507 187 187 187
-1111.5095615387 140.396624803543 2358.99996757507 188 188 188
-1104.12395000458 140.273034572601 2357.00011253357 189 189 189
-1096.28689289093 140.090316534042 2354.00009155273 189 189 189
-1088.93287181854 139.967530965805 2351.99999809265 191 191 191
-1082.05318450928 139.904662966728 2351.0000705719 193 193 193
-1075.18231868744 139.842167496681 2349.99990463257 189 189 189
-1066.50102138519 139.542043209076 2345.00002861023 189 189 189
-1059.65840816498 139.480337500572 2344.00010108948 192 192 192
-1053.27343940735 139.478489756584 2344.00010108948 191 191 191
-1046.4448928833 139.417514204979 2342.99993515015 187 187 185
-1041.8438911438 139.654397964478 2346.99988365173 184 184 182
-1036.78297996521 139.832153916359 2349.99990463257 180 180 178
-1032.58502483368 140.129238367081 2355.00001907349 178 178 176
-1026.61967277527 140.188664197922 2355.99994659424 179 179 177
-1021.08418941498 140.307933092117 2358.00004005432 179 179 177
-1015.54024219513 140.427529811859 2359.99989509583 182 182 180
-1009.98783111572 140.547454357147 2361.99998855591 185 185 183
-1003.57699394226 140.548706054688 2361.99998855591 186 186 184
-997.168242931366 140.550255775452 2361.99998855591 186 186 184
-992.019772529602 140.730634331703 2365.00000953674 185 185 183
-986.023724079132 140.792325139046 2365.9999370575 185 185 183
-980.438053607941 140.913799405098 2368.00003051758 188 188 186
-974.432110786438 140.976086258888 2368.99995803833 189 189 187
-968.83100271225 141.098156571388 2371.00005149841 187 187 185
-963.626682758331 141.280055046082 2374.00007247925 185 185 183
-958.407640457153 141.462206840515 2377.00009346008 180 180 178
-954.375326633453 141.823202371597 2382.99989700317 176 176 174
