ply
format ascii 1.0
comment KinectMotionCapture
element vertex 752
property float x
property float y
property float z
property uchar red
property uchar green
property uchar blue
end_header
-709.331250092542 453.384430727307 2732.24212363365 108 110 109
-707.61305032263 452.440620392855 2739.37322235713 97 99 98
-705.881692642232 451.496714349284 2746.47958826001 96 98 97
-703.159992470757 450.358344302096 2753.82135796146 103 105 104
-709.224588075191 450.968688274043 2758.81389554208 104 106 105
-718.23435100113 452.162068222635 2763.05356161705 98 100 99
-729.220093432471 453.744242510518 2766.81473415697 128 130 129
-751.02681891123 457.464478416304 2767.85581745272 130 132 131
-765.016454625688 459.630225497754 2770.9722876629 168 170 167
-769.189645883008 459.852560671785 2776.59910413376 147 150 143
-1046.85254485389 537.196113515315 2367.26205628218 168 169 163
-1029.24075998886 532.835126374254 2382.2032470526 165 166 160
-1018.09180229687 529.81188229535 2394.62843873633 168 169 163
-1009.70021062535 527.361726776448 2405.95236670376 158 161 154
-1004.07769374869 525.484828790375 2416.19661633814 166 167 161
-993.749998867376 522.651391090142 2428.07403523691 170 172 167
-989.941915645771 521.156178718442 2437.54054133822 171 173 168
-986.112669064812 519.660686675448 2446.96753581849 173 175 170
-984.141222049834 518.547411421763 2455.69670431301 168 168 166
-969.921441010825 514.947154083973 2468.64547433527 175 175 173
-951.882976150448 510.581159883612 2482.80041712134 174 176 173
-933.784324161833 506.214478517184 2496.84445816667 170 174 173
-924.128940673715 503.5690863621 2507.9001302078 172 176 175
-916.328751731197 501.305909519991 2518.25318471209 170 174 173
-915.128865844977 500.381804479121 2526.34297866406 168 172 171
-910.120493670128 498.692052576857 2535.65823180986 169 173 172
-912.68819031708 498.532972477467 2542.44765432826 165 169 168
-902.88604804056 495.885803169315 2553.23287578946 163 167 166
-889.236601135289 492.472628154815 2565.17205453175 164 168 167
-874.586184617774 488.86756778257 2577.32736307003 164 168 167
-862.751796338225 485.83628163693 2588.48900034914 160 164 163
-855.657312870344 483.761621858691 2598.08186759186 158 163 159
-839.914314607695 479.963703385606 2610.28452199691 165 170 166
-830.83219530025 477.505413672742 2620.33599769845 150 155 151
-820.755671482491 474.855331551764 2630.61570556655 145 150 146
-817.373642528196 473.545175085221 2638.80614979386 148 153 149
-801.45522739962 469.745485343663 2650.68564796235 152 157 153
-785.484575636718 465.94527697164 2662.46891747928 154 159 155
-767.530708856666 461.761504193408 2674.71945010271 132 137 133
-759.1871915002 459.492418720175 2684.07144780497 159 164 160
-750.812374988752 457.223051055594 2693.36529155338 136 141 137
-743.37511068872 455.144885545943 2702.32666814102 152 157 153
-733.967747184344 452.683328472862 2711.77897793822 126 128 127
-723.554487361745 450.029893849413 2721.43835876927 94 96 95
-720.890243973192 448.908745442857 2728.89098087658 98 100 99
-725.031693803619 449.128612376955 2734.45867682773 98 100 99
-732.10233904065 449.923242830043 2739.24214255183 103 105 104
-742.114097691889 451.292824925733 2743.26284976518 100 102 101
-750.18648867309 452.27928350401 2747.83159593027 111 113 110
-764.149451999164 454.415717088912 2750.8896913234 120 122 119
-769.31147133355 454.827508851687 2756.27782136439 128 130 127
-776.442871195129 455.622716938313 2761.17269537559 130 132 129
-778.666164165706 455.459592869649 2767.32798491713 143 145 142
-789.74992023675 457.021679043112 2771.26287723258 132 133 125
-1071.00352926479 534.736334364451 2349.60669140758 183 185 180
-1059.9591216928 531.758016575933 2362.23768010131 186 191 187
-1034.90887374554 525.951785875924 2379.98296937004 173 177 176
-1017.23529721847 521.65266737013 2394.82911922765 169 173 172
-1002.30202292047 517.918427712483 2408.54015311274 167 172 168
-992.924951586784 515.314696372007 2420.12072445182 172 177 173
-984.447244261655 512.899101540211 2431.29666317402 172 174 171
-981.559618095046 511.614361246677 2440.40404739422 171 173 170
-974.898551880842 509.575132677571 2450.80419861091 167 169 166
-968.208337854868 507.535512698806 2461.15062398563 183 183 181
-952.075938091682 503.609537418346 2474.71389222035 177 177 175
-934.003551996738 499.305773279605 2488.82516157649 166 168 165
-922.4780265864 496.321667234548 2500.56954625107 171 175 174
-918.471914373946 494.846123917916 2509.67725161463 171 175 174
-913.497838064456 493.181641972547 2519.06318031846 168 172 171
-910.395456731519 491.894167101034 2527.77476831234 167 171 170
-907.274302119722 490.60643913233 2536.45175271409 169 173 172
-910.786727807095 490.639195107111 2542.9215939569 165 169 168
-904.782248582724 488.784981193868 2552.47016682029 164 168 167
-892.080861522927 485.6095513889 2564.10919185237 163 167 166
-879.334863348552 482.433642055828 2575.66602471202 163 167 166
-867.499762859172 479.445975143457 2586.83997358126 160 164 163
-857.536187902678 476.835318786229 2597.33977539368 157 162 158
-837.955143467684 472.33679973116 2610.73257953402 167 172 168
-830.783477013294 470.291557391491 2620.19183540584 142 147 143
-820.700690290002 467.679660609506 2630.4715077919 144 149 145
-820.20057740288 466.955204791565 2637.79405549949 141 146 142
-809.094038998736 464.153884213452 2648.24869755019 141 146 142
-796.019060222537 460.974537463488 2659.19944143646 151 156 152
-779.036118284336 457.039438404882 2671.19566392324 124 129 125
-765.867045527958 453.85915583266 2681.9730704138 159 164 160
-757.495496236755 451.622641560781 2691.28330713243 140 145 141
-749.092675268047 449.385852810841 2700.53544275287 136 141 137
-742.600195319012 447.526455585273 2709.18493463464 117 119 118
-735.10888723118 445.477899922581 2718.0558191592 110 112 111
-733.43040588924 444.56244691272 2725.26799071441 104 106 105
-740.511954558145 445.346933160664 2730.06845925848 97 99 98
-750.531734012799 446.698256348289 2734.09842734933 107 109 108
-764.47890762271 448.805452438229 2737.1186902418 103 105 104
-770.623796827086 449.401335903659 2742.2550580453 112 114 111
-778.736227872855 450.37524411435 2746.89316677864 125 127 124
-781.954412005506 450.404429775759 2752.82077052057 137 139 136
-786.154609894187 450.622579147065 2758.4965025915 139 141 138
-785.43769929915 449.895868569296 2765.41913751415 143 145 142
-1107.89975804459 535.422796882112 2318.26938629279 218 220 215
-1082.1155412098 529.517276217603 2336.7497137407 181 183 178
-1068.32027790223 526.025774678513 2350.51195439925 159 164 160
-1053.54520094712 522.347898599826 2364.53089174767 181 187 185
-1031.2673949226 517.182989480029 2381.22366799353 167 173 171
-1012.64678929625 512.760535603197 2396.40576851558 169 173 172
-996.764959335183 508.89481770315 2410.4474967018 176 180 179
-985.503730894159 505.957599308161 2422.69207177168 165 170 166
-980.755571402361 504.320794712053 2432.50182583344 165 167 164
-975.045782150396 502.49780256637 2442.60177629904 184 186 183
-964.614133675213 499.745081090084 2454.31278292438 168 170 167
-951.322189397926 496.434289249348 2466.93975868948 173 173 171
-935.157868525056 492.565190778523 2480.46142225181 170 170 168
-924.596346663321 489.810998513362 2491.93262151407 171 173 172
-920.604646004444 488.357731473962 2501.07403554418 170 174 173
-917.537295589521 487.090158242836 2509.85603662506 171 175 174
-913.504416893231 485.636380582748 2518.92105894298 167 171 170
-910.398257701698 484.368263968437 2527.63152020561 167 171 170
-910.12152258963 483.657822439757 2535.3686104928 170 174 173
-912.685666605485 483.505109269831 2542.15391799019 165 169 168
-908.583009988868 482.050389900585 2551.09032280671 162 166 165
-895.879516231845 478.921319619872 2562.73941453221 162 166 165
-884.085904645748 475.97776897406 2574.00293575238 163 167 166
-872.250381709955 473.033778335121 2585.18924204867 156 160 159
-860.372837514558 470.089316849908 2596.29812199852 165 170 166
-842.702723628634 466.028082712755 2609.10737786758 152 157 153
-836.491985694979 464.199080936334 2618.28418520791 131 136 132
-827.371699552429 461.811545972477 2628.28674260109 134 139 135
-823.991155172378 460.540213672442 2636.4915924823 138 143 139
-810.955928947032 457.407628889008 2647.52951086917 137 142 138
-802.700571766645 455.205137344362 2657.06367740717 133 138 134
-789.582858034499 452.071695860281 2667.9496286112 109 114 110
-777.388129199661 449.123952197073 2678.47416119542 158 163 159
-765.151806256023 446.175833294189 2688.92157754832 134 139 135
-757.723469412538 444.158037156718 2697.91752770747 135 140 136
-752.209017188298 442.51232910278 2706.31525235196 124 126 125
-746.67099933651 440.866423562522 2714.66907188126 113 115 114
-743.056925298208 439.592664915295 2722.44368851622 118 120 119
-747.225804384387 439.808380623633 2728.06108774873 112 114 113
-755.302667108968 440.768996839207 2732.6302869174 118 120 117
-767.303106376484 442.474686357752 2736.17951193416 132 134 131
-773.451762901391 443.063090151483 2741.32005498643 168 170 167
-782.54873482481 444.210341051995 2745.7062423134 171 173 170
-786.752284530395 444.426344055831 2751.38749352807 156 158 153
-788.992191747211 444.269823452536 2757.57482125394 138 140 135
-1139.03950522614 534.752279739 2288.62609008159 219 224 220
-1123.5576983721 530.948484349105 2303.42265930625 218 223 219
-1095.05102918341 524.581421905655 2323.10200755073 190 195 191
-1077.58557316243 520.409997997165 2338.3693294172 164 169 165
-1054.48564561156 515.139416435161 2355.63309573088 179 184 180
-1032.24015057421 510.05104260727 2372.40831355708 170 176 174
-1016.44297378769 506.243567529214 2386.62324920911 164 170 168
-1005.25516045458 503.350948984315 2399.01626016125 169 173 172
-991.222609523408 499.90845735726 2412.35682396603 160 164 163
-979.011265671379 496.831654383772 2424.92678692897 169 173 172
-973.312864189738 495.036377483705 2435.05601614207 180 182 179
-968.525922073264 493.423883990291 2444.80175275547 97 99 96
-959.957751443818 491.078423046396 2455.83189948358 95 97 94
-943.829460447751 487.266958845312 2469.43716040311 177 177 175
-927.646335229115 483.454902652144 2482.94088892761 175 175 173
-918.954349761909 481.107935885481 2493.74336902031 170 172 171
-920.618190058737 480.776014066116 2500.9337613887 169 173 172
-918.492857179724 479.711035689977 2509.39442963702 170 174 173
-916.351576636402 478.645847137304 2517.82519977638 167 171 170
-911.348515732419 477.030595441778 2527.17262511138 166 170 169
-910.120481980097 476.148143218667 2535.22368013974 168 172 171
-909.830041797475 475.448817040617 2542.93890692702 165 169 168
-905.719390073656 474.016131174625 2551.86723322698 162 166 165
-896.819164290267 471.66658126989 2562.28594463104 161 165 164
-885.019954352259 468.766660034816 2573.55228975235 160 164 163
-873.178804635966 465.866298468089 2584.74136756262 157 161 160
-860.338206216932 462.782127872887 2596.15180112231 167 172 168
-845.535459276556 459.330752782407 2608.0731626854 151 156 152
-841.244002622783 457.896017290238 2616.66833940925 129 134 130
-836.9310200493 456.460971877022 2625.22433708873 129 134 130
-835.484991892141 455.575940428225 2632.87318081469 132 137 133
-824.38575047563 452.856586988987 2643.36639685859 136 141 137
-813.247185662174 450.13681698797 2653.78716474155 132 137 133
-802.0695587866 447.416687126809 2664.13547791335 109 114 110
-792.78816416901 445.063026643314 2673.85191424157 153 158 154
-779.596208994946 441.975174333466 2684.61503153952 122 127 123
-770.241422116943 439.620780228001 2694.19626551259 125 130 126
-766.682692279685 438.366936143818 2702.07865894937 99 101 100
-765.051130712367 437.479885507893 2709.38616996021 108 110 109
-760.483589655327 436.042194766903 2717.47268845601 123 125 124
-759.797012139844 435.338365568241 2724.45799235547 132 134 133
-762.02989615252 435.184987164272 2730.63385229931 154 156 153
-770.128711701014 436.132889331363 2735.23909908273 172 174 171
-776.280929166576 436.713772178335 2740.38392964528 176 178 175
-782.440340967484 437.294725923532 2745.542013222 168 170 165
-787.624830558566 437.6921238851 2750.96714163757 156 158 153
-805.59676635759 440.476336998445 2753.13356749353 128 131 124
-1163.54112154832 532.593469825161 2261.13160828584 220 225 221
-1157.38096480796 530.651180506612 2272.48217498517 211 216 212
-1136.40457893192 525.823320261444 2289.55455422358 180 184 183
-1114.43192732694 520.81424997504 2306.85542909482 182 186 185
-1089.60581790667 515.263299801538 2325.08971822985 178 182 181
-1070.26701493684 510.793577422505 2341.05201187673 164 168 167
-1045.28668607327 505.240857273298 2359.0021310865 188 192 191
-1020.22508195156 499.687167408448 2376.80298291756 171 176 172
-1006.26622183415 496.297403607586 2390.29493393292 176 181 177
-998.790477012109 494.169963297629 2401.28501490442 173 175 172
-986.610153326031 491.139966026821 2413.92610507343 175 177 174
-975.320863369876 488.289857329146 2426.14526563992 73 75 72
-968.675144754023 486.341481206462 2436.60146939046 52 54 51
-961.062159066747 484.212310608436 2447.33861907027 184 186 183
-952.477539121035 481.902238053744 2458.34965879275 166 168 165
-937.271427491839 478.328292123488 2471.60709884104 187 187 185
-922.955137573066 474.934249877933 2484.4403847065 174 174 172
-917.08166840507 473.164298025509 2494.25524832559 170 172 171
-920.630842860303 473.199330740939 2500.79336191263 169 173 172
-919.44821141935 472.331533977668 2508.9323272722 169 173 172
-918.25222972557 471.463587512268 2517.04618982172 164 168 167
-914.196054896545 470.0536919534 2526.08206683059 164 168 167
-912.969024479954 469.18530189789 2534.13869172462 167 171 170
-909.825591285447 467.95551836727 2542.79212687656 166 170 169
-902.852529879338 466.003037424949 2552.64505318543 165 169 168
-892.98867911208 463.508379771882 2563.36264498204 166 170 169
-884.043180998059 461.193943392717 2573.708651704 159 163 162
-874.106986076137 458.698483351631 2584.2929481235 159 163 162
-860.302460219072 455.479953658487 2596.00544239887 160 165 161
-850.287506691125 452.983644390209 2606.44463201092 141 146 142
-849.840008373603 452.293741281709 2613.87383398824 120 125 121
-849.381566951381 451.603693090171 2621.28286597257 125 130 126
-847.949024588838 450.73277265731 2628.96126025819 131 136 132
-835.895717138507 447.873780209337 2639.77258191163 133 138 134
-820.904026060393 444.472192018135 2651.36090851254 133 138 134
-811.663744189057 442.154526015003 2661.16378297678 103 108 104
-806.261938707567 440.559513179235 2669.78393063487 142 147 143
-799.866983950586 438.783506566154 2678.63786644268 118 123 119
-792.474959626115 436.826437334531 2687.71835956692 97 102 98
-788.941874798343 435.592211356007 2695.65432267382 106 107 109
-782.470376011974 433.815404045243 2704.36723927799 102 104 103
-777.921860323248 432.39996516308 2712.49544049918 102 104 103
-774.327992088822 431.165135438058 2720.31892604273 102 104 103
-777.555863930327 431.196031855298 2726.26486170702 121 123 120
-779.804750591658 431.046051459169 2732.47067104666 134 136 133
-781.070632457508 430.71513711081 2738.92944831782 118 120 115
-781.349817386554 430.203313205893 2745.63390609219 133 135 130
-806.179340704629 434.213728002844 2745.97682620432 146 149 142
-1180.53274097897 528.826026349027 2236.26052643528 176 181 177
-1172.59086210106 526.559599967143 2248.46680942405 224 229 225
-1164.61462352077 524.292683181804 2260.60975118488 195 200 196
-1151.06457138026 520.959630407822 2274.87062876734 185 189 188
-1129.14392589149 516.027361374999 2292.28974388611 165 169 168
-1104.3722763396 510.561259188132 2310.65021447754 170 174 173
-1080.4468628445 505.271914107459 2328.50491844053 169 173 172
-1054.58629802622 499.626346022121 2346.92300129687 184 188 187
-1032.36076650259 494.690488825296 2363.78080065221 171 175 174
-1010.99317415583 489.931491165401 2380.15438835247 176 181 177
-999.810341836116 487.126420105897 2392.5828876839 170 175 171
-991.386277250301 484.85398594088 2403.90053663055 168 170 167
-981.993054962378 482.403399276283 2415.49695303436 183 185 182
-971.626532183949 479.774564576072 2427.36499306689 128 130 127
-961.220770166469 477.145308817212 2439.1602341239 152 154 151
-952.652952666223 474.871081590587 2450.21295605651 178 180 177
-944.990861128594 472.774199813601 2460.8700053083 176 178 175
-931.64892656942 469.610165073328 2473.44917281324 182 182 180
-921.087571306777 466.978988142902 2484.95817604921 170 170 168
-918.038667162203 465.769947708004 2493.79170523718 171 173 172
-919.697172443883 465.449809638688 2500.97582916453 169 173 172
-917.563712136334 464.418156513368 2509.43157120156 166 170 169
-915.414302262252 463.386307961032 2517.85741606657 163 167 166
-914.197563176027 462.532072128597 2525.93772931176 163 167 166
-912.016853654149 461.499752952815 2534.30637113901 168 172 171
-909.819999546821 460.467219368498 2542.64525565477 170 174 173
-901.889041647101 458.367034403447 2552.80631309471 164 168 167
-893.9261643249 456.266437909412 2562.90904538928 166 170 169
-885.931851411445 454.165513282835 2572.95335898334 159 163 162
-878.862529762256 452.242139472463 2582.63799829867 159 163 162
-866.97330670611 449.42863452938 2593.76478010899 158 163 159
-855.042090818948 446.61465907855 2604.81418796003 139 144 140
-854.598336878099 445.936123425809 2612.25369496366 110 115 111
-854.143613306184 445.257427601984 2619.67297865019 117 122 118
-854.641213008274 444.75660995194 2626.78245080334 135 140 136
-844.519432289574 442.297384518769 2637.03631764376 135 140 136
-831.463109763843 439.303650649904 2648.07719150912 128 133 129
-819.329426309205 436.487478404728 2658.75356398997 108 113 109
-813.933495712559 434.917337999161 2667.3919962997 151 156 152
-813.362860221591 434.237328366954 2674.59770175711 120 125 121
-812.78133372754 433.557211202559 2681.78334433822 102 107 103
-809.271721569592 432.342640324193 2689.76788442384 99 100 102
-803.796096125694 430.771624770473 2698.25948021293 101 102 104
-803.171553371411 430.091024911302 2705.36586289707 106 108 107
-801.559764900011 429.232129133629 2712.71820699789 106 108 107
-800.91224708992 428.551292617121 2719.7822632003 106 108 105
-794.380883618959 426.801322530937 2728.39314826514 106 108 105
-792.723627370851 425.941966568337 2735.66173045269 128 130 125
-1214.82991246738 528.236245081502 2203.9888863832 171 176 172
-1206.97682953539 526.006536100947 2216.36952299808 195 200 196
-1192.6515611789 522.552267770531 2231.28298391604 199 204 200
-1181.95771208366 519.796863337977 2244.62574830264 166 171 167
-1162.92105299629 515.466805348048 2261.18573964978 170 174 173
-1141.9718767847 510.786163565734 2278.35243413714 160 164 163
-1120.95198635917 506.104664943945 2295.38881463065 174 178 177
-1098.93511692285 501.247376559266 2312.65400889452 180 184 183
-1072.20767239559 495.514472608662 2331.56678180767 175 181 179
-1046.32296090946 489.955573357195 2349.96651770108 185 191 189
-1026.86491429994 485.620534400498 2365.75000273298 168 173 169
-1010.13553051927 481.809708243724 2380.36473567028 175 177 172
-996.146509834231 478.523219441887 2393.83227289176 170 172 167
-984.909728560645 475.761248236047 2406.17400706449 177 179 176
-976.436405036283 473.523821035259 2417.41158718545 172 174 171
-964.182386757761 470.585743085731 2429.94528590731 180 182 179
-950.946145402668 467.472121336367 2442.73400272952 188 190 187
-941.419140918056 465.058223664887 2454.09540245703 180 182 179
-937.497695643299 463.694367154774 2463.39291658448 122 124 121
-924.137777612184 460.579257887104 2475.95372213646 118 120 119
-918.27478581897 458.864501445913 2485.80445398916 176 176 176
-918.051170768184 458.200161209156 2493.65310538539 172 176 175
-919.707678516367 457.88590822077 2500.83532525349 171 175 174
-916.623945888161 456.69579720248 2509.61049099166 164 168 167
-914.469589314269 455.680573022577 2518.03274152024 161 165 164
-913.248472229514 454.840303845231 2526.10920289822 162 166 165
-911.06328372253 453.824707018576 2534.47413157729 170 174 173
-907.909716316818 452.633653614072 2543.12057503974 178 182 181
-902.830535842661 451.091910285759 2552.35010814283 158 162 161
-895.818035298992 449.199407416656 2562.14853537202 161 165 164
-890.688671529973 447.657105321414 2571.28509997507 158 162 161
-884.578031741365 445.939229999382 2580.67942412749 156 160 159
-873.648105056757 443.34468642122 2591.5215737894 133 138 134
-863.638784928593 440.925015774035 2601.99417111102 129 134 130
-861.281601782577 439.90728769528 2610.0426336416 107 112 108
-860.833152731793 439.239989456261 2617.47688481154 115 120 116
-858.446264563177 438.221885490817 2625.47060135601 145 149 148
-851.218425733166 436.326960588616 2634.87174963982 143 148 144
-840.096245904693 433.730275375056 2645.35966670516 138 143 139
-830.870028125904 431.483926999949 2655.20985432349 136 141 137
-824.516274544743 429.763319164325 2664.15622618964 119 124 120
-824.927160109353 429.270132796492 2671.10851013271 104 109 105
-827.272739826889 429.127648471237 2677.49440984852 117 122 118
-825.723974741514 428.283433333658 2684.96708021975 114 116 115
-820.265976374086 426.737439428785 2693.49811571143 113 115 114
-819.660359092372 426.06828989623 2700.64325338834 120 122 119
-820.020929629018 425.574572737123 2707.50233496307 134 136 133
-827.218105615963 426.308932711708 2712.50038917813 149 151 146
-1216.42183810105 520.557940376022 2194.03319765907 186 191 187
-1211.34053112291 518.880544613713 2205.33282546427 206 211 207
-1205.31401121008 517.030629012145 2216.95695337735 173 178 174
-1196.49815618427 514.663769866463 2229.64043201925 163 168 164
-1179.35325994986 510.746743498928 2245.57382448445 167 172 168
-1152.92165874871 505.106985210629 2265.05871805768 160 165 161
-1127.32769104564 499.638399227175 2284.02084810518 159 164 160
-1105.3509078157 494.857738721983 2301.38281183724 165 170 166
-1080.5215005458 489.559530634692 2319.68704053873 174 179 175
-1055.61083413427 484.260338251504 2337.84202711814 170 175 171
-1033.40675083963 479.477061569351 2354.78465363173 174 179 175
-1019.50307764113 476.243432015686 2368.42505633031 170 175 171
-1002.7543482909 472.4923135672 2383.02216461618 171 176 172
-989.680158867284 469.429783316506 2396.12428876596 167 172 168
-977.492931299944 466.538975844029 2408.79453876772 180 185 181
-969.938949993206 464.50930963797 2419.67063558214 173 178 174
-955.794916875659 461.272788325736 2432.86810298126 162 167 163
-941.601283249333 458.035715186408 2445.97367581709 101 106 102
-932.994552161758 455.832292905115 2456.97612112303 160 165 161
-931.879712404651 455.0075518111 2465.2527154954 89 94 90
-920.388480497528 452.286170926518 2477.13917920613 153 158 154
-918.288894047688 451.288468768224 2485.66743121632 169 171 168
-916.173385508792 450.290578896202 2494.16583891014 175 179 178
-918.771171762042 450.154626516448 2501.01806093749 168 174 174
-913.787977914237 448.638978280819 2510.43147404038 161 167 167
-913.52328129044 447.985329488196 2518.20828832681 162 166 167
-912.29802101562 447.159068579528 2526.28083796324 162 166 167
-911.058966446296 446.332597204357 2534.32845833091 174 178 179
-907.90157663688 445.160916298779 2542.97369741832 172 176 177
-906.633013014985 444.33408064368 2550.96643147087 162 163 165
-901.530623076477 442.816878180299 2560.16065809937 160 161 163
-893.535386572813 440.78174329564 2570.22356165932 155 156 158
-883.593433585698 438.40113477659 2580.83180623955 153 154 156
-876.491405442319 436.5378432573 2590.47385612963 138 143 139
-869.360057190168 434.674185933912 2600.06237523631 125 130 126
-868.930161908916 434.018446273583 2607.53422607911 103 107 106
-867.526640216563 433.18995183052 2615.2782488171 115 119 118
-866.109323278596 432.361254295714 2622.99734275481 141 145 146
-859.851908803106 430.669210815287 2632.12948969812 154 158 157
-850.668136109825 428.458902330422 2642.06857952284 142 146 145
-838.546431909524 425.730213184245 2652.79329206086 125 129 128
-837.044341639886 424.900596685746 2660.35569179949 102 107 103
-837.469585262393 424.416178696561 2667.33701966484 111 116 112
-842.745337943934 424.795178931164 2672.92446494528 108 113 107
-838.295112205901 423.447045490059 2681.25367947034 114 116 111
-830.900526295192 421.580484379206 2690.35667908479 120 123 116
-839.087349271205 422.477515866535 2695.10899391318 136 139 132
-1253.08747553713 521.524109767266 2141.20589688778 236 240 241
-1238.09217189358 518.012628665704 2156.9851392749 234 238 237
-1236.75034972456 517.041499327535 2166.91504887837 192 196 195
-1228.98603070347 514.884189541223 2179.480710474 155 159 158
-1209.27286347389 510.523802796775 2196.90215888104 217 221 220
-1203.25866631525 508.704287337246 2208.55809255268 177 182 178
-1197.2152976718 506.884343255737 2220.1602456528 171 176 172
-1191.14254640813 505.06396615098 2231.70873278532 162 167 163
-1172.13728184405 500.870409433155 2248.36700896848 166 171 167
-1144.7595531384 495.150549876738 2268.20251281612 174 179 175
-1120.06562721673 489.938154582667 2286.78222637588 166 171 167
-1094.36512203812 484.555293250919 2305.57419381736 191 196 192
-1061.16603940241 477.81512768884 2327.08614369222 167 172 168
-1036.21621235286 472.599790407528 2345.19381948896 165 170 166
-1018.62108566939 468.740044063169 2360.31638144289 167 172 168
-1010.27335814686 466.575432496183 2371.80685270306 174 179 175
-992.570671895337 462.714405328768 2386.73120784262 102 107 103
-980.407924016158 459.870340446904 2399.46053694093 179 184 180
-965.396474447982 456.516853179854 2413.14229259001 83 88 84
-958.756021426112 454.689472122134 2423.64456651292 107 112 108
-949.274877694026 452.352795505637 2435.11353453163 189 194 190
-939.756807126516 450.015664390938 2446.51445069442 181 186 182
-931.141637701456 447.847757325257 2457.51205653978 144 149 145
-929.080061823486 446.867274210062 2466.11539504935 165 170 166
-919.462979234607 444.528927126365 2477.33384439653 168 173 169
-916.415028319158 443.378174249531 2486.1866550531 167 172 168
-913.348098696087 442.227119625686 2495.00497391058 172 178 178
-915.940544332738 442.094370186107 2501.84783251904 168 174 174
-911.896542249563 440.773202779602 2510.93227562123 164 170 170
-913.524413050403 440.470382200205 2518.0652648935 166 170 171
-913.246188356226 439.827897069503 2525.82005149983 167 171 172
-911.053940571793 438.845636326189 2534.18252599363 172 176 177
-907.892781411403 437.69335809563 2542.82666735423 173 177 178
-904.712889712813 436.540842025188 2551.43628464039 160 161 163
-903.424831868477 435.727746817094 2559.39780155412 151 152 154
-894.470059322226 433.555648024008 2569.76955484029 144 145 147
-887.3970330074 431.722910945242 2579.47413274656 134 135 137
-880.294979200557 429.889842978266 2589.12522430089 130 134 133
-878.926825707772 429.075779216251 2596.93913945844 119 123 122
-878.507128092989 428.431483857679 2604.43318721255 119 123 122
-880.002551151641 428.126857117365 2611.32203780316 114 118 119
-876.670272755057 426.97248949043 2619.65083138352 133 137 138
-875.250732507922 426.157815700225 2627.3695492444 137 141 142
-868.015563910131 424.323160710655 2636.77584543641 155 159 160
-859.783423738368 422.318259384272 2646.41162761441 109 113 112
-862.184541550131 422.182830870713 2652.9022980813 103 107 106
-863.611946178512 421.877403437721 2659.66530535597 117 122 118
-862.116946221985 421.061814411459 2667.24546807511 109 114 108
-865.475677721991 421.096233808525 2673.4331379297 118 121 114
-1283.1372950484 519.598944555636 2109.18123002395 219 223 224
-1256.40924754582 513.979413381188 2130.24178685525 199 203 204
-1242.35532366176 510.69223651554 2145.70454765068 189 193 194
-1233.72642435416 508.404483511881 2158.75616506378 192 196 195
-1227.80357191715 506.616383051557 2170.58954547951 167 171 170
-1220.02041445042 504.494427705587 2183.13119157215 162 166 165
-1202.11767024523 500.537979293053 2199.77370778633 166 170 169
-1193.3332505418 498.248167536774 2212.53867574404 171 176 172
-1187.27047079025 496.45819400678 2224.11414106085 163 168 164
-1182.09918791987 494.834583258273 2235.2644611019 170 175 171
-1159.38255635308 490.041615168221 2253.37680708337 163 168 164
-1136.59006214432 485.247751089289 2271.34935840073 177 182 178
-1112.79710997784 480.286182400094 2289.54625220425 173 178 174
-1086.14788934198 474.823196368881 2308.6840631572 184 189 185
-1047.35846135968 467.190226627135 2332.33566844235 176 181 177
-1025.16263940975 462.559356770553 2349.33932104325 165 170 166
-1005.68286684424 458.428210476961 2365.14416293732 140 145 141
-998.242408384577 456.465833568593 2376.24878002895 174 179 175
-982.378191161199 453.000915195405 2390.44393442243 28 33 29
-968.3264592792 449.869193636345 2403.84267612301 186 191 187
-951.419972071705 446.236118957403 2418.18463298928 82 87 83
-945.691362927161 444.605635193639 2428.30786160207 94 99 95
-943.686568997695 443.642638968252 2437.02089114011 42 47 43
-936.032177124221 441.677572310727 2447.73174108299 33 38 34
-922.705130540464 438.710265952535 2460.39745068981 130 135 131
-920.628480550307 437.746325429678 2468.9780398693 175 180 176
-916.650008376535 436.448124266485 2478.19041509593 164 169 165
-915.482648534429 435.650767681095 2486.3781463218 179 184 180
-913.356174640377 434.686145220452 2494.86689519062 171 177 177
-916.893501676471 434.723629372076 2501.38395641411 166 172 172
-911.898561545962 433.257459090153 2510.79114927829 163 169 169
-914.47380071242 433.127651227343 2517.60324664755 167 171 172
-911.342488056925 431.995183356661 2526.30823856481 170 174 175
-909.144203598402 431.029594982064 2534.66462425038 172 176 177
-908.836083751999 430.39803240994 2542.36771287001 171 175 176
-908.516991421195 429.766331791007 2550.05057957796 161 162 164
-908.186679485454 429.134436592895 2557.71325711805 157 158 160
-899.23270010762 426.998009148078 2568.09669207345 141 142 144
-895.035654828916 425.696983626254 2576.90622219007 136 137 139
-890.817521014393 424.395760571067 2585.67640300039 127 131 130
-888.499677322141 423.428659847964 2593.81244267536 113 117 116
-887.127814853789 422.628563321702 2601.62373659545 117 121 120
-887.669385797993 422.162769683593 2608.82461233888 111 115 116
-888.202835447597 421.696903382139 2616.01002544639 145 149 150
-887.761463475251 421.063604430339 2623.46802120477 145 149 150
-885.374598972351 420.095652260698 2631.47686298487 145 149 150
-884.908986695208 419.462088699823 2638.88969258843 121 125 124
-899.951023217041 421.50514169909 2641.78951937926 120 124 123
-910.167281460823 422.711924885875 2646.13738151517 161 166 162
-901.923623740586 420.739715666825 2655.7623162779 154 159 153
-1331.04553929289 523.645104325139 2029.31394084395 200 204 205
-1334.47339935313 523.530213525953 2037.69864926771 188 192 193
-1326.14364699199 521.284698200163 2051.31264994457 177 181 182
-1307.81636549281 517.235744813695 2069.26185005361 191 195 196
-1301.21218918804 515.316896136367 2081.91763226753 213 217 218
-1288.21945534187 512.250071254973 2097.28358012142 182 186 187
-1269.72037047052 508.198924306315 2114.91614287462 163 167 168
-1250.24514704233 503.983021334093 2132.818662626 165 169 170
-1241.64589085959 501.733971759754 2145.93593384604 165 169 168
-1228.44310677864 498.664468326869 2160.91475554835 161 165 164
-1223.42183983803 497.070363948502 2172.34985541023 168 172 171
-1216.54239346357 495.14787542752 2184.49827123175 153 157 156
-1205.04489521181 492.404750822805 2198.48197473663 153 157 156
-1193.50287761227 489.661083195045 2212.38313150668 158 163 159
-1182.83585820845 487.080900733168 2225.82793355212 166 171 167
-1177.65328850739 485.48464658733 2236.96572176641 164 169 165
-1153.99642713107 480.60624823132 2255.43792241513 175 180 176
-1136.72686796419 476.875639363837 2271.19809673434 175 180 176
-1111.99722028575 471.831371029993 2289.76216657813 197 202 198
-1089.03893778686 467.114401349029 2307.45292680072 136 141 137
-1050.23601450032 459.606051416864 2331.11718758574 73 78 74
-1022.45972575552 454.06627148007 2350.27382066714 73 78 74
-1005.75655300085 450.495513442142 2365.00895403871 135 140 136
-1000.17337337683 448.894333711707 2375.40846638309 166 171 167
-988.967052323253 446.307596277608 2387.85942321106 71 76 72
-973.048425848092 442.899281425455 2401.97102671366 203 208 204
-945.850386744911 437.519537902469 2420.124493297 104 109 105
-935.425831376956 435.095182804382 2431.94729218237 101 106 102
-934.341423257274 434.312965748941 2440.29213951829 190 195 191
-930.425508126328 433.03769731512 2449.62646490371 73 78 74
-922.726096809274 431.105010650233 2460.26425323846 128 133 129
-918.762506281564 429.82916530407 2469.51021714869 173 178 174
-915.720595595617 428.717346238278 2478.38584511171 170 175 171
-915.493207494577 428.098267314444 2486.24116821906 168 173 169
-915.254599788601 427.478993811432 2494.07630215855 169 175 175
-914.058251349543 426.695244342513 2502.21481002161 165 171 171
-910.951663297288 425.582562770348 2510.97122514937 160 166 166
-910.675092837839 424.962794776106 2518.73588572016 166 170 171
-910.387289510272 424.342824658662 2526.48033046104 173 177 178
-907.232167726046 423.22950236342 2535.14729053351 172 176 177
-907.87215335687 422.773640547061 2542.53215552714 160 164 165
-907.54901454257 422.153225689181 2550.21097388268 154 155 157
-910.083074381449 422.026022230935 2556.94811816514 161 162 164
-903.997687766078 420.418544600639 2566.42208643485 140 141 143
-905.554828389775 420.126581321749 2573.4282550447 140 141 143
-902.30664091493 419.012076936198 2581.9236948753 128 132 131
-901.923399359437 418.390872511952 2589.4917358993 111 115 114
-899.604057157556 417.440468653847 2597.63004064392 110 114 113
-899.196285058292 416.818946267741 2605.15286991042 106 110 111
-899.742573915244 416.361828371352 2612.36503173481 121 125 126
-903.179653608219 416.398292347133 2618.69741304005 137 141 142
-909.519182236656 416.928458554925 2624.17149138996 117 121 122
-926.524380668372 419.26916777877 2626.54184358556 121 125 124
-958.118980871296 424.079292179842 2624.76285881582 124 128 127
-934.948108896116 419.049676675217 2646.19871185776 139 144 138
-1348.84749889503 519.817978253052 1991.11067081899 235 239 238
-1331.63820759694 516.001023451738 2009.0705219722 207 211 210
-1322.47172828908 513.633506507954 2023.22424440169 192 196 195
-1319.5796065029 512.393583009732 2034.4516370186 174 178 177
-1314.85964808632 510.830986023234 2046.45037309839 169 173 172
-1304.68590018679 508.300886864478 2060.81745243033 167 171 170
-1292.65849328537 505.447864006445 2075.90780369118 162 166 165
-1280.58359427669 502.59419616981 2090.91111859865 159 163 162
-1270.27838222226 500.062391195743 2105.03589842122 158 162 161
-1258.1116937794 497.207565739649 2119.86954346985 157 161 160
-1247.71968691609 494.674634883939 2133.83435324781 155 159 158
-1234.54846533274 491.657335453547 2148.8869229863 164 168 167
-1228.63665965646 489.929729314292 2160.75881233488 152 156 155
-1219.03576381128 487.556481673972 2174.11184025659 160 164 163
-1215.80923538929 486.311977777115 2184.72282071608 155 159 158
-1211.64365432696 484.905816580445 2195.67340202754 163 167 166
-1200.10349486731 482.208563076443 2209.59193396812 150 155 151
-1185.75816110546 479.026665107537 2224.5503985016 165 170 166
-1174.12463460166 476.328248082951 2238.29686154057 163 168 164
-1153.21902352827 472.015387050175 2255.65427973685 186 191 187
-1128.54640517667 467.056023151461 2274.34927371456 171 176 172
-1099.16619510884 461.288647114274 2294.71766309758 157 162 158
-1071.54527754138 455.843039706477 2314.18837176315 94 99 95
-1041.05175871192 449.912051385968 2334.57478109142 56 61 57
-1020.68298854498 445.755993432986 2350.85190224851 92 97 93
-1008.62090771355 443.05242146605 2363.80862559297 156 161 157
-1003.96857720361 441.640205527161 2373.86216519184 113 118 114
-989.961168609355 438.612638537368 2387.37374698547 55 60 56
-966.559800128076 433.969301807325 2404.27173434541 167 172 168
-944.954101380654 429.648144729774 2420.33906895184 81 86 82
-935.45883254252 427.426290168105 2431.8165877572 175 180 176
-932.494692780991 426.334900157386 2440.84139407129 172 177 173
-926.692991896141 424.758531720968 2450.84646728405 70 75 71
-919.923703623696 423.020217894573 2461.13857411452 128 133 129
-914.067679508924 421.443173030917 2471.04353359337 183 188 184
-913.84593764671 420.835506368536 2478.91267307209 174 179 175
-915.50264694654 420.550929374852 2486.10418783222 166 171 167
-917.153739996532 420.266283696687 2493.28484838671 169 175 175
-915.956672516117 419.496513022449 2501.42674176613 166 172 172
-914.746268046059 418.726600190104 2509.54355899755 164 170 170
-914.471899915261 418.118138778336 2517.31617442546 171 175 176
-912.284436880566 417.186188125179 2525.7020740144 172 176 177
-908.175440038034 415.930546059599 2534.68718901723 164 168 169
-909.768287716269 415.645059071842 2541.76047272071 151 155 156
-911.355087890616 415.359453866633 2548.82310265615 145 146 148
-911.979696701478 414.911995265842 2556.1822139015 151 152 154
-908.765165162511 413.817346603005 2564.745524168 130 131 133
-908.408916863157 413.207830799485 2572.36672572487 111 112 114
-909.001875670823 412.759954685897 2579.66750129255 109 113 112
-907.663213047825 411.988328011858 2587.54841726665 110 114 113
-909.199787812372 411.702049053903 2594.51796666632 107 111 112
-910.730357715917 411.41565238629 2601.47694087869 107 111 112
-917.082450112286 411.938475021104 2606.97191791867 112 116 117
-921.508096983487 412.137593958162 2613.05656889098 112 116 119
-935.616138288094 413.955586837279 2616.28572723782 128 132 133
-964.29154007768 418.202306497505 2615.31327905707 168 172 171
-980.415475843362 420.344874310146 2618.11804260598 188 192 191
-981.021933104663 419.896977977539 2625.4436382091 175 180 176
-1401.24361945276 524.202404908611 1904.79402011644 218 222 223
-1372.73422241103 518.396170155395 1928.86710697913 210 214 213
-1362.88505602353 515.914049514396 1943.84557901173 189 193 192
-1358.36087500567 514.381570301954 1956.21344245391 182 186 185
-1354.70604504404 513.007076543889 1968.11291117299 170 174 173
-1342.05648987466 510.048297385876 1984.14251878644 166 170 169
-1329.35710509472 507.088880538631 2000.08028890008 163 167 166
-1321.1064782646 504.920956534662 2013.86314920397 161 165 164
-1313.71990623929 502.91096599625 2027.1678583792 166 170 169
-1303.59220902814 500.425155603298 2041.63295189025 164 168 167
-1297.94051241375 498.731155073921 2053.99333511774 162 166 165
-1290.44986245007 496.719766371001 2067.10620554288 159 163 162
-1281.11248769613 494.390922803247 2080.95725001426 160 164 163
-1271.73581024057 492.061598332452 2094.7353607944 159 163 162
-1262.3194296357 489.731725327278 2108.44078953686 162 166 165
-1252.8637747578 487.401371757591 2122.07333697523 156 160 159
-1240.63419113199 484.594798434269 2136.80632100755 163 167 166
-1238.39706855607 483.531945415871 2147.17682607282 151 155 154
-1230.65721608634 481.517293757507 2159.83038644304 149 153 152
-1222.88304085044 479.502196452034 2172.42068697692 162 166 165
-1212.32473838278 477.010796766509 2186.09213814322 166 170 169
-1209.06754500815 475.787930856164 2196.65322716952 158 162 161
-1201.19294583254 473.771526907675 2209.05843684507 161 165 164
-1186.84062033923 470.64406237094 2224.02041159951 157 161 160
-1170.59207823308 467.198590549459 2239.62936979633 169 173 172
-1141.36272941739 461.530773188184 2260.30515991809 122 126 125
-1118.50995044176 456.972760137726 2278.23776197791 140 145 141
-1069.66239889843 447.969749780407 2306.24295008246 141 146 142
-1053.11035364726 444.520660139933 2321.29262274035 103 108 104
-1033.71603025552 440.594673562531 2337.31581287403 90 95 91
-1017.04474176161 437.144160276356 2352.14574736114 148 153 149
-1007.76283741085 434.963198710331 2364.0279797274 181 186 182
-1001.24052456936 433.258151333027 2374.78381905963 51 56 52
-976.953063811345 428.535378339827 2392.14353664176 44 49 45
-956.326596519079 424.447041841803 2407.96656686702 29 34 30
-940.312056800392 421.152030344236 2421.9363454077 147 152 148
-933.616162796388 419.444886412106 2432.37230687591 167 172 168
-930.645657699071 418.372827539862 2441.39121946156 170 175 171
-925.776418156533 416.982746172606 2451.05248016301 173 178 174
-920.883214739788 415.592368363579 2460.66957778709 181 186 182
-914.08117599181 413.88390136749 2470.90992185744 170 175 171
-913.856726167583 413.287517940111 2478.77747400899 180 185 181
-914.566308121 412.849901266502 2486.29582602266 181 186 182
-917.160196764102 412.730041068579 2493.14571889561 169 175 175
-915.012647114543 411.815346889457 2501.6102158605 168 174 174
-914.746567654718 411.218340284441 2509.40152036824 168 174 174
-914.469709778297 410.621221988895 2517.17246357226 175 179 180
-914.181810723782 410.023946363323 2524.92305272551 170 174 175
-911.02428492689 408.949464710879 2533.59727158681 159 163 164
-912.618732891615 408.669907453 2540.67578594843 144 148 149
-913.251977053892 408.231215559432 2548.05341551349 140 141 143
-913.876808255927 407.792408711874 2555.41553754266 143 144 146
-912.577249408313 407.035360688507 2563.37225235053 136 137 139
-913.182682378079 406.596289608747 2570.69861803584 107 108 110
-914.740255185831 406.316208300251 2577.70915467175 95 99 98
-916.292265747588 406.036081108608 2584.70894328176 105 109 108
-921.690988730512 406.39235255792 2590.51571832399 109 113 114
-925.165391784149 406.430391052505 2596.91721758129 115 119 120
-933.468201538621 407.264229064375 2601.86334536471 121 125 126
-941.783032060004 408.098149244218 2606.83211048237 130 134 137
-960.762395140016 410.683308991222 2608.6767197951 159 163 164
-979.782389807645 413.268897184943 2610.59618684383 175 179 180
-988.162599302524 414.103523926078 2615.68490404022 179 183 182
-984.888042566528 413.027464013049 2624.14340706424 180 184 183
-1381.91653547974 512.752379387699 1893.29913318498 188 189 193
-1373.93579712624 510.626235665444 1907.59093179077 163 164 168
-1367.70005370092 508.810816113101 1920.95593677923 171 175 174
-1364.10949380013 507.461867998757 1932.9812919682 167 171 170
-1354.2404342882 505.023058824161 1947.93620159806 161 165 164
-1345.22437051372 502.73939062695 1962.3912764549 162 166 165
-1339.75321539924 501.07786536804 1975.09397864404 161 165 164
-1331.56091399207 498.948906902242 1988.99582779284 160 164 163
-1325.12937191407 497.130895453827 2001.99943970107 162 166 165
-1317.76601398464 495.156708416284 2015.35761070146 161 165 164
-1311.26969476767 493.337794455919 2028.24231848779 163 167 166
-1298.42324535296 490.428203386222 2043.92459361145 163 167 166
-1291.85470030068 488.60838323562 2056.675688172 162 166 165
-1286.15949014527 486.94387601294 2068.96541557677 163 167 166
-1279.52891063439 485.123232213888 2081.60216977629 161 165 164
-1270.14287475645 482.834694858728 2095.37583850837 153 157 156
-1263.44480743011 481.01313842715 2107.88870011457 157 161 160
-1250.34216705213 478.100313861545 2123.09831675225 156 160 159
-1241.74800567356 475.966091743795 2136.25999354422 159 163 162
-1235.85629132946 474.299054391298 2148.18704883392 156 160 159
-1233.59279116987 473.255172334441 2158.51474568766 152 156 155
-1220.32277157102 470.340193923407 2173.41637797752 158 162 161
-1207.91991650811 467.580547370555 2187.84429189834 162 166 165
-1200.97897105956 465.755866076233 2199.90951667125 162 166 165
-1196.76494275679 464.398618427573 2210.78570402279 158 162 161
-1186.08111360738 461.949327716031 2224.23895181233 169 173 172
-1164.28965756021 457.62784195144 2242.07934535329 168 172 171
-1132.26700252169 451.589555209894 2263.85123050103 171 175 174
-1075.17482942567 441.337952226963 2295.35228544351 123 127 126
-1043.83945482255 435.452886627828 2316.31948209221 29 33 32
-1030.95156305596 432.687371915072 2329.85356045785 104 108 107
-1019.87351703493 430.233368390174 2342.58035434856 106 110 109
-1006.89361851648 427.466739592623 2355.94488050435 115 119 118
-994.797343190919 424.855568394631 2368.86700506119 176 180 179
-985.454147644257 422.712173819238 2380.64780894243 166 170 169
-962.066813699791 418.226704503847 2397.61908245696 178 183 179
-943.279304637726 414.520969783828 2412.70974982125 183 188 184
-933.792972094474 412.375863342044 2424.22678389069 173 178 174
-930.83354069875 411.323358045106 2433.27194320662 173 178 174
-932.550233419672 411.0514238626 2440.57758036933 144 149 145
-925.79864206651 409.373796225918 2450.91998044089 168 173 169
-919.959480873737 407.851996961516 2460.87256743078 176 181 177
-913.150742578328 406.173635227419 2471.11014734832 171 176 172
-913.866375734859 405.744732330652 2478.64224904484 176 181 177
-915.519183108767 405.471961732394 2485.8296336421 174 179 175
-916.219285272302 405.042833268561 2493.33310317984 164 170 170
-916.910947473673 404.61357845007 2500.82101209183 165 171 171
-917.594225618947 404.184205328737 2508.29346562085 169 175 175
-919.219615749739 403.910995566673 2515.43079709052 174 178 179
-916.079642995046 402.856163110959 2524.14320812545 165 169 170
-914.82746557466 402.113768263517 2532.19147253237 156 160 161
-917.37950586722 401.996511889493 2538.96518168878 149 153 154
-918.017032776635 401.566544145329 2546.35280729917 146 147 149
-919.602959797705 401.292786901301 2553.41739428018 145 146 148
-919.266361030178 400.706202522862 2561.08163087287 139 140 142
-919.878440776768 400.275863391183 2568.42284707407 133 134 136
-922.403938753495 400.158213396456 2575.14762170537 127 131 132
-923.001986436668 399.727712750581 2582.46247757048 115 119 120
-929.372609738639 400.235682859508 2587.98757409635 113 117 118
-933.820956750329 400.430863929497 2594.11228631889 113 117 120
-943.101854817638 401.408379139177 2598.78570421009 118 122 125
-955.299662327371 402.855462978864 2602.6206614104 148 152 155
-972.363956190511 405.085322072438 2605.06586163967 161 165 168
-985.583520580027 406.689486335227 2608.71194978958 178 182 183
-992.029164902869 407.198240892857 2614.37475529854 177 181 182
-989.72852632773 406.298192806966 2622.56260247076 182 186 185
-1384.73211896357 505.904850779861 1860.46419766787 202 203 205
-1379.4823532725 504.276372230952 1873.58350894876 191 192 194
-1378.64047465226 503.411824253557 1884.46495711001 161 162 164
-1373.33941079977 501.782642518311 1897.48971026214 159 160 162
-1365.33927343619 499.694337477649 1911.75771369288 158 159 163
-1359.97645230384 498.064335394606 1924.66863725877 156 158 157
-1355.47720808454 496.586865551615 1937.09890650277 158 160 157
-1347.37610928842 494.497267819724 1951.18033047957 163 165 162
-1337.44775938269 492.101264037062 1966.03906676256 164 166 163
-1333.75281519099 490.77553562295 1977.87942287802 163 165 162
-1327.34065936963 488.990514117645 1990.929114665 162 164 161
-1320.89711678213 487.205117051659 2003.92046328712 162 164 161
-1308.11901458369 484.348127394693 2019.74425975669 161 163 160
-1302.50473940625 482.714824465674 2032.19172088264 157 159 156
-1291.44319900655 480.162791623797 2047.03469566306 161 163 160
-1288.47588894227 478.987830803713 2058.14333899372 162 164 161
-1282.7705072953 477.353332184435 2070.42287915255 161 166 162
-1280.6635939465 476.330836190163 2081.04499892564 159 164 160
-1274.90502974504 474.695606365028 2093.22701103142 155 160 156
-1268.20818808128 472.906919719752 2105.75150725322 159 164 160
-1259.65772514084 470.811492654574 2119.00521993125 158 163 159
-1248.33427157313 468.256165562662 2133.36499377852 154 159 155
-1240.61961441536 466.312953004142 2146.08637617268 159 163 162
-1232.87066101781 464.369309886558 2158.74455205462 155 159 158
-1220.50750789532 461.659246181857 2173.26039569326 151 155 154
-1205.34496480176 458.488912609413 2188.83464456667 156 160 159
-1195.63904376703 456.237335431389 2202.03059667648 167 171 170
-1195.09222469451 455.517685597705 2211.3834877586 169 173 172
-1188.08383469969 453.725063748547 2223.33380643411 166 170 169
