ply
format ascii 1.0
comment KinectMotionCapture
element vertex 784
property float x
property float y
property float z
property uchar red
property uchar green
property uchar blue
end_header
-1046.7934944299 -327.24304635304 2332.42696196222 16 19 10
-1035.66884869504 -326.086847448616 2326.9566858439 15 18 9
-1041.61060774556 -329.212596650089 2362.96080077807 15 18 9
-1043.98595517351 -331.475882803197 2390.72603215093 15 18 9
-1036.52151176464 -331.265797536222 2394.52055227076 11 13 8
-1033.49794883035 -332.193224469884 2409.41539869756 8 10 5
-1014.58465386204 -329.045066687566 2384.52586669956 16 18 13
-992.992196355208 -328.605659964016 2397.73740683608 12 14 9
-995.911765451771 -331.130663206145 2428.4853323893 9 12 5
-984.471932208947 -329.880838555031 2422.06982939872 10 13 6
-979.781768487966 -330.421122091596 2433.33269150689 11 14 7
-974.695327751862 -330.865509109384 2443.68046954992 12 15 8
-969.567571831159 -331.308163560224 2454.04313537077 13 16 9
-959.225933859537 -330.341885976875 2450.40714573454 14 17 8
-944.812811817065 -328.252309443702 2435.53554179292 15 18 9
-932.195868735938 -326.634552129395 2425.3090088643 15 18 9
-916.953679318943 -324.271358379169 2407.55935807341 14 17 8
-907.512357797661 -323.500568126889 2405.71486660871 14 17 8
-903.408782159204 -324.223690928183 2418.88417050314 15 18 9
-893.977898261854 -323.453115050485 2417.03587048278 14 17 8
-890.456385105186 -324.359473435858 2432.11323058123 13 16 7
-888.165413693203 -325.63518272571 2450.98209979095 13 16 7
-874.848557108804 -323.748379308131 2437.83024866351 15 18 9
-862.895884986884 -322.236149754623 2428.42095514845 16 19 10
-855.442512880916 -322.024405411757 2432.21157782808 15 18 9
-847.670293207534 -321.719754586848 2435.05850350809 22 25 16
-844.25872897491 -322.710163088852 2451.15612955528 19 22 13
-841.393401910715 -323.882496395284 2469.17492738866 26 29 20
-832.319945082121 -323.205359583163 2468.25626680197 14 15 7
-1186.24020706208 -350.413826440835 2402.67533004838 27 32 25
-1149.86660680556 -343.264153781367 2342.83295843821 24 27 20
-1141.64978082406 -342.86285033787 2344.78216264389 23 26 19
-1130.18670313964 -341.67005953565 2339.43735817433 21 24 17
-1122.40275228702 -341.368515906254 2342.28831178946 21 24 15
-1107.79798906994 -339.388226380969 2329.61145918441 19 22 13
-1101.65058287106 -339.482687194986 2336.10439475466 19 22 11
-1096.67021464569 -339.871877941368 2345.35124108043 19 22 11
-1088.11176050638 -339.373525892116 2346.36508355509 19 22 11
-1066.66276177762 -335.630086229911 2317.10849313097 19 22 11
-1055.10155682375 -334.349613128684 2310.73940151557 19 22 11
-1043.59111459141 -333.071027139634 2304.35172351144 17 20 11
-1040.17897396685 -333.853276968285 2317.26559617547 17 20 11
-1037.47098260738 -334.829059545803 2332.04188078222 16 19 10
-1029.02470384889 -334.334472432875 2333.01493596314 15 18 9
-1035.60854148657 -337.749982474134 2370.89700919048 13 16 7
-1039.75919482931 -340.571932436932 2403.30834297498 11 13 8
-1033.00421340139 -340.558510639639 2408.96361712096 9 11 6
-1001.40181359946 -337.499293852246 2397.21076121126 10 12 7
-971.820568540105 -333.105123199417 2366.69179502374 10 13 6
-955.93744950613 -330.574397361014 2348.12110235862 11 14 7
-978.935650289361 -338.701198392019 2431.94881680732 12 15 8
-976.649150544251 -339.941531664703 2449.75217423209 13 16 9
-965.59887589979 -338.762402427513 2444.25635212862 13 16 9
-950.113790287451 -336.329873749046 2426.6001860784 14 17 8
-936.452311059233 -334.383888459015 2413.57801466635 15 18 9
-933.404238102722 -335.427880222139 2429.53978204485 15 18 9
-921.185683413424 -333.870362184449 2420.23051074004 14 17 8
-912.378071496387 -333.276787659232 2420.27551004277 14 17 8
-899.60379279142 -331.531175194195 2409.04897938755 15 18 9
-892.50440807816 -331.419515760771 2413.77024413006 14 17 8
-885.394799050298 -331.307331394649 2418.49500905178 14 17 8
-885.730297721055 -333.396726716408 2444.88140194957 14 17 8
-874.361107424727 -332.037915514239 2437.38189869545 15 18 9
-861.453608032701 -330.203524673707 2425.14391435164 17 20 11
-855.906475832615 -330.567350822669 2434.59834680805 13 16 7
-849.068247470968 -330.548315866729 2440.28429121313 21 24 15
-846.261755597612 -331.766689384165 2458.27823820471 16 19 10
-837.198838774194 -331.07897836952 2457.35629157353 19 22 13
-1128.07938244379 -347.905137470029 2315.20000673779 23 26 19
-1128.07219289282 -349.538012227043 2335.34551030651 21 24 17
-1115.8591890857 -348.119901593251 2328.15707042662 21 24 15
-1100.8946771693 -345.993521503929 2314.55514025786 20 23 12
-1092.39711635892 -345.492538260999 2315.54731073232 19 22 11
-1093.41030264518 -347.42229674335 2338.49934180086 18 21 10
-1082.90367542264 -346.413586917778 2334.92650053601 18 21 10
-1073.99533185573 -345.810410776407 2335.00882388733 18 21 10
-1061.99633392432 -344.3999268617 2327.74205218779 18 21 10
-1051.98125511213 -343.495852952852 2325.04927421606 18 21 12
-1043.91173700429 -343.096725968201 2326.94479172188 19 22 13
-1030.13951504737 -341.187546448546 2315.02663648534 17 20 11
-1019.85025652899 -340.186594766482 2311.37423164279 14 17 8
-1022.733634385 -342.703504667079 2340.00229640301 8 11 4
-1031.81013223831 -346.921078552028 2384.38483214352 12 14 9
-1025.84658164952 -347.118548229877 2391.87000442544 7 9 4
-1010.37037983581 -350.294059244153 2444.1852727831 8 10 5
-971.397360574534 -345.083578844777 2412.87354917974 14 17 10
-978.600701104516 -349.055429729863 2455.82184673382 14 17 10
-971.699173681284 -349.043583240466 2461.53024768386 13 16 9
-944.799532547899 -343.273118615272 2413.07437203139 12 15 6
-949.300630621245 -346.538363684977 2449.59140801578 13 16 7
-943.774431031683 -346.923121553461 2459.03665553702 14 17 8
-926.760402690953 -343.941303019232 2436.64442110297 13 16 7
-906.542614205308 -339.97608780282 2404.82410660495 13 16 7
-903.099106029532 -340.956748543899 2419.86751833302 14 17 8
-904.525571325085 -343.414732554152 2449.02938019253 13 16 7
-890.787323038949 -341.332754502106 2434.97880649587 14 17 8
-881.029368775272 -340.435915584118 2432.19205962787 15 18 9
-876.123588004128 -341.015717976476 2443.53053605223 17 20 11
-864.157313698968 -339.431680694077 2434.13160272897 17 20 11
-857.634673865631 -339.51901012055 2440.76141284489 17 20 9
-852.032876017206 -339.89962990145 2450.23444027794 16 19 8
-843.595220641444 -339.397028851393 2451.20471261917 15 18 7
-828.996975533105 -336.93743253968 2433.22862071044 24 27 16
-1165.37737572938 -362.366499750368 2358.15547220508 35 37 34
-1125.86030395544 -354.009128822165 2291.01315179622 25 27 24
-1124.73300658109 -355.384941884428 2308.38510530001 23 26 19
-1127.17673860958 -357.697004566494 2333.98869723748 17 20 13
-1111.33731409209 -355.310591945992 2318.59116306841 22 23 15
-1100.00916216658 -354.074159835791 2313.20062780995 19 22 11
-1093.50600749747 -354.088564471571 2318.76230428843 17 20 11
-1081.05086596609 -352.542239753831 2310.60470555181 17 20 11
-1080.05823147143 -354.011227396612 2328.98725704077 17 20 11
-1073.90010340541 -354.127324508087 2335.48271008006 18 21 12
-1071.98897319129 -355.383149509734 2352.08170223905 19 22 13
-1058.43660976793 -353.527848703623 2341.14640944831 21 24 15
-1051.85267646196 -353.538396653689 2346.73772683226 19 22 15
-1042.59047010905 -352.824361585649 2345.89017576321 12 15 8
-1037.50367684989 -353.247321369595 2355.17288806743 12 15 8
-1031.6301669001 -353.462364211299 2362.6240192805 12 15 8
-1022.00424304153 -352.645212711725 2360.84984450247 14 19 13
-1021.65500541584 -354.404016080317 2382.17693601001 0 2 0
-969.518201873 -351.045393448095 2385.3739930593 10 13 6
-985.341862227324 -357.596925443524 2450.5946934658 10 13 6
-976.705461442885 -357.08294559389 2451.63829033163 13 16 9
-955.936448264586 -352.995634363359 2420.02746880463 15 16 8
-948.098965801747 -352.689691002993 2422.89820443082 15 16 10
-952.907907726095 -356.153958238198 2460.35492888047 15 16 10
-920.882961846869 -350.652309443155 2421.20738860908 15 16 10
-913.741895623999 -350.550142343531 2425.94308159761 14 15 7
-906.922117875313 -350.548942181839 2431.62097653839 14 15 7
-902.389686620512 -351.256817470376 2443.88069399542 15 16 8
-887.361687058928 -348.720971810812 2426.06624684854 16 17 9
-883.456668068206 -349.630179675734 2440.21617778364 17 18 10
-876.277653010595 -349.525868160464 2444.96556650331 18 19 11
-864.945829852225 -348.108087070476 2437.45693573687 18 20 9
-858.728473951403 -348.306722939796 2445.03398272392 15 18 9
-858.756649711517 -350.520161290304 2471.52267833188 17 20 11
-840.620207536303 -346.888162344567 2443.18747011073 14 17 8
-823.887233849302 -343.665063286145 2418.57795618685 22 25 16
-1140.58303050326 -367.865619617278 2344.34981046542 25 28 21
-1117.75891689973 -363.600550218664 2313.49909623872 19 22 15
-1110.44770922016 -363.409547601498 2317.23650024701 21 22 14
-1099.52444858262 -362.255880110678 2312.75941859816 18 21 10
-1091.03021488593 -361.744599073221 2313.75090288705 19 22 13
-1080.56779167908 -360.699927922707 2310.16471398264 19 22 13
-1079.57252492151 -362.215523684533 2328.54470521456 18 21 12
-1081.22245565599 -364.473324981953 2353.3742528436 18 21 12
-1072.27615693469 -363.852586492952 2353.47169183507 17 20 11
-1062.18880156598 -362.913321469862 2350.80782987639 14 17 8
-1053.27985271318 -362.293767242864 2350.89160890352 12 15 8
-1053.1295288975 -364.115654452727 2372.14141347198 12 15 8
-1051.36565166755 -365.509287696337 2389.74331578258 14 17 10
-1031.89288846312 -361.92084046266 2364.02372391004 10 13 6
-1021.5177992875 -360.878333065798 2360.40538570837 8 13 7
-997.507537905238 -363.689775071214 2412.649199275 15 17 12
-1005.36055442212 -368.013946870843 2456.40141820662 11 14 7
-980.97379175114 -364.871998645077 2439.89998009223 11 14 7
-970.27001872317 -363.724139900501 2435.3427120729 12 15 8
-954.405571549335 -361.005252723931 2416.77943229321 14 15 9
-939.003372299424 -358.395565891532 2399.10651738038 15 16 10
-932.938315199751 -358.615153453681 2406.62664765479 15 16 10
-924.813201644175 -358.206424620023 2408.54308954946 15 16 10
-924.432709572505 -360.199642422028 2431.99696250251 15 16 10
-916.258826169037 -359.788732161571 2433.93128890659 14 15 7
-903.782363885767 -358.022881993618 2423.66463356547 14 15 7
-895.98108342861 -357.717534624298 2426.52217067498 15 16 8
-880.676781017653 -355.019414711076 2407.75380234382 15 16 8
-881.99727234122 -357.62605109176 2436.94320677368 16 17 9
-875.467976160511 -357.735087571253 2443.57379755876 17 18 10
-868.599852155273 -357.739471723412 2449.26883716476 17 19 8
-856.345460187935 -355.981502696514 2438.92115499871 22 25 16
-848.863937446014 -355.779072316098 2442.72130310823 15 18 9
-851.012871020191 -358.782430716974 2475.84624930179 32 35 26
-842.517383920706 -358.266254661858 2476.8385583359 30 33 26
-1149.09136702995 -375.00569226785 2323.65376537604 34 36 33
-1120.0873546508 -370.778573224779 2299.31180199204 26 29 22
-1118.8952557412 -372.239782069451 2316.70085707903 22 25 18
-1106.73661024325 -370.734408495552 2309.49925091221 24 25 17
-1098.63901221962 -370.327566404631 2311.40555302305 18 21 10
-1093.72950796498 -370.79715367118 2320.6203314559 19 22 13
-1078.8983236994 -368.528839020805 2306.98066753384 20 23 14
-1083.80068713139 -371.73167181736 2339.09013859482 19 22 13
-1085.41595005824 -374.053924248761 2363.92716509407 17 20 11
-1074.50101889596 -372.878280114066 2359.44871520692 16 19 10
-1063.24135548577 -371.594992377327 2354.03683083064 15 18 9
-1055.47045219921 -371.29392889062 2356.88300754749 13 16 9
-1062.13911242307 -375.129303117843 2394.70283642576 14 17 10
-1046.34349297255 -372.54020846853 2378.23786837082 16 19 12
-1032.90452185057 -370.607105527477 2367.26724619393 10 13 6
-1024.00968233991 -369.979519802785 2367.34650475652 11 16 10
-991.98264900892 -370.522113298878 2399.20828352036 9 11 6
-989.871854408401 -371.944983943741 2416.93402793137 11 14 7
-1000.78844208697 -377.355273602537 2469.09095613502 11 14 7
-976.257418447758 -371.978858448844 2428.2776996429 11 14 7
-971.172823907484 -372.532974928896 2438.6165276305 12 15 8
-962.927378304813 -372.117266674761 2440.57696298005 13 14 8
-945.397862985015 -368.800252131918 2417.33075916101 15 16 10
-931.768345987738 -366.669632280556 2404.31090564263 15 16 10
-928.732231927973 -367.867245113594 2420.25648264454 15 16 10
-918.224804299198 -366.704445024613 2415.62900231633 15 16 10
-912.097440736793 -366.93484040128 2423.17095540167 14 15 7
-902.963709420857 -366.201475867724 2422.27843727118 14 15 7
-889.578399960189 -364.079648174082 2409.16919060133 15 16 8
-897.148603782093 -368.793411014462 2456.19469375732 15 16 8
-875.362984827436 -363.898661521039 2418.61431975815 16 17 9
-869.202973928427 -364.127020507466 2426.16854280108 17 18 10
-862.062334636204 -364.03485367052 2430.90307182863 17 19 8
-866.280207953075 -367.7708445501 2469.62086226045 19 22 13
-855.894902441361 -366.611448682068 2464.94849922172 25 28 19
-846.793689157246 -365.8781416332 2464.04416173176 32 35 26
-839.561905647839 -365.781816027046 2468.81237496732 20 23 16
-1140.01417149806 -382.73689814142 2324.23515279275 28 30 27
-1128.98821733615 -381.536489967919 2319.79865591179 20 23 16
-1119.21912596694 -380.675256677843 2318.08007961369 20 23 16
-1104.63960058076 -378.465093247623 2305.41140151009 19 20 12
-1099.75547479361 -378.95519046589 2314.61541148402 19 22 11
-1094.83469348285 -379.443736027115 2323.83285686127 19 22 13
-1085.13450298473 -378.584577636747 2322.08908973467 18 21 12
-1072.31783287063 -376.829532366571 2313.0120399707 17 20 11
-1080.63301879363 -381.12395999622 2353.39865662814 16 19 10
-1074.01065907045 -381.158509268728 2359.00212483443 15 18 9
-1052.74323725528 -376.944500420824 2329.71506589509 16 19 10
-1066.45400774551 -382.900566864602 2384.01550583685 15 18 11
-1044.55166485427 -378.467913843283 2352.84252214572 14 17 10
-1040.57058138094 -379.282257592627 2364.89388103279 14 17 10
-1040.65947445245 -381.319689201267 2387.10731649607 6 9 2
-1025.75455822304 -378.901289920007 2372.43921005306 14 19 13
-989.336545303963 -378.16390070794 2393.19328127116 5 7 2
-989.022319423649 -380.184521969227 2415.55419905085 11 14 7
-996.745723186351 -384.744298516479 2459.33598871442 11 14 7
-987.718110946479 -384.102189078275 2459.46458443311 11 14 7
-958.811471123268 -377.168435010004 2406.49240902484 12 15 8
-969.708679247491 -382.819261106172 2459.70504023275 14 15 9
-960.039124520913 -381.958063072292 2457.95004156894 15 16 10
-949.371324400702 -380.767459941583 2453.38292837347 15 16 10
-920.426793128494 -375.86318262603 2422.67085421268 15 16 10
-906.271630896041 -373.471546467109 2407.72831466565 14 15 7
-915.055950415325 -378.651811543817 2457.47740867221 14 15 7
-908.145343682874 -378.671433247608 2463.18673415083 15 16 8
-888.509222565579 -374.420418033168 2432.24319835736 15 16 8
-880.698255206829 -374.114282666027 2435.1043145377 16 17 9
-861.660718264821 -369.983147049634 2405.00105606944 17 18 10
-859.985843663859 -371.754677288068 2425.74203046832 18 20 9
-867.998129745172 -376.903690752552 2475.77399120024 24 27 18
-860.726893967648 -376.811452139739 2480.55597625098 22 25 16
-850.651330910502 -375.738784520949 2476.8313389041 24 27 20
-1159.22665785359 -396.531067138891 2367.41200257726 29 31 28
-1146.03963159604 -394.727438264607 2358.4734371245 21 24 17
-1125.21685048775 -390.735405706776 2332.20799807011 22 25 18
-1102.54365072504 -386.173494914228 2301.32484833475 20 21 13
-1103.27173409005 -388.294827366826 2323.29945720205 19 22 11
-1096.73373216836 -388.341710464914 2328.87134444421 18 21 12
-1086.62392642303 -387.353628798124 2326.21932284419 17 20 11
-1074.18915549487 -385.677703948249 2318.06410123934 16 19 10
-1063.76512218268 -384.577519668885 2314.4681523987 15 18 9
-1059.57446384751 -385.312301693826 2325.53510452527 15 18 9
-1061.87885076704 -387.991800857961 2352.22815834196 15 18 9
-1043.40789966213 -384.487708209003 2329.33787453535 16 19 12
-1033.81286858785 -383.618210837459 2327.5566791335 13 16 9
-1035.17915540633 -386.061657674786 2352.47502369163 12 15 8
-1041.66538064228 -390.097745509517 2390.34599389004 6 9 2
-1041.26045855407 -392.073829897713 2411.67666914886 51 56 50
-1012.19090374937 -393.832042573856 2453.03848977939 10 12 7
-983.537771402939 -386.943743856257 2402.10414268579 10 12 7
-1001.20210641715 -394.797855502539 2471.89106494577 10 13 6
-970.701956138412 -387.24010963212 2415.27847365232 11 14 7
-986.231260812684 -394.513071108785 2480.5519458306 12 15 8
-966.787002997895 -390.470922572523 2452.72286258716 14 15 9
-970.197920427743 -393.887595395974 2486.42465365709 15 16 10
-958.087253619634 -392.220808577599 2478.1509833748 15 16 10
-942.313789394616 -389.316407434018 2459.56864339804 15 16 10
-929.010600488303 -387.20474013076 2447.49534886656 15 16 10
-925.793181363616 -388.471499918396 2463.50183786447 14 15 7
-918.53324063687 -388.386298101987 2468.27918806156 14 15 7
-907.323436433924 -386.952813059744 2461.79396435198 14 15 7
-889.324574761616 -383.164726415254 2435.5539118136 14 15 7
-876.655840086436 -381.176455853889 2424.30734198958 17 18 10
-862.781958932309 -378.743019859261 2409.26575632779 20 21 13
-856.638858335965 -378.999083715291 2416.81174484606 22 24 13
-861.196262811372 -383.055443810228 2456.44855472561 27 30 21
-852.724652748054 -382.523749703893 2457.43335919753 23 26 17
-845.505025768797 -382.438752520202 2462.19630076159 25 28 21
-1168.98631345226 -407.867255680533 2389.6765600296 20 22 19
-1143.09725217749 -402.364026263793 2352.5664752723 27 30 23
-1127.15741098806 -399.701998724815 2337.22622183696 14 17 10
-1114.54024482746 -397.987144898941 2329.14020852321 20 21 13
-1098.38354791532 -395.214021248847 2312.82057305738 17 20 9
-1093.86076755102 -395.859063973861 2322.94815802058 14 17 8
-1084.5573563142 -395.090751181853 2322.11992787949 14 17 8
-1073.311987931 -393.735346512642 2316.70829092079 14 17 8
-1064.45090800523 -393.086137808713 2316.77691484668 14 17 8
-1058.70240316896 -393.376039477373 2324.17697878948 13 16 7
-1046.38854357372 -391.671699414031 2315.97996952986 13 16 7
-1049.80118328556 -394.772227095705 2345.43850923085 13 16 9
-1034.0885476571 -392.014821552857 2328.95608936264 15 18 11
-1035.44604494874 -394.523728493143 2353.8729427219 14 17 10
-1041.92109142566 -398.663417744901 2391.73990338568 9 12 5
-1009.53711534289 -401.601007858038 2447.01668389708 11 13 8
-992.670271764341 -398.387936633614 2426.72153257111 9 11 6
-973.808671108848 -394.483400420002 2400.80373181096 10 13 6
-993.745599290816 -403.338574344908 2477.15580615216 10 13 6
-968.294293851756 -397.234049279652 2433.53219094183 13 16 9
-981.520229578396 -403.986743109479 2493.28171824493 15 16 10
-973.131891189306 -403.557216147443 2495.29536885889 15 16 10
-952.81380770255 -399.083712513274 2464.61640271153 15 16 10
-942.494989256365 -397.965055146332 2460.98361918274 15 16 10
-933.891380058225 -397.42431655511 2462.01706631833 15 16 10
-924.964820424223 -396.768543942395 2462.10997673867 14 15 7
-923.329600043113 -398.646286325432 2482.82852939438 14 15 7
-895.344731154075 -391.316851808206 2428.48473847341 14 15 7
-886.231624956273 -390.551018732502 2427.58717626629 14 15 7
-876.816230750785 -389.67101870612 2425.74150448592 18 19 11
-867.106227698989 -388.677078599167 2422.94466158164 21 22 14
-858.698759813814 -388.142710254185 2423.90636256699 23 25 14
-848.094763769777 -386.806831866414 2418.26047196722 23 26 17
-843.479278744342 -387.646867334475 2430.54039428157 24 27 18
-842.845018318887 -389.971055547104 2455.12805479911 23 26 19
-1147.97653478606 -410.267692153328 2343.7974584141 32 34 31
-1133.2277231346 -407.912834323416 2331.20120579165 22 25 18
-1118.16023337582 -405.440326588211 2317.6628072239 20 23 16
-1109.22112270389 -404.781056092908 2317.7605418285 19 20 12
-1100.29666499072 -404.122134937918 2317.85292610461 17 20 9
-1085.82439795561 -401.777206500015 2305.15544524908 14 17 8
-1080.91279700821 -402.324054805586 2314.36515602039 14 17 8
-1076.74900048129 -403.109850642961 2325.41849916963 14 17 8
-1073.70726935235 -404.254179169332 2339.23702497487 14 17 8
-1067.50683977873 -404.435367020074 2345.74268223501 13 16 7
-1059.74735940128 -404.135717675696 2348.5846018807 13 16 7
-1048.16811837998 -402.637205176809 2342.23851486666 13 16 9
-1045.74415918517 -404.014849710666 2357.94808933768 14 17 10
-1026.29247607071 -400.004489981454 2332.25267224833 14 17 10
-991.097487553633 -404.102023707033 2400.19616107284 6 8 3
-977.925701805552 -402.014546748855 2389.13985387646 11 13 8
-971.196944361304 -402.067731312691 2394.78057430804 11 13 8
-978.145800079683 -406.748257995722 2436.70130879315 11 13 8
-973.376885150616 -407.507309390353 2447.97627778843 13 15 10
-964.410104691703 -406.842787690872 2448.08471638276 13 14 8
-963.700183841665 -409.019491176979 2470.57762835195 14 17 10
-956.747364888966 -409.062951360335 2476.30049246408 14 17 10
-937.601569293437 -404.851518846034 2448.37573943428 13 16 9
-929.703279781501 -404.542767303197 2451.26878042684 13 16 9
-922.804417299686 -404.587740668442 2456.97192595481 13 16 7
-903.328931030949 -400.152912077948 2427.0504507385 14 17 8
-894.529064268417 -399.493500458203 2427.09760344965 15 18 9
-884.117678173376 -398.246168182041 2422.44160571396 16 19 10
-881.496015603819 -399.821833285862 2440.34143905756 19 22 13
-865.020013506474 -396.343090506953 2417.79095890654 22 25 16
-855.037347361455 -395.216876208395 2414.03660880529 26 29 18
-842.884860019121 -393.271065776491 2403.66607379597 23 26 17
-844.558110260092 -396.483028673844 2434.81474728601 26 29 20
-1147.48195378166 -418.578909405812 2343.35006365296 7 9 6
-1131.10638651106 -415.683696345833 2327.11916384886 16 19 12
-1123.74450919506 -415.50898101633 2330.87374913706 14 17 10
-1113.15843004 -414.346782749181 2327.3413566911 16 17 9
-1097.01128788052 -411.459738798567 2311.02659078814 17 20 9
-1081.76562357277 -408.823021528799 2296.49901766471 14 17 8
-1073.32479505976 -408.282317267661 2297.47331787399 13 16 7
-1075.4783529278 -411.062506434558 2323.14702009046 14 17 8
-1071.66101943769 -411.994180012165 2335.13002973618 13 16 7
-1069.72617364565 -413.537569725276 2351.71594143857 12 15 6
-1063.48618487358 -413.728198861259 2358.23525968108 12 15 6
-1055.31634480149 -413.304858845451 2360.16905483591 12 15 8
-1041.46317628563 -411.044077866465 2348.30683941571 14 17 10
-1049.9126268682 -416.007520694733 2390.72756119513 13 16 9
-1050.6596324282 -418.516302993341 2414.79942798891 11 14 7
-989.530509628491 -412.049473390364 2396.96593221271 9 11 8
-969.247372178502 -407.489539482408 2367.34734639743 10 12 7
-974.596867847717 -411.684172721808 2404.55256009004 11 13 8
-974.141049223961 -413.928868776223 2426.94827133515 10 12 7
-969.744995649026 -414.834873064467 2439.14348851007 12 14 9
-966.334888564667 -416.102234026026 2454.15313237781 13 14 9
-963.544343783909 -417.608980815529 2471.0527164252 13 16 9
-953.181942768921 -416.450566535961 2467.43876780292 13 16 9
-938.79819635233 -413.842592713463 2452.59560449653 13 16 9
-926.860879209585 -412.083827590184 2444.266143986 13 16 9
-917.315928292626 -411.172071366008 2442.46968677493 13 16 7
-906.1447760279 -409.65818331362 2435.97648590014 13 16 7
-895.025099169841 -408.146068790549 2429.46444826137 15 18 9
-893.714775092331 -410.247618278896 2451.11462352261 16 19 10
-876.489880753491 -406.45054628947 2426.72715001957 20 23 14
-859.734330137192 -402.779349856103 2403.22645934715 23 26 17
-849.791496241732 -401.63548678658 2399.4589683217 26 29 18
-843.034769747003 -401.692759289617 2405.10954251814 21 24 15
-843.109491227319 -407.075596757724 2458.00787616601 8 11 4
-1141.65945493754 -425.246283744428 2331.09628379523 8 10 7
-1139.98209328106 -426.842418927582 2347.58491641681 17 20 13
-1131.34713154281 -426.289810136305 2348.63065073319 18 21 14
-1118.70035998294 -424.476283112394 2340.56283922317 18 19 11
-1098.12323739113 -420.144697496644 2314.23401732988 17 20 9
-1085.25247585116 -418.211517835208 2305.19006153659 14 17 8
-1079.54746998802 -418.545298312596 2312.57075563743 13 16 7
-1074.20808001775 -419.003595227295 2320.87602333254 14 17 8
-1073.11951162729 -420.842261023792 2339.26553840156 13 16 7
-1071.94308585564 -422.677329453296 2357.68724678368 12 15 6
-1062.22724018709 -421.749632892437 2355.95433908283 12 15 6
-1054.44443935421 -421.449265692933 2358.80478608909 13 16 9
-1049.31434366168 -422.025211670185 2368.09168874095 12 15 8
-1038.5008104798 -420.722725853478 2363.58571326179 12 15 8
-1043.05771072466 -424.547466666019 2396.84033635684 11 13 8
-1037.41887266252 -424.992557011751 2405.25540124606 0 2 0
-990.473907499318 -423.281726856311 2423.50816549216 9 11 8
-998.487773009447 -428.565042762997 2468.19612922686 12 14 9
-988.029527876629 -427.38467476846 2464.61866081482 11 13 8
-982.830374642961 -428.065856740938 2474.9895249836 11 13 8
-972.059534125629 -426.762419136215 2470.46810947003 13 14 9
-956.526591648184 -423.726784538951 2452.87483692079 12 15 8
-931.572307760255 -417.231103514344 2409.10014845734 12 15 8
-933.910305419271 -420.635106114016 2439.99280454397 14 17 10
-921.673077459264 -418.721370899627 2430.7171950945 15 18 11
-911.832384259899 -417.674010579145 2427.97212177449 14 17 8
-902.682934372805 -416.874228129083 2427.09007182381 13 16 7
-906.333354304248 -420.88073828205 2462.79370525223 16 19 10
-888.997572522692 -417.000217994762 2438.45281762877 18 21 12
-869.553195286056 -412.26418763344 2407.47620924997 22 25 16
-850.933888354146 -407.781052238272 2378.31410729548 23 26 17
-852.168001886351 -410.919283306405 2407.49453204749 24 27 16
-850.110360703956 -412.824512468643 2427.29793588526 16 19 10
-838.59263818794 -411.047398423295 2418.81715103942 13 16 7
-852.841485540344 -419.441307794997 2488.73776339589 14 17 10
-1149.36401976473 -433.947982212857 2328.7069252452 10 12 9
-1140.34715351939 -433.262551901639 2328.83488516957 27 29 26
-1139.07972811677 -435.029079643362 2346.22827240197 23 26 19
-1136.51584944449 -436.405441115699 2360.92222544535 18 21 14
-1119.01172144329 -433.012090161904 2341.93903641915 14 15 7
-1100.43182404948 -429.237033830877 2320.17559207592 16 19 8
-1089.13268734252 -427.782502942848 2314.79097039998 13 16 7
-1083.0046041597 -428.000552089201 2321.2675602558 13 16 7
-1076.85530755177 -428.21756375129 2327.75193602546 13 16 7
-1073.01970573467 -429.203623735481 2339.73747969921 13 16 7
-1058.30823269627 -426.596640123141 2326.08012761187 11 14 5
-1058.66466359494 -428.990621802279 2348.16919995786 12 15 6
-1042.89245165437 -426.002296907528 2331.7261039403 12 15 8
-1044.2766180622 -428.775451656583 2356.6130751837 11 14 7
-1044.78456233239 -431.28796439708 2379.70496421665 11 14 7
-1036.58312348081 -430.85764269847 2381.65076717387 12 14 9
-1042.11961441 -435.150283166574 2417.71408742668 11 16 12
-1011.32494304164 -439.278869280062 2478.72314302962 8 10 7
-1001.16487889256 -438.204468226107 2476.09589513071 11 13 8
-980.240640557476 -435.805078031543 2468.94668999276 10 12 7
-965.686366899265 -433.087281033278 2454.1737719713 12 13 8
-952.601263749411 -430.879294113005 2443.09506240075 11 14 7
-941.975687407719 -429.559230282966 2438.52237573736 12 15 8
-933.755649592264 -429.124980796121 2440.47523275451 13 16 9
-930.233743487138 -430.458199016235 2455.52052836972 13 16 9
-909.347473086101 -425.228787312202 2421.90511731967 14 17 8
-903.515138940586 -425.679238292349 2430.39008213419 13 16 7
-898.634549871152 -426.506042597673 2441.70051447323 16 19 10
-896.957362972292 -428.589310906108 2462.41880788159 18 21 12
-865.846740349468 -419.225573700241 2397.63133053693 22 25 16
-858.132126180417 -418.922630774848 2400.45719711014 22 25 16
-854.224613512254 -420.126009265837 2414.5858384484 22 25 14
-874.485213859414 -430.985985904368 2501.33537026058 25 28 19
-872.12980717115 -432.92836699991 2521.2439060111 15 18 9
-1150.50126365614 -444.959227903496 2351.9954793576 21 23 18
-1142.24688994984 -444.527254293716 2353.96064017481 12 15 8
-1130.76183835959 -443.041919697278 2348.64589254689 18 21 14
-1116.50955153267 -440.637206307992 2336.93955172797 18 19 11
-1104.73407862948 -439.024144065726 2330.67340608706 16 19 10
-1094.59583499705 -437.938268555111 2328.03909574108 13 16 7
-1087.24656434688 -437.772203321601 2331.78870219585 13 16 7
-1083.80679341677 -438.917340606203 2344.68497924424 13 16 7
-1069.80764076634 -436.521224830485 2332.88601656901 12 15 6
-1061.29979847266 -435.961598050466 2333.88634744099 10 13 4
-1054.33689998609 -435.925582319188 2338.5520598683 11 14 5
-1060.32661823466 -440.335178774843 2374.44188109925 12 15 8
-1027.12406582045 -431.278116878218 2315.72463106495 10 13 6
-1037.89739315694 -437.380599699481 2363.61490479649 10 13 6
-1053.27512174529 -445.169307596211 2423.57124657048 13 15 10
-1016.90123046469 -452.690357883564 2518.35045132311 9 11 8
-968.955407803679 -440.273911090788 2439.6440718594 7 9 4
-945.505597957166 -434.143678683333 2400.62846759293 9 10 4
-942.166811349886 -435.520305686529 2415.60395375561 10 13 6
-946.92575012585 -439.9943229769 2453.0026589728 9 12 5
-944.74216917776 -441.87916450809 2471.78654919367 9 12 5
-927.728922353662 -438.08535710058 2449.45529666242 9 12 5
-916.506649010986 -436.487632012588 2442.98699563329 12 15 6
-897.087842088491 -431.672248942823 2413.07364012509 13 16 7
-898.799323818552 -435.098903336069 2443.12566762575 17 20 11
-879.251181005027 -430.162162522288 2412.20190510204 19 22 13
-867.943475583879 -428.444274438902 2404.70715500783 21 24 15
-863.724599302675 -429.552576170505 2417.88928959044 21 24 15
-873.083781556476 -436.174085711223 2471.58724943558 19 22 13
-869.271034644159 -437.529494906908 2486.73654409386 18 21 12
-1159.90996439486 -454.270913301987 2353.20765330531 20 22 19
-1152.05068702908 -453.970743308505 2356.08587222849 20 22 17
-1137.68223608763 -451.518582933217 2344.42531814572 11 14 7
-1127.43713074467 -450.413166724858 2341.83130904915 13 16 7
-1113.20557526286 -447.965790688544 2330.12065471884 17 20 11
-1106.23880580899 -447.936694260943 2334.78750584668 16 19 10
-1101.24355951542 -448.577402666985 2344.02052621904 14 17 10
-1095.81780330298 -449.082466926198 2352.35364534254 13 16 9
-1084.48986552674 -447.577724826446 2346.98327669279 11 14 7
-1080.98372887171 -448.75032724053 2359.90159461349 10 13 6
-1079.35183099412 -450.589020598498 2377.42196337263 10 13 6
-1076.48617011421 -452.023472075825 2392.22118224167 11 14 7
-1057.92760797072 -447.981744278969 2369.40355055126 12 15 8
-1039.89070439 -444.078613645945 2347.45222526924 10 13 6
-1033.64743979375 -444.312943731602 2353.96969074052 10 13 6
-1052.77516729939 -453.603795632607 2423.11650320494 14 16 11
-1014.27344595897 -460.541329972031 2512.31300970275 14 16 13
-1006.49579407026 -460.357452214818 2516.21935282721 1 3 0
-962.89620805983 -446.556060370317 2424.30543715603 11 14 7
-956.062897759951 -446.645788108325 2429.98138832563 6 9 2
-945.256526754329 -450.732111424072 2474.1316178053 10 13 6
-929.914570136033 -447.522903182227 2456.48204932973 10 13 6
-911.362486873829 -443.001835604925 2429.43175131533 11 14 7
-900.888908534875 -441.643004722978 2424.80650880006 12 15 8
-886.857474930997 -438.840100317345 2409.85004484168 18 21 14
-878.442384483686 -438.272947333616 2410.81724334872 24 27 20
-873.25819237828 -439.017884844071 2421.17760681534 18 21 14
-872.186490866052 -441.465329418374 2443.78179374338 13 16 9
-872.549286532034 -447.52475186818 2497.59096604127 19 22 15
-1152.82363714915 -460.423667531486 2338.25197565973 28 30 25
-1133.1395276687 -456.143502805802 2314.79447749049 13 16 9
-1134.7470072563 -459.003503811934 2338.52720174308 19 22 13
-1130.9831656871 -460.076366196716 2350.48012284411 15 18 9
-1119.13766932508 -458.40674733634 2344.24368664264 19 22 13
-1119.31015318688 -460.846215394072 2365.32960559782 14 17 10
-1113.83043623415 -461.366098402732 2373.68121258642 13 16 9
-1107.13787908732 -461.474383732672 2379.30462264967 12 15 8
-1096.12583207465 -460.078965644319 2374.87778658861 12 15 8
-1087.87483811366 -459.640528751368 2376.84220708245 12 15 8
-1079.62838940136 -459.202016398196 2378.80498181036 13 16 9
-1071.00287140021 -458.627072535013 2379.84897007924 10 13 6
-1051.72050162768 -454.238042482284 2355.18716261234 10 13 6
-1045.45666370016 -454.482869693563 2361.71105681734 9 12 5
-1048.19152074122 -457.991296458476 2390.31852754176 9 12 5
-1042.19727849731 -458.367533584076 2397.80110865994 12 15 8
-1057.30598747404 -466.484667210737 2457.83041511593 5 7 4
-1005.29883797671 -465.926479349449 2489.56837386399 6 8 5
-1003.18519074395 -467.908294817861 2508.31953770134 14 16 11
-982.562663166327 -462.735098816322 2477.80398043187 8 11 4
-962.124925122186 -457.568856685931 2447.22075750454 9 12 3
-954.199763533022 -457.259829115871 2450.12358295862 11 14 7
-944.915084987797 -456.412046955461 2449.29454261792 10 13 6
-926.072544911754 -454.583578914962 2446.67893682963 9 12 5
-917.516463213402 -454.006151630874 2447.6981379654 12 15 8
-900.07153996633 -449.8046989031 2423.42112040023 13 16 9
-882.448668632486 -445.474688477428 2398.1519017039 21 24 17
-883.798705696642 -448.924008110866 2427.26673495428 23 26 19
-880.176746089601 -450.358559117118 2442.34073804365 17 20 13
-889.899904237149 -457.410915332182 2496.94075425077 13 16 9
-870.944442126112 -458.604929141157 2520.80406657432 14 16 11
-1128.04456755332 -460.462987580774 2284.32077994453 10 12 7
-1131.42122703933 -463.95155306995 2311.62974776044 19 22 15
-1139.94244755171 -469.253679529841 2350.79891559068 21 24 15
-1123.21714803941 -465.878002818445 2333.6647821563 10 13 4
-1123.05772711107 -468.235466920391 2353.81067137296 14 17 8
-1127.58530540624 -472.264682848802 2384.92740778463 14 17 10
-1123.63309959674 -473.357145779688 2396.94728979558 13 16 9
-1116.08632532686 -473.192414885664 2400.76830174923 12 15 8
-1108.14270027136 -472.887831859448 2403.67750032608 12 15 8
-1087.37829694765 -467.987891817913 2376.39279726225 12 15 8
-1074.1152426174 -465.737960695582 2366.44871933811 13 16 9
-1057.08989580648 -462.100057340494 2347.31002299432 10 13 6
-1057.32265670418 -464.719254652327 2369.42703641689 10 13 6
-1058.58179959801 -467.750608532257 2394.33995186139 10 13 6
-1050.32588479776 -467.308153118321 2396.30646348476 10 13 6
-1044.31310876516 -467.697467059468 2403.79479195779 11 14 7
-1029.38183566749 -464.760314957782 2389.17565698878 1 3 0
-986.813056436713 -467.457827682414 2441.77097285051 12 14 11
-990.077638001953 -471.557530225428 2474.40784131511 17 19 14
-986.229468355237 -472.897398276862 2488.5046227498 12 15 8
-963.697868108474 -466.806514730584 2452.35209823078 16 19 10
-967.394939139276 -471.170435129606 2486.94500384635 11 14 7
-960.046705128493 -471.131894373376 2491.75116796308 10 13 6
-930.099686826712 -461.89649970033 2433.99762809357 7 10 3
-917.884330693955 -459.805946289361 2424.72741300316 9 12 5
-922.336008147633 -464.570508577993 2462.21583571367 16 19 12
-903.537169636798 -459.74058198269 2434.21168651129 19 22 15
-889.810994819131 -456.969792751783 2420.20869797352 20 23 16
-869.691313008626 -451.46729426614 2387.40191757092 16 19 12
-886.122840372273 -461.413930460785 2460.67880384663 12 15 8
-881.742851623585 -462.605887564482 2473.91341901301 12 15 8
-896.302364253997 -471.982322107445 2543.64676760871 13 16 9
-867.330946329851 -465.757998084449 2510.91094953545 12 14 11
-1132.56560794727 -472.741728208147 2314.81719770391 19 22 15
-1141.88286839503 -478.438048249699 2355.80075857569 13 16 7
-1123.12735050561 -474.2893187092 2334.1293179942 13 16 7
-1122.96259615864 -476.698770383546 2354.27347680204 14 17 8
-1124.69258165021 -479.816042428202 2379.00883478582 15 18 11
-1127.09078721232 -483.212862794675 2405.61367773616 13 16 9
-1122.27261471938 -484.045249479983 2415.83445435202 12 15 8
-1104.12237477039 -480.045440774068 2394.99841348655 12 15 8
-1095.42485262539 -479.457781186239 2396.06977729195 11 14 7
-1079.40744830682 -476.174636467452 2379.73775919465 11 14 7
-1068.86199510585 -474.880153337972 2376.20058691797 12 15 8
-1062.53890018229 -475.14521876729 2382.74473871439 11 14 7
-1070.93908492479 -480.930591560729 2425.12134469526 12 15 8
-1055.46189018888 -477.794151045215 2409.64878964558 12 15 8
-1039.71394480743 -474.520003728891 2393.21818812866 10 13 6
-1028.14740338244 -472.803789526579 2386.88391281552 6 8 5
-970.098982777053 -475.122435098852 2446.19896039243 16 19 12
-961.132661654469 -474.392633930792 2446.31190322751 9 12 3
-951.497474599254 -473.382826251955 2444.55588463832 12 15 8
-925.901288651263 -468.705592930203 2423.27642533418 10 13 6
-901.008820046979 -461.265217806724 2378.48374519237 15 18 11
-900.934854422158 -464.178624002425 2402.82337212954 19 22 15
-906.011268969953 -469.322050078517 2442.18958529446 21 24 17
-903.373200406231 -471.246941201306 2460.06902989105 16 19 12
-904.218621355262 -474.702639962159 2488.30017157385 14 17 10
-878.697618702162 -469.897570713084 2465.93648454263 13 16 9
-896.114556222379 -480.720871289241 2544.12222406683 13 16 9
-881.106267981243 -477.342130994333 2526.36446710849 16 18 15
-871.192027356994 -476.191091111285 2523.65368481328 16 18 15
-1154.55141479693 -488.972305995388 2364.26922164633 17 19 14
-1145.03950444924 -488.090467722654 2363.52531274109 21 24 15
-1127.87970395831 -484.448692610119 2345.5023168363 21 24 15
-1113.24309659846 -481.682279912593 2332.8963486529 11 14 5
-1116.22368429403 -485.302682735958 2360.33927688714 14 17 10
-1123.02363648111 -490.367406007319 2396.95183557337 13 16 9
-1120.19401431951 -491.947173007127 2411.72699593441 12 15 8
-1104.01222903131 -488.601177445299 2395.45970011834 12 15 8
-1097.25349080621 -488.731649893226 2401.10548219923 12 15 8
-1092.02110642549 -489.439599838946 2410.4195902627 13 16 9
-1083.68792373587 -488.989867917548 2412.41447093089 11 14 7
-1080.68590074618 -490.561616867143 2427.25287596188 10 13 6
-1067.79124764536 -488.378695807367 2418.2364442572 12 15 8
-1057.96554388712 -487.351675942164 2416.55094622792 12 15 8
-1027.29010031128 -478.255577854241 2363.31803972128 8 11 4
-1022.10102722516 -478.963522046114 2372.61666590428 12 14 11
-974.546743390436 -479.715607455362 2411.17082763156 5 7 4
-984.527180777512 -486.713964750103 2461.4147053735 11 14 7
-957.106833228556 -478.389331741383 2412.27418176247 13 16 9
-945.477552982519 -476.510978977737 2404.90837919508 18 21 12
-937.324149878728 -476.063523853527 2406.83776740023 14 17 10
-931.551620082768 -476.615689248066 2415.29332853364 16 19 12
-911.938677706929 -471.315379923456 2385.48735249184 17 20 13
-891.836882694476 -465.736533574286 2353.74638994944 16 19 12
-893.816380890932 -469.570262970355 2383.67032254363 14 17 10
-911.773728689652 -480.375769825886 2459.5279408086 14 17 10
-918.881022220659 -486.611543599395 2505.5402422648 12 15 8
-899.089400404323 -490.883091657399 2554.00773153502 11 14 7
-884.056595615991 -487.443172594846 2536.26324408944 10 12 9
-1152.41632464128 -496.75777156991 2360.19107501693 29 31 26
-1149.00487214203 -498.087226885489 2373.06315582613 14 17 8
-1126.17337784764 -492.309958918459 2342.32922107839 15 18 9
-1109.14243224813 -488.610303107674 2324.26377454358 8 11 2
-1118.11598730158 -494.522599283351 2365.35592074857 10 13 6
-1119.35500939732 -497.619792142835 2389.20462294105 13 16 9
-1112.21952395767 -497.61224149082 2393.93089495414 14 17 10
-1104.68266030256 -497.456487078035 2397.74788302467 14 17 10
-1091.70794588404 -495.236343659772 2388.76334908975 13 16 9
-1086.8934531485 -496.112153471372 2398.97951236734 12 15 8
-1078.59158380064 -495.661128059875 2400.96336762366 10 13 6
-1076.75943519074 -497.711056841137 2418.54055694415 10 13 6
-1066.15668463703 -496.375953269284 2415.02726782474 12 15 8
-1052.96312001029 -494.013402037397 2405.06618474353 11 14 7
-1015.62175467365 -482.109539717474 2335.26782444251 7 10 3
-997.642692796519 -497.833020039135 2472.87656815895 10 12 9
-970.745947672029 -489.640877579201 2425.66917028016 10 13 6
-976.043873222175 -494.875755498421 2463.88118944891 14 17 10
-948.776502301401 -486.403859218522 2414.69619493288 15 18 9
-937.519199633736 -484.641980116372 2408.25300705553 15 18 11
-934.793915343352 -486.52012553397 2425.10111120163 18 21 14
-917.178513722886 -481.995908969247 2400.91038787866 18 21 14
-897.373427563817 -476.459875632953 2370.12520009958 14 17 10
-904.938224079253 -482.83977926295 2415.96039871243 11 14 7
-901.740245830276 -484.565923804375 2431.9249084916 9 12 5
-911.199636549485 -491.945129023507 2484.46273325165 11 14 7
-900.63397534756 -490.472691029947 2479.87977404186 11 14 7
-884.406605865229 -489.70259152545 2484.76708147943 8 11 4
-890.048348032657 -495.608510628624 2528.13709213331 9 12 5
-880.732542877246 -494.712735202184 2527.32272812235 18 20 17
-1144.15688823167 -502.256645769945 2342.5110452609 24 26 21
-1139.16943520864 -503.014916365332 2351.73236379049 17 20 11
-1129.3066147418 -501.962759169841 2350.06224830704 15 18 9
-1130.68722918269 -505.128967957416 2373.85429732113 14 17 8
-1122.39465228026 -504.677488067333 2375.83455626893 12 15 8
-1111.33785094765 -503.172873268502 2371.43247450446 14 17 10
-1119.18398041714 -508.885756593127 2410.81593600188 14 17 10
-1108.08481603651 -507.378935327567 2406.42941280511 14 17 10
-1101.29224423357 -507.524908909139 2412.08631831015 12 15 8
-1083.69598163089 -503.468720963618 2392.11980681154 11 14 7
-1073.11623516233 -502.116144676746 2388.59947778834 10 13 6
-1058.77043743499 -499.2661567034 2375.89415343228 10 13 6
-1059.23677799351 -502.259385011956 2398.96463359357 10 13 6
-1047.96455493894 -500.608847641683 2393.58527648433 10 13 6
-1017.21492831023 -511.72054792748 2500.98285894162 6 8 5
-993.620435891116 -504.860434337804 2463.14145022542 8 10 7
-988.417179065382 -505.73891621926 2473.49866448486 8 11 4
-953.697347733423 -493.988092154363 2404.86962222907 10 13 6
-949.329174602188 -498.274602880597 2441.33221838052 14 17 10
-935.320139055956 -495.297518244485 2427.44756908587 11 14 7
-922.076470092425 -492.620052305873 2415.39533913448 10 13 6
-907.913180682341 -489.501297823136 2400.51061473496 10 13 6
-923.280534762128 -502.79124924877 2494.1877366936 11 14 7
-925.382734219892 -507.057530454738 2526.16781736691 9 12 5
-904.022232691337 -500.686069328542 2490.67751496748 10 13 6
-893.147514104979 -499.044367449759 2485.15306290494 7 10 3
-868.693578307179 -494.439180366431 2465.58625769578 13 15 10
-865.816048903536 -496.484119193747 2483.54364961734 14 16 13
-1136.31171090459 -507.804862459167 2325.743587196 21 24 17
-1142.72716566578 -512.883639752858 2360.3614210581 20 23 14
-1134.85503817263 -512.584396801649 2363.24423896831 13 16 7
-1142.20130935846 -518.112402533164 2400.69015458684 14 17 8
-1127.06728823202 -515.050143066745 2387.22042707341 14 17 10
-1108.46658103586 -510.612652268847 2365.51452545122 14 17 10
-1114.75065881952 -515.823068009149 2401.23697171472 14 17 10
-1110.70301576619 -517.048993710556 2413.28145968128 13 16 9
-1098.462278023 -515.062478377961 2406.14598362411 11 14 7
-1078.18996105199 -509.869597269212 2379.77114621705 10 13 6
-1054.63845929951 -503.308678671298 2345.09146565483 9 12 5
-1053.33560039549 -505.604635456297 2363.52433717966 9 12 5
-1056.47396251057 -509.72661171703 2393.00546230548 10 13 6
-1054.58991321037 -511.861607935862 2410.59483631659 10 13 6
-1081.6302698836 -528.904070655072 2523.213856756 3 5 2
-1012.80852930345 -518.65974693017 2490.32741400728 10 12 9
-984.325198151195 -509.560149634755 2439.49821777193 11 13 10
-958.583820427252 -501.531498867 2395.05861883564 10 13 6
-950.434604547897 -501.076777094362 2396.98728825038 12 15 8
-937.90738128078 -501.828877688182 2411.08166647292 10 13 6
-931.100696500355 -501.976607347902 2416.74356725378 8 11 4
-923.605961311727 -501.821680541216 2420.54518602613 8 11 4
-935.130940054106 -510.260709496733 2477.58557518444 8 11 4
-917.543472606465 -505.578551393915 2453.39661926869 10 13 6
-930.996798684992 -515.056432160841 2517.12464097146 11 14 7
-914.770256939956 -510.977771914562 2496.66215401714 11 14 7
-900.289783562396 -507.655670041611 2480.84146111255 9 12 5
-885.912165732167 -504.337305047709 2464.98311497144 8 11 4
-870.045673834592 -500.271791843612 2444.38907072598 11 14 7
-867.887024960976 -502.664258428046 2464.19215730444 18 20 15
-858.74519472533 -501.753306370847 2463.31598107788 24 26 25
-1195.74297312447 -536.235115632161 2437.46717547519 22 24 19
-1170.90755327172 -529.51672200492 2403.26587231806 32 34 29
-1137.76662096247 -519.524116864812 2349.92985710963 16 19 10
-1146.4420097637 -525.629472660072 2390.04896111224 15 18 9
-1128.08357341842 -521.269173843737 2369.31576537073 14 17 8
-1113.43783365816 -518.31749570626 2356.72709390466 11 14 7
-1126.14808634416 -526.124800765177 2406.98490137387 12 15 8
-1118.56594298315 -525.976419160514 2410.81753066661 12 15 8
-1103.1765086919 -522.713820722228 2396.38941831102 12 15 8
-1093.30901156957 -521.632822619006 2394.72292381943 11 14 7
-1076.15259767301 -517.5981541426 2375.661785632 10 13 6
-1071.73745467892 -518.695826139041 2386.78292083771 9 12 5
-1063.47733622967 -518.238394111128 2388.75183550882 9 12 5
-1068.80294956391 -523.367939988263 2423.76207342428 11 14 7
-1057.08761899241 -521.510832369724 2417.49248942901 11 14 7
-1065.14544643147 -527.870349105665 2459.95016659796 8 11 4
-1077.4167630832 -536.079768513926 2513.5370388602 13 15 12
-1021.80977333241 -528.166146122107 2490.60613027012 8 10 9
-1017.25936447955 -529.395603537799 2502.83302545926 17 19 16
-968.70956353364 -511.346962137527 2399.17192223042 15 17 14
-953.557544569515 -507.806949263848 2382.5451125525 12 15 8
-949.945999302912 -509.35297318618 2396.54036467393 12 15 8
-938.707330637117 -507.510295829751 2390.09650272122 15 18 9
-934.346185837768 -508.745393191048 2402.25420562912 15 18 11
-931.627331300458 -510.746691245296 2419.09042723611 13 16 9
-931.857057738837 -514.127104495573 2444.35103125114 12 15 8
-919.286404799959 -511.669152491337 2434.17107340649 11 14 7
-919.367281323628 -515.043063615346 2459.48625078132 10 13 6
-915.054885754172 -516.418908455151 2472.68243218392 10 13 6
-902.212418637865 -513.80887097486 2461.5458991871 11 14 7
-898.500693471818 -515.488408839985 2476.63403282544 11 14 7
-877.400646055288 -508.902897808919 2441.0655023783 14 17 10
-874.330802545579 -510.887739297476 2458.03049313432 16 19 12
-868.974784164277 -511.799688050242 2468.44094058014 19 21 16
-1192.35380477193 -543.729289434181 2430.66673796278 19 21 16
-1152.04417907404 -530.854615579747 2362.02010740295 25 27 22
-1141.72612433676 -529.601667149642 2359.46373510264 10 13 4
-1118.95312022559 -523.423712504362 2328.73878112449 11 14 5
-1116.37793630665 -525.192719104539 2343.40721608664 7 10 1
-1123.67576698375 -530.926459275021 2380.8552089692 9 12 5
-1102.72950092448 -525.391362936615 2353.68450702382 10 13 6
-1108.64064998301 -530.64096738341 2388.47268490512 10 13 6
-1097.45602163233 -531.936432056797 2405.23842760942 12 15 8
-1087.96877059329 -530.9997276364 2404.48969878974 12 15 8
-1076.9725103756 -529.430930866687 2400.07020849157 10 13 6
-1061.84058934919 -526.12520293221 2385.55153178019 10 13 6
-1055.10166786374 -526.297093994209 2391.18698859479 12 15 8
-1065.94943685317 -533.885608661359 2440.00464763984 12 15 8
-1061.66195724567 -535.155071820208 2452.13324656803 9 12 5
-1075.42269163512 -544.145742120943 2509.38623575421 6 8 5
-1067.60452887738 -543.987971556882 2513.3055824746 0 1 0
-1031.99821750372 -541.465446034138 2517.89980833576 6 8 7
-1008.96215397933 -534.55372467774 2481.99276209916 12 14 11
-936.158332788045 -514.818524427558 2384.07138581279 13 16 7
-932.493554967695 -516.394552703574 2398.08346113845 16 19 12
-927.412874850368 -517.342184546543 2408.39117550666 15 18 11
-921.619035008525 -517.975132939306 2416.84838417381 14 17 10
-911.792967531042 -516.73182426581 2414.11252709067 11 14 7
-918.332371378477 -530.159124606411 2508.85369922772 13 16 9
-899.298402267385 -524.545003699429 2479.927339973 13 16 9
-890.057657104564 -523.609208753797 2479.08897768978 14 17 10
