ply
format ascii 1.0
comment KinectMotionCapture
element vertex 781
property float x
property float y
property float z
property uchar red
property uchar green
property uchar blue
end_header
-1125.29797047029 -236.015668257751 2402.51729164238 20 23 16
-1090.48365124036 -231.422926450379 2342.98200639882 17 20 13
-1077.63308262267 -230.302134790002 2333.86941778656 14 17 10
-1093.74103952509 -233.829440920118 2392.81515921629 13 16 9
-1089.75378837932 -234.148018165659 2404.90616542478 14 17 10
-1080.70576300764 -233.651134642635 2405.03147477891 15 18 11
-1060.19041591729 -231.280606463298 2377.46543206815 15 18 11
-1054.67052750963 -231.349328341249 2385.86542137746 12 15 8
-1045.34340411216 -230.794142427585 2385.02972599152 12 15 8
-1042.03693204007 -231.234553715038 2398.99755380336 13 16 9
-1031.59153203219 -230.493196003247 2395.38229424815 11 14 7
-1021.5515699408 -229.815235756488 2392.68149666934 12 15 8
-1007.50150117214 -228.457927125366 2379.75609783664 15 18 11
-999.374501681609 -228.092384628064 2381.66971217902 16 19 12
-993.425585998173 -228.097122776663 2389.16410895188 15 18 11
-983.135230680382 -227.362036599428 2385.49204264085 16 19 12
-975.736988687534 -227.120136217586 2389.2649098013 16 19 12
-967.978953730327 -226.816705989303 2392.10658954526 15 18 11
-949.311416071513 -224.613985918954 2365.98987366488 16 19 12
-943.030082345534 -224.55840856783 2372.54279075445 18 21 14
-928.05863373395 -222.975364197255 2355.70246238237 21 24 15
-913.195094778528 -221.396589871475 2338.82285850327 24 27 18
-911.080038216459 -222.074147555485 2356.60638649804 23 26 17
-904.474851421567 -221.958569630115 2362.21494247138 21 24 15
-902.228790271326 -222.631093062431 2380.04644919517 20 23 14
-889.882549663657 -221.483453934157 2369.68583441875 18 21 12
-885.229754996608 -221.729395169987 2380.95758184812 20 23 14
-888.75071521831 -223.48270890122 2415.81170388156 20 23 14
-884.267683442708 -223.782881729459 2428.08423445431 19 22 13
-869.37644846611 -222.155823727265 2410.15152611761 18 21 12
-861.662396033144 -221.85464650833 2412.97705536563 18 21 12
-860.000471990995 -222.692844541078 2433.78374574549 19 22 13
-860.452845270249 -223.946320608097 2461.25730138892 18 21 12
-858.891680919882 -224.836062788799 2483.09004913794 19 22 13
-854.119993393459 -225.125215053002 2495.46829070443 19 22 15
-858.544661654753 -227.199308771898 2536.36945003636 13 16 9
-833.113682423944 -223.497547776483 2485.09075489268 9 12 5
-1183.26640119849 -249.029561227912 2429.53841197549 27 30 23
-1171.15425796218 -248.052848702751 2423.34632340249 19 21 16
-1165.58353358051 -248.135890542484 2431.76395717154 21 23 20
-1160.38433992257 -248.283729200552 2441.10826709005 24 27 20
-1137.5244775701 -245.53024287912 2410.15649036937 23 26 19
-1098.9346775809 -240.151934062602 2342.45273660964 20 23 16
-1085.65034715881 -238.928589939888 2332.43893146023 19 22 15
-1076.36558643001 -238.364105138459 2331.58829143653 16 19 12
-1094.4202865106 -242.385796730195 2395.12269558588 15 18 11
-1089.26055550071 -242.53535444284 2404.45253753695 12 15 8
-1076.36152122565 -241.377440687112 2395.36061354474 14 17 10
-1063.91116211471 -240.287334284861 2387.16685477474 13 16 9
-1051.14192724043 -239.13455217364 2378.02712828966 11 14 7
-1049.0073374659 -239.804471776095 2394.75177350209 10 13 6
-1050.54390120407 -241.120391505711 2420.75988001888 12 15 8
-1037.05954735351 -239.839258532518 2409.75655491641 10 13 6
-1021.43334761177 -238.172925325819 2393.16040649442 11 14 7
-1008.11776068609 -236.898451293222 2382.09525960249 14 17 10
-998.889380299921 -236.336488151141 2381.22394421976 16 19 12
-978.820440148125 -233.84337543351 2352.43839806538 15 18 11
-966.83401228808 -232.771684898741 2344.07468614264 16 19 12
-963.474470099725 -233.243207400937 2358.0594489299 15 18 11
-960.761675196276 -233.840527799696 2373.93284496301 16 19 12
-959.383871878039 -234.691061503336 2393.56881663037 19 22 15
-937.660657551775 -231.831949414474 2359.01209961084 20 23 16
-925.501491999666 -230.703411710373 2349.64888275096 19 22 13
-913.75307403876 -229.641205340112 2341.19797729817 23 26 17
-905.481053764183 -229.217397713965 2342.10212309715 21 24 15
-906.708801657868 -230.571907457191 2369.28633287218 18 21 12
-905.784927321831 -231.540854167071 2390.88155311772 17 20 11
-897.415438704468 -231.113338488703 2391.82164690971 16 19 10
-884.750601508293 -229.864707355763 2380.5178540092 16 19 10
-882.350629562286 -230.575058918838 2398.40242811225 17 20 11
-872.369125972083 -229.833369903592 2394.61864256451 18 21 12
-862.747246875144 -229.156012393181 2391.76589425552 19 22 13
-854.761073076755 -228.79386945515 2393.62833913839 19 22 13
-856.649345054798 -230.375441060176 2424.82190278288 18 21 12
-857.43639451772 -231.763257573017 2453.23027803648 18 21 12
-858.711544442738 -233.270692959833 2483.58564940692 19 22 13
-864.497797789297 -235.708226972745 2528.23115084823 16 19 12
-858.043240773806 -235.707613582772 2535.90966988824 11 14 7
-1201.2433607622 -260.674086464715 2470.12644607992 28 29 23
-1165.89307618572 -256.801125754586 2433.13104966436 22 22 20
-1151.82262504054 -255.45594830788 2422.34525367213 20 22 17
-1120.21149715292 -251.093821977223 2371.22849746651 18 21 14
-1078.95708846673 -245.030172610259 2297.07820388071 14 17 10
-1083.98230576807 -246.921781286553 2329.24197147099 15 18 11
-1091.5912935871 -249.285273404995 2367.89750180815 15 18 11
-1088.85645017366 -249.866864444069 2382.71353946083 14 17 10
-1076.75306381511 -248.810648619113 2375.45796590403 13 16 9
-1070.86533547741 -248.845162613354 2382.92788438122 14 17 10
-1066.48093495908 -249.150378436308 2394.09738746947 13 16 9
-1050.65446731763 -247.418847415736 2377.57917748082 9 12 5
-1054.55384808303 -249.213551471186 2409.09250483048 8 11 4
-1064.28903204701 -252.084142570017 2455.47071395271 7 10 3
-1046.98796477542 -250.083082310601 2435.2418842387 9 12 5
-1029.07580635442 -247.952196569892 2413.11176995347 11 14 7
-1013.87102216406 -246.298043235189 2397.42839698754 12 15 8
-993.666451500792 -243.706695735324 2368.69928815744 15 18 11
-974.721968690144 -241.32358667652 2342.69680748848 16 19 12
-962.403838263883 -240.153215996611 2333.39450490205 17 20 13
-959.784012815814 -240.792510946071 2349.23095459372 16 19 12
-964.883672351028 -242.899211729481 2385.61792473683 17 20 13
-964.875908025444 -244.064520754555 2408.99883874144 22 25 18
-943.813425886204 -241.227821156495 2376.33347432157 23 26 19
-915.670549798684 -237.001726003484 2323.9463082191 23 26 17
-910.871209133466 -237.238026150088 2334.20547251121 25 28 19
-908.761230190153 -238.003331886938 2351.98053488569 20 23 14
-905.552781792557 -238.566767315923 2366.97002088486 18 21 12
-907.992601005917 -240.251724993367 2397.95538606145 19 22 13
-904.273303869506 -240.742237416624 2412.06917420662 18 21 12
-875.627931264232 -237.503430902796 2380.0561857984 19 22 13
-864.066864176623 -236.415878303529 2371.53937545619 21 24 15
-854.830891990737 -235.790099712003 2369.60907719954 22 25 16
-849.149293131679 -235.886107294876 2378.06601754403 21 24 15
-845.346320720929 -236.373473982341 2392.21069971479 18 21 12
-845.269458617899 -237.642309478271 2417.74202077419 18 21 12
-862.287938036062 -242.493533734629 2495.45658154836 18 21 12
-863.06584905986 -244.007764305939 2524.92529523493 14 17 10
-845.840825010951 -241.745223176742 2499.35552981911 9 12 5
-819.304322945077 -237.476208226437 2444.25483360046 11 14 7
-1158.7311630353 -263.068088616982 2396.8615674126 21 22 17
-1144.71773530433 -261.68440253588 2386.05795821046 25 26 21
-1147.29498144172 -263.233729032387 2412.73714535876 18 21 14
-1121.72235026425 -259.782375094492 2375.35727238227 14 17 10
-1122.62025536485 -261.043196655703 2398.40191609904 10 13 6
-1090.21682650738 -256.321901007843 2344.40020947117 10 13 6
-1122.11239065285 -263.19619241763 2440.02248607091 11 14 7
-1092.6556263739 -258.980140154281 2392.37868069892 10 13 6
-1083.84456251245 -259.638518630792 2414.72967918713 13 16 9
-1062.54974116372 -256.855911289723 2385.34482830309 12 15 8
-1042.57313277467 -254.29198384506 2358.66419011095 8 11 4
-1051.04431655656 -257.018980040341 2401.24575887269 7 10 3
-1060.04334177389 -259.8780583342 2445.758943993 6 9 2
-1061.3710619804 -261.32288917607 2471.83320465856 9 12 5
-1036.71106594524 -257.851589624731 2433.05668575231 12 15 8
-1001.27643137231 -252.28755006185 2366.35366806262 10 13 6
-979.340725577393 -249.257057865182 2332.95364431389 14 17 10
-973.520234664368 -249.308124300907 2340.39762969624 18 21 14
-972.701819652291 -250.334798790883 2360.88362071828 22 25 18
-986.404926121363 -254.213578181414 2419.61005916709 20 23 16
-976.789505565377 -253.559151549083 2417.82004459895 21 24 17
-964.388090337767 -252.350072144218 2408.55092314367 26 29 22
-931.470348968009 -247.051621257485 2344.11330756056 26 29 22
-915.544639997627 -245.091889844723 2324.44845074011 25 28 19
-916.928460679379 -246.594720161372 2351.56476238589 23 26 17
-907.602741286834 -245.951638086925 2349.66837823524 14 17 8
-903.042997448402 -246.274935977492 2360.90048012098 15 18 9
-901.125151075598 -247.14725630048 2379.66421533318 18 21 12
-902.454508139177 -248.703703467959 2407.86282641722 15 18 9
-894.711466617396 -248.401117884216 2410.69899475324 20 23 14
-880.074034036825 -246.658948708354 2393.74956633922 22 25 16
-862.612948466755 -244.304936628937 2368.27247256847 22 25 16
-851.769643511274 -243.323992892245 2361.61994095444 21 24 15
-851.557897495672 -244.597364192132 2386.13337193368 19 22 13
-847.72980075048 -245.116465553053 2400.28453398163 18 21 12
-844.155835278178 -245.701236409824 2415.40521626874 18 21 12
-841.141227980982 -246.419323878532 2432.4459705533 17 20 11
-859.152368138619 -251.748200468563 2514.03030002565 12 15 8
-849.038947747682 -250.962991984239 2510.29772841911 8 11 4
-832.858016092233 -248.826229820842 2487.53903782016 11 14 7
-1146.00171331836 -269.270890318821 2369.01966737837 21 24 17
-1143.00791135476 -269.855465157373 2382.86275872225 20 23 16
-1127.47039096339 -268.137677882174 2368.37189313898 12 15 6
-1130.83247113734 -269.90594928113 2396.88251334013 12 15 6
-1122.52279074691 -269.522839447587 2398.86408230275 12 15 6
-1124.88063755416 -271.134953459773 2425.61824804878 11 14 5
-1109.84028089246 -269.495016914186 2412.00717218212 11 14 7
-1096.68587861439 -269.39028410285 2424.26096506651 7 10 3
-1087.96524251009 -268.932640372439 2425.3309171373 8 11 4
-1073.14070923036 -267.301119688544 2411.64078954064 9 12 5
-1042.08854621249 -262.521768134766 2358.2193082407 11 13 8
-1026.42744187846 -260.682170864377 2341.64891501819 8 10 5
-1046.3672313592 -267.014956832157 2435.25643926664 6 8 3
-1022.92240201453 -263.643573274308 2399.23078886311 10 12 7
-1000.0595265069 -260.353366268212 2364.05386980734 12 15 8
-994.520505014871 -260.487677647761 2372.45611635736 16 19 12
-959.297465758036 -255.896046443647 2326.93549895971 23 26 19
-980.568073776177 -261.462374113346 2405.18451281279 24 27 18
-958.253606370449 -258.193575997834 2369.80672116346 25 28 19
-934.744637216385 -254.64427920954 2330.6178759812 26 29 20
-945.290932151864 -258.096221026438 2381.99054967905 26 29 20
-932.032785315018 -256.642771425914 2369.85122609543 22 25 16
-916.451833607076 -254.689342477611 2351.12718672079 20 23 14
-910.195903751339 -254.678679074864 2357.66748480115 17 20 11
-903.242530942309 -254.523834660181 2362.33870200599 18 21 12
-902.660309073608 -255.72867841868 2384.85879881324 21 24 15
-896.637531318899 -255.785565882826 2392.37584339605 21 24 15
-891.912095461838 -256.126990641683 2403.66677971347 20 23 14
-880.249325446843 -254.969685548503 2395.19193049598 21 24 15
-864.741428136178 -252.960629710977 2375.37898861548 21 24 15
-856.463338687938 -252.520177157631 2376.28684976476 21 24 15
-847.875232511506 -252.009138613369 2376.24586691695 20 23 14
-848.20327641585 -253.483336615938 2402.68113172622 16 18 7
-839.574607091157 -252.970703730123 2402.65500728911 23 25 14
-858.034029008831 -260.06382354659 2511.67584080966 11 12 4
-862.0765697705 -262.501574627266 2551.6218466467 12 13 5
-1160.18325297007 -280.39992884267 2401.42609961999 24 27 20
-1140.48878521576 -277.85610840581 2377.84135505132 22 25 18
-1129.79672212542 -277.010296719093 2374.32359867648 15 18 9
-1121.53921602487 -276.626760581688 2376.28624292551 15 18 9
-1122.42479592245 -278.007916561819 2399.32603112209 15 18 9
-1122.4072649709 -279.231393522572 2420.57273806492 15 18 9
-1110.52029271429 -278.155248966314 2414.30659302961 14 17 10
-1097.90482549221 -276.928241269097 2406.18340796351 14 17 10
-1087.67269920362 -276.161498481446 2403.55912963865 15 18 11
-1081.31578716321 -276.158103134814 2410.13556995259 10 13 6
-1066.15332167639 -274.40314952873 2395.51098279128 9 12 5
-1038.56885281446 -270.143380791302 2350.38986937134 9 11 6
-1039.51080027317 -271.587833307843 2374.47121183405 9 11 6
-1021.99702551228 -269.312607136244 2353.27405106272 6 8 3
-1017.99608423084 -269.768360240264 2365.35968127404 7 9 4
-1002.87053401502 -267.953559396926 2349.65938643537 10 12 7
-1002.87499711059 -269.238941139272 2371.96024184298 13 16 9
-972.562864468548 -264.260537116498 2317.21808800003 20 23 16
-971.841339049578 -265.395125094542 2337.66073314926 22 25 18
-956.669150308965 -263.517246697929 2320.91558690282 24 27 20
-960.485925137071 -265.624669119729 2353.50214353429 23 26 17
-967.674894601173 -268.475790450589 2395.47366723341 22 25 16
-961.656713675068 -268.546617302646 2402.98798986668 20 23 14
-940.625469402326 -265.399444745558 2370.3349555426 19 22 13
-933.628215894199 -265.248398141258 2375.02182970248 17 20 11
-928.337765250516 -265.470024218991 2384.39398363763 16 19 10
-911.081956264393 -263.082259844941 2360.97796431428 16 19 10
-909.192027099811 -264.048659586388 2379.72445771396 18 21 12
-906.543431514231 -264.863017971248 2396.62496240397 20 23 14
-897.821469418545 -264.33853602642 2396.63362876454 20 23 14
-884.817737175622 -262.85120148883 2384.40442347716 20 23 14
-877.800210784907 -262.699267412633 2389.09898480306 20 23 14
-869.145417104181 -262.177363986186 2389.08305180268 21 24 15
-861.151877661131 -261.803664194403 2390.94879057868 20 23 14
-856.366604684763 -262.167267650605 2402.25979455056 20 23 14
-844.863365247403 -260.983277136885 2393.72924964598 25 26 18
-844.136926802499 -262.300957517059 2417.35953398022 18 19 11
-840.484625774741 -262.9535568802 2432.50356074736 15 16 8
-844.826155543236 -265.509540489924 2472.33201181673 10 11 3
-833.288210509237 -264.324117594354 2463.81393052899 9 10 2
-1152.87256979918 -286.282540788432 2365.23967099407 13 16 9
-1159.27761581014 -288.77092450737 2400.05673607779 26 29 22
-1142.42458956573 -286.706636927563 2382.87006415778 19 22 15
-1136.94823890565 -286.87682896989 2391.24683278768 19 22 13
-1131.44026347374 -287.045749045069 2399.63493355153 19 22 13
-1123.12062474564 -286.657297449841 2401.62052379665 18 21 12
-1115.20001757457 -286.348336213589 2404.5216894546 18 21 12
-1113.55140247717 -287.307282814463 2422.11451050518 18 21 14
-1094.68306087761 -284.780480274354 2399.29487548972 17 20 13
-1075.18410359221 -282.101153648312 2374.58276254633 16 19 12
-1071.98093200234 -282.743569213583 2388.49781586825 13 16 9
-1066.04318661 -282.831604747229 2395.98186913414 12 15 8
-1061.21679107971 -283.154814289825 2406.2440517168 11 13 8
-1041.28335385258 -280.33052397939 2379.56737261425 10 12 7
-1037.97293421366 -280.968647634888 2393.52171701147 6 8 3
-1014.53933636057 -277.368229956408 2357.50901247014 5 7 2
-1036.33082447922 -283.334357795359 2434.47179491746 6 8 3
-1010.45019153064 -279.190775865279 2391.92302476624 9 12 5
-993.915703155152 -277.010578951882 2372.49574053486 14 17 10
-994.843191493059 -278.581329439695 2397.63961769824 15 18 11
-966.954457452592 -273.911665416473 2348.39350324305 17 20 13
-972.113286295123 -276.41483498813 2384.7288064463 17 20 11
-970.37023778683 -277.433650414581 2403.41823204565 17 20 11
-964.328147345424 -277.51727420332 2410.94027635443 17 20 11
-948.157229242024 -275.351130506846 2391.38008735712 17 20 11
-936.259228241562 -274.119072376786 2382.99634662662 19 22 13
-924.766115613891 -272.96674905119 2375.52628916929 19 22 13
-903.790553109413 -269.653827626817 2341.79871904173 21 24 15
-907.697077127437 -271.980027680827 2376.46927177518 23 26 17
-907.067031787248 -273.297862614553 2398.998219281 24 27 18
-904.664272834076 -274.226738753025 2416.86731798025 23 26 17
-890.94578745171 -272.539804809092 2402.77950266442 21 24 15
-875.025199714667 -270.31930314856 2382.06590440175 22 25 16
-869.316170786107 -270.479599018703 2390.52770616143 22 25 16
-861.963178880577 -270.255998967762 2394.28300578187 22 25 16
-853.644807191651 -269.802846426961 2395.20620691106 21 24 15
-844.701894843046 -269.197414665422 2394.23470435169 26 27 19
-839.244634281678 -269.431377433758 2403.66628146613 19 20 12
-839.687675038773 -271.110520932406 2431.11111067788 14 15 7
-840.927047749453 -273.01254075484 2461.44970922811 9 10 2
-1157.5576578331 -296.971253219874 2396.86326479429 15 18 11
-1143.14405134898 -295.342383788619 2385.15699879953 12 15 8
-1147.71267175239 -297.588307184532 2416.39312103599 18 21 12
-1150.12357536302 -299.416596010331 2443.11169851795 18 21 12
-1136.519750562 -297.952588882184 2433.2321360829 17 20 11
-1117.46473157227 -295.342240130778 2410.48663166891 17 20 11
-1104.82295847058 -294.04906485829 2402.37799696599 17 20 13
-1093.41004015747 -293.003838663103 2397.00383372789 17 20 13
-1078.5619562927 -291.224368691596 2383.33342595321 18 21 14
-1063.03743606092 -289.285101399308 2367.78773740203 17 20 13
-1065.9324721054 -291.265410281165 2396.45230801357 17 20 13
-1059.96509872909 -291.366103276087 2403.94591690778 14 16 11
-1059.24228769705 -292.604997274338 2424.38115911273 10 12 7
-1040.84781364165 -290.020119998367 2401.39398635946 5 7 2
-1037.82159972799 -290.768953369958 2416.30327115607 4 6 1
-1031.40925786996 -290.785451985126 2422.8983501732 7 9 4
-1023.14495602409 -290.396210835501 2424.86363971875 11 14 7
-1020.34010506524 -291.220262201429 2440.75363026562 15 18 11
-984.041331401838 -286.002499569354 2393.53774341246 10 13 6
-973.415961792669 -286.521013728968 2412.2922753504 11 14 5
-957.876090988623 -284.447284076733 2394.62894285826 12 15 6
-951.154693043389 -284.384734345522 2400.27572164483 12 15 6
-940.269920057425 -283.359473327285 2394.70815697068 15 18 9
-908.503295112279 -277.451635426554 2332.03164356441 15 18 9
-910.126131861977 -279.31498622071 2360.10046608829 17 20 11
-904.513421825678 -279.495600599859 2368.52599281851 19 22 13
-908.595830720879 -281.988307829677 2404.18688728121 20 23 14
-902.846971639026 -282.163509445061 2412.66203616909 20 23 14
-895.086015066641 -281.860071112391 2415.50477805706 21 24 15
-879.788795228598 -279.728817440149 2396.69106539808 21 24 15
-868.186056859292 -278.475218225288 2388.20192427976 22 25 16
-859.870393260158 -278.016655529502 2389.12454966305 24 27 18
-852.525114908373 -277.795970970556 2392.87657237596 24 27 18
-846.073062537994 -281.075867732025 2451.50517563049 8 11 4
-837.03152445024 -280.45541116695 2450.57038684615 6 9 2
-1145.88497212497 -304.420376035523 2392.00912884629 15 18 11
-1141.98646225362 -304.963174594265 2404.05097416101 15 18 9
-1144.82594448257 -306.948958339984 2431.66850593012 16 19 10
-1131.65202025451 -305.533119634961 2422.69566632523 17 20 11
-1114.60123150928 -303.271759072498 2404.52890787718 17 20 11
-1103.93539350208 -302.370195184147 2401.0058295374 19 22 15
-1089.41332937601 -300.623916018185 2388.28127279157 19 22 15
-1075.36447682639 -298.965465968988 2376.44470989914 19 22 15
-1074.837904415 -300.264289750426 2396.80412944573 17 20 13
-1061.24393234292 -298.692917716301 2385.86253176042 15 18 11
-1062.88166909894 -300.492604515723 2411.79737732238 11 13 8
-1062.88531235981 -301.950816790698 2434.08523596179 8 10 5
-1056.42704945487 -301.976709712283 2440.69654530964 5 7 2
-1046.2359257391 -301.162683801881 2438.06093679737 5 7 2
-1037.18106835875 -300.601207293236 2438.19334781548 8 10 5
-1031.06955883883 -300.709884135087 2445.73872438961 13 16 9
-1005.66804690131 -296.386564991381 2404.09598927917 14 17 10
-1002.16708415224 -297.082959274733 2418.11516853213 13 16 9
-978.895624288703 -293.189733462429 2380.99883546879 10 13 6
-975.412159962998 -293.88670739488 2395.01161315195 11 14 5
-969.394465269445 -293.998811257931 2402.52289900753 11 14 5
-953.53325703318 -291.783003359581 2383.92048426528 13 16 7
-946.839671945193 -291.729788529813 2389.5564532631 13 16 7
-940.821504966879 -291.84170392035 2397.06767063278 14 17 8
-919.003228828846 -288.143767706414 2361.54222752176 13 16 7
-914.072824325106 -288.506295952542 2371.8392338115 14 17 8
-912.816994245538 -289.77577434901 2392.46583421198 16 19 10
-907.776150370472 -290.133882241671 2402.80330079554 18 21 12
-898.702557053761 -289.501564037618 2401.88130816456 17 20 11
-885.688657617518 -287.88241887046 2389.66574232282 18 21 12
-880.289781016474 -288.156994300554 2399.07304206171 18 21 12
-868.681308585726 -286.870285335028 2390.58848252681 18 21 12
-859.713531698629 -286.241895362304 2389.62749211649 18 21 12
-854.604245523662 -286.597048080295 2399.99030363582 18 21 12
-858.65381869283 -289.322613565169 2437.77867149859 18 21 14
-855.905670386787 -290.325110156525 2455.76770833991 25 27 22
-835.286197174767 -286.673459231849 2419.8032028065 11 13 8
-850.473291642932 -292.401824978945 2492.78370298581 12 14 9
-1196.85086816828 -321.121491441786 2465.02843788901 66 68 63
-1159.41000280833 -314.466770026837 2402.33657589213 21 24 17
-1132.04311240442 -309.936673898929 2361.42328393564 18 21 14
-1141.88969905572 -313.496597333015 2404.5088277296 14 17 8
-1132.34531981186 -312.836530460349 2403.75998298742 16 19 10
-1116.07491418917 -312.131259827708 2408.65828993433 17 20 11
-1103.83116859051 -310.860604094047 2401.46989399412 22 25 18
-1087.75326329446 -308.71872514397 2385.07374784929 21 24 17
-1080.67043435467 -308.587327388412 2389.79048654548 14 17 10
-1073.57667737719 -308.455425583482 2394.51097953423 11 14 7
-1067.61607361726 -308.584164753243 2402.00026694915 8 11 4
-1050.64631367226 -306.190774988886 2382.74747327167 7 9 4
-1059.00164611269 -309.619878025334 2425.31816009414 8 10 5
-1058.16963937434 -310.958723970912 2445.78553566595 6 8 3
-1049.81915414838 -310.561019238207 2447.78277746091 4 6 1
-1051.42163554368 -312.499826775815 2474.78674628025 9 11 6
-1032.03498858867 -309.50673899095 2448.99094431912 11 14 7
-1021.89002348796 -308.67806210515 2446.33967008803 8 11 4
-1001.67480262593 -305.436049469569 2417.66377890388 8 11 4
-987.722869332149 -303.664981050719 2404.73368829919 12 15 8
-973.858129194654 -301.897274411737 2391.77191779993 13 16 7
-961.492670894767 -300.476626980549 2382.5056949879 16 19 10
-961.109830164178 -301.976765753723 2404.93106865962 16 19 10
-942.876036463691 -299.100376145253 2379.77414299002 17 20 11
-928.594890623167 -297.171871660762 2364.84243399465 15 18 9
-918.867212095275 -296.358989330706 2362.03835215622 14 17 8
-920.056516235192 -298.280990483626 2389.19371185765 14 17 8
-920.436950604028 -300.02704180109 2414.52287323951 16 19 10
-912.652813518786 -299.722747785793 2417.37410204095 18 21 12
-896.224103420494 -297.205067099404 2395.80073580376 18 21 12
-884.217997187609 -295.79790539193 2386.40292937113 19 22 13
-876.207010152063 -295.412436573808 2388.27614980981 20 23 14
-870.474759331461 -295.620886991002 2396.74300992273 20 23 14
-865.356253241455 -295.997521222896 2407.10729626366 20 23 14
-864.35227287468 -297.472647965107 2429.76024048944 19 22 13
-865.460100355677 -299.535141550269 2459.06771581737 21 23 18
-842.602269710916 -296.981556720341 2443.03292255932 10 12 7
-1168.26661598329 -325.012694694937 2422.85550246136 16 19 12
-1144.89076776831 -321.256259505306 2391.1000663331 16 19 12
-1133.75919679308 -320.224113945172 2386.68950262918 14 17 8
-1130.25067370231 -320.912183583239 2399.6452464033 16 19 10
-1120.73705833717 -320.24257362037 2398.88594403005 15 18 9
-1114.39497869474 -320.295746001674 2405.45272705138 16 19 10
-1106.07474148235 -319.897227223026 2407.43929433339 19 22 15
-1097.37010690838 -319.408731311196 2408.50550598838 17 20 13
-1085.19883351894 -318.110916094543 2401.29282739927 12 15 8
-1082.67580824638 -319.06171815341 2417.07060224306 10 13 6
-1049.85676267911 -315.985763301631 2403.62794986919 6 8 3
-1050.20100729481 -317.647274157977 2426.84327228012 8 10 5
-1050.43192287434 -319.304317527534 2450.10036277016 6 8 3
-1036.18614643464 -317.475696989957 2437.28163312002 10 12 7
-998.15038997975 -311.4237580444 2386.49331802639 10 13 6
-993.970709734553 -312.009719292203 2398.63406640332 11 14 7
-980.789086555228 -310.372102251295 2387.54764517128 12 15 8
-964.485268093893 -307.938568924772 2368.05591883959 13 16 7
-969.830003207956 -310.917998081303 2405.35455130926 15 18 9
-957.118815141057 -309.37341293045 2395.15674016671 16 19 10
-952.47734311741 -309.866082038845 2406.40550333729 16 19 10
-933.982826344123 -306.822559452611 2380.28936236398 18 21 12
-922.499536986161 -305.550340161711 2372.8247820859 17 20 11
-920.253499075787 -306.660501167821 2390.62300560672 16 19 10
-919.950125447113 -308.295744374952 2414.07586828811 16 19 10
-914.175429489674 -308.519180717452 2422.55701960125 15 18 9
-899.729514696861 -306.457061774477 2406.62870254088 16 19 10
-885.716181122793 -304.48664793577 2391.60284941926 17 20 11
-878.67157532697 -304.360763749198 2396.30528420421 18 21 12
-868.695263230886 -303.446411596589 2392.53264010112 20 23 14
-871.637082986485 -306.031581861788 2426.46761016864 20 23 14
-876.006944667479 -309.046817387604 2465.18430535708 19 22 13
-861.800989727793 -306.99364468771 2449.16812686218 15 20 14
-871.90248956657 -311.655212281422 2505.94417861862 17 22 16
-867.68168337513 -312.38789794289 2520.22216578509 3 8 2
-1157.19046321118 -331.103022482738 2398.68786314983 27 30 23
-1137.12009088316 -327.992927645919 2374.2158689 19 22 15
-1138.08100328832 -329.739627856976 2397.20070507154 17 20 11
-1126.1623508075 -328.499842609098 2390.95841760292 19 22 13
-1106.80879376307 -327.048825129638 2388.50025852788 17 20 11
-1098.92618046952 -326.742487680961 2391.38742161433 15 18 11
-1106.20100696687 -330.054805668604 2430.09277488191 11 14 7
-1093.96994996707 -328.724796203137 2422.90424703107 10 13 6
-1087.93135291879 -328.878301718806 2430.4200036763 10 13 6
-1073.86617526135 -327.088430326468 2418.59928825882 10 13 6
-1056.4770073453 -324.470135222544 2398.44904017219 10 12 7
-1052.7457179678 -325.17915936645 2411.48414225321 9 11 6
-1052.69023060853 -326.807793428754 2433.78088097679 12 14 9
-1046.9659666318 -327.050783416651 2442.24223310363 9 11 6
-998.502296959314 -318.252031464501 2365.58441283401 12 15 8
-990.039927678735 -317.766903302969 2366.56234630763 13 16 9
-985.552253559063 -318.290675535338 2377.75313644878 14 17 10
-973.860945925492 -316.98075655068 2370.36672721909 13 16 9
-975.72685956039 -319.149547078436 2398.32443917156 14 17 8
-972.5157841723 -320.033374935695 2413.29070553469 15 18 9
-963.285181434746 -319.362596267473 2412.42840792089 16 19 10
-951.989607052696 -318.145427406331 2405.95802633712 16 19 10
-938.330251839497 -316.292552578657 2392.92805785758 18 21 12
-920.991365859691 -313.442159029809 2369.5773839412 18 21 12
-918.410688697699 -314.505410611053 2386.43417762291 16 19 10
-917.439494740097 -316.019499296221 2408.00545903145 15 18 9
-910.675116503748 -315.987844698798 2413.66552308471 14 17 8
-897.252108155911 -314.143793523135 2400.54901515448 14 17 8
-890.838012822673 -314.203251691227 2407.14148990813 18 21 12
-883.095408386517 -313.900294241351 2409.97752749243 19 22 13
-874.055149322831 -313.236127013085 2409.04582633521 21 24 15
-870.829594859957 -314.195985903848 2425.07817306451 20 23 14
-859.868676572624 -312.990965411324 2418.4852817399 20 23 14
-860.045729630686 -314.937269873762 2444.94004031295 21 26 20
-876.842529523491 -323.662697320414 2549.10851683901 13 18 12
-1163.41098168988 -339.571945396143 2392.5887984031 30 33 26
-1162.78774737175 -340.996009753067 2411.90707870639 23 26 19
-1137.58269471034 -338.16818036627 2396.74581154538 18 21 12
-1132.04611820334 -338.436028599858 2405.13709417163 20 23 14
-1114.59178639199 -335.828102942703 2386.07655072672 18 21 12
-1100.40906973938 -333.990570786318 2374.30213772106 16 19 10
-1088.99391920937 -334.431921266374 2390.14927152736 10 13 6
-1087.68150624255 -335.748106098807 2408.65979406566 11 14 7
-1078.23019737025 -335.059069387244 2407.87906487764 10 13 6
-1060.42122007072 -332.27596966408 2386.82722783999 9 11 6
-1065.81786947219 -335.300118598716 2421.9705112459 10 12 7
-1058.26141363585 -335.086549006617 2425.798725834 11 13 8
-1055.92289542098 -336.201533985311 2442.56388501387 11 13 8
-1049.43094932032 -336.270395966822 2449.18393634224 8 10 5
-1034.45482612608 -334.159828878562 2434.51847563315 9 11 6
-1015.19122086807 -330.917564779347 2408.69676875356 11 14 7
-1002.25463229333 -329.288186181559 2398.58725188128 14 17 10
-991.911495965714 -328.322423226864 2394.9517678245 16 19 12
-985.538658510491 -328.395448851569 2401.52822835539 15 18 11
-983.406552498793 -329.598186881932 2419.27832535971 15 18 9
-988.948214538867 -332.868170734796 2457.55004030329 16 19 10
-969.795454019408 -329.549258408847 2430.62703205589 15 18 9
-952.891581828231 -326.800175561044 2409.24402401934 15 18 9
-933.362275030635 -323.305657560099 2380.33771212425 14 17 8
-919.484160107698 -321.317344826796 2366.33089003148 14 17 8
-914.870585198677 -321.860145155103 2377.56573465206 16 19 10
-917.627993666353 -324.458400293254 2409.43360851652 17 20 11
-895.802283248149 -320.231043235084 2372.88400166411 20 23 14
-887.804624035519 -319.837932961341 2374.75295616423 20 23 14
-893.318998917316 -323.266675578033 2415.15597373505 21 24 15
-888.49517236423 -323.800796230388 2426.46811987446 22 25 16
-878.760780809186 -322.93781035846 2423.67025752315 22 25 16
-860.692453862166 -319.660237179513 2396.35011472892 22 25 16
-848.214524616097 -317.966827116927 2385.01222473667 21 24 15
-849.110694296795 -320.170190674801 2413.31941819031 23 28 21
-868.081792191035 -327.739421289021 2496.51928745768 21 28 20
-854.848153890311 -325.85547683347 2483.33672998405 3 8 1
-1161.87903741649 -349.387503033349 2410.53753935356 17 20 13
-1147.83873230257 -347.595568589644 2399.7744987049 20 23 16
-1143.5030223145 -348.176323200006 2410.9057751587 16 19 10
-1129.9522202744 -346.486360479466 2401.02399627364 18 21 12
-1112.90813575182 -343.912160569013 2382.8784061581 14 17 8
-1102.67055672536 -343.01595387684 2380.26587727602 12 15 6
-1093.24498379995 -342.317522524398 2379.47676039791 12 15 8
-1096.65479127868 -344.861829341542 2408.978296908 10 13 6
-1071.75306676298 -340.235618402716 2371.44304887734 11 14 7
-1069.30316808636 -341.30472961361 2387.18558177339 9 12 5
-1069.06463506301 -342.958575571234 2408.48011504047 8 11 4
-1062.67363925731 -343.042764692645 2415.06233087836 10 12 7
-1054.75960170225 -342.735050256633 2417.96101547503 11 13 8
-1043.86153266603 -341.646036873001 2413.46964821047 10 12 7
-1042.04907968888 -344.734567239371 2454.42733458014 9 11 6
-1045.37870211245 -347.441097566394 2486.07887778408 11 14 7
-1004.74632356849 -340.20620382284 2428.85712087138 16 19 12
-990.412157983357 -338.151504592847 2415.02075377286 15 18 11
-989.303936562861 -339.687306043824 2435.57362790438 16 19 10
-981.754767345752 -339.475956659347 2439.39902747185 16 19 10
-972.451213700933 -338.780574444968 2438.56534634439 16 19 10
-946.499732533651 -333.446900968493 2392.9319349965 15 18 9
-930.121948082237 -330.730279668873 2372.42188648895 16 19 10
-923.793931534286 -330.815448762384 2378.98114565688 16 19 10
-926.952770226256 -333.597334411184 2411.75586586753 16 19 10
-913.43511888836 -331.656754257196 2398.68102855541 17 20 11
-895.657400826654 -328.469597684061 2373.38158703706 19 22 13
-890.975861030569 -329.034060136767 2384.63974571687 19 22 13
-892.833658616522 -331.51544908859 2414.7099329593 20 23 14
-892.909026998437 -333.511695486952 2440.13105865241 20 23 14
-876.978618060401 -330.811717129152 2419.45720608337 20 23 14
-864.713995434781 -329.16867909435 2409.10431506754 21 24 15
-858.901565857545 -329.439190405508 2417.59562454026 21 24 15
-864.133687433488 -333.048775354087 2459.15436103693 15 20 13
-849.695930776772 -330.738978117257 2442.17495699943 19 26 18
-1169.49951180228 -359.908229901743 2428.30757976408 17 22 15
-1156.21762592989 -358.276840943572 2419.39023028982 22 25 18
-1144.60571409561 -357.053765106258 2414.10178791055 17 20 11
-1117.10120725951 -351.777525595225 2372.22849294957 18 21 12
-1114.78821795837 -352.890965322095 2387.91768256539 14 17 8
-1110.82943064034 -353.596798556143 2399.96912771357 13 16 7
-1108.38164549817 -354.704784158052 2415.70770524306 14 17 10
-1091.49848377923 -352.073860040095 2397.50792576163 12 15 8
-1087.07264438379 -352.675322420771 2408.67038717955 12 15 8
-1074.93889524045 -351.259372434003 2401.45273377443 14 17 10
-1068.56847650436 -351.355612399691 2408.02681823998 15 17 12
-1061.42106587459 -351.249737095754 2412.76484187448 13 15 10
-1046.75601828613 -349.133875735459 2399.05356571951 12 14 9
-1044.48466278591 -350.333802292776 2415.78765887988 8 10 5
-1041.3954658208 -351.330059387936 2430.70115926933 6 8 3
-1061.7684171603 -358.734785252831 2504.87113617025 6 8 3
-1041.95207562704 -355.21581697607 2478.20432636653 12 15 8
-1021.93730715729 -351.603139890453 2450.55012676249 13 16 9
-987.69419777536 -344.001954808286 2385.70125588648 15 18 11
-989.920257622616 -346.492468548317 2414.57014059696 15 18 11
-988.099447196311 -347.880845370477 2433.25968171872 15 18 9
-973.158484873169 -345.581438015631 2417.52913780696 16 19 10
-953.075188824665 -341.793824933398 2387.77992357122 17 20 11
-958.509490501885 -345.267367095901 2426.07528776697 16 19 10
-934.463729267283 -340.294910879129 2385.05549217788 14 17 8
-932.202736631667 -341.579706423616 2402.84622716246 14 17 8
-931.895857352982 -343.455580803251 2426.28220757193 15 18 9
-905.203932430009 -337.607079070278 2376.69019260651 16 19 10
-919.5784357131 -343.832095904824 2441.39550605215 18 21 12
-904.757478790232 -341.450592029204 2424.56074344262 18 21 12
-897.614212316867 -341.342644293645 2429.297672023 19 22 13
-885.236067575341 -339.657062698337 2418.98949213997 20 23 14
-877.78960744036 -339.451223580708 2422.77715788229 21 24 15
-864.552906466133 -337.474428541225 2409.60297322306 22 25 16
-857.142829647232 -337.269765687199 2413.37733078932 23 26 17
-859.215988653687 -340.009834619724 2445.48286379715 20 26 16
-1122.69028755499 -354.8624774091 2303.83368712194 16 23 16
-1124.334840469 -356.966234067013 2327.61000108647 20 27 20
-1135.13928907511 -361.464101111923 2372.41011509717 12 17 10
-1122.85800550858 -360.013405831789 2365.24868807643 17 20 11
-1117.80172060756 -360.438540534251 2374.52015144734 18 19 11
-1114.29181211042 -361.278158984877 2387.46521829696 16 17 9
-1120.16040664419 -364.608977014705 2422.41363333446 15 16 8
-1113.34981623249 -364.611113501147 2428.08793841526 15 16 10
-1107.68728075017 -364.923601104686 2436.52161855582 14 15 9
-1093.51321769604 -362.955527039016 2424.75391096836 15 16 10
-1087.46148830558 -363.164021658394 2432.27029007099 18 19 13
-1068.45247209581 -359.855693406267 2408.49417854993 16 17 12
-1063.19108878642 -360.27187461082 2417.84083743066 13 14 9
-1053.7662514372 -359.551311269112 2417.05312318402 11 12 7
-1048.08770148167 -359.862413716568 2425.49272649635 10 13 6
-1054.21950324893 -363.468242390656 2463.52468148661 9 12 5
-1041.78167356078 -361.9212308004 2455.36109883809 8 11 4
-1029.0401307946 -360.273635138681 2446.24864524272 10 13 6
-1006.58169795954 -355.855530060854 2412.07668922871 12 15 8
-987.566396116813 -352.368692224115 2386.18296356724 12 15 8
-977.997644251468 -351.553022053576 2384.38815859362 14 17 10
-971.64606542521 -351.659818121405 2390.95434703239 15 18 11
-957.880252006384 -349.617330803331 2377.97736538212 15 18 11
-946.997613361954 -348.395726964127 2372.42383960092 15 18 11
-941.01815958507 -348.605216200758 2379.91362890816 14 17 8
-950.85386107399 -353.505695116542 2430.36863721639 14 17 8
-934.450794658955 -350.651251665009 2409.87791919187 15 18 7
-915.801632499556 -347.089120388769 2382.79054031134 16 19 10
-923.239570104208 -351.364210851606 2427.76383250251 16 19 10
-911.73733549036 -349.940536554357 2420.31756326946 18 21 12
-911.563406740389 -351.969933957379 2444.76021043912 20 23 14
-893.836893896162 -348.620429113391 2419.45466788382 17 20 11
-871.695193963953 -343.858613766422 2380.9268308399 18 21 14
-869.85638463066 -345.379851665139 2400.67969760281 22 25 18
-863.106547270761 -345.380878688822 2406.33201252908 24 27 20
-855.066822975232 -344.977199112664 2408.21704832429 24 27 20
-858.412387467361 -348.205840199784 2444.08988434042 19 22 15
-1124.65795955112 -365.421637834067 2328.98773854772 20 27 20
-1143.515148803 -372.185505707985 2392.02366666468 13 20 12
-1131.98084513366 -370.916800403127 2386.710723446 18 21 12
-1119.69557137281 -369.436046701388 2379.55301416862 18 19 11
-1120.5197404653 -371.479292301328 2402.5654138031 16 17 9
-1120.05129272971 -373.198125385945 2422.8720240995 15 16 8
-1115.18986278942 -373.741215786591 2433.13034563714 17 18 12
-1106.02025669973 -373.111824547631 2433.30957344554 18 19 13
-1094.55374753381 -371.844942472442 2427.97186037219 19 20 14
-1087.34276246796 -371.748165420549 2432.73229650918 17 18 12
-1078.22021764339 -371.120211431958 2432.89431674976 13 14 8
-1070.24534458513 -370.810781966912 2435.81523457106 9 10 5
-1060.76990058629 -370.077469397714 2435.04686957031 9 10 5
-1058.01877736992 -371.249737144518 2450.89081102336 10 13 6
-1044.83843682461 -369.458610347364 2440.8820625559 9 12 5
-1039.44334480023 -369.88836206954 2450.27627891692 8 11 4
-1020.15132185574 -366.30637547605 2424.49052985473 10 13 6
-1014.78124699842 -366.7368294796 2433.8756035512 12 15 8
-999.665259328737 -364.32176572934 2418.21737938054 12 15 8
-978.581940936273 -360.121632544296 2386.72926933804 14 17 10
-978.957279721994 -362.236626065105 2410.96588862077 14 17 10
-964.433957085183 -359.935546909659 2396.15028290419 15 18 11
-948.261332111869 -357.113474435176 2376.63995064531 15 18 11
-956.13939997375 -361.529386879429 2421.44295604706 15 18 11
-955.525192204557 -363.422604902477 2443.9224812904 15 18 9
-945.920550169846 -362.591105651221 2442.14191089256 16 19 8
-922.439735800037 -357.474725911884 2401.99426438826 16 19 10
-908.953746052663 -355.395897791668 2388.91835426109 16 19 10
-906.240845538489 -356.658844012008 2405.80812237281 18 21 12
-903.451026388221 -357.918656391285 2422.72632867222 19 22 13
-888.090078488259 -355.218471566312 2403.9786975754 18 21 12
-869.911386864952 -351.586516991277 2376.72539305499 20 23 16
-859.665038099694 -350.455120722173 2372.00068350264 24 27 20
-862.303446268924 -353.478241269257 2404.94629410838 24 27 20
-873.377586464254 -359.295334496409 2463.4148753169 23 26 19
-876.566226025955 -362.613452037809 2499.33823121738 20 22 17
-1150.27140763469 -382.587517807789 2407.98355378513 13 20 12
-1151.91001588726 -384.91125579651 2432.81198596316 18 21 12
-1122.78115350606 -378.794495561746 2387.32556544406 18 19 11
-1126.7419817987 -381.772724622184 2417.66071151044 16 17 9
-1123.86991852997 -382.885814799858 2432.48650383101 16 17 9
-1112.73485886105 -381.70179847357 2428.08866659235 18 19 13
-1098.53856575581 -379.645939681086 2416.33565951512 19 20 14
-1080.5724655401 -376.502529544576 2395.36809712965 17 18 12
-1078.80715212003 -377.940309029372 2412.96719035767 15 16 10
-1075.4390686754 -378.939292189177 2426.91500444993 12 13 7
-1071.25406652515 -379.718220523668 2439.04312679999 10 11 6
-1067.39214755448 -380.603656066534 2452.11263530143 10 11 6
-1057.88879163485 -379.858347222491 2451.35531688781 10 13 6
-1043.96876437876 -377.81215383196 2439.50120278255 9 12 5
-1033.06778496402 -376.635827892202 2435.0174808396 8 11 4
-1026.21812584993 -376.651809339064 2440.70493642281 10 13 6
-1018.99074628709 -376.558879090342 2445.47129335405 12 15 8
-998.093401558793 -372.359111780398 2414.98214072679 12 15 8
-991.299388625311 -372.376813881234 2420.64924813673 14 17 10
-983.426772089095 -372.070167386578 2423.53280234383 14 17 10
-977.664488989448 -372.40991721419 2432.00066756139 14 17 10
-969.077716278396 -371.88701733058 2433.02665140996 15 18 11
-959.80791664766 -371.149250651312 2432.18390415713 15 18 11
-957.095361106381 -372.453829661365 2449.07040566677 16 19 10
-933.81721691006 -367.313790322406 2409.91771717454 17 20 9
-925.343162122523 -366.794662887237 2410.90246173118 17 20 11
-913.85239853299 -365.311401173957 2403.45652060989 16 19 10
-909.093490723277 -365.971325056343 2414.735332972 17 20 11
-902.632532416308 -366.094524596025 2421.34027972091 19 22 13
-889.249711490954 -363.972773022852 2408.22986882406 19 22 13
-871.063530563865 -360.252990764448 2380.98616649318 21 24 17
-865.01111973993 -360.485705000939 2388.50071147215 25 28 21
-869.523877614759 -364.233562838365 2427.11046388891 25 28 21
-876.388476927594 -368.825264798822 2473.33499311251 22 25 18
-873.227533126408 -370.110585669351 2490.38586397333 22 25 18
-1180.0446858718 -397.561780995092 2454.70088786104 24 29 23
-1163.87142538976 -394.999314422119 2439.4376780815 24 29 22
-1142.59526144254 -390.979708828882 2412.27249423116 18 19 11
-1135.80873177419 -391.008549269932 2417.93604228429 18 19 11
-1121.10131536582 -388.793008021964 2405.31423755687 17 18 10
-1119.04602023164 -390.167236728587 2421.95693080199 16 17 9
-1116.13282354779 -391.314361139658 2436.79510049976 17 18 12
-1099.97584035617 -388.654666351404 2420.466756356 17 18 12
-1084.69612420767 -386.222570955393 2405.93611649798 11 12 6
-1076.77905847118 -385.916063202402 2408.83581030053 12 13 7
-1073.79924588768 -387.059945177511 2423.69817439808 16 17 12
-1068.48873127855 -387.532186241619 2433.05870902444 16 17 12
-1071.01045201773 -390.341929552313 2461.79608264863 14 15 10
-1059.99110382983 -389.139619598576 2457.35758336684 10 13 6
-1037.92529692282 -384.603124415553 2425.18501680568 9 12 5
-1043.9463630728 -388.516631271187 2463.23424569944 8 11 4
-1038.47446643949 -388.981784860147 2472.65369693187 10 13 6
-1031.15693000981 -388.890900440478 2477.4524025723 12 15 8
-993.648126266524 -379.493349803996 2404.32610500137 12 15 8
-981.174382177656 -377.749421298969 2395.12361855636 13 16 9
-985.766756669662 -381.316077665397 2430.51793788367 13 16 9
-977.521981412554 -380.898057002099 2432.47855845173 14 17 10
-961.603692108182 -378.051545156199 2413.94447102517 15 18 11
-944.0711296256 -374.658022571165 2390.70489270351 17 20 11
-936.655058414159 -374.4653993781 2394.48077415131 16 19 10
-929.574999522817 -374.382448579015 2399.19259667938 17 20 9
-914.354823495357 -371.659296659973 2381.46236132128 17 20 11
-919.418252620373 -375.533517812916 2419.86224557349 16 19 10
-911.942975007863 -375.337889650423 2423.65961135475 18 21 12
-903.469579156133 -374.812868804469 2424.64481546777 19 22 13
-889.422466591325 -372.425150186728 2409.66272183401 21 24 15
-876.450816838933 -370.369540595392 2397.46473703325 22 25 18
-872.614929117238 -371.379733119363 2411.58193052834 25 28 21
-871.283697793853 -373.261604983585 2433.25627720471 24 27 20
-857.758390724489 -370.990379446516 2419.14235868681 22 25 18
-1179.53265232255 -406.186057717392 2454.23621342794 29 34 28
-1160.54334727561 -402.762928604835 2432.59471448429 12 17 10
-1150.49658724372 -401.877295554716 2430.97886663989 17 18 10
-1134.90760826112 -399.382354377488 2416.56508109299 17 18 10
-1117.83514582471 -396.431340161008 2398.45823298038 17 18 10
-1109.1227367127 -395.895654483013 2399.53082996023 17 18 10
-1113.67819134839 -399.260332124923 2431.75413456284 15 16 10
-1104.89786931123 -398.721708239033 2432.85188285656 14 15 9
-1088.43088882203 -395.893062699519 2415.58236373934 13 14 8
-1077.04548652216 -394.555946485986 2410.22022646827 13 14 8
-1067.60417875679 -393.791996106451 2409.44177016365 16 17 12
-1068.36488403408 -396.112385528115 2433.52287387905 16 17 12
-1065.26155524362 -397.286879908254 2448.42806060359 14 15 10
-1059.48724587038 -397.660513711369 2456.89773881792 10 13 6
-1054.42043911575 -398.260548756995 2467.22638490063 9 12 5
-1068.75471075897 -404.891002657755 2526.5826896454 8 11 4
-1060.19041712699 -404.458754037711 2528.66022245518 10 13 6
-1033.18422309486 -398.232200965802 2483.47765139681 12 15 8
-1001.77598700247 -390.54011132187 2426.13858199693 12 15 8
-985.677185014524 -387.624246075434 2407.67531443219 13 16 9
-974.298287610653 -386.185924282986 2401.25189357323 13 16 9
-969.99914907919 -387.013698355622 2413.41780046796 14 17 10
-953.438325801421 -383.880252670863 2393.00545260018 15 18 11
-937.698433250173 -380.977684637876 2374.41077646245 17 20 11
-931.357123503095 -381.128250680454 2380.96993124461 15 18 9
-933.865314501841 -384.211025831679 2411.82524112861 16 19 8
-917.93558371139 -381.2010092744 2392.24083697251 17 20 11
-914.5618584667 -382.362360534003 2407.24526055289 17 20 11
-907.78690274504 -382.395784712834 2412.9042575062 19 22 13
-898.680451753412 -381.641556362392 2412.0034016177 21 24 15
-886.639823475624 -379.877163553062 2402.64509199753 24 27 18
-884.438394250739 -381.481547786251 2421.45662811865 24 27 20
-876.3326880733 -381.064361771626 2423.36665669182 24 27 20
-851.560795986694 -374.822687390775 2376.30661021287 24 27 20
-838.828749421762 -372.732172488973 2364.02420223736 20 23 16
-1174.15822483904 -413.393449715991 2442.84544346048 24 29 23
-1167.68531224911 -413.554043357255 2449.45165789938 8 13 6
-1153.99028603514 -411.59270139702 2439.64275706995 18 19 11
-1139.1738529848 -409.280683555244 2427.06784149568 18 19 11
-1123.25923566366 -406.618942068818 2411.7184016986 16 17 9
-1109.01593117475 -404.43108051768 2399.99243544147 15 16 8
-1107.3272167714 -406.004155513646 2417.55348910771 13 14 8
-1105.55565258375 -407.573830043776 2435.14464747728 13 14 8
-1090.23873655006 -405.036846679429 2420.63543769928 13 14 8
-1079.22158484728 -403.79191019123 2416.1991022868 13 14 8
-1069.76312174707 -403.016555132107 2415.42773966087 13 14 9
-1058.06296357521 -401.540130233972 2409.12391984386 12 13 8
-1060.64023356938 -404.505478669685 2437.82962398767 11 12 7
-1067.9067635385 -408.982637252295 2478.58346939265 11 14 7
-1063.88495349652 -409.952172825738 2491.70447253806 9 12 5
-1069.70662892926 -414.065998616706 2529.81103318384 7 10 3
-1018.57818252204 -402.259349939262 2446.88197471481 12 15 8
-994.81915872457 -396.835049296239 2408.99175774235 12 15 8
-980.552525932331 -394.439083593422 2395.1568568496 13 16 9
-970.270303098552 -393.322987923758 2391.51058347635 13 16 9
-968.4542737502 -394.990700951432 2410.17731109017 14 17 10
-956.438448446949 -393.295373349201 2401.87133477516 15 18 11
-942.407429539495 -390.907856507206 2387.95018902968 17 20 11
-937.057805536391 -391.414777845902 2397.32206258025 15 18 9
-928.603195925875 -390.880234583116 2398.30090512263 16 19 8
-918.466749531277 -389.768689703886 2394.60132233006 17 20 11
-909.373847578082 -389.004405526869 2393.69630229524 17 20 11
-896.968651150978 -387.088350605873 2383.41534088595 20 23 14
-895.879886522421 -389.089653504792 2404.99257904411 21 24 15
-885.172082391762 -387.75062750254 2399.38438900795 25 28 19
-881.022292756661 -388.712005191177 2412.55250747118 24 27 20
-867.771798446227 -386.455529177475 2399.40443682511 24 27 20
-861.979086418223 -386.841262315327 2407.87988850089 23 26 19
-844.076395802678 -382.869423137044 2380.55194728537 20 23 16
-1184.17813548826 -425.123574821274 2466.05227357385 19 24 18
-1160.33260211468 -420.104557088555 2433.49619933412 18 23 16
-1153.48166144631 -420.156465219049 2439.18140982847 17 18 10
-1150.9850657912 -421.532640702979 2454.9174866955 17 18 10
-1120.38834997619 -414.360187611355 2405.77756691021 15 16 8
-1114.00694375506 -414.534764147855 2412.34947861709 14 15 7
-1107.60437741559 -414.708349947296 2418.92915334231 13 14 8
