ply
format ascii 1.0
comment KinectMotionCapture
element vertex 780
property float x
property float y
property float z
property uchar red
property uchar green
property uchar blue
end_header
-934.035942320575 -216.083576390006 2194.05579874215 20 23 16
-931.894087030599 -216.664713415723 2209.72297203369 20 23 16
-902.515800425072 -212.617777787193 2155.63804662049 20 23 16
-889.273901511365 -211.29219815 2142.4163610206 18 21 14
-894.328951779635 -213.105040273079 2176.70859901598 16 19 12
-878.648945221743 -211.35164670805 2156.93864645649 17 20 13
-862.740286555282 -209.541858448899 2136.18972493249 17 20 13
-858.488291180338 -209.755661151795 2146.25146128819 16 19 12
-860.437127841196 -211.067124385834 2173.17692036188 20 23 14
-862.252305505727 -212.373403105 2200.15133394834 21 24 15
-854.368006667683 -211.970220210791 2200.91330412506 22 25 16
-846.832940449205 -211.628230085294 2202.6100698159 20 23 14
-838.293608196701 -211.104492894851 2201.48576746555 16 19 10
-826.769470424213 -210.036500432365 2191.88725293005 12 15 6
-827.90403359263 -211.268859993931 2218.04798040411 13 16 7
-823.320697680255 -211.470020471646 2228.23105909645 14 17 8
-811.845707404158 -210.404064149404 2218.61453379977 14 17 8
-799.143075045723 -209.100105801057 2205.19553535297 15 18 9
-797.444919651515 -209.841782517671 2223.889305851 16 19 10
-794.704111306976 -210.400209425277 2239.7758147953 18 21 14
-790.311907104415 -210.656556389179 2250.9520947938 16 19 12
-778.039214310133 -209.417062866067 2238.43857542063 14 17 10
-766.159883384855 -208.24049738308 2226.84419542953 13 16 9
-764.221742258606 -208.972997942755 2245.62585411223 12 15 8
-763.725068232061 -209.999464104765 2269.19488328766 15 18 11
-755.234902087885 -209.478133455789 2268.05228116109 14 17 10
-734.143052101856 -206.468635374305 2226.87766659439 23 26 19
-721.333234642266 -205.065805840292 2211.37196003409 31 34 27
-737.57117116156 -209.454938066469 2289.40498693786 35 38 31
-732.319617998025 -209.58302306184 2298.76981147648 30 33 26
-730.806197842454 -210.474981025094 2320.5850447822 40 45 38
-732.067713963919 -211.950611586614 2352.01432578777 33 38 31
-727.473115430192 -212.24706439968 2364.32767343466 21 26 20
-1001.43563465145 -232.618214609427 2299.51522100117 21 24 17
-963.34329910717 -227.008527692171 2226.31488777611 22 25 18
-950.074355307883 -225.685604626619 2214.16963869892 22 25 18
-934.317094262504 -223.913709195469 2195.49596213401 22 25 18
-912.114957078782 -220.985456222559 2160.05191632696 20 23 16
-918.723522941526 -223.153035884828 2198.01941750663 19 22 15
-913.993284557191 -223.319711937264 2207.19191705139 18 21 14
-898.520098505038 -221.55903955133 2188.41417857648 16 19 12
-886.353748542424 -220.379882156854 2177.99058087653 17 20 13
-870.038263395158 -218.435607959926 2156.33306563249 16 19 12
-860.839851739757 -217.77451546543 2153.32522847748 16 19 12
-857.218051130552 -218.135403526922 2165.28026036311 19 22 13
-857.329297005071 -219.194965754456 2187.5591017147 23 26 17
-852.210476803721 -219.296401925519 2195.81115384236 26 29 20
-837.232439812367 -217.5552817015 2176.85203387677 20 23 14
-830.444742535728 -217.340292502765 2180.40103672141 15 18 9
-820.314332176573 -216.492196816626 2174.54627067331 13 16 7
-823.478233239222 -218.173705228138 2206.33536621161 14 17 8
-818.267196221905 -218.271678862196 2214.62118542561 15 18 9
-816.612148466235 -219.061408859193 2233.29566760293 14 17 8
-807.106075015945 -218.338318983023 2229.33773709609 13 16 7
-795.068701578469 -217.114314298786 2217.80410494311 15 18 9
-793.296093338801 -217.899531738028 2236.52164173887 17 20 13
-779.120702723594 -216.240279107041 2218.33152370395 16 19 12
-767.564349159348 -215.085412319903 2207.68471294453 16 19 12
-772.85542100909 -217.302558462983 2248.26028178163 16 19 12
-768.08268364093 -217.518382671188 2258.51107073384 16 19 12
-763.880272282366 -217.857029947179 2270.67873841201 13 16 9
-754.173892148342 -217.07608245962 2265.73139605752 13 16 9
-742.706666044568 -215.924815486898 2255.05167602758 14 17 10
-732.503119768469 -215.023978569683 2248.16065187209 21 24 17
-714.675024349191 -212.518622212076 2216.42847969476 30 33 26
-716.349104269213 -214.092126874036 2247.70073032679 32 35 28
-729.764092049571 -218.184860798856 2318.24859143162 34 39 33
-1087.49963110907 -253.998523131069 2467.1588286193 14 17 10
-989.677871840124 -239.683390126382 2292.58785372172 24 27 20
-934.597588929608 -231.754853612889 2196.93578780006 24 27 20
-921.872254944047 -230.462574509776 2185.65752326936 21 24 17
-920.803470291229 -231.321419495795 2204.11377920833 18 21 14
-918.209912362344 -231.908748991347 2218.87804956287 17 20 13
-903.420414446184 -230.217919516202 2201.97974422834 17 20 13
-886.259585958032 -228.063543501795 2178.51185970396 17 20 13
-875.922677545861 -227.182604250892 2172.73434594759 17 20 13
-869.47121354442 -227.036385280716 2177.22280433542 16 19 12
-859.89125573583 -226.291039579387 2173.29339802818 18 21 12
-854.473784493774 -226.3442113479 2180.59079237816 22 25 16
-845.958789381375 -225.799479498016 2179.45923151142 24 27 18
-835.093030989746 -224.791981249233 2171.75005111162 18 21 12
-826.973378818257 -224.315728981589 2171.53649095641 14 17 8
-828.210162322288 -225.688748744822 2197.64921060163 14 17 8
-821.042592464389 -225.408686962225 2200.27458901387 15 18 9
-821.429999463204 -226.642582649438 2224.57330370013 15 18 9
-818.114469552828 -227.148936983886 2238.53944705658 14 17 8
-810.210718846134 -226.734178040457 2239.30910395382 13 16 7
-799.430601746226 -225.730157716918 2231.56879874677 15 18 9
-792.207395119768 -225.448007171037 2234.21454968697 15 18 11
-778.67186694649 -223.859452850467 2217.91972377167 14 17 10
-775.883389530869 -224.492457176697 2233.81792569435 14 17 10
-769.918400734477 -224.471474518535 2240.25329256602 15 18 11
-771.939240123078 -226.140259748609 2271.39210908448 16 19 12
-763.118973397775 -225.53085476739 2269.30978831261 14 17 10
-756.14146679699 -225.311393489296 2272.92809343843 16 19 12
-746.757540166801 -224.574013255779 2268.92686063497 18 21 14
-737.707657726633 -223.902685585849 2265.86582949846 18 21 14
-721.312019490092 -221.619624701998 2238.92970908071 22 25 18
-722.919573931245 -223.272370721329 2270.21989772533 34 37 30
-1028.58101920305 -253.967835269477 2368.03898722031 17 20 13
-980.650812715126 -246.076619661266 2270.85277033265 24 27 20
-944.726870167265 -240.382018567511 2202.20427520708 23 26 17
-930.841967918856 -238.836308499693 2188.1662698214 24 27 18
-927.613368457202 -239.32301253047 2201.03575449056 23 26 19
-923.604444817002 -239.667764064554 2212.06584969561 18 21 14
-912.007222495099 -238.545826272866 2203.56477032549 17 20 11
-902.610784083076 -237.844223389505 2200.63194030148 18 21 12
-888.642966550355 -236.23959030412 2185.56195075076 18 21 14
-881.801350203338 -236.02791002831 2189.13054906031 18 21 14
-872.51234983896 -235.330525992091 2186.15836444005 16 19 10
-865.331866183736 -235.049884148432 2188.78847868638 19 22 13
-851.276805298474 -233.386151454043 2172.68809084445 18 21 12
-843.124126409482 -232.900362181351 2172.48699581302 14 17 8
-839.38850215639 -233.311584903317 2184.47958627255 13 16 7
-837.281573160693 -234.065066987101 2201.18762205733 15 18 9
-835.09770506682 -234.815561914041 2217.9240923969 15 18 9
-831.844124607616 -235.357078555409 2231.8648198338 15 18 9
-823.604449867888 -234.867936077205 2231.69584097199 15 18 9
-815.054459941602 -234.310928151752 2230.57766697959 13 16 7
-808.141178225558 -234.096519663734 2234.17250985703 12 15 6
-797.696256334314 -233.131149527124 2227.37405566171 13 16 7
-792.391462923132 -233.258204435359 2235.69149156074 18 21 14
-787.056180819961 -233.384087073647 2244.02034790145 17 20 13
-782.629067838086 -233.712634909334 2255.20386389938 16 19 12
-787.15565527602 -236.007044737066 2293.91825648982 16 19 12
-767.481848072262 -233.009366830139 2258.62711360531 16 19 12
-763.578891139704 -233.46986901765 2271.7435946397 14 17 10
-759.619782082432 -233.928170913137 2284.88038956004 15 18 11
-751.703849220073 -233.507457566568 2285.65492196116 16 19 12
-735.766474794941 -231.268786984452 2260.68231455184 19 22 15
-724.697269575298 -230.111915193544 2250.92521202241 24 27 20
-725.097217794971 -231.576435721601 2278.40189201719 35 38 31
-1042.25970992996 -263.756107017928 2380.463192012 17 19 16
-1038.95312299716 -264.328425378318 2394.42110895775 16 19 10
-997.658622162526 -257.453521735414 2313.9467467506 21 24 15
-929.656002977122 -246.378183897134 2185.89501640588 19 22 11
-926.066600286748 -246.822511080947 2197.83198129589 20 23 14
-921.702408209502 -247.11963560031 2207.92819616291 18 21 12
-907.963491664058 -245.530511720761 2193.84067863561 19 22 11
-895.029601660015 -244.089750386277 2181.58258301741 19 22 11
-889.254564300971 -244.09790053027 2187.94673528192 19 22 13
-880.648669600243 -243.527763212424 2186.85011853243 18 21 12
-876.945031749206 -243.967602418268 2198.82892797146 18 21 12
-870.42088197312 -243.829558476805 2203.34317901192 19 22 13
-865.604172052189 -244.050517344407 2212.54300118823 17 20 11
-847.1116278331 -241.398726215368 2184.26321996778 16 19 10
-848.75584258014 -242.982864335977 2211.27878586705 14 17 8
-847.243746215212 -243.917528957615 2229.89039288678 13 16 7
-843.311346577166 -244.348403381173 2241.95299648118 16 19 10
-835.358981462602 -243.920680428503 2242.74129497369 14 17 8
-826.104426342802 -243.208236957032 2239.75773136095 13 16 7
-816.229727315786 -242.354648291684 2234.87702647426 13 16 7
-807.042285907442 -241.644819816357 2231.86888062409 12 15 6
-804.294750988281 -242.355805316087 2247.74632279617 11 14 5
-800.204039407346 -242.780468476472 2259.86691571447 14 17 10
-793.855087835981 -242.707676047539 2265.3791435743 18 21 14
-787.803743064222 -242.704962544985 2271.84450837791 18 21 14
-772.737293670454 -240.654685568786 2250.80772585417 13 16 9
-766.720018074139 -240.653296097166 2257.26061214663 13 16 9
-757.022211947087 -239.806589502282 2252.31511616307 11 14 7
-757.347209081301 -241.280643774272 2278.75149882305 12 15 8
-753.045801576527 -241.697043541146 2290.94926896928 16 19 12
-743.044307124367 -240.780004526203 2285.05286481505 18 21 14
-730.141831184525 -239.165006427722 2269.59657871211 21 24 17
-729.901853458555 -240.558510990966 2295.17775932283 37 40 33
-1036.49646122443 -270.980500029454 2367.07930016801 19 21 16
-1002.91127091251 -265.445913906327 2306.10193364949 15 18 9
-1031.37589688723 -272.494174092606 2398.69144776193 17 20 11
-923.705688190573 -252.927397389956 2171.56322552448 17 20 11
-921.97301705246 -253.777710603005 2188.12822761648 16 19 10
-915.826336214522 -253.721193746336 2193.56573490477 17 20 11
-911.099262841624 -253.964907513647 2202.73127186341 17 20 11
-896.004752680474 -252.028855658662 2184.89573511477 18 21 12
-889.865139202677 -251.972570341222 2190.33065709571 18 21 12
-883.35887355352 -251.840753891447 2194.83794028704 19 22 13
-869.871280698454 -250.212224166967 2180.66182635337 19 22 13
-873.082845688923 -252.173543261946 2211.34593539638 18 21 12
-853.132128794049 -249.129749982864 2179.35906100313 17 20 11
-852.117463923256 -250.191575601106 2198.84714852271 17 20 11
-856.760742666767 -252.514758390503 2234.31679449084 15 18 9
-853.503253755577 -253.121743051794 2248.25425665373 15 18 9
-845.853411238812 -252.761538729703 2249.99409917433 14 17 8
-834.903282232873 -251.660433415049 2242.32289089505 13 16 7
-825.649702828008 -250.93156803435 2239.34021182771 13 16 7
-814.474633344201 -249.760453145769 2230.68945896828 14 17 8
-806.267005506862 -249.256016331994 2230.50973594011 14 17 8
-802.558948513728 -249.784101238613 2243.55004897781 13 16 7
-803.878070438256 -251.48771512425 2271.74127490835 14 17 10
-802.22248487146 -252.524339059934 2291.4641344934 13 16 9
-783.908034589491 -249.666703633532 2261.0018095582 16 19 12
-771.973959847728 -248.282263744665 2249.44300450738 19 22 15
-762.884216578606 -247.55968873777 2246.40032300039 16 19 12
-759.618272414272 -248.227351222216 2261.40283527307 13 16 9
-754.47212993824 -248.45436332174 2270.72189594229 13 16 9
-751.088901179662 -249.117409579384 2285.7673704143 15 18 11
-744.964851761452 -249.122596569012 2292.25855544159 17 20 13
-743.828980562863 -250.362965949224 2314.97687907225 18 21 14
-723.311589316669 -246.807242874654 2274.70156616255 34 37 30
-1007.29928358489 -274.527863840687 2317.68860453849 16 19 12
-998.564819728414 -273.995060377268 2317.70244113013 19 22 13
-945.204583760815 -263.982999314884 2205.58300772526 20 23 14
-940.474642428309 -264.245906036803 2214.74813858226 17 20 11
-936.436072014923 -264.663669112488 2225.78375104123 15 18 9
-928.016231658446 -264.143046229692 2225.68235405554 16 19 10
-910.645179335325 -261.674394067824 2202.31456438243 16 19 10
-913.714789978163 -263.648429938382 2231.98273503249 17 20 11
-888.353572103962 -259.397105629065 2187.11975012759 17 20 11
-875.537543717493 -257.873508365585 2174.82508106062 19 22 13
-867.681013468467 -257.438707432554 2175.57934749763 19 22 13
-863.984369348109 -257.933582088446 2187.55146333906 18 21 12
-863.668715952338 -259.199839305555 2208.90326152305 17 20 11
-863.590916708239 -260.53929340779 2231.22967177682 17 20 11
-856.305023772519 -260.254540384462 2233.89839536841 16 19 10
-854.387755150968 -261.20242185649 2251.58966321509 16 19 10
-845.728989673232 -260.60825689116 2250.51406932879 13 16 7
-835.108453820837 -259.553828433307 2243.78614187319 13 16 7
-822.244626923379 -257.964212573241 2230.44726477142 13 16 7
-812.395562234183 -257.067733023654 2225.56022784757 15 18 9
-801.942458952735 -256.019775505141 2218.77097760841 16 19 10
-798.583660228627 -256.655457578075 2232.74308416544 15 18 9
-792.622972212336 -256.678002339527 2239.17360418886 14 17 10
-794.516665867108 -258.605668454169 2269.27252831373 12 15 8
-787.513972187867 -258.395649985805 2272.89927237597 13 16 9
-771.520910396958 -255.98037722472 2249.0267794318 17 20 13
-764.890367714393 -255.848779972411 2253.57894629246 17 20 13
-762.515957733074 -256.778481160244 2271.43768249431 13 16 9
-759.455465337281 -257.553480569195 2287.42400391893 12 15 8
-751.829900619306 -257.191151359631 2289.15544003489 12 15 8
-746.289012957991 -257.357751125792 2297.55592842396 14 17 10
-730.412325134986 -254.882960818462 2272.57883259811 16 19 12
-728.986944274479 -256.105315962636 2294.33714892675 31 34 27
-1000.46573528893 -281.242430980225 2301.53213688885 19 22 15
-998.830919984826 -282.245611215743 2319.11660645791 18 21 12
-972.774550756069 -277.894602096692 2275.58027376166 18 21 12
-961.622864719939 -276.792546430315 2269.04892666381 18 21 12
-954.885893038556 -276.662946609773 2273.63986677247 16 19 10
-935.501032498312 -273.705809482376 2245.70733642513 16 19 10
-927.75737649434 -273.336795659491 2247.48218390489 16 19 10
-914.323791048574 -271.678773107217 2234.35548287485 15 18 9
-902.744106621518 -270.426463159092 2225.85761381104 15 18 9
-877.545094695721 -266.041998337534 2180.94573905779 17 20 11
-868.278065791006 -265.279995905835 2177.9707012475 18 21 12
-865.609096488004 -266.042403850162 2192.74916143774 17 20 11
-858.070044261061 -265.681151102658 2194.44882879075 17 20 11
-852.23870881676 -265.719928298437 2200.83112540391 16 19 10
-850.780188094761 -266.796198571955 2219.41283631325 15 18 9
-847.892779691546 -267.549926289113 2234.27131856897 14 17 8
-842.276131527246 -267.6636413095 2241.63651328974 14 17 8
-832.671077371797 -266.821500511283 2237.72352877243 13 16 7
-820.480711944751 -265.344975681396 2226.26453740303 14 17 8
-804.466409426444 -262.919028309317 2203.46712366668 16 19 10
-799.557041130024 -263.193573652864 2212.69656892537 17 20 11
-786.932836431045 -261.566676733812 2199.27344099544 16 19 10
-788.361504373413 -263.422100416016 2227.41341045218 14 17 10
-787.44795915684 -264.719311719495 2248.98010965292 13 16 9
-788.305517153804 -266.485678218556 2276.26774806979 11 14 7
-777.571393208077 -265.332482101573 2268.52198737441 13 16 9
-773.343644534594 -265.833430362938 2280.6866151821 17 20 13
-771.196749939814 -266.88229667196 2299.52025153855 21 24 17
-755.071704000032 -264.318391467535 2274.64011740477 15 18 11
-752.869251018843 -265.365025722211 2293.49436292679 14 17 10
-744.346058795713 -264.764676157051 2292.36972251839 14 17 10
-734.078247215038 -263.696162425874 2285.51469984488 15 18 11
-723.278942263188 -262.473536436424 2276.73130421418 27 30 23
-996.627472916956 -288.536125920786 2292.77663176929 19 22 15
-1001.69441614509 -291.094262202106 2327.00806066608 16 19 10
-992.579168904237 -290.461008390079 2326.10127306315 16 19 10
-958.959343318762 -284.220398575458 2263.05664898031 17 20 11
-956.962563814481 -285.18378175854 2279.70882594513 16 19 10
-939.008655572854 -282.469992517095 2255.50449515747 17 20 11
-912.603460726447 -277.760308609048 2208.92229778135 16 19 10
-893.585669904014 -274.727240220538 2180.86212635533 15 18 9
-891.690801180338 -275.694426378822 2197.47724267106 15 18 9
-885.160445204653 -275.578212030037 2201.99184727402 16 19 10
-877.923624605292 -275.295561066427 2204.64258243916 17 20 11
-862.049471321067 -272.940345907629 2183.92227714453 17 20 11
-851.104516622475 -271.749284351151 2176.25572188192 16 19 10
-845.66179809588 -271.883609779234 2183.55642065057 14 17 8
-845.935707125944 -273.421067196617 2206.8069129565 14 17 8
-848.778294632591 -275.614046484133 2237.60760624467 13 16 7
-840.15684924388 -274.999406349119 2236.51999745274 14 17 8
-828.915383100699 -273.727131069021 2227.90074740097 14 17 8
-816.753157199762 -272.210628216483 2216.43454829062 15 18 9
-808.892440881485 -271.764387912637 2217.19119880258 17 20 11
-795.561814021067 -269.924547230614 2201.90744074004 18 21 12
-790.324077165687 -270.135902575707 2210.19440617675 17 20 11
-786.007462310795 -270.59140287846 2221.32819528908 13 16 9
-796.119374428426 -274.80301728713 2276.0010467798 11 14 7
-798.458840725017 -277.045288289262 2308.04763430213 9 12 5
-783.305760360355 -274.717607321224 2287.06300433241 10 13 6
-770.737201634559 -273.046081089342 2273.62302548359 13 16 9
-767.083674191039 -273.735440980109 2287.69816797568 22 25 18
-764.576155425882 -274.747101005211 2305.59882936712 19 22 15
-757.498189214414 -274.539173569066 2309.25301930066 19 22 15
-750.712159133888 -274.411977039761 2313.86134853068 19 22 15
-737.151663833356 -272.423894091781 2296.53918294583 19 22 15
-984.573143054036 -293.872462248888 2263.68825529701 18 21 14
-1002.69992005445 -299.558749871822 2330.27079778342 13 16 7
-1000.20714962536 -300.471880467691 2346.04042227841 12 15 6
-939.054758461962 -288.994447252395 2234.72962368038 15 18 9
-924.114778681662 -286.896273422752 2217.91672884039 17 20 11
-911.431586482914 -285.319044225908 2206.64465255553 16 19 10
-902.381228565441 -284.605049711316 2204.65356969679 14 17 8
-888.060856825459 -282.603045478962 2188.67510237971 14 17 8
-880.151488373127 -282.149928670327 2189.44969457709 19 22 13
-867.381785106752 -280.496953496635 2177.14820992946 20 23 14
-862.291331836831 -280.730952778664 2185.37969888196 16 19 10
-850.657583028776 -279.338637399991 2175.845480834 16 19 10
-850.657204073488 -280.85348142851 2198.13078224461 15 18 9
-846.497410826025 -281.340100007075 2209.20524425401 13 16 7
-844.301663655071 -282.33620994297 2225.9272443585 12 15 6
-839.369055678771 -282.648235663797 2235.16230551131 15 18 9
-823.843292448129 -280.23793932039 2214.31957298996 14 17 8
-816.957068102924 -280.040700111754 2217.90303515364 15 18 9
-812.014535727272 -280.352163038445 2227.14174467716 17 20 11
-804.458585354082 -279.984373525729 2228.84829927593 18 21 12
-791.793689207104 -278.262736044978 2215.44710440387 17 20 11
-784.289473628698 -277.896839333303 2217.1344646887 12 15 8
-808.555676540433 -286.057952416289 2314.3653800588 10 13 6
-798.619328698317 -285.091951698088 2309.51530186547 9 12 5
-780.990283947923 -282.02195020818 2280.95333349936 12 15 8
-771.2011205329 -281.061618599555 2276.04960423812 11 14 7
-763.582942181308 -280.690981456959 2277.77872915135 19 22 15
-762.908659243433 -282.250703196437 2301.3720553294 17 20 13
-758.532667609134 -282.800105923038 2313.58688940516 18 21 14
-750.547514476689 -282.342842544501 2314.38958419345 22 25 18
-745.218725281941 -282.63849534801 2323.76982822406 23 26 19
-743.64264123721 -284.018445533279 2345.5710098816 28 31 24
-991.199817382975 -303.512453226348 2280.81902297651 19 22 15
-1001.84962900451 -307.598044988641 2328.90635225699 14 17 8
-1010.0376038172 -311.138173977638 2371.52946930523 13 16 7
-983.992394411533 -306.377678283652 2328.02023254739 13 16 7
-933.872581045368 -295.660074037085 2222.24332285685 16 19 10
-921.493493309399 -294.128707273722 2211.92359553853 17 20 11
-910.260217949042 -292.866664605141 2204.36740794357 16 19 10
-902.637703894483 -292.494356857495 2206.09848853558 13 16 7
-888.315466310797 -290.437640871638 2190.12482723876 14 17 8
-875.49704545197 -288.739092812522 2177.84422776376 18 21 12
-871.801935652313 -289.343608441303 2189.80751354237 20 23 14
-860.116444836764 -287.913807772798 2180.29492363385 16 19 10
-852.608927864856 -287.545648139915 2181.9839084852 15 18 9
-843.406318900094 -286.736827676837 2178.98874268144 15 18 9
-848.408002664052 -289.62756311094 2215.35215443527 15 18 9
-841.83829637239 -289.520448343649 2219.88036990785 14 17 8
-832.267511183317 -288.622164393557 2215.95917027857 15 18 9
-825.37079010354 -288.427269230277 2219.54626943815 15 18 9
-820.432266068329 -288.758067033883 2228.78231803898 14 17 8
-815.13317576274 -288.999801646139 2237.08902901877 14 17 8
-802.074355215528 -287.141392827896 2222.77472505332 16 19 10
-791.664025813424 -285.985365922354 2215.97808746527 16 19 10
-790.495778841004 -287.361638065841 2236.56480787503 15 18 11
-780.84136718576 -289.90206317977 2281.47968398689 10 13 6
-775.957133998557 -290.309265767553 2291.75654375298 10 13 6
-759.477548229467 -287.418306303327 2265.96334778247 13 16 9
-755.815510836303 -288.172607371972 2280.03642803802 16 19 12
-750.597737274615 -288.491721229405 2289.37482005128 18 21 14
-745.640754751592 -288.895801513732 2299.67834796591 20 23 16
-746.225425651972 -290.938829917022 2328.11081816807 24 27 20
-744.924665566935 -292.458909995942 2350.86820180985 26 29 22
-1010.63773145762 -318.026017514211 2351.59243780199 18 21 14
-1011.76019708866 -319.933303445849 2376.6398259506 12 15 8
-996.308923963249 -317.700691345048 2360.02310107172 13 16 9
-921.797647741698 -300.510546950206 2192.13228101618 16 19 12
-920.676208688346 -301.78664436687 2210.57618591408 16 19 12
-915.173019982254 -301.960207226548 2217.89589524299 15 18 11
-907.156850553391 -301.492230636916 2218.71041344021 13 16 9
-899.503554032982 -301.115976756285 2220.45297620011 14 17 10
-883.801772868096 -298.640190679078 2200.7454408417 18 21 14
-871.699048390633 -297.081041250579 2190.3276509246 19 22 15
-867.258387340816 -297.528539076698 2200.44055824024 16 19 10
-852.160868869912 -295.153742096884 2181.57266230637 15 18 9
-849.076937158779 -295.964506531756 2195.43143480605 15 18 9
-847.280623972973 -297.135942164604 2213.06188748209 15 18 9
-844.39792317336 -298.032033932879 2227.90791769363 14 17 8
-824.840285348939 -294.396165410286 2195.82289593481 15 18 9
-823.600534426695 -295.744314079596 2215.37090783318 15 18 9
-824.88467914302 -297.811863115351 2242.48082657134 14 17 8
-812.408151155958 -296.082176617914 2230.07835402131 15 18 9
-800.013998704772 -294.355646207187 2217.64571321376 16 19 10
-790.256860258015 -293.352929555791 2212.73354609803 16 19 10
-786.242562776983 -293.971426761856 2224.81174981587 14 17 10
-786.889931603174 -295.936074656114 2251.09424096669 13 16 9
-805.482785892302 -303.102896990139 2332.32853590774 12 15 8
-782.546472721428 -298.325499414693 2287.69099566885 11 14 7
-772.432941693266 -297.230848066357 2281.84844543908 11 14 7
-759.934764517161 -295.422121853907 2268.39324628774 10 13 6
-754.153793258045 -295.58306924594 2275.81458200206 13 16 9
-745.957428430651 -295.028732674172 2275.63453171583 18 21 14
-739.258006537165 -294.920842406287 2280.21019055597 21 24 17
-743.119852680121 -298.019213943206 2319.10544842808 25 28 21
-744.167392991434 -300.309067315744 2349.48422992722 23 26 19
-1007.59325926028 -327.24542338697 2366.93579453443 12 15 8
-990.344095487639 -324.48353950888 2345.67895544959 12 15 8
-973.591061816657 -321.821280954263 2325.30114731987 15 18 11
-930.66702184062 -312.271412712618 2237.08747541459 15 18 11
-922.227020041428 -311.701241942022 2236.99714230545 14 17 10
-919.129102833439 -312.544848590526 2250.85877256915 13 16 9
-907.860501021883 -311.221227018847 2243.3198123219 14 17 10
-892.448477379397 -308.771531084071 2224.57183917369 17 20 13
-875.76485674281 -305.950678756023 2202.04741005514 18 21 14
-867.151380683582 -305.292940488957 2200.96015752941 16 19 10
-857.531551384652 -304.354760620779 2197.05978767779 15 18 9
-847.947657840206 -303.417895848459 2193.14626179094 15 18 9
-846.491107112824 -304.726706863876 2211.70945705168 15 18 9
-833.906343202528 -302.949332371423 2199.34990881269 14 17 8
-819.411807868875 -300.615186862255 2181.32641547941 14 17 8
-819.19617123369 -302.293596628853 2203.67758679288 15 18 9
-818.872681203766 -303.967673414588 2226.06801792009 15 18 9
-814.874206414117 -304.614316843641 2238.13834898247 15 18 9
-804.711680218933 -303.493531692124 2232.31557237405 15 18 9
-792.680696914602 -301.817633616997 2220.81396882893 15 18 9
-790.857885766659 -303.111401110772 2239.51137531291 15 18 11
-796.798613179249 -306.716921731955 2281.87951159524 13 16 9
-795.983295969801 -308.371203980783 2304.4501355365 12 15 8
-782.705010167946 -306.324839635361 2289.16294254194 12 15 8
-769.83106358185 -304.374543062655 2274.78840000138 12 15 8
-759.479907246527 -303.165456664272 2267.97426603942 13 16 9
-747.674582228474 -301.497768446465 2256.38979861233 13 16 9
-746.995523554053 -303.237254382338 2279.97129649914 13 16 9
-743.835550998946 -304.236989276891 2295.97680615029 19 22 15
-736.202026831106 -303.856792366628 2297.71248237985 26 29 22
-732.646957111689 -304.760558945727 2312.80223039367 28 31 24
-1034.11534484295 -340.851153628625 2411.73774397703 17 20 13
-981.462153360956 -330.405491432759 2323.92670425357 13 16 9
-973.47633359581 -330.011332734034 2325.79143614314 14 17 10
-938.487820628225 -322.331296598929 2258.01942480332 15 18 11
-925.698888051778 -320.586153596014 2246.79818302826 15 18 11
-927.895358842254 -322.915666797318 2274.62366436984 14 17 10
-920.43821768494 -322.624811070052 2277.35506933022 15 18 11
-902.835963155582 -319.528224025693 2253.05185224824 17 20 13
-867.044046934932 -313.062539905926 2201.47948346543 16 19 10
-853.317405348361 -310.947840511779 2186.36035095376 15 18 9
-851.233107497506 -312.112563782749 2203.0293894947 15 18 9
-854.126413704275 -314.717822675936 2233.78054761979 15 18 9
-831.450300393092 -310.010071034168 2193.30969135829 14 17 8
-821.620666123665 -308.961100384868 2188.42735463548 14 17 8
-818.746955435079 -309.928417660205 2203.26474432382 14 17 8
-820.380431350744 -312.234812769356 2231.2962728381 16 19 10
-806.510172986451 -311.857712264977 2238.49742390189 15 18 9
-795.739690251901 -310.522269684142 2230.77862450665 15 18 9
-786.608073380065 -309.666121973444 2227.76123552587 15 18 11
-797.594795381582 -314.912776198346 2285.23831764861 14 17 10
-788.36101250535 -314.052427254117 2282.2583664038 12 15 8
-782.245633308989 -314.1445740641 2288.73983995658 12 15 8
-782.845584746433 -316.326633364438 2316.08971182513 12 15 8
-765.400565369658 -312.902165405791 2287.48762519092 14 17 10
-744.814231645028 -308.441106599002 2248.37222693689 14 17 10
-748.927486844276 -311.756988176078 2287.15947267219 12 15 8
-747.520169658395 -313.361739492352 2308.88237338765 16 19 12
-716.678738824482 -305.509193400289 2235.35010826401 31 34 27
-1036.21250457614 -349.926219859619 2417.75744112186 18 21 14
-984.63503915589 -339.504071784777 2332.75369856145 16 19 12
-975.173782226854 -338.706411267005 2330.91847778349 14 17 10
-957.099321886837 -335.512604923537 2306.79416615732 12 15 8
-940.603060865416 -332.723577113925 2286.33237351853 15 18 11
-920.332212058646 -328.843023822071 2255.59150618786 16 19 12
-916.096667926219 -329.450404657029 2266.68437963346 16 19 12
-903.073079555266 -327.569016405874 2254.49212080503 18 21 14
-877.983274763882 -322.212642382546 2209.61415340518 19 22 15
-852.466312242791 -316.667816497289 2162.77224066401 16 19 10
-849.106883187951 -317.480608248588 2175.66440249312 15 18 9
-854.175674098996 -320.767890733566 2211.97351159201 15 18 9
-845.586702708461 -320.08895685331 2210.87895484275 15 18 9
-833.675800590696 -318.422000561758 2200.39960285856 14 17 8
-827.47540201879 -318.436826934951 2205.85099055107 14 17 8
-826.525592925901 -320.029706445538 2226.34200090414 14 17 8
-819.927039121457 -319.942972465319 2230.87941430379 16 19 10
-806.838756248214 -317.88632280177 2216.59051839092 16 19 10
-794.80743993879 -316.128312026365 2205.09523137342 15 18 9
-785.404070110278 -315.15936193258 2201.11853532984 15 18 9
-776.985640999567 -314.486201021384 2199.96132428071 16 19 12
-771.411429682954 -314.696400376756 2207.30407450913 15 18 11
-787.279998499416 -321.665129396501 2279.94338207567 13 16 9
-784.254961419285 -322.746936147064 2295.89392645399 11 14 7
-771.672402704027 -320.795132790004 2282.48018168377 11 14 7
-770.707833157427 -322.557854611154 2305.09685266531 10 13 6
-750.681544910742 -318.169797688525 2267.90557322307 12 15 8
-751.752037168552 -320.612483956444 2297.19818199991 13 16 9
-740.258636280836 -318.960230097009 2286.56577251258 15 18 11
-727.665037443504 -316.921713756046 2272.09602542898 31 34 27
-991.310741049183 -345.957788376057 2306.37545908356 15 18 11
-989.598906366383 -347.308993808768 2323.96139932319 13 16 9
-988.899378133629 -348.965296013823 2344.35668789703 12 15 8
-979.405653686362 -348.152796235737 2342.53438343363 13 16 9
-956.985203655 -343.647431302506 2307.28840019336 15 18 11
-934.418028059836 -339.047659877878 2271.03654904897 15 18 11
-886.057417825533 -328.747577566997 2188.05471515301 15 18 11
-874.999764800496 -327.342001453842 2180.44529289058 19 22 15
-880.304520890635 -330.737317242244 2216.66051569311 20 23 16
-862.007378824434 -327.189181651246 2189.444178696 16 19 10
-850.710446055161 -325.685352322529 2180.86255287525 14 17 8
-837.779037645111 -323.674812300057 2167.5799900752 13 16 7
-850.184392330095 -329.295117964424 2224.51318276502 14 17 8
-840.910009708217 -328.401225302697 2221.55051385956 14 17 8
-831.998093107243 -327.609944882944 2219.51521572165 15 18 9
-826.072474941155 -327.732137548679 2225.92547495796 14 17 8
-823.06391129745 -328.765095946355 2240.80690906172 12 15 6
-810.274252411172 -326.759373643389 2227.47247983173 12 15 6
-790.504639435683 -322.532811888256 2193.37567857345 15 18 9
-793.88045790492 -325.585777130053 2227.11766473172 16 19 10
-769.901524409071 -319.954919476223 2179.72341952017 17 20 11
-772.219077148399 -322.700633279625 2210.67317295481 15 18 9
-780.602277814617 -327.454098300498 2260.60021125025 14 17 8
-779.168443172348 -329.078970758502 2281.26467234375 13 16 7
-774.273226205731 -329.594492031116 2291.5376044169 13 16 7
-761.148949715711 -327.397696416782 2276.20580433508 15 18 9
-760.15074262215 -329.216265975375 2298.83048329969 12 15 6
-749.206781031482 -327.724249998199 2290.11997276313 11 14 7
-740.984983346424 -327.135332221635 2289.95177239633 15 18 11
-738.346017555382 -328.446686192407 2307.87758104192 20 23 16
-727.783851764811 -327.057800883464 2300.08712461688 36 39 30
-1011.17834354379 -359.837090532962 2356.77425941195 16 19 12
-994.629987052779 -357.001374863239 2337.40172822996 14 17 10
-979.298831515786 -354.486893578922 2320.76262760027 13 16 9
-968.421419145258 -353.241628581658 2315.20898818965 13 16 9
-961.905398817211 -353.261984341082 2320.77489022339 13 16 9
-948.589775026186 -351.282199965277 2308.69616297503 15 18 11
-913.023868328832 -342.682225094936 2238.00342829 15 18 11
-887.365229050901 -336.933746425312 2192.2949142004 15 18 11
-885.728944052777 -338.330869925833 2209.85019411607 19 22 15
-879.849025012452 -338.466654739207 2216.24282359454 20 23 16
-861.90132513475 -334.935970623779 2189.96476062297 17 20 11
-844.7960560243 -331.620613960881 2165.49747659136 15 18 9
-848.861979942088 -334.79178302042 2198.97980285684 14 17 8
-842.326924547835 -334.718905059801 2203.49309944062 15 18 9
-841.124444306257 -336.314731219682 2223.00888183884 15 18 9
-829.226034956449 -334.571523146059 2212.53074408162 16 19 10
-824.6330315052 -335.121806375618 2222.69099348475 16 19 10
-819.672852144885 -335.566329391814 2231.9260752243 14 17 8
-819.208101905343 -337.464307867032 2254.35119205586 13 16 7
-805.792109028916 -335.204874601613 2239.13010960326 14 17 8
-784.829508370077 -330.459763400331 2201.23941170112 14 17 8
-785.572665142658 -332.769651263864 2227.46105058677 17 20 9
-769.578371900418 -329.587612513484 2203.64660448819 16 19 10
-770.822962699726 -332.099352281397 2231.80393598719 14 17 8
-769.155023483235 -333.675668818729 2251.49056344849 13 16 7
-768.617646710607 -335.661074185865 2275.00177366055 13 16 7
-762.208633593357 -335.682671575779 2280.52870227301 13 16 7
-750.374912302318 -333.84921149317 2268.96731433548 12 15 6
-750.835579441454 -336.238308396511 2296.35217210259 14 17 10
-747.322922451535 -337.285413853243 2311.41569483178 15 18 11
-743.451130949604 -338.227052231318 2325.5508517331 19 22 15
-740.969681287142 -339.679235825197 2344.47561357648 37 40 31
-1019.19682409336 -370.54540371833 2377.58545856664 20 23 16
-991.578563491565 -364.391274750617 2330.48644298441 15 18 11
-976.633460417766 -361.92857813062 2314.76972399867 14 17 10
-967.583205028335 -361.200269962405 2313.84649441835 13 16 9
-965.742248626951 -362.633761928833 2331.47314077706 12 15 8
-971.670514668248 -366.439046613971 2369.56425297095 14 17 10
-914.334389421668 -351.037597371502 2242.22987607266 15 18 11
-896.05822175285 -347.409780577026 2216.07848660078 15 18 11
-894.29790056357 -350.820628572787 2255.9261016116 21 24 17
-850.785492939106 -339.249145288798 2160.6123375795 17 20 11
-846.740770985362 -339.93742607716 2171.62977413069 15 18 9
-845.911959428582 -343.665578760525 2214.31491858187 15 18 9
-831.992680792881 -341.241156579686 2198.22259118594 15 18 9
-824.800232642959 -340.959729845708 2200.85711180374 17 20 11
-820.894194200001 -341.746746678423 2212.8832658725 16 19 10
-822.15393777517 -344.23968130567 2239.96995443943 14 17 8
-810.663945701086 -342.567719572043 2230.40460393536 14 17 8
-805.659446989329 -343.029306577423 2239.65450105444 14 17 8
-796.480534721816 -342.105483351504 2236.65940249275 14 17 8
-785.438014225555 -340.544614685674 2227.98989715323 17 20 9
-781.974618195845 -341.536061566284 2241.97291051137 16 19 10
-767.887763591951 -338.915867591198 2223.82312857754 14 17 8
-767.778032053713 -341.072207534306 2248.23287247193 14 17 8
-768.161516846333 -343.435661208881 2274.58089776394 14 17 8
-766.296430375177 -345.053045908335 2294.3360575682 12 15 6
-757.430475761124 -344.234449532656 2292.28586644161 12 15 6
-755.142640331319 -345.740998986617 2311.13643327749 14 17 10
-750.701217493868 -346.505141863757 2323.35883847931 15 18 11
-745.623571673612 -347.05624086661 2333.69511510419 16 19 12
-1036.9186386646 -382.239872193306 2400.1299548742 24 27 20
-982.12045759026 -367.813963047715 2285.66608979657 19 22 15
-1001.74132063997 -375.741653381483 2356.86994709557 17 20 13
-990.004934112415 -374.220498970393 2349.51585477122 16 19 12
-974.706192747237 -371.592520598632 2332.8735403921 13 16 9
-962.389361566263 -369.854851035138 2323.61356934774 12 15 8
-951.565961284713 -368.562358194245 2318.04386873302 13 16 9
-893.491919701074 -354.491616454958 2210.07673865127 15 18 11
-889.007241621286 -355.091056443218 2220.19417472817 19 22 15
-855.498384646719 -348.461355823438 2174.20450612417 17 20 11
-839.46775082629 -345.319675336823 2152.53358560707 15 18 9
-859.139075613579 -353.731579149411 2229.01560907397 14 17 8
-846.467627963861 -351.688364424873 2216.7076143629 15 18 9
-832.543995886676 -349.209051387636 2200.62101033852 15 18 9
-820.709431034756 -347.391732426924 2190.12526726234 17 20 11
-820.114898569745 -349.302931563801 2211.52973078759 17 20 11
-817.462313732182 -350.55305841619 2227.33199495323 15 18 9
-810.534600837524 -350.378241836612 2230.92883964184 15 18 9
-801.035846284514 -349.328838833114 2226.9928707513 14 17 8
-797.937200481427 -350.464323662217 2241.89929930357 14 17 8
-797.928323709832 -352.687834351803 2266.26733073361 16 19 8
-777.765685526778 -347.931901492981 2230.22015971333 16 19 10
-776.132954841703 -349.607922798045 2249.88621740373 16 19 10
-764.862458528056 -347.908071219225 2240.24322018021 15 18 9
-768.927021244535 -351.644563326598 2277.95012005477 14 17 8
-768.562830836988 -353.85336153967 2302.4483603522 16 19 10
-766.579827257332 -355.514986471743 2322.24277156884 12 15 6
-760.933020599809 -355.872387922994 2330.66734801513 11 14 7
-749.649229439279 -354.171257475203 2321.02927780147 15 18 11
-739.310235366888 -352.797151771583 2314.22317580273 15 18 11
-731.342760537137 -352.289484986842 2315.02299611199 20 23 16
-690.624063589169 -339.473748765155 2207.05517141839 115 118 109
-1008.52663010656 -382.040614107427 2330.46330534196 24 27 20
-1007.87516173661 -383.907389849718 2350.8252513983 20 23 16
-967.873899116083 -373.592027621112 2272.2737077503 17 20 13
-984.057810147909 -380.692402962061 2335.18899197491 15 18 11
-968.801037873886 -378.008732447298 2318.53537640472 13 16 9
-963.348553325956 -378.393990821664 2326.8872464816 12 15 8
-956.795292084683 -378.437612616628 2332.46492407815 12 15 8
-924.384597529577 -370.208493989773 2270.19756968646 14 17 10
-904.633278969437 -365.955692053682 2240.36258049859 14 17 10
-905.295556057594 -368.270403533047 2264.47987528134 19 22 15
-876.404729276197 -360.974078913219 2209.39619845335 21 24 17
-856.425447206609 -356.512894782143 2177.52664726402 16 19 10
-848.576632297723 -356.007474691462 2178.28343875642 14 17 8
-850.556997081616 -358.770969011548 2206.15444065225 14 17 8
-840.302028114934 -357.474793710343 2200.37848544122 15 18 9
-836.09545112765 -358.205507046255 2211.45152840101 15 18 9
-822.908873539928 -355.899103905859 2197.21719094797 16 19 10
-813.426339316333 -354.831613200714 2193.27669334858 16 19 10
-817.009595206712 -358.253822790699 2226.91544962584 17 20 11
-816.54542845544 -360.323914063124 2249.3273682688 17 20 11
-806.675918038173 -359.141307604102 2244.46934877802 16 19 10
-797.165800874109 -358.072091289415 2240.53900329676 16 19 10
-790.846572255989 -358.122216819464 2246.03115733516 16 19 8
-784.512206985329 -358.171579574629 2251.52886864045 16 19 10
-773.818005664753 -356.657679747589 2243.79556392176 17 20 11
-773.644703468372 -358.9370631346 2268.21912159928 16 19 10
-768.775725201655 -359.540600237914 2278.4758792324 15 18 9
-768.40545155224 -361.811891151466 2302.97161462601 17 20 11
-769.117731473771 -364.5231990708 2331.30729692184 14 17 8
-759.279547018207 -363.340393880352 2326.4381648326 11 14 7
-748.89302632572 -361.937051795902 2319.65153697141 14 17 10
-737.681296037199 -360.202894818983 2309.98977624109 14 17 10
-727.11637359347 -358.692819148873 2302.20921111269 19 22 15
-1026.26363306712 -395.907631449784 2375.23756767358 23 26 19
-1001.851647599 -390.356396940647 2336.52761732315 20 23 16
-986.104080165736 -387.494453097199 2318.999475141 18 21 14
-981.756457622777 -388.246371810258 2330.12191096322 15 18 11
-973.023862657566 -387.600189505584 2330.1436231311 14 17 10
-961.793589040158 -386.140743825906 2323.66779550006 11 14 7
-957.02978885216 -386.77367121313 2333.88412044342 12 15 8
-939.486459520732 -383.227252744341 2310.65999036087 13 16 9
-918.574189082368 -378.526848498764 2278.08092218599 14 17 10
-897.159540159738 -373.602165134509 2243.56794241852 19 22 15
-884.949599725184 -371.694605811787 2233.2151418627 21 24 17
-860.443317267502 -365.62656703535 2189.24541136467 16 19 10
-851.538597517085 -364.767775528348 2187.21259216002 14 17 8
-842.321057822803 -363.794347111497 2184.23527118399 13 16 7
-843.210041988118 -366.282205661054 2209.32368678624 14 17 8
-829.311116763298 -363.69447632221 2193.23628601763 14 17 8
-823.452247452893 -363.873946243646 2199.61797122754 16 19 10
-813.96328430033 -362.787050918572 2195.68127360905 16 19 10
-813.952321999298 -365.034600291697 2218.98169279575 17 20 11
-813.505419420511 -367.162715914029 2241.38270638139 17 20 11
-805.260161179752 -366.532735864395 2241.2261283296 17 20 11
-793.21604057845 -364.527575752898 2229.75414140428 16 19 10
-788.185978879606 -365.045035746407 2239.00911081039 16 19 8
-774.363419983634 -362.356748000651 2221.83474003631 17 20 11
-777.398421814358 -365.846598246366 2255.66759400733 17 20 11
-767.96006108077 -364.760295959585 2251.71246588399 16 19 10
-763.133633623526 -365.38724733055 2261.95199656617 15 18 9
-769.457781151821 -370.231523413747 2307.28702455588 16 19 10
-754.558197582575 -367.091523170775 2286.27183477218 14 17 8
-749.302102834371 -367.598898861658 2295.6096913504 14 17 10
-744.010551578019 -368.104710202976 2304.96054864226 13 16 9
-739.8523541072 -369.063451666016 2318.13192089539 14 17 10
-729.266331026944 -367.522305252434 2310.36162106313 22 25 18
-1032.09182372705 -406.218365090478 2390.47473337674 23 26 19
-1019.45433769302 -404.36268261442 2381.34017254521 20 23 16
-987.824372720043 -396.307385459176 2324.10907016129 18 21 14
-975.453235306304 -394.461635875246 2314.87698542087 15 18 11
-981.217677955252 -398.571812250733 2351.93806000314 14 17 10
-971.721568583017 -397.677626967756 2350.12253106908 13 16 9
-960.825947878654 -396.308765093746 2344.58483301166 11 14 7
-940.780836952643 -391.853489844994 2314.87212086355 12 15 8
-913.542036131055 -384.912939889233 2265.56120323202 15 18 11
-888.333395344331 -378.57622506291 2220.80012738592 17 20 13
-874.803738213924 -376.159067695626 2206.69905450344 19 22 15
-877.506326340958 -379.308697165253 2236.41187780248 16 19 10
-851.770654683997 -372.63594521323 2188.66772358409 13 16 7
-848.637915873434 -373.773039694236 2202.51986171808 13 16 7
-832.351370768098 -370.302861245812 2179.90015283976 14 17 8
-827.529879499738 -370.848824336164 2189.07719017155 16 19 10
-819.036367952101 -370.096665277141 2187.95347423309 16 19 10
-814.499336700907 -370.758331768162 2198.084982789 17 20 11
-807.968866139207 -370.712222896179 2202.59459376045 17 20 11
-798.845397766434 -369.725007345317 2199.58413340179 17 20 11
-794.557246742728 -370.500821760686 2210.68341232401 16 19 10
-786.728138417841 -369.983607586903 2211.43367925152 15 18 9
-779.224751107702 -369.58391659082 2213.12354273337 16 19 8
-773.914744970416 -370.004371485125 2221.42073511408 17 20 11
-765.164172502102 -369.135793267711 2219.33264683586 16 19 10
-761.6661561692 -370.256393843672 2233.31874850299 15 18 9
-756.277552683535 -370.673196404041 2241.64477382647 15 18 9
-749.044697818679 -370.388113643323 2244.29425157431 18 21 12
-746.008711925275 -371.736076408544 2260.22869217134 17 20 11
-742.60404332754 -372.964479677069 2275.2392994528 15 18 11
-740.900719902225 -374.888766412891 2295.97883035103 14 17 10
-739.100407490319 -376.809082820108 2316.75415486335 14 17 10
-733.150476075011 -377.097886457651 2324.22748749499 14 17 10
-1033.45659974035 -415.154938842117 2394.63787003513 23 26 19
-1010.47865991156 -409.844738929002 2359.65516985895 20 23 16
-995.770762567605 -407.226434208462 2344.93056224054 18 21 14
-980.43257125233 -404.367907387132 2328.31997675849 15 18 11
-974.232378949365 -404.558275497539 2334.82485514404 14 17 10
-957.610550217096 -401.218419750961 2314.45050112293 12 15 8
-952.867548955165 -401.896050910767 2324.65564175908 13 16 9
-937.124312090398 -398.805451163949 2306.07636802912 11 14 7
-901.811208765216 -391.181870164652 2257.61731672597 18 21 14
-883.340566581279 -387.014894775522 2230.51071128832 18 21 14
-877.390828161036 -387.213621757873 2236.92395968238 15 18 9
-861.881693080656 -384.023445935675 2217.20058491906 12 15 6
-842.776623637211 -379.508004359233 2187.15060573784 12 15 6
-834.588518913779 -378.864908463055 2186.9742512784 14 17 8
-829.412589800052 -379.30845276426 2195.22124061389 17 20 11
-825.197104559769 -380.112416609784 2206.29199340861 15 18 9
-816.017994723676 -379.106917727652 2203.3031291897 16 19 10
-798.738247744401 -375.092635030688 2176.81860782551 17 20 11
-792.912269814015 -375.294678991035 2183.18689341982 17 20 11
-791.867692041802 -377.298590050826 2203.68106950106 16 19 10
-788.185385117813 -378.337758560552 2216.67371880286 16 19 10
-783.816744480941 -379.134532132961 2227.80040691716 17 20 9
-773.153789872808 -377.531571655026 2220.06272316797 17 20 11
-764.096863156442 -376.529552621056 2217.02920267304 16 19 10
-754.763821600472 -375.408895864129 2213.03840023689 16 19 10
-751.866128513306 -376.800779684961 2228.91902564487 15 18 9
-752.824946177743 -379.743001307294 2257.14796301774 18 21 12
-755.143339642131 -383.276459409865 2290.17108689496 17 20 11
-749.872528973758 -383.82120940447 2299.51147036873 15 18 11
-741.916285394517 -383.291760068738 2300.30910777641 14 17 10
-738.640850941884 -384.667809252026 2316.32817555703 14 17 10
-735.583454332287 -386.159838137586 2333.32608168992 14 17 10
-733.309816837301 -388.00523377683 2353.21222532928 30 35 29
-1036.30487604062 -424.617784245057 2402.48851224049 22 25 18
-1027.32361378714 -423.938315997123 2402.60308605033 21 24 17
-1006.6392449883 -419.26810203136 2373.13885776382 17 20 13
-974.498141521567 -410.616639335158 2314.00508605215 14 17 10
-957.143245466047 -406.95928246802 2291.78767210596 13 16 9
-963.228630380863 -411.39467711991 2329.77415430938 9 12 5
-943.492120617633 -406.870873425705 2301.0207882823 12 15 8
-942.657867292767 -408.93758236804 2321.43406169793 11 14 7
-930.149921640748 -406.904125106387 2311.19929113483 9 12 5
-908.311888987143 -401.524625021052 2275.80790298723 21 24 17
-879.425677131265 -393.550691240613 2220.77367607672 19 22 15
-866.982616220703 -391.408693543682 2209.45670945682 15 18 9
-854.27607130919 -389.145767706524 2197.17804445331 12 15 6
-840.975854238862 -386.638631784958 2183.00039640611 12 15 6
-832.463338987966 -385.864231810231 2181.88526333933 15 18 9
-828.297820087587 -386.694893411319 2192.93559279276 18 21 12
-825.407153016972 -388.016856747036 2207.75238475989 15 18 9
-820.156121433514 -388.47345560509 2216.02567665591 15 18 9
-811.29830062975 -387.574349149447 2213.97885912993 16 19 10
-796.983186278629 -384.584671441536 2195.93963636685 17 20 11
-793.980071611765 -385.901421316972 2210.79767813251 18 21 12
-787.736422500915 -385.987172248869 2216.25968330411 18 21 12
-783.051722783863 -386.685691878167 2226.44206473114 17 20 9
-785.820513405239 -390.325230165487 2259.29379279272 17 20 11
-763.030401120426 -383.911865270424 2214.72656862815 17 20 11
-749.403986858296 -381.058393873849 2197.49339451273 16 19 10
-755.072976772045 -385.914751902142 2239.86588555353 15 18 9
-773.814248899258 -396.139713959725 2324.01543621217 18 21 12
-758.279545148387 -392.548609708826 2301.13167917968 17 20 11
-751.195846901442 -392.379034171452 2304.78480375971 15 18 11
-743.224700701374 -391.843359879816 2305.58832553206 14 17 10
-739.640134930704 -393.135003691985 2320.65952461238 14 17 10
-734.254421803142 -393.693590210227 2330.04061247687 12 17 10
-727.113786225827 -393.520955749776 2333.71465532791 13 18 12
-1017.24558929849 -428.976482181673 2378.15243082766 19 22 15
-1022.98811289605 -433.389919596119 2415.19833358955 17 20 13
-966.387766619429 -416.018853699718 2294.14507731661 14 17 10
-956.309272026363 -414.835074285034 2290.42988866925 13 16 9
-950.924749759703 -415.305468057223 2298.75064189534 9 12 5
-963.297209564991 -422.126947822218 2353.47204355141 10 13 6
-951.011509500432 -420.177373683237 2344.21674994195 9 12 5
-926.871204200379 -413.917254617808 2303.32846198057 10 13 6
-896.358990852679 -405.257972604169 2244.66999953401 19 22 15
-894.170326362479 -406.870466822927 2261.3431733614 20 23 16
