ply
format ascii 1.0
comment KinectMotionCapture
element vertex 777
property float x
property float y
property float z
property uchar red
property uchar green
property uchar blue
end_header
-832.814125457748 -40.1625410355172 2433.96775192835 28 31 24
-828.514299521244 -39.859352032476 2447.28579779067 35 38 31
-821.705150530131 -39.559363815381 2452.98237494057 52 55 48
-813.968762473032 -39.2613315761637 2455.8157822659 19 22 15
-1134.98869341848 -60.3712909497465 2308.78535262847 149 152 141
-1135.15233964038 -60.1831955783085 2329.00618024933 32 35 26
-1144.62896294121 -60.1321554891009 2370.36548611154 29 32 25
-1143.31722339512 -59.9162725171256 2387.92429608523 24 27 20
-1117.27548608924 -59.3365875790681 2349.43163873302 25 28 19
-1111.93979513963 -59.0627644723205 2357.79080205974 23 26 17
-1102.18442836819 -58.7251276500723 2356.02747860497 14 17 8
-1089.28325263771 -58.3438421445935 2346.87748053702 16 19 10
-1080.77992315866 -58.0260383007731 2347.85792580728 21 24 17
-1074.63354298879 -57.7412906235367 2354.37910046887 15 18 11
-1070.79800950909 -57.4877961560948 2366.45814567588 14 17 10
-1058.03051052481 -57.1128813134359 2357.25909714919 12 15 8
-1044.94571830781 -56.7357661126368 2347.10894295283 19 22 15
-1035.3608900193 -56.4067147398537 2345.28300867686 20 22 17
-1026.5581187853 -56.0887046503452 2345.30545740093 17 18 12
-1018.89780285315 -55.7859185707442 2348.11158355127 23 24 18
-1013.10341808222 -55.5068850231124 2355.57124446792 29 30 24
-1007.28293123947 -55.2270409952356 2363.04019609428 25 26 20
-1004.38147122349 -54.9823834401509 2377.97911359171 19 20 14
-999.585213644829 -54.7133948684897 2388.27528252338 10 11 5
-987.124826071018 -54.3530431344355 2378.96355007807 17 18 12
-975.451748719683 -54.0039242941342 2371.49802319702 14 15 9
-981.011955943733 -53.8534012614985 2408.9547807533 14 15 9
-969.683483405882 -53.5083838833015 2402.43029277765 12 13 7
-960.169926256377 -53.1850942908669 2400.57828259006 10 11 5
-948.931153237451 -52.8441321636029 2394.02115174066 9 10 4
-937.396104664328 -52.5017761929066 2386.50521785684 16 15 10
-926.26248402204 -52.1654893222911 2379.90952844449 16 15 10
-916.207459518683 -51.8419468335457 2376.12065167711 47 46 41
-908.907533731498 -51.5471086225122 2379.86204541684 38 37 32
-905.65015120775 -51.2917122140272 2394.93109319145 14 15 9
-901.991279828001 -51.0308410397279 2409.07961948228 22 23 17
-889.96663094585 -50.6907790974003 2399.60803590917 88 89 83
-878.997698591086 -50.3625066185556 2392.95190435853 142 143 137
-868.080293179343 -50.0365307619414 2386.2768778506 36 39 32
-857.214437433845 -49.7128226396848 2379.58295030883 34 37 30
-850.584863004658 -49.4262394053521 2385.21326984921 32 35 28
-845.856149847697 -49.1548865304365 2396.55163198376 30 33 26
-845.199461138628 -48.9142838004284 2420.27440287388 28 31 24
-839.088700219247 -48.6290654966763 2427.84922747107 29 32 25
-832.64100481042 -48.3408047849296 2434.48014633877 31 34 27
-822.773456242957 -48.0280121747609 2430.62259573308 32 34 29
-819.685212320612 -47.7627850780183 2447.76429762315 38 40 35
-809.226040806371 -47.4471529238445 2441.98855332011 116 118 113
-1179.24466973492 -69.4873985229517 2407.21413526635 40 43 32
-1143.31975071106 -68.5619032711234 2347.80567302711 25 28 21
-1140.87387378699 -68.3669406146694 2362.57531051862 31 34 27
-1126.16677794361 -67.9072687739685 2349.82090616719 23 26 17
-1113.96949681477 -67.5031368682382 2342.5502473336 25 28 19
-1102.22927937686 -67.1100026658855 2336.17924653946 22 25 16
-1095.32480555611 -66.8203163554816 2340.84287094184 23 26 17
-1083.25892813439 -66.4221238555579 2333.524020069 25 28 19
-1073.61058521128 -66.0758064849923 2331.72246579215 12 15 6
-1078.456841852 -66.0314879075081 2364.09732531395 8 11 4
-1073.81431913207 -65.7882191930694 2374.33569599371 9 12 5
-1063.72704535214 -65.4326102714064 2371.62776660588 7 10 3
-1043.31918467348 -64.8671962694423 2343.88647129791 10 13 6
-1039.07377679647 -64.6330599782976 2355.04616811806 12 15 8
-1024.94775711242 -64.199209057777 2342.0786887463 18 19 13
-1017.29489218032 -63.896863054186 2344.88207446406 26 27 19
-1011.13400963891 -63.6244415804818 2351.40758835012 32 33 25
-1008.28702436973 -63.4172867870217 2366.32388348302 37 38 30
-1007.94869457584 -63.2582405077852 2387.79146227889 46 47 39
-1001.15786774391 -62.8165807476644 2415.89153276734 47 48 40
-989.743897775031 -62.4404100842089 2409.40071408957 30 31 23
-976.592589621194 -62.0324557510651 2398.21024395012 25 26 18
-967.424549334562 -61.7015864361297 2397.29982265015 12 13 5
-954.398740723194 -61.2991025576572 2386.06334105931 8 9 1
-939.000049880079 -60.854291606927 2368.22606237346 14 13 8
-931.357433225236 -60.5551897229318 2371.02547973322 21 20 15
-927.163278652726 -60.319406055197 2383.23348914294 17 16 11
-918.468055544415 -60.0011773833805 2383.21687808642 28 27 22
-911.147093656079 -59.7082576320405 2386.96551597559 33 32 27
-902.135345277913 -59.3853574370249 2385.997706673 26 27 21
-895.151700432583 -59.098932967797 2390.69010507597 30 31 25
-884.17364925765 -58.7427030202581 2384.03914186555 27 28 22
-878.84776726998 -58.4857860226126 2393.46027617779 49 50 44
-869.890346760881 -58.1659928453278 2392.4722387854 39 42 35
-861.60237892206 -57.8583177762524 2393.37367085174 27 30 23
-859.116192607128 -57.6486572184357 2411.35898625643 29 32 25
-851.122103061958 -57.3458268367136 2413.21957769504 27 30 23
-841.550534537991 -57.0174132676398 2410.32247559316 23 26 19
-830.753816463871 -56.6700119839768 2403.60496112056 24 27 20
-822.81210235353 -56.3699717150677 2405.44656638354 28 31 24
-814.875910505883 -56.0704003599529 2407.28612982081 36 38 33
-811.540243819462 -55.8434755139396 2423.44802918422 36 38 33
-1157.22676860504 -77.3090039459825 2359.15891976699 14 17 6
-1160.53173881864 -77.3126065633191 2386.75688100158 34 37 30
-1145.70730623626 -76.8018390210185 2374.04896474624 26 29 22
-1118.78024201448 -75.9507507546804 2333.76509094493 22 25 16
-1104.20568293591 -75.4504037174117 2320.96560001804 24 27 18
-1098.54332388669 -75.2015280255423 2328.37476126821 25 28 19
-1090.46309201276 -74.8848636348294 2330.2679495532 30 33 24
-1084.36747571275 -74.6238809800005 2336.76888668558 31 34 25
-1064.4792302095 -73.9788268458299 2310.9781714258 3 6 0
-1074.06742475896 -74.1544210851864 2354.41295181625 9 12 5
-1070.61397638145 -73.9664169275061 2367.41478604562 12 15 8
-1066.33203848536 -73.7551042871125 2378.58628781793 10 13 6
-1055.8720496296 -73.3733777201915 2374.94919419486 10 13 6
-1043.9249824184 -72.9515115925917 2367.5889613237 10 13 6
-1030.14354940926 -72.4803579931437 2355.56565145631 20 21 13
-1010.81120178541 -71.8590253731611 2329.57091348912 24 25 17
-1006.18235124093 -71.6397841976349 2339.8025036379 30 31 23
-1005.21566227456 -71.5196079912331 2359.36208932963 30 31 23
-1010.77672226318 -71.5749621791067 2395.73619273678 26 27 19
-1022.7268809522 -71.800398323619 2448.97560179709 11 12 4
-980.757460009747 -70.3812272395507 2409.93331029537 22 23 15
-964.812111165162 -69.8588826548686 2391.23369248469 15 16 8
-942.994039786115 -69.1827184586617 2356.54673369032 11 12 4
-920.681621568665 -68.4963802177095 2319.90679053507 11 12 6
-926.71285783521 -68.5586693965469 2359.30946100465 18 19 13
-926.683996240659 -68.4597713887283 2382.79342687879 32 31 26
-922.094434889074 -68.2405615214534 2394.07704135824 33 32 27
-914.063197532877 -67.9314544495518 2395.9518578832 38 39 33
-899.634381976277 -67.4568636309342 2379.89754649608 24 25 19
-886.311624970154 -67.0124362562395 2366.63900963769 30 31 25
-881.372492199412 -66.7850004014961 2376.98370096813 30 31 25
-878.697443326599 -66.6152297847864 2393.96807123554 40 41 35
-871.371479829851 -66.326074761855 2397.71824234211 23 24 18
-877.654711685201 -66.3828102164006 2441.29625164308 18 21 14
-862.49319098285 -65.8943295098477 2422.30928454841 15 18 11
-856.382371068045 -65.6356678342844 2429.88238114611 20 22 17
-843.917240721548 -65.2175784374773 2418.44336154696 21 23 18
-833.412810558256 -64.8497507708743 2412.68825395079 23 25 20
-822.643503272304 -64.4762055412858 2405.96275271192 25 27 22
-814.119509963203 -64.0524809336382 2432.55782765363 33 35 32
-1181.02003826367 -86.4135537624519 2433.02446838025 25 28 21
-1141.95345758752 -85.0081460887629 2366.26074145128 28 31 24
-1117.08484803227 -84.1009581912149 2330.56622206467 20 23 16
-1102.92399524812 -83.5689278155614 2318.68536290042 21 24 17
-1106.08804297506 -83.6418498836971 2346.32929630342 25 28 21
-1089.19056592059 -83.0151201876635 2327.98349845139 30 33 26
-1075.57756586484 -82.5035599019106 2316.96884985832 24 27 20
-1073.84026473643 -82.4057384486914 2333.60681816905 14 17 10
-1066.94573457421 -82.1285136948611 2338.26614372777 12 15 8
-1065.86306840773 -82.0532644305454 2356.7979222448 12 15 8
-1056.98025377167 -81.7072483333847 2356.85156684083 14 17 10
-1050.41067191114 -81.4416940961391 2362.45850215662 10 13 6
-1041.54231007537 -81.0966894752444 2362.50681919004 7 10 3
-1034.57850716721 -80.8178740351187 2367.19143415868 12 15 8
-1015.59292301992 -80.1237850384884 2342.14300412544 24 27 20
-1009.06266033921 -79.8607202840684 2347.73546547113 17 20 13
-1009.92086442452 -79.8526458659844 2371.95683052307 15 18 11
-1012.49879603019 -79.9034787824834 2400.8819448234 22 25 18
-1017.85327597395 -80.0494220572715 2437.32427142757 13 16 9
-965.977401452224 -78.1516173223905 2372.0518711257 6 9 2
-956.16986868228 -77.777418266949 2369.2437039787 9 12 5
-931.599199368379 -76.8980390741839 2327.03924177239 8 11 4
-915.31722426079 -76.3036761768923 2306.33400004145 13 16 9
-917.906949394092 -76.3551011122706 2336.32159518421 25 28 21
-922.759369581415 -76.4832543519996 2372.94768123903 28 31 24
-918.535834959432 -76.3012292843719 2385.16230935185 33 34 28
-909.509453471784 -75.9556039125862 2384.20153145835 40 43 36
-899.829980764343 -75.5881068661931 2381.34632960413 24 27 20
-889.847166410048 -75.2106770019055 2377.53553637158 16 19 12
-886.865853403591 -75.0713558150406 2393.56207589953 16 19 12
-880.521560891402 -74.8178798937538 2400.15280004366 19 22 15
-873.830360276031 -74.5527685115501 2405.80389060628 14 17 10
-868.743837020845 -74.3421425694447 2416.20086610014 12 15 8
-860.40236943764 -74.021523322548 2417.12271329166 13 16 9
-854.622185531713 -73.7876623138888 2425.64036239798 17 20 13
-845.964925668265 -73.4568779516158 2425.61090521582 21 24 17
-837.009638498633 -73.1163845485798 2424.62365456618 26 29 22
-830.875653889995 -72.8711397845802 2432.20415543967 27 30 23
-835.825139921578 -72.9982085178288 2474.12809114819 31 34 27
-828.936122227025 -72.7273462443201 2479.85148999853 21 23 18
-1144.33007743258 -93.4268107645958 2372.22842678803 24 26 21
-1114.578120832 -92.2016709460864 2325.53250868435 16 19 12
-1119.3931592208 -92.4171349208776 2356.83255372362 17 20 13
-1120.4407414632 -92.4760003468607 2379.91350362352 20 23 16
-1081.94418220752 -90.885974797329 2311.88978567651 32 35 28
-1071.93839906253 -90.4840481675627 2309.15574242571 27 30 23
-1072.57805824883 -90.5266008292704 2331.3195806779 18 21 14
-1076.62456796022 -90.7118091029134 2361.83433334562 12 15 8
-1049.08666421058 -89.5784916833146 2317.52696156458 16 19 12
-1036.45742192372 -89.0676635527067 2308.28793406218 17 20 13
-1042.65591739047 -89.3437957579662 2344.41377516762 11 14 7
-1036.36489569486 -89.1163888399139 2372.31608196107 36 39 32
-1009.86464910047 -88.0260645730842 2328.69500270229 46 49 42
-1020.51010802089 -88.4901523768057 2377.05716173935 40 43 36
-1019.80206464841 -88.47965226328 2397.58130707986 10 13 6
-1017.15864170525 -88.3885974900951 2413.48143668055 15 18 11
-1014.80799892757 -88.3102029401697 2430.34104356055 0 3 0
-1009.843542507 -88.1226448642703 2440.6919270819 15 18 11
-961.211928893134 -86.1243479879873 2360.38209894064 8 11 4
-950.017395196282 -85.6754798221677 2353.81703596707 12 15 8
-937.465810633123 -85.1696982332527 2343.4828554902 17 20 13
-941.063320583885 -85.3426395780165 2376.29503897239 31 34 27
-921.94537941697 -84.561128111002 2348.1013723624 30 33 26
-917.116022018198 -84.3804726975011 2358.40264851866 25 28 21
-917.030833346392 -84.3998765353182 2381.89815407213 25 28 21
-909.030289051402 -84.0864753354006 2383.76214265412 26 29 22
-899.68820202441 -83.7167531024646 2381.85108004317 23 26 19
-894.381059407508 -83.5173225890853 2391.26081388597 13 16 9
-887.711972871192 -83.260742760796 2396.90322585383 13 16 9
-884.317211868519 -83.142708319093 2412.01182420926 16 19 12
-874.328014433748 -82.7465530291367 2408.20476305283 20 23 16
-859.517575374713 -82.1467027529037 2390.16519406178 23 26 19
-850.924248118866 -81.809662849922 2390.11297975286 30 33 26
-846.4895165589 -81.6487727304132 2402.40274897905 30 33 26
-842.319902225731 -81.4995510524634 2415.66212130055 30 33 26
-836.839847392521 -81.2951940878422 2425.13505235377 27 30 23
-832.257164454883 -81.1292513149777 2437.47895910247 27 30 23
-838.109681813696 -81.406644936567 2482.26337038165 30 33 26
-832.726140459929 -81.2078584268496 2492.76762470624 13 15 10
-1128.90051064863 -100.892887063525 2298.34022987934 23 26 17
-1109.3451717448 -100.013208522136 2274.57937241092 24 27 20
-1118.52522199747 -100.521815944116 2314.93765186332 11 13 8
-1129.1174666734 -101.100836512557 2359.04399451822 14 17 10
-1127.78352879346 -101.10411404204 2376.59458827569 15 18 11
-1093.10905502496 -99.4907703110363 2317.85024781899 27 30 23
-1077.09174547257 -98.7808342860587 2301.32429688976 30 33 26
-1077.00403582646 -98.8447948607724 2321.61743351337 16 19 12
-1060.63753578673 -98.2573596335506 2345.74104810134 16 19 12
-1039.83929222618 -97.3126810023897 2317.1033991342 17 20 13
-1055.19172561777 -98.1355752105362 2375.46140089466 13 16 9
-1037.16142212479 -97.3259453419098 2353.27426798026 18 21 14
-1012.20694970803 -96.3236152201163 2357.08375687665 26 29 22
-1018.20757271317 -96.6951564104232 2394.34084995554 24 27 20
-1006.75368047065 -96.2077309940662 2387.8729308878 35 38 31
-992.797557015153 -95.5964152933959 2374.85711183689 40 43 36
-996.675668532823 -95.866762499789 2407.55999280418 24 27 20
-971.26000154413 -94.6875849468588 2364.61835970887 16 19 12
-958.235506345656 -94.1208785868514 2353.39379175429 14 17 10
-951.314171631925 -93.8568838295435 2358.06185818884 15 18 11
-946.845804593698 -93.7153453658391 2369.29583209668 18 21 14
-938.488239303781 -93.3805948081646 2370.2243401143 23 26 19
-925.979588524099 -92.8387054799357 2359.87728456812 20 23 16
-920.082712273957 -92.6269362979446 2367.36885497912 17 20 13
-922.0179579311 -92.8079919109763 2396.51791001512 16 19 12
-913.97619121144 -92.4902265994084 2398.39695122601 15 18 11
-904.930166431079 -92.1221715481748 2397.44500283357 18 21 14
-895.236862055347 -91.7214846308446 2394.59733077265 22 25 18
-892.201904410064 -91.6565005486951 2410.63800686447 23 26 19
-881.203938314079 -91.1902134322039 2404.00283778716 25 28 21
-866.34271798864 -90.5279780710859 2385.98642659154 28 31 24
-856.77329290257 -90.1329662698756 2383.09331633589 30 33 26
-850.445879014822 -89.9025563788948 2389.67616747307 29 32 25
-846.327919570515 -89.7850549433871 2402.91437829063 29 32 25
-840.257925380009 -89.5689021248714 2410.4691797031 29 32 25
-836.983109260219 -89.496123331709 2426.5973392046 28 31 24
-820.271441589105 -88.7363922430296 2401.79447326323 30 33 26
-816.655748508859 -88.6469582432987 2416.98118659041 35 38 31
-825.812549163705 -89.2152834270553 2472.27595793419 22 24 19
-1123.05406590604 -108.71573339506 2286.00796825878 28 31 24
-1126.13034384324 -109.000149642493 2312.60127791155 23 26 19
-1142.95236924052 -110.043500952079 2370.40868786627 20 22 17
-1123.76703761322 -109.106208528652 2347.5842961557 14 17 10
-1108.75574365405 -108.397425007589 2333.89265804039 14 17 10
-1091.43275213438 -107.559527398603 2314.65058798709 25 28 21
-1085.77347792999 -107.366526501367 2322.05466686006 28 31 24
-1013.48627609199 -103.589496001034 2193.94246111753 15 18 11
-1043.27023883435 -105.368072303342 2284.31684991932 16 19 12
-1058.99633610815 -106.369502446483 2342.52536043197 18 21 14
-1048.22455889788 -105.89306960774 2337.9418864239 18 21 14
-1037.8759751899 -105.439917177967 2334.2697043223 12 15 8
-1030.98290362511 -105.180525659178 2338.92715437174 16 19 12
-986.412228432976 -103.053812278941 2293.41697915116 34 37 30
-1002.56416120423 -104.09888235356 2355.73420849329 25 28 21
-997.82583982521 -103.963709276377 2365.99897612986 11 14 7
-998.879669550937 -104.159040378053 2391.20047200617 10 13 6
-983.880804735105 -103.441308203298 2375.37162632641 6 9 2
-974.376341962222 -103.035984031597 2373.52250145026 11 14 7
-967.75244406769 -102.795447802739 2379.14728417233 13 16 9
-960.758588113161 -102.534128549568 2383.84124412085 20 23 16
-947.071051752512 -101.888005559776 2370.73046355729 22 25 18
-938.708554279212 -101.547641828766 2371.6614414505 18 21 14
-922.383971486147 -100.74690423258 2350.98725199239 17 20 13
-920.637823644634 -100.788962217059 2369.7512472994 17 20 13
-918.804332486041 -100.827800236121 2388.54722066517 15 18 11
-910.783154858835 -100.508113883049 2390.41918033646 12 15 8
-901.758120311511 -100.129891843313 2389.46037251961 14 17 10
-898.4278693161 -100.084873067089 2404.54002281821 10 13 6
-892.381257035882 -99.8819612844626 2412.08532964727 19 22 15
-879.407727159948 -99.2720932119188 2399.77894445973 22 25 18
-867.82089550649 -98.742598201678 2391.22938901562 30 33 26
-859.854316651001 -98.4262676610706 2393.08100339606 31 34 27
-855.423422505977 -98.3198090358786 2405.36527140212 30 33 26
-846.484332277244 -97.9463899627909 2404.37487439523 31 34 27
-835.987046760298 -97.479748417877 2398.62437224039 30 33 26
-823.970210456926 -96.921423265968 2388.09986213429 29 32 25
-819.792208917892 -96.8321700637356 2401.35775712541 31 34 27
-806.931337488347 -96.2217202669698 2387.9436722428 36 39 32
-813.406416308076 -96.776848026906 2434.61429485914 37 39 34
-1154.71718557553 -118.605583313449 2336.68875832569 18 21 12
-1146.96203062903 -118.297214898033 2339.52976424772 28 31 22
-1149.06144266052 -118.596190291984 2364.34379498397 26 29 22
-1159.60631036241 -119.419562779328 2408.44866042501 33 35 30
-1142.75066343469 -118.5524908824 2391.17260886257 24 27 20
-1126.81295524569 -117.740033998648 2375.69202736858 20 23 16
-1104.57114146603 -116.533517681034 2345.46552527123 22 25 18
-1087.68489648365 -115.656766707198 2327.13451089027 23 26 19
-1048.05484429742 -113.880657324295 2317.13503382579 20 23 16
-1036.58356377168 -113.336752252704 2310.67769405453 21 24 17
-1038.54739961816 -113.641430842442 2336.60685632723 14 17 10
-990.457742269797 -111.135337986369 2282.80436951731 29 32 25
-1004.17943673744 -112.195691441503 2338.53678596815 36 39 32
-988.411898059074 -111.374287018519 2320.86168382632 28 31 24
-994.043261352021 -111.924867777769 2357.17287776718 11 14 7
-993.294036889251 -112.069290314554 2377.70029658297 12 15 8
-987.742686685703 -111.90618730607 2386.12946300739 11 14 7
-972.459220958325 -111.113732793394 2369.3431052091 16 19 12
-956.926632778632 -110.302522972998 2351.58186752862 16 19 12
-956.735842493131 -110.48798695572 2374.03640206836 20 23 16
-944.482884462464 -109.888408110611 2364.66735274767 20 23 16
-924.618097771481 -108.788513430203 2334.63595321096 17 20 13
-921.216381939513 -108.76598434724 2348.67306194254 19 22 15
-920.848071488946 -108.945283550866 2371.1928156726 17 20 13
-914.569365444375 -108.736890877519 2377.75630818693 15 18 11
-901.495111442377 -108.078511784942 2365.49018009095 15 18 11
-896.907691944723 -107.982760998243 2376.7639554749 15 18 11
-898.612718970374 -108.308494095801 2405.98548713296 16 19 12
-891.566909183462 -108.052453202647 2410.69817990444 22 25 18
-876.627461618174 -107.266568081828 2392.71952117466 22 25 18
-866.038012386819 -106.770866218463 2387.00469820586 27 30 23
-860.021818640305 -106.583345160578 2394.53804588977 28 31 24
-858.470962309884 -106.699758727545 2415.35884098942 26 29 22
-848.231219777897 -106.227548303276 2410.58174021454 26 29 22
-831.404588141749 -105.304186785332 2385.83299117627 24 27 20
-816.292449362216 -104.494153165628 2365.78553291262 23 26 19
-818.071010341398 -104.843092475524 2397.11196275818 23 26 19
-807.378579136889 -104.335432320242 2390.36890304244 27 30 23
-804.37205116362 -104.359232856693 2407.45910686295 29 31 26
-806.739293902713 -104.759548950905 2441.76769307465 14 16 11
-1172.10786593362 -128.063376748346 2375.52168961446 27 30 21
-1149.78578802552 -126.766417675563 2346.39798508225 25 28 19
-1164.58537019935 -127.999096438254 2399.59239545018 28 30 25
-1159.52228789557 -127.880337673763 2408.90762050865 22 24 21
-1139.42445819918 -126.730846516764 2384.29741756813 24 27 20
-1136.39677520161 -126.751891099092 2398.19559272701 22 25 18
-1101.68967349372 -124.588723932078 2339.50484658752 19 22 15
-1086.81052204345 -123.787679090414 2325.77190309491 18 21 14
-1092.9626730562 -124.443505886117 2360.81937808031 18 21 14
-1056.87833086062 -122.627839258454 2338.86827078621 25 28 21
-1061.12430893163 -123.161835334918 2370.3507887487 25 28 21
-1022.43644915713 -120.914067436555 2319.51263080539 17 20 13
-979.756983467502 -118.13051707197 2236.03260188057 23 26 19
-1006.47147649328 -120.261402945586 2323.2291827279 33 36 29
-978.40920687151 -118.504354975735 2274.89291497153 33 36 29
-980.551403395871 -118.897304468663 2301.81742247381 27 30 23
-979.625056910086 -119.074721129446 2321.3401506755 23 26 19
-984.434274008641 -119.667928213316 2355.81347819964 19 22 15
-968.089646088101 -118.740586144787 2336.22293494142 17 20 13
-955.459443454901 -118.078252006072 2325.92913150173 18 21 14
-959.659728623303 -118.636184172486 2359.55981217562 21 24 17
-948.468257928955 -118.078292038111 2353.00186233073 18 21 14
-932.056483170612 -117.137132901209 2332.36994801754 16 19 12
-915.07534525695 -116.149979255852 2309.81526260503 21 24 17
-914.508722529695 -116.366820188555 2331.33742750662 23 26 19
-918.651475991729 -116.935335670118 2366.05476931941 19 22 15
-913.067141600883 -116.788943140023 2374.4946593055 18 21 14
-897.632866535806 -115.910829617682 2355.6361925321 23 26 19
-893.741502358936 -115.890783347613 2368.78446532623 23 26 19
-894.795540614916 -116.243647595546 2396.10736608835 25 28 21
-884.466075034975 -115.745046659108 2391.36511057783 25 28 21
-874.177769197142 -115.248234159939 2386.60751094157 25 28 21
-866.536756102539 -114.950787957816 2389.40622074382 25 28 21
-863.09727882147 -114.973275334943 2404.52046360687 25 28 21
-857.346995592571 -114.821886069757 2413.02102604958 20 23 16
-844.569182429441 -114.132765847618 2400.64950933149 20 23 16
-828.719098252961 -113.20407647938 2378.74601463453 19 22 15
-813.628730025711 -112.329177009237 2358.69579484891 19 22 15
-814.178910229714 -112.664076726242 2386.20312161597 20 23 16
-811.210479567855 -112.730040085096 2403.27630200023 22 25 18
-811.217392197428 -113.032172791837 2429.91668005975 29 31 26
-1174.11292567709 -136.61077398268 2380.54810737532 29 32 23
-1164.58024217226 -136.174554398029 2379.77812349658 26 29 22
-1157.52917639405 -135.92381664003 2384.49232583707 26 28 23
-1148.42820498899 -135.519519065486 2384.62963241058 22 24 21
-1136.10029878091 -134.871569691371 2377.4245766859 25 27 22
-1114.56779554534 -133.525711874912 2349.08423574884 23 26 19
-1095.20933249241 -132.338593973169 2325.27504268091 19 22 15
-1085.53884959767 -131.883412840344 2323.49000093717 19 22 15
-1051.99991920833 -130.165456670138 2307.00626926213 22 25 18
-1051.75385396117 -130.432240616522 2327.34163907527 24 27 20
-1052.56366342381 -130.784530525753 2350.48684140967 23 26 19
-1063.57642107128 -131.932708048923 2398.66393136374 18 21 14
-993.878251381876 -126.809587114866 2250.51305957938 21 24 17
-1000.40776960634 -127.606489256905 2287.54614530491 21 24 17
-982.41159745069 -126.489359020567 2264.30325635023 30 33 26
-982.034409376799 -126.751978762291 2284.68658220646 30 33 26
-977.866773602922 -126.719582957895 2295.80305416423 26 29 22
-980.986172486619 -127.266144339105 2325.5605858011 24 27 20
-974.12531261335 -127.025936812454 2330.20488467048 20 23 16
-954.238245205899 -125.747615805967 2301.26159934346 19 22 15
-965.241100564162 -127.248500057833 2375.01480472037 21 24 17
-961.438026746247 -127.2607422978 2388.12856209176 16 19 12
-936.150723748122 -125.5369342893 2344.11482653819 15 18 11
-924.370871594348 -124.89973071048 2335.64327516887 19 22 15
-919.575379758837 -124.829615732886 2345.92416054703 22 25 18
-917.830784487229 -125.011160191367 2364.67706726989 21 24 17
-903.72289889734 -124.180618081424 2349.59956330429 22 25 18
-899.865515089096 -124.191765074428 2362.73313617287 28 31 24
-894.944158355015 -124.117415952599 2373.06007246842 28 31 24
-888.648552992274 -123.93076921646 2379.628064374 23 26 19
-875.718035626897 -123.190987410549 2367.3158533247 25 28 21
-872.386371689442 -123.252794118978 2382.3879568448 25 28 21
-870.616075144842 -123.449276262203 2402.21588527585 24 27 20
-863.262131464548 -123.177846119803 2405.97488526334 22 25 18
-857.505590224646 -123.042529492304 2414.47650877029 14 17 10
-843.77140411865 -122.228095808059 2399.26201034167 15 18 11
-828.558579796653 -121.28253132099 2379.26161524242 19 22 15
-820.97521715063 -120.988112359822 2382.03915006151 22 25 18
-819.285540506365 -121.20351111789 2402.90266089851 25 28 21
-817.498752507531 -121.415351628064 2423.80197871833 29 32 25
-807.683689053029 -120.9313142967 2419.93827898773 27 29 24
-1185.6674547503 -145.966090162495 2406.57645912678 28 31 24
-1154.18643099698 -143.736503499824 2357.38489445994 25 28 21
-1144.7353630521 -143.293053195547 2356.58554784733 24 26 21
-1136.52688237661 -142.950667487591 2358.5272744527 30 32 29
-1121.43730182458 -142.042898781621 2344.87909454654 27 29 24
-1099.99977322681 -140.608120992832 2316.5107006055 24 27 20
-1089.53336701795 -140.073326103824 2312.88748789715 18 21 14
-1077.51286162035 -139.408216253276 2305.57229100437 18 21 14
-1054.64419581342 -138.50505755861 2313.94948087797 20 23 16
-1046.63308680072 -138.171703018779 2315.81881353001 21 24 17
-1058.62038616105 -139.526875149339 2365.75931028262 22 25 18
-1021.86865896718 -137.109128076165 2319.56354335497 24 27 20
-992.403904942258 -134.944095383479 2268.56771093309 23 26 19
-990.555241792789 -135.131387251181 2285.22488329811 25 28 21
-986.027491547512 -135.092044401665 2295.40591199019 24 27 20
-982.934714752911 -135.178694682159 2309.32278811541 25 28 21
-975.38169070103 -134.881955283264 2312.08947486463 26 29 22
-971.467912040961 -134.901946835587 2324.1763145272 23 26 19
-964.920757835918 -135.062136519793 2352.14218479241 21 24 17
-967.610667768836 -135.671874889245 2382.05125339492 19 22 15
-967.322010337718 -136.025908076062 2404.52888223362 12 15 8
-959.200753352949 -135.690475734385 2406.43813824867 13 16 9
-936.097239744266 -134.020125881248 2368.02676253083 17 20 13
-931.210317848014 -133.968309296623 2378.33923293545 20 23 16
-917.697144026421 -133.143757147489 2365.17856267837 22 25 18
-912.792263411228 -133.091572491491 2375.49784023683 23 26 19
-903.448719533147 -132.639485205158 2373.5935215294 27 30 23
-899.166449774294 -132.646817459838 2385.81520301087 26 29 22
-886.171457410519 -131.860588931142 2373.52992262922 25 28 21
-877.886713649888 -131.502651544571 2374.43397563899 25 28 21
-873.876230115657 -131.538529041563 2387.62130943158 26 29 22
-870.785711682095 -131.66284143719 2403.66763581756 24 27 20
-864.072059209019 -131.453962838208 2409.32264112996 21 24 17
-854.780967215425 -131.005048295577 2407.39927959978 22 25 18
-840.749976240694 -130.109534577917 2391.23218290688 23 26 19
-831.549258995074 -129.664458417147 2389.27544091948 26 29 22
-825.500461853754 -129.517066601418 2396.81760682572 27 30 23
-824.696551095524 -129.871232385461 2420.54873847573 28 31 24
-816.708779333811 -129.54378481314 2422.40914613794 29 32 25
-791.680486034927 -128.012433115517 2397.48606529777 13 15 10
-778.697966104978 -117.261241128044 1431.31112208538 53 60 44
-780.29886699097 -117.643559868486 1447.76677943828 143 150 134
-1216.93722462043 -156.820542497698 2455.19402037501 25 31 19
-1176.8710073291 -153.69594739938 2387.85665816823 31 34 27
-1157.82718685323 -152.402509217416 2366.07453245088 26 29 22
-1133.59096526837 -150.643993763796 2332.34784356934 25 27 22
-1126.26403212702 -150.373983989277 2336.09692244464 30 32 29
-1111.64357939936 -149.455836381849 2323.34563012418 26 28 23
-1101.937179907 -148.972067345682 2321.57554092688 23 26 19
-1087.85865030375 -148.095627733253 2309.6907568863 16 19 12
-1060.79087190804 -147.20731084444 2329.19229127349 17 20 13
-1051.96228505383 -146.799098039927 2329.23092572077 20 23 16
-1047.37636021839 -146.778747901491 2339.43191270106 22 25 18
-1049.23883418196 -147.353448345215 2365.37752997233 24 27 20
-1029.3579057452 -145.928769536324 2338.5761695315 24 27 20
-1012.27739578396 -144.754918385494 2318.20504312079 26 29 22
-1000.5616931276 -144.073278425734 2310.78009286329 26 29 22
-992.245685836853 -143.706206259429 2311.69619432136 24 27 20
-981.725919608681 -143.132131279967 2307.02852251479 25 28 21
-971.979774681186 -142.628787538113 2304.20804933732 26 29 22
-969.539949178145 -142.814476990643 2320.01332354826 23 26 19
-963.415690245263 -142.654647817623 2326.51703543308 22 25 18
-963.009190888482 -143.04109737172 2347.96822425951 19 22 15
-959.295006269901 -143.116915056239 2361.04514228303 17 20 13
-953.402914893163 -142.986770045808 2368.52881549574 12 15 8
-952.047466894996 -143.296207097866 2388.19749124222 14 17 10
-942.238174996332 -142.791461163076 2385.39981322326 19 22 15
-932.805424199968 -142.321729080198 2383.52923806744 22 25 18
-923.398396943667 -141.853149995144 2381.6494838932 24 27 20
-917.423725829826 -141.720529485916 2389.16334820598 24 27 20
-907.028056390794 -141.153126975798 2384.45033823232 26 29 22
-898.351190809081 -140.753880813114 2384.43317009605 26 29 22
-887.359034005119 -140.123152389759 2377.80829764398 26 29 22
-870.471086546121 -138.899150898818 2354.17081264505 24 27 20
-869.791043951418 -139.296859392816 2376.78735104027 23 26 19
-865.750577116804 -139.361750447188 2389.98338977267 22 25 18
-863.589988160564 -139.621270620985 2408.88155923132 22 25 18
-851.418388714501 -138.864514800702 2398.4282522978 23 26 19
-842.812095726035 -138.469076323297 2398.38515519216 24 27 20
-830.7566270206 -137.717134495408 2387.88929037593 25 28 21
-828.458488912792 -137.971904334824 2406.83779502724 24 27 20
-825.453664398074 -138.15888519209 2423.91481339624 23 26 19
-818.684784817762 -137.956877785303 2429.58936634831 21 24 17
-812.815096094208 -137.850696657281 2438.1299022653 18 20 15
-1207.66592506061 -164.610154178355 2435.57568622559 28 34 22
-1179.28481887196 -162.373873038191 2393.7912687108 32 35 28
-1173.01177230499 -162.216469508261 2400.34885771208 26 29 22
-1144.58594094127 -159.955961297658 2357.51596226673 25 27 22
-1127.81947477053 -158.792993817407 2340.22957947517 20 22 19
-1115.61703778563 -158.060611536472 2332.98556097269 22 24 19
-1092.61228705454 -156.287579341819 2300.94564026893 19 22 15
-1082.58851912524 -155.755252131035 2298.22822480301 15 18 11
-1078.15290861849 -155.762216371027 2308.37228172399 14 17 10
-1121.40361141849 -160.405007765727 2429.90304364957 13 16 9
-1100.89895801776 -158.867747893149 2403.33705463808 11 14 7
-1071.21440924757 -156.422095260323 2354.57562190415 13 16 9
-1056.51308140953 -155.432722034523 2340.79227809246 15 18 11
-1048.05047507004 -155.053847462367 2341.76228069549 17 20 13
-1047.22993563719 -155.431875703995 2361.2314287572 22 25 18
-1036.08223796275 -154.787995039465 2355.73061873966 23 26 19
-1025.35685953896 -154.18367038307 2351.1401902571 25 28 21
-1009.06348383486 -153.018328195292 2332.61553887039 25 28 21
-994.744505527271 -152.044835709406 2318.69207488818 26 29 22
-984.942916717062 -151.522860243551 2315.89289804353 26 29 22
-977.369044953076 -151.225536847993 2318.66720361297 25 28 21
-967.976763653071 -150.742742863462 2316.78316421591 26 29 22
-961.137351064551 -150.520189486216 2321.41833844753 19 22 15
-961.098816540711 -150.998673605861 2343.79544391392 13 16 9
-959.884404073596 -151.362634919067 2363.40850790762 12 15 8
-949.743397755187 -150.80534711157 2359.66876232548 15 18 11
-942.79536744239 -150.579092200079 2364.34368074208 15 18 11
-936.881539365946 -150.462092374141 2371.83425988895 21 24 17
-931.633371381312 -150.417053493826 2381.21117124308 24 27 20
-926.349111157864 -150.370754150564 2390.60103706168 25 28 21
-918.645272738503 -150.069721154324 2393.42284429314 25 28 21
-907.899903996038 -149.443856859809 2387.77449370148 28 31 24
-898.206966006059 -148.927966296124 2384.93538081794 29 32 25
-887.879362531343 -148.341628912858 2380.19906858968 24 27 20
-880.565088596012 -148.079289878648 2383.94296913042 21 24 17
-867.020095495785 -147.138456559309 2369.73607737476 20 23 16
-859.094434190448 -146.806693305893 2371.57398929542 20 23 16
-861.17274295239 -147.575992090576 2402.759792721 21 24 17
-864.057098476827 -148.445665322951 2436.84507869231 21 24 17
-842.649921053999 -146.625555013407 2398.8952162362 22 25 18
-838.464807828678 -146.715394084465 2412.14218237201 22 25 18
-834.535687235567 -146.838283817185 2426.35994497785 22 25 18
-828.687189781012 -146.748868443118 2434.89151630808 22 25 18
-827.108015317265 -147.147126838523 2456.7678910441 21 24 17
-816.594350000437 -146.532141640191 2451.03453305123 22 24 19
-792.839796380243 -144.391916478661 2403.2953884087 16 18 13
-1212.591757528 -173.712443660514 2446.96541233418 30 36 22
-1179.62209815046 -170.881043611884 2395.16020965795 28 31 24
-1163.86144222322 -169.774127427058 2380.70407209008 22 25 18
-1160.07821275694 -169.879310849963 2392.73705046517 24 26 21
-1148.507632333 -169.192931231953 2387.39309624556 16 18 15
-1108.25934657712 -165.564951431254 2316.95994451151 19 21 16
-1096.96177135222 -164.889583692645 2311.51596638664 18 21 14
-1080.91667852679 -163.721091894391 2295.03470892925 15 18 11
-1078.12630944282 -165.422368662926 2371.65102402749 14 17 10
-1065.31188984322 -164.585924379856 2362.50384665572 13 16 9
-1047.18746245005 -163.183133258803 2340.39592175799 14 17 10
-1044.45918628575 -163.407798191805 2355.2365039271 20 23 16
-1035.6015114442 -162.982808776948 2355.28697295461 23 26 19
-1022.6193819171 -162.114718155305 2345.13656242709 23 26 19
-1008.96118108732 -161.169084937452 2333.10427792592 24 27 20
-1002.8083528232 -161.029667229907 2339.61683004402 27 30 23
-997.740465469685 -161.009682180399 2348.92609401773 26 29 22
-994.100537276511 -161.148177099978 2361.97130279577 25 28 21
-973.683901286585 -159.451869829598 2332.18515681082 27 30 23
-969.68758216962 -159.551062797171 2344.29601064789 18 21 14
-971.373059904041 -160.282588367701 2371.36091513265 11 14 7
-963.319043219486 -159.941460309255 2373.24642427764 11 14 7
-955.269905661243 -159.600628346898 2375.12988400664 16 19 12
-940.914533836701 -158.552063270144 2360.15900557055 18 21 14
-935.358170501725 -158.488379718284 2368.58249209712 21 24 17
-932.880283350857 -158.775835463975 2385.46047334221 22 25 18
-924.83856809491 -158.435828346486 2387.34142833943 16 19 12
-919.865116440599 -158.446583735324 2397.68061709941 14 17 10
-911.13495675629 -158.02866956488 2397.68422124304 15 18 11
-896.721570726164 -156.952969740494 2381.66965836389 15 18 11
-883.741598897508 -156.035979161113 2369.38878666327 20 23 16
-875.134987747199 -155.623273097409 2369.34710802473 21 24 17
-871.78412458114 -155.826263890353 2384.41553478097 21 24 17
-856.993709838845 -154.685064621079 2366.4097901549 21 24 17
-847.15208478557 -154.121946506924 2362.56170802198 20 23 16
-845.02197929473 -154.475581257544 2381.44170059775 19 22 15
-852.004703531506 -155.928975754763 2427.86010090998 18 21 14
-843.961945029049 -155.59036575099 2429.74107523812 18 21 14
-838.109428543126 -155.516961637666 2438.27289875819 19 22 15
-827.583508557138 -154.876454753603 2432.54617330404 21 24 17
-823.857323417887 -155.065872858191 2447.75173840391 23 26 19
-1186.22177678641 -179.534155932719 2389.97604063945 35 39 25
-1151.34727009848 -176.322761783333 2333.5583218906 27 30 23
-1140.70644349326 -175.704998337659 2330.0047427726 22 25 18
-1139.51972728369 -176.109639976885 2347.47156180539 15 20 16
-1129.7040674396 -175.581104417934 2345.74480300797 15 19 18
-1119.50883181926 -175.009472542554 2343.09239948803 20 22 17
-1102.51258859857 -173.689704102811 2324.83477797321 18 21 14
-1082.3597149655 -172.556366208523 2319.44289387792 9 12 5
-1066.02244721239 -171.291150611286 2302.00828196662 9 12 5
-1086.60414752017 -174.136358142579 2371.11314566952 10 13 6
-1089.69994533497 -175.049655955491 2399.78527967945 10 13 6
-1043.25367655612 -170.96032972164 2331.63864295935 11 14 7
-1043.59667384194 -171.567742968952 2353.86764998776 15 18 11
-1036.25681062721 -171.307515451787 2357.62068875736 17 20 13
-1023.26908285253 -170.401092850393 2347.47520449252 20 23 16
-1013.71504676473 -169.884338932725 2345.6522447104 23 26 19
-1014.20388449389 -170.526243485519 2368.89221624214 22 25 18
-1001.68355933347 -169.66682721784 2359.63991658898 22 25 18
-991.79085889922 -169.108812875068 2356.87656320981 27 30 23
-981.202096973156 -168.467002165227 2352.23932520566 24 27 20
-974.622343132091 -168.294048068299 2357.84296955552 18 21 14
-970.534158416849 -168.417193525551 2369.98539436081 12 15 8
-969.95048666821 -168.961096941996 2391.48907642546 14 17 10
-963.262230905544 -168.784259736999 2397.13243658487 15 18 11
-937.98351417207 -166.377399898788 2353.16711867021 17 20 13
-928.617081120577 -165.869176272818 2351.27535203554 18 19 13
-922.729664478698 -165.780742741261 2358.75443384909 18 19 13
-921.957924794378 -166.317899140866 2380.32695713075 17 18 12
-918.361814584463 -166.517829118932 2394.41791174882 18 19 13
-915.041753110797 -166.757040183548 2409.47241421614 19 20 14
-898.922825929548 -165.418129043608 2388.7643627095 22 23 17
-883.929819868794 -164.208441708038 2370.83714034635 21 22 16
-877.957758815014 -164.117408519866 2378.3469184965 21 22 16
-875.888469514393 -164.519467339907 2397.20141489834 21 22 16
-866.586725853485 -164.014836362722 2395.28587310761 20 21 15
-852.155517060696 -162.855940021823 2378.21750698005 20 21 15
-849.339582374606 -163.172436404608 2395.21612242743 19 22 15
-843.910273397086 -163.159951221196 2404.65613857326 19 22 15
-840.961416028542 -163.471519571146 2421.70367595622 19 22 15
-821.402972815034 -161.630340645577 2388.41672408681 19 22 15
-835.45230865105 -164.166972832258 2457.7852111493 19 22 15
-817.234821872045 -162.4918994128 2428.26498577765 20 23 16
-800.713667638734 -161.025095747633 2403.44624890471 28 30 25
-1164.87598381662 -185.587086004082 2343.94343916465 31 34 23
-1161.22696643536 -185.752622442734 2355.92309951758 24 27 20
-1134.45782168508 -183.272089997761 2316.77134804445 17 22 18
-1133.30438385515 -183.722070808457 2334.22265487927 17 22 18
-1128.40679823875 -183.745752890791 2343.46674708147 15 20 16
-1063.97245974224 -179.193165105388 2297.8904205335 11 14 7
-1082.20439057524 -181.956959282182 2361.45534046338 13 16 9
-1095.04202187597 -184.105501404893 2413.16038543559 10 13 6
-1067.43539421093 -181.438061267371 2368.99398994805 10 13 6
-1048.53140952643 -179.795290095801 2345.05404758801 10 13 6
-1044.1036628765 -180.52112278135 2377.54046862522 14 17 10
-1025.42161742422 -178.88739008589 2353.51920543986 18 21 14
-1022.94542015311 -179.224751024281 2369.32625102425 20 23 16
-1016.31752060121 -179.057768721956 2374.94693793751 17 20 13
-998.993420922867 -177.570790317054 2353.62113222756 16 19 12
-974.122412756459 -175.135774828748 2312.70972588553 26 29 22
-981.449982892147 -176.696555642498 2353.66143846543 30 33 26
-971.619300603352 -176.12489975117 2350.87683514684 19 22 15
-965.39927587082 -176.005515387525 2357.41229071765 14 17 10
-968.40014205333 -177.055322061969 2388.24172961798 16 19 12
-943.016445660114 -174.507553944549 2344.32518651083 14 17 10
-937.156477264364 -174.433653049511 2351.79294452988 17 20 13
-930.575279295242 -174.269485965401 2357.39645059154 14 15 7
-925.014119221339 -174.238591793384 2365.81920594243 16 17 9
-918.051692311334 -174.028634862061 2370.49812547483 21 22 14
-917.879573870443 -174.706233962066 2393.97529968916 22 23 15
-903.758487629852 -173.563524971516 2378.92639981059 20 21 13
-901.121438128549 -173.927284404716 2395.85645347978 19 20 12
-891.096258491438 -173.318120221728 2392.07853786988 17 18 10
-879.458327768616 -172.490500300798 2383.569788332 18 19 11
-876.38921466557 -172.806601098366 2399.59412092159 18 19 11
-873.248278399265 -173.120007794491 2415.64449853268 20 21 13
-861.66225346025 -172.294736521376 2407.11671246502 20 21 13
-851.416120391306 -171.646358947817 2402.3554800102 22 25 18
-846.915796858798 -171.782555477086 2414.64666560122 21 24 17
-815.644897571726 -168.228574180088 2346.27914440939 16 19 12
-829.96748524824 -170.966996028348 2415.53286915895 16 19 12
-837.128325027315 -172.741334176793 2463.99570447476 17 20 13
-833.923742671619 -173.084171600543 2481.13354274236 21 24 17
-811.789972313362 -170.75862524102 2439.21933548858 21 23 18
-1176.06384305637 -195.278969513465 2369.01281075154 32 35 24
-1149.5530322355 -192.716805511907 2330.84016663425 26 29 22
-1140.97817594299 -192.311360973124 2331.85295860711 22 25 18
-1126.27472876189 -191.158744824196 2319.14951231427 17 19 14
-1129.14313253435 -192.148505563074 2345.76513108945 17 19 14
-1132.68543738441 -193.232347692694 2374.26191017886 12 15 8
-1096.07018771022 -190.677841156005 2352.55944816066 9 12 5
-1091.06516848543 -190.717162784466 2361.84139499867 14 17 10
-1093.45718712608 -191.688715090749 2388.63147623794 15 18 11
-1073.94939604015 -189.909162178596 2363.85468358248 13 16 9
-1059.61444944465 -188.771870643901 2351.01619092143 11 14 7
-1059.17363964914 -189.396059373687 2371.39535198087 10 13 6
-1051.77722462864 -189.139316373216 2375.16867523293 11 14 7
-1040.21278837304 -188.347503784262 2368.76388745481 12 15 8
-1030.20259325448 -187.751905839854 2366.04606004966 16 19 12
-1025.82181605537 -187.88404431392 2377.22755991757 17 20 13
-1018.42878350844 -187.627813148754 2380.99961557117 14 17 10
-968.629457854095 -183.208391783123 2321.56283311876 31 34 27
-967.897533956191 -183.822014727499 2342.04856406961 17 20 13
-968.141321238304 -184.57538894187 2365.36916106754 13 16 9
-963.297819329107 -184.656261040774 2375.65584378718 15 18 11
-950.653301569089 -183.687881280462 2365.39033320153 13 16 9
-936.679914711695 -182.532311828061 2351.35504086484 16 19 12
-931.488442387114 -182.566036371396 2360.70515542515 16 17 9
-921.085806920081 -181.888614980434 2356.00297757132 18 19 11
-930.243420797072 -183.904569917715 2404.78863573448 22 23 15
-906.181502839211 -181.339933669787 2362.52622608536 22 23 15
-905.97759694339 -182.076570643717 2386.01074967922 20 21 13
-893.944936766096 -181.166626710436 2376.58507541675 18 19 11
-893.605011092017 -181.898141369207 2400.11940659105 16 17 9
-883.593818946784 -181.270430022765 2396.33780821316 17 18 10
-874.926842348559 -180.830710315109 2396.32010083141 18 19 11
-865.302072459207 -180.252133139214 2393.46094972189 20 21 13
-862.789969740416 -180.69611334957 2411.40636328963 21 22 14
-854.767371145077 -180.349537101732 2413.28061383226 16 19 12
-842.508755030063 -180.210777734388 2428.4114243384 17 20 13
-824.188341962719 -178.345283274697 2398.94321782947 18 21 14
-834.166410719856 -180.665416634379 2455.94078168522 20 23 16
-830.673474948602 -181.004012378473 2472.11740768697 24 27 20
-821.942483531188 -180.562661820822 2472.1230823433 22 24 19
-1158.9042839709 -201.528490117462 2332.11068551535 31 34 25
-1146.58501412464 -200.642200649288 2324.92072932204 29 32 25
-1122.38469036124 -198.230709943757 2291.23026543933 23 25 20
-1103.29722681739 -196.458178947566 2268.43333466277 20 22 17
-1096.96686298504 -198.397683359425 2334.585006612 8 11 4
-1098.3597495697 -199.291641938429 2358.54404160214 9 12 5
-1104.35767907427 -200.804601102022 2393.58287904727 11 14 7
-1090.23021728913 -199.665501317542 2381.73569203541 14 17 10
-1075.01874467404 -198.374393135485 2367.09391312628 17 20 13
-1059.90431686163 -197.087195518162 2352.41683344278 15 18 11
-1052.17102798263 -196.783537644818 2355.24953918339 14 17 10
-1054.71908627348 -197.869377377207 2383.04085842638 12 15 8
-1039.7288389006 -196.587294655416 2368.31801909338 11 14 7
-1033.4762554156 -196.48806162887 2374.86378403113 13 16 9
-1026.45651815897 -196.285787751528 2379.56294686602 11 14 7
-1019.05553633743 -196.032104406067 2383.33769855255 10 13 6
-1009.44129366875 -195.472575501018 2381.54009582865 8 11 4
-969.970222049869 -191.514418776183 2325.78226993206 25 28 21
-965.979908091059 -191.723578184387 2337.8826447261 11 14 7
-988.765144616525 -195.722362291366 2419.96609008142 10 13 6
-970.273871496354 -193.901941634426 2394.82278750558 14 17 10
-950.878953025906 -191.936593836948 2366.81907949329 12 15 8
-942.503141660064 -191.535800605568 2367.75945432595 15 18 11
-937.611611120802 -191.636989907569 2378.06205468517 20 21 13
-934.403196979526 -191.986931388595 2393.06763669703 19 20 12
-924.966915121336 -191.435213519265 2391.20478477234 16 17 9
-915.556230533302 -190.884586554463 2389.33229578237 15 16 8
-900.439826496966 -189.489284629869 2371.46391345504 17 18 10
-894.804646793014 -189.488712709835 2379.91127505496 18 19 11
-887.146672780601 -189.189710371452 2382.71626480858 19 20 12
-889.042500619576 -190.324837635203 2412.87421182608 20 21 13
-876.734160857287 -189.332227426138 2402.48838337492 20 21 13
-866.119386747049 -188.588752911509 2396.80145672788 22 23 15
-856.838039552032 -188.043782413605 2394.88180212163 22 23 15
-854.284923256195 -188.529909234737 2412.83868312781 22 25 18
-849.750392073194 -188.719258831126 2425.13828715911 23 26 19
-842.338619862152 -188.46707313178 2428.91710070484 28 31 24
-827.135526002302 -186.99605090193 2408.9525624838 29 32 25
-819.46947391178 -186.697499590259 2411.76045327588 26 29 22
-827.119886384164 -188.826485326731 2462.15201649985 28 31 24
-820.844962110593 -188.765369085083 2469.76957895023 31 33 28
-1166.75187904691 -210.896094940114 2349.88520934947 27 30 23
-1144.44671770365 -208.646111140109 2320.82726563149 24 27 20
-1123.96591628216 -206.624796307407 2295.35543495209 26 29 22
-1100.37232143446 -204.167403395924 2262.51454330111 23 26 19
-1087.71576691217 -205.395741338255 2313.95249953043 9 12 5
-1091.53768865233 -206.683664902077 2343.39909557539 10 13 6
-1091.66866879354 -207.47354713874 2364.62455827531 12 15 8
-1090.523595254 -208.095671441771 2383.12639378537 12 15 8
-1046.30498281322 -203.455622216678 2320.61176482347 16 19 12
-1041.34142162073 -203.535607777374 2329.87558024279 15 18 11
-1036.72211330746 -203.668423048514 2340.07714011953 14 17 10
-1034.32966143945 -204.124200409389 2355.84482314579 13 16 9
-1026.2321993419 -203.767413248798 2357.74729914515 12 15 8
-1035.6678685876 -205.943556390621 2403.21991987726 10 13 6
-1021.53311209075 -204.721969301098 2390.31505086956 9 12 5
-1007.853099905 -203.557553622975 2378.30719873913 9 12 5
-985.123886138268 -201.056804605131 2343.02214948741 13 16 9
-974.21062436959 -200.275866422274 2337.44675561507 19 22 15
-990.351028695927 -203.500553424811 2401.73683057125 17 20 13
-994.353471142944 -204.953701263998 2435.37184948363 9 12 5
-963.399507547117 -201.188401614856 2377.57144325005 14 17 10
-951.103985815726 -200.196495378337 2368.24746064848 14 17 10
-949.020145426033 -200.743734140107 2386.0294794063 17 20 13
-939.214267450486 -200.124450794066 2383.23920301145 19 20 12
-929.439145631614 -199.506436441003 2380.4376560023 18 19 11
-922.089645802857 -199.25846847113 2384.19327111326 16 17 9
-912.018618249216 -198.589728565976 2380.4365088566 16 17 9
-904.005491387562 -198.237365117379 2382.30800892147 19 20 12
-892.653417264796 -197.361477542722 2374.76584935984 20 21 13
-889.322205965402 -197.742570639808 2389.81369775165 21 22 14
-885.265736087157 -198.016764029031 2402.99975879538 21 22 14
-878.539273741945 -197.872214446783 2408.65456468837 21 22 14
