ply
format ascii 1.0
comment KinectMotionCapture
element vertex 777
property float x
property float y
property float z
property uchar red
property uchar green
property uchar blue
end_header
-1003.6652993849 -7.82196502479168 2293.1303778266 72 75 68
-1002.64349833338 -7.78486823550659 2301.83726028512 82 85 78
-998.779954032064 -7.76266242600118 2311.65757898394 105 108 101
-993.006854230083 -7.75060455086882 2322.19292832465 132 135 128
-979.643924627592 -7.77918070125414 2335.67688534911 137 139 134
-974.754426548845 -7.76242277258857 2345.72344912054 127 129 124
-966.048903977718 -7.76616031311903 2357.20569080398 104 106 101
-958.258382788373 -7.76503258932168 2368.25745053782 151 153 148
-948.535228617172 -7.77450298631208 2379.98115759616 179 181 176
-943.534542383195 -7.75836191298859 2389.82354483342 176 177 172
-944.22911210612 -7.71111318135811 2397.46009594432 178 179 173
-943.006545229367 -7.67418940604583 2405.79717719645 141 142 136
-945.59323217672 -7.61623412990589 2412.68729772803 5 6 0
-945.305815736686 -7.57382107822677 2420.63114246755 7 8 2
-945.007427658584 -7.53133186682639 2428.5548312684 4 5 0
-940.859440130062 -7.51006292410325 2437.85222955326 19 20 14
-938.612363522481 -7.47830393483076 2446.41829687544 11 12 7
-933.462266403706 -7.46258301193767 2455.98576392377 14 15 10
-942.74118081615 -7.36622915043458 2460.39054958165 15 16 11
-947.210889939603 -7.29649197335111 2466.51733122137 19 20 15
-945.886153678703 -7.25904171864941 2474.66666268367 12 15 8
-935.841127660505 -7.27086964687992 2485.79818405255 19 22 15
-929.634272590221 -7.26117023236425 2495.53506918266 23 26 19
-931.160923779162 -7.20767821552157 2502.58854366648 19 22 15
-938.509234705805 -7.1208661427207 2507.66983116738 22 25 18
-941.004624709858 -7.06148487793931 2514.39196456642 28 31 24
-940.575071161886 -7.01869818324732 2522.07500987253 21 24 17
-941.109936214959 -6.97042633087439 2529.41814267049 21 24 17
-943.58940219493 -6.91076198051241 2536.11107401763 21 24 17
-945.08807262737 -6.85677591801817 2543.11323536199 22 25 18
-950.496793039069 -6.78002627250737 2548.85433935474 24 27 20
-956.890490520351 -6.69725121497958 2554.29350407482 30 31 25
-957.401875146451 -6.64860899290418 2561.59356346734 25 26 20
-945.127591450508 -6.67489224678167 2572.85032535464 28 31 24
-968.241300978651 -6.49372333172935 2573.11611855677 28 31 24
-965.78456728429 -6.46239284262914 2581.29645943639 24 27 20
-1000.80743391818 -6.20979138630592 2578.10773945348 32 35 28
-1000.34355875322 -6.16625927837031 2585.72738096994 26 29 22
-1003.82602618483 -6.0993522605883 2592.1523934657 29 34 27
-1003.77421557596 -15.5231516882691 2284.66988202923 34 37 30
-995.236928674176 -15.4908507950931 2296.47237728457 25 28 21
-996.0840470785 -15.4356107418164 2304.39189637605 16 17 11
-994.093392933547 -15.387180212165 2313.43508905904 44 45 39
-989.253267874771 -15.3456985106687 2323.58039801782 78 81 74
-975.87772408448 -15.3258225479411 2337.05522158793 127 129 124
-973.819375447116 -15.2774890625317 2345.97388258175 147 148 143
-965.106623861838 -15.2460367466747 2357.45341112814 80 81 76
-957.309202847984 -15.2124924142733 2368.50222919015 14 16 11
-944.725676608523 -15.1915201413061 2381.31924773257 6 7 2
-945.428624185285 -15.1360469529141 2388.97368051199 9 10 4
-948.030401579824 -15.0754579120828 2395.8918429105 6 7 1
-946.809810599056 -15.0247134018219 2404.23671438388 13 14 8
-943.663196923211 -14.9790559127246 2413.26835649626 6 7 1
-944.32791595895 -14.9231201895805 2420.85211487329 18 19 13
-940.190490796278 -14.8800990143217 2430.17548063175 15 16 10
-931.232067325001 -14.8504199385942 2441.20264056583 31 32 26
-922.239436651759 -14.8210891147348 2452.16678249599 26 27 21
-909.362424649413 -14.8028139832548 2464.44321615774 8 9 3
-904.151689236936 -14.7635296973104 2473.90624433895 10 11 5
-924.011000082505 -14.65336790226 2474.51015418093 14 15 9
-929.417211439919 -14.5835596227204 2480.24405190553 19 22 15
-928.053862658218 -14.5328310500174 2488.32636097884 11 14 7
-927.645769672806 -14.4793891951791 2496.05208040269 16 19 12
-924.316050346772 -14.4344034861947 2504.74625159881 20 23 16
-930.683731457109 -14.3610674329971 2510.13472896332 20 23 16
-934.13988045505 -14.2960692102931 2516.51076304897 13 16 9
-937.595448464352 -14.230871095655 2522.88578870241 18 21 14
-942.02583466237 -14.1625475961483 2528.9398231945 20 23 16
-948.411887831246 -14.0881655263742 2534.36240468157 23 26 19
-944.046548753517 -14.0462019879057 2543.26577292503 24 27 20
-944.556606674617 -13.9894804156292 2550.56582189751 24 27 20
-948.980865298553 -13.920668541062 2556.60873352913 26 27 19
-956.353209107879 -13.8426089642747 2561.73108557481 26 29 22
-959.802233314543 -13.7764547216299 2568.09436351087 30 33 26
-953.405465147145 -13.741217463714 2577.49014786785 40 43 36
-948.954309564317 -13.7001281094661 2586.23542103636 41 44 37
-957.314013168682 -13.6184983585471 2591.05998197745 17 20 13
-965.685809405372 -13.5364605961592 2595.90741041445 19 22 15
-991.88389195604 -13.396627791158 2595.48859481304 10 15 9
-973.628695385042 -23.0992828542725 2305.20159486987 22 21 16
-973.501129775616 -23.0359416266697 2313.44623220366 20 19 14
-974.306361277184 -22.9727211390341 2321.291113535 17 16 11
-969.434664078399 -22.9073280666641 2331.38504198869 20 19 14
-964.538920169399 -22.8420164200429 2341.43522391836 14 13 9
-964.356361554036 -22.7781463904731 2349.57837387215 7 6 2
-959.419392176375 -22.7128529487487 2359.55272917882 9 8 4
-959.208571529126 -22.6488467550221 2367.6439410539 20 21 16
-947.571499847364 -22.5820998402933 2380.10062808678 9 10 5
-948.275851661153 -22.5183079711811 2387.76014511791 10 11 5
-948.018075177472 -22.4541518650636 2395.76504173597 17 18 12
-931.511606698129 -22.3874098845424 2409.84102431756 20 21 15
-904.429707000385 -22.3201153649018 2427.73082890474 21 22 16
-930.897566268068 -22.2594136786143 2425.66958613494 16 17 11
-927.697017066408 -22.1950450270845 2434.60715358787 7 8 2
-913.914150675832 -22.1302391532659 2447.3468523017 15 16 10
-907.777205582186 -22.06620245196 2457.22865499299 13 14 8
-902.57694671439 -22.0024174449357 2466.71781509192 12 13 7
-912.779854139611 -21.9384648341978 2470.69744921541 16 17 11
-916.241888274681 -21.8742828612215 2477.08406167693 14 15 9
-922.60370106551 -21.8096436349123 2482.45913081208 9 12 3
-926.068435707014 -21.7449863391398 2488.85085293664 18 21 12
-931.471209582254 -21.6798593414033 2494.57752498832 18 21 12
-924.260247659038 -21.6162885218547 2504.59867423486 15 18 9
-926.739822037693 -21.5513935328268 2511.29337791106 19 22 13
-931.162524367589 -21.4859682452108 2517.33240881577 21 24 15
-938.510863956263 -21.4196891461082 2522.40757433011 21 24 15
-935.13506688042 -21.3557528693907 2531.02269898684 22 25 16
-935.648996723934 -21.2908604971398 2538.3323262632 24 27 18
-937.132946389869 -21.2257065912555 2545.31127608741 24 27 18
-935.672343093681 -21.1614525926203 2553.218783771 23 26 17
-945.969873611844 -21.0932710513138 2557.37371873258 27 28 22
-963.160677651373 -21.0220268681135 2559.40295712519 28 29 23
-971.535263303716 -20.9535739420912 2564.25092631304 26 29 22
-974.013033635707 -20.8871641301302 2570.94276755814 36 39 32
-959.723311917459 -20.828157552382 2582.7485230006 39 41 36
-952.298744972722 -20.7667462724231 2592.37616427294 16 18 13
-953.743517825878 -20.7013793656034 2599.2831248541 14 16 11
-950.232806064013 -20.6386655812383 2607.6497491915 25 30 24
-911.017297039593 -20.5955814464201 2626.48116408396 0 2 0
-1035.83223370882 -31.0026253431585 2262.83709067044 34 35 29
-928.653759631042 -30.5737318279861 2315.40979558701 41 40 35
-953.886100295477 -30.5837552462794 2313.16973974362 28 27 22
-956.556344473693 -30.51901239041 2320.2150741728 25 24 19
-958.279502700805 -30.4509804363663 2327.63483761655 23 22 17
-948.655399161373 -30.34650059633 2339.57498409061 23 22 17
-939.940886133031 -30.2453150734515 2351.07224327853 19 18 13
-938.773910802715 -30.168082697357 2359.52419340997 11 10 6
-942.338738372577 -30.1055129130647 2366.09937690832 28 27 23
-944.952714928703 -30.0397265223735 2373.04153874124 29 28 24
-942.805410728814 -29.9590967651208 2381.80630642212 23 22 18
-940.642017744762 -29.8784517832996 2390.5414884758 15 16 10
-929.874928150918 -29.7721569574313 2402.49482043931 18 19 11
-911.424375442197 -29.6435590207415 2417.24347789437 13 14 6
-894.827237588764 -29.5214079597413 2431.16936566369 13 14 6
-912.666350221232 -29.500115915177 2432.26063647366 13 14 6
-938.218578647199 -29.4998894332259 2430.611994872 20 21 13
-928.285137980157 -29.397172808427 2441.98268376891 15 16 8
-902.923594903529 -29.2514924374746 2458.83051133624 10 11 3
-928.535941840066 -29.2493701757529 2457.29351297473 10 11 3
-926.235866088836 -29.1687259913953 2465.77680603128 15 16 8
-926.816987354912 -29.095972404545 2473.21237461062 25 26 18
-925.45547752476 -29.0179839408377 2481.30676772303 22 25 16
-934.733204932066 -28.9685015345215 2485.6952750202 12 15 6
-934.328780891974 -28.8928558490925 2493.4339152224 22 25 16
-928.087452631874 -28.8019654805734 2503.13181371932 65 68 59
-926.681049041524 -28.7239207265528 2511.14365595449 39 42 33
-930.129194178481 -28.6584564716777 2517.50510962722 27 30 21
-934.551813995877 -28.5952756492633 2523.54280957405 25 28 19
-930.190692320022 -28.5098335998214 2532.4675135436 25 28 19
-930.695742860096 -28.4368040922823 2539.76325717245 24 27 18
-943.91612700862 -28.3948645007681 2542.94105887297 24 27 18
-948.341654735417 -28.3309399867527 2548.98433063889 23 26 17
-946.881046018333 -28.2528316451409 2556.89649889161 30 31 25
-961.12871842345 -28.2119280361534 2559.84856003444 28 31 24
-964.581419114931 -28.1451391270374 2566.21879055365 25 28 21
-966.063368958824 -28.0736551153447 2573.195461694 27 30 23
-964.579979325717 -27.9955226062877 2581.06573895899 20 22 17
-943.328146362139 -27.8730945030919 2594.89007481043 24 26 21
-933.879845743323 -27.778194768159 2605.03587464874 27 29 24
-963.020716969372 -27.7685103176848 2603.64534310379 17 22 18
-963.579867391565 -38.2970017724121 2292.72469737535 31 32 26
-961.573582314983 -38.2007773712973 2301.75351455918 28 27 22
-950.135265921481 -38.0467532439087 2314.601994893 22 23 17
-956.570030720198 -38.0022513269828 2320.10518034639 22 23 17
-957.346871322443 -37.9228831784767 2327.90270158542 22 21 16
-944.878688988454 -37.763510746004 2340.97347845356 29 30 24
-939.940126590882 -37.6499903698344 2350.95940676973 28 29 23
-936.873932741078 -37.5478299959066 2360.15544296864 25 24 20
-935.687931906527 -37.4568773615145 2368.57602346028 30 29 25
-934.488200135268 -37.3658537679452 2376.97187584038 29 30 25
-929.467466206338 -37.252453220349 2386.80613545921 16 17 11
-921.562902781391 -37.122422528583 2397.68691460253 24 25 19
-920.308518634867 -37.0313997619498 2405.98225105782 15 16 8
-920.952404282016 -36.9513399316117 2413.5354519126 17 18 10
-918.716806852862 -36.8547126030226 2422.14213882272 17 18 10
-942.342278941443 -36.9056691589115 2421.16455226304 17 18 10
-945.867537465428 -36.8410592954444 2427.66757457142 7 8 0
-930.172101763183 -36.6677852955392 2441.151927104 12 13 5
-919.235786791498 -36.5221749693263 2452.8063500136 12 13 5
-924.641426711457 -36.4683569814168 2458.53438814032 17 18 10
-929.086618989428 -36.4088681937304 2464.61299692574 24 25 17
-924.838406543344 -36.3011623388134 2473.75155249675 45 46 38
-926.373535267183 -36.2254130046462 2480.8278162039 10 13 4
-906.590436726158 -36.0334711404745 2495.2595272373 11 14 5
-922.636618276862 -36.0368035722494 2497.27596884162 22 25 16
-926.088342615138 -35.9713853291355 2503.64399148101 67 70 61
-924.676225990838 -35.8797295775624 2511.64941952182 36 39 30
-926.172672319727 -35.803641290504 2518.65413694282 25 28 19
-919.861583529751 -35.6863417530236 2528.23167491244 25 28 19
-932.077464910997 -35.6667026618195 2531.67061030517 25 28 19
-937.471764580427 -35.6108334329835 2537.3784084966 24 27 18
-948.745152417826 -35.5851287038344 2541.2000456541 23 26 17
-945.332741184779 -35.4831044998928 2549.75978829698 23 26 17
-936.993782985849 -35.3561175167176 2559.84021674963 24 25 19
-937.469737481398 -35.2747189061321 2567.08496421814 33 36 29
-951.716673160837 -35.2629843318428 2570.02689864001 21 24 17
-950.223187611079 -35.1713797627078 2577.88215476532 31 34 27
-951.676553870018 -35.0947132211601 2584.80831822561 23 25 20
-957.076806902803 -35.0376504146179 2590.52742467117 14 16 11
-939.725464191062 -34.8682280313438 2603.0804077756 19 21 16
-940.15182961077 -34.7871244858076 2610.23386316586 20 25 21
-937.301907844795 -45.5873798290855 2303.53608809046 24 27 20
-946.543608039495 -45.5771181520399 2307.84654027303 17 20 13
-951.690043788397 -45.3407664349632 2330.07265358631 14 17 10
-949.610790361668 -45.2279206953078 2338.9722670684 17 20 13
-937.097228418974 -45.0229994772882 2351.97328005481 17 20 13
-938.765479498359 -44.9436244711159 2359.29496610213 26 29 22
-929.981024238016 -44.772454044236 2370.68463472838 34 37 30
-927.81941556958 -44.6596140304892 2379.43278019341 43 46 39
-924.689491613385 -44.538506483334 2388.517302932 61 64 57
-920.587213784269 -44.4091518371027 2397.93127334913 73 76 69
-921.238205607629 -44.3209417818605 2405.49999470247 61 64 57
-924.749451053598 -44.2571783063883 2411.97698988026 57 60 53
-939.749895861185 -44.291277338323 2414.17567820212 49 52 45
-952.863166504471 -44.3081656288295 2417.13878785629 44 47 40
-950.640808906663 -44.1943058994849 2425.7755116215 18 21 14
-937.827605992354 -43.9912687892468 2438.22486367337 12 13 7
-925.932486845752 -43.7968905607286 2450.24533584707 13 14 8
-938.093898130981 -43.8043994855643 2453.57542257946 23 24 18
-923.251542281001 -43.5863445757675 2466.52741166946 22 23 17
-920.924317009177 -43.4731131832118 2474.97107572038 30 31 25
-901.160558151552 -43.2162093765584 2489.45789139107 13 16 9
-890.055994921492 -43.0319200028087 2500.81450670863 20 23 16
-902.201686575098 -43.0385229770505 2504.11595461283 21 24 17
-922.143455553131 -43.1078656293981 2504.81753918535 35 38 31
-925.588026087161 -43.0420598646224 2511.17252121125 35 38 31
-918.315235094573 -42.8896173301948 2521.1066811456 25 28 21
-921.744505236043 -42.8237278639798 2527.43354813256 24 27 20
-932.011112246921 -42.8123737910517 2531.51451990319 22 25 18
-942.295217848526 -42.8004863565803 2535.62783516367 23 26 19
-957.494034838319 -42.8269051848419 2538.19367567364 23 26 19
-947.224705362912 -42.651432145107 2548.96848324997 22 25 18
-937.900708458168 -42.4842935074037 2559.36462403959 22 25 18
-919.69295740129 -42.2485163254121 2572.4772697495 25 28 21
-948.687842385968 -42.3813785997212 2570.77537607964 24 27 20
-944.22982846971 -42.2533332945872 2579.53418502445 27 30 23
-949.621926087542 -42.2015692935795 2585.23720295657 26 29 22
-960.949625765395 -42.1951897897377 2589.15291797897 16 19 12
-953.492266032463 -42.0447401829465 2598.74752729855 23 25 20
-952.943329369172 -41.9474457873656 2606.22689268246 19 21 16
-948.414450588404 -41.8203034321658 2614.85509669318 13 15 10
-968.439273835462 -53.509148097053 2282.28281220609 31 34 27
-932.442659839791 -52.8721136365 2313.55787717476 11 14 7
-961.312729106337 -53.0044444163678 2317.97148662706 5 8 1
-943.193505492258 -52.6866284568869 2333.38642053532 8 11 4
-940.152947830809 -52.5465824082284 2342.64099938265 13 16 9
-938.988755162447 -52.4285733667467 2351.10982550171 15 18 11
-934.015896038169 -52.266358707198 2361.04731929352 27 30 23
-930.919427534622 -52.1262693826659 2370.1990809289 28 31 24
-929.706819837404 -52.0080410589515 2378.57943317518 23 26 19
-924.670257636583 -51.8459645467411 2388.39972385828 19 22 15
-921.517835648053 -51.7058324541284 2397.44858970096 5 8 1
-919.301901388289 -51.5766513569724 2406.10173461588 20 23 16
-925.678692950093 -51.5453665867281 2411.4943220468 12 15 8
-945.472249839759 -51.6657226783704 2411.90747251505 4 7 0
-968.18630337357 -51.8174323000968 2411.33812187839 29 32 25
-935.248254660234 -51.3408254153117 2431.27079883946 16 17 11
-942.602553979201 -51.3188804877576 2436.34359315681 14 15 9
-939.373883878177 -51.1780905103848 2445.25242266764 17 18 12
-929.37665525756 -50.962151418203 2456.53984229579 27 28 22
-918.376961032078 -50.7359602514397 2468.1019315796 26 27 21
-909.271812886117 -50.5317077681998 2478.9117360338 32 33 27
-894.323785411477 -50.2637976077256 2491.68386404067 16 19 12
-896.775752469782 -50.1881541278799 2498.33152936796 21 24 17
-903.107693873475 -50.1548330774518 2503.64224153882 22 25 18
-929.859460912506 -50.3435891663379 2502.02763539563 30 33 26
-939.152648332763 -50.3407818689999 2506.43104452101 28 31 24
-944.562638004103 -50.2953026761321 2512.16457498031 23 26 19
-927.531632150408 -50.0076386017996 2525.34176947772 20 23 16
-928.035120593466 -49.9096922743763 2532.64213314244 19 22 15
-936.357993648882 -49.8954800045282 2537.37918636895 21 24 17
-934.895823621467 -49.7764694596727 2545.30027900465 22 25 18
-942.24952727408 -49.7513408368151 2550.37293518783 22 25 18
-922.107575331896 -49.4348588970717 2564.18210127669 22 25 18
-930.428351067531 -49.4201693484317 2568.91544067784 24 27 20
-973.233704802561 -49.7670517852874 2562.93994783811 23 26 19
-991.486575119468 -49.8539284263002 2564.75966579813 25 28 21
-981.140123685471 -49.6414388273455 2575.40376370597 22 25 18
-972.734489736695 -49.450131987106 2585.38140989687 14 17 10
-972.218140208652 -49.3412522386366 2592.92419292174 15 17 12
-955.829224643269 -49.0691084508388 2605.16284187444 24 26 21
-933.432309803213 -48.7367523438011 2619.05959686489 28 30 25
-919.467028343083 -60.2100934277782 2310.75094526068 28 31 24
-967.279783972102 -60.7997549879866 2299.10736447159 8 11 4
-972.652641594728 -60.6468392381576 2313.2646122184 11 14 7
-924.292531515351 -59.8259885841365 2340.89093902904 11 14 7
-915.543060770768 -59.5848837327914 2352.36598132081 7 10 3
-924.767827971844 -59.6049293749835 2356.63617658828 18 21 14
-925.465615534664 -59.5009467403152 2364.29570698256 18 21 14
-925.204781241435 -59.3830563512865 2372.31113877174 12 15 8
-925.884732455783 -59.2787543143864 2379.93796092232 23 26 19
-923.697389812791 -59.1332788046736 2388.64859110597 28 31 24
-931.990953975605 -59.1375262254118 2393.32618871772 30 33 26
-945.074890267367 -59.2092140455814 2396.21886777218 13 16 9
-951.486134236673 -59.1851119097785 2401.67265948723 12 15 8
-989.523748826919 -59.607576144559 2395.36539803231 16 19 12
-939.384563831286 -58.7842126581979 2421.83523687328 29 32 25
-924.647384192092 -58.4625046304544 2435.01183487254 13 14 8
-949.304124847992 -58.6938411053143 2433.76139149743 16 17 11
-946.080618735636 -58.5338153595335 2442.6855031284 21 22 16
-934.156896395211 -58.2530946507366 2454.67933383444 28 29 23
-922.191259904143 -57.9729026014336 2466.59591780129 29 30 24
-919.85575401422 -57.8270346881066 2475.03416678163 34 35 29
-916.535762063333 -57.6678329113091 2483.78057559024 17 20 13
-915.13679512978 -57.535424765102 2491.82193917482 18 21 14
-913.724155120201 -57.4030631480631 2499.83864573294 17 20 13
-930.773275194687 -57.5229720958474 2501.54931344812 21 24 17
-955.646885544878 -57.7479758350005 2500.70014158797 20 23 16
-944.50404702138 -57.4823911740796 2512.01030464222 15 18 11
-925.511880391388 -57.111715822274 2525.83563323025 16 19 12
-926.987810402641 -57.0187084708356 2532.80820957087 16 19 12
-923.56406129017 -56.8599149964396 2541.36366726889 20 23 16
-928.942773205919 -56.8195058099315 2547.03814757807 22 25 18
-918.623492382143 -56.5692027843705 2557.74409273318 22 25 18
-929.886914736571 -56.6070779628603 2561.52828172325 24 27 20
-923.458871009042 -56.4095992112199 2570.91482984524 25 28 21
-923.901281244486 -56.3036646254548 2578.10526179623 24 27 20
-937.160595168889 -56.3667642883176 2581.32307491334 24 27 20
-1018.60599521298 -57.3244704013482 2563.74675649394 19 22 15
-1033.98280077851 -57.4105488336003 2566.62251375943 12 15 8
-1003.831196241 -56.9014508560325 2583.22953434898 34 36 31
-1021.19307622625 -57.0131170513035 2585.51840754164 22 24 19
-944.256746486551 -55.9011998171599 2615.66370098768 26 28 23
-961.098222787762 -68.5763842305413 2276.9400481317 9 11 6
-958.161618902736 -68.3988198494822 2286.39709947426 24 27 20
-968.37167701112 -68.452900352042 2290.35438994315 26 29 22
-954.115997486228 -68.0765017489259 2304.43249675851 8 11 4
-971.871329877195 -68.2617196655299 2305.30808275209 11 14 7
-877.955585050749 -66.374028413245 2359.44724552083 13 16 9
-892.807971949043 -66.5098704512066 2361.34353633176 11 14 7
-916.224580353049 -66.7926058843157 2359.9116063252 26 29 22
-921.655294473332 -66.7625402902653 2365.67912186972 25 28 21
-932.79539280446 -66.8302465801043 2369.22752466181 11 14 7
-932.53094671779 -66.7011151503263 2377.24019836843 15 18 11
-937.022623528163 -66.6534795581797 2383.4002319271 15 18 11
-932.92446726515 -66.4587237562331 2392.84145017171 8 11 4
-936.452534617593 -66.3942577111683 2399.34959517817 14 17 10
-943.80908539322 -66.3945309727506 2404.41934460923 4 7 0
-940.314991801057 -66.0856817668987 2421.35075661755 31 34 27
-939.026504705564 -65.9393130462344 2429.59951099567 16 17 11
-936.76203151546 -65.77673396348 2438.17342745714 20 21 15
-943.154596236977 -65.7593540151966 2443.59084312748 24 25 19
-932.184947714916 -65.4516467662894 2455.23270555145 27 28 22
-928.9061199628 -65.2730759727182 2464.06064749666 28 29 23
-925.608702714154 -65.0946379105003 2472.85436005548 32 33 27
-918.417339331765 -64.8522086424604 2482.96534112346 22 25 18
-917.987645000307 -64.7221201050221 2490.67438102123 13 16 9
-920.461592755243 -64.6399791358746 2497.36392254368 12 15 8
-936.550219106749 -64.781014547308 2499.41701766001 17 20 13
-936.113972497834 -64.6504703494711 2507.11363950843 19 22 15
-931.765513664514 -64.4562429791248 2516.09434680891 20 23 16
-926.419582180924 -64.2463527786004 2525.35952535943 21 24 17
-923.005515405393 -64.068476541516 2533.93852923128 22 25 18
-921.531006072307 -63.9224340295098 2541.84556096615 27 30 23
-913.1799784756 -63.6658634674306 2551.94326437529 28 31 24
-914.615047996144 -63.5675501067951 2558.84178221411 28 31 24
-913.09511257812 -63.4219598971654 2566.66513108493 24 27 20
-906.640348411148 -63.1978844413976 2576.0105336439 24 27 20
-904.101632393124 -63.0369756574654 2584.0795652817 25 28 21
-941.022760476347 -63.5035131349378 2579.93522654556 21 24 17
-986.924441045456 -64.1091538414996 2573.23172667899 17 20 13
-1005.23113884736 -64.2748361152738 2575.12724890826 13 16 9
-1063.20642544243 -65.0638835171805 2565.19454757013 18 20 15
-997.317551206978 -63.902727268055 2592.40862681186 30 32 27
-939.593653993663 -62.7555925301278 2624.06086920767 13 15 10
-959.246820438575 -76.0532857583908 2277.63142093636 25 28 21
-962.879688870992 -75.9916488571036 2284.3314634407 26 29 22
-976.860164041 -76.141177170102 2286.73432901598 29 32 25
-961.665942739464 -75.6941743552199 2301.22282222378 16 19 12
-953.022593244196 -75.3820220816824 2312.91440629769 13 16 9
-893.336063309088 -74.0350457369198 2345.2472089693 18 21 14
-892.121838282601 -73.8776885373254 2353.63584929233 21 24 17
-895.630036102349 -73.8157931020563 2360.10667757085 30 33 26
-915.262074193397 -74.0782327923305 2360.18054222714 30 33 26
-900.745260233528 -73.6527999173425 2373.79362512709 36 39 32
-918.515669908651 -73.8756827032228 2374.68511012334 18 21 14
-936.324142526473 -74.0975232345606 2375.64741747859 10 13 6
-949.402684933887 -74.2233118797481 2378.51390692991 44 47 40
-934.812878072592 -73.7978599895525 2391.99224405865 46 49 42
-938.342030309825 -73.7330855822609 2398.50247709697 34 37 30
-938.997996427529 -73.6112539248233 2406.09045781376 27 30 23
-958.822480972074 -73.8675316477758 2406.52011959745 30 33 26
-956.607286799435 -73.6882345401527 2415.18969661611 32 35 28
-931.301899350627 -73.056265180049 2432.28704204126 20 21 15
-942.501547225297 -73.1412862851869 2435.94026460555 23 24 18
-921.909291000398 -72.6048283586337 2451.10218981916 25 26 20
-923.45357875602 -72.5015232682679 2458.20358525568 23 24 18
-927.89195203322 -72.4542879487918 2464.2659677781 23 24 18
-913.942772524287 -72.0507848871991 2476.80113555723 26 27 21
-918.360678011051 -72.00346831116 2482.82589851925 27 30 23
-911.135181472859 -71.7316057203997 2492.88295371964 17 20 13
-923.315862729822 -71.8333384267762 2496.22014634903 16 19 12
-916.058107423522 -71.5616845955722 2506.21831326268 20 23 16
-914.617687016691 -71.4020279452462 2514.19163056068 22 25 18
-914.139408307265 -71.2610528620047 2521.8140845065 25 28 21
-921.465476650141 -71.2685748272957 2526.82609559448 25 28 21
-917.062801837242 -71.0533370628537 2535.71340810172 25 28 21
-915.57769908719 -70.8938284150207 2543.60450192163 28 31 24
-920.944389807546 -70.8638456940542 2549.25424184652 29 32 25
-928.280237094081 -70.8705993488481 2554.28396499697 27 30 23
-913.991502990274 -70.4713188682048 2566.19386443132 24 27 20
-886.855558368185 -69.8334907869479 2582.04104281556 26 29 22
-903.02063889265 -70.0061440957361 2584.2252429132 28 31 24
-929.090988406449 -70.361665952152 2583.42253931669 26 29 22
-961.151258634459 -70.8259794894646 2580.91387106999 23 26 19
-989.326367013335 -71.2154745097046 2579.74238747881 21 24 17
-1010.62788660006 -71.4755554208325 2580.77213858876 20 22 17
-1014.11235799336 -71.4060837267253 2587.20160798785 30 32 27
-1004.67851845385 -71.0994447833456 2597.43767886258 17 19 14
-948.947001682039 -83.3151704460019 2281.88347891353 19 22 15
-961.9617632066 -83.4729469615619 2284.62304426806 22 25 16
-952.416460351768 -83.1039046310321 2296.78767911849 23 26 19
-952.257769806901 -82.953985053094 2305.00110797345 23 26 19
-915.285847168669 -81.9507899391478 2328.24761278721 13 16 9
-912.220323012516 -81.7358213074696 2337.47880451358 16 19 12
-937.523539839564 -82.1756390026825 2335.23985458072 16 19 12
-922.141578786182 -81.6763624953932 2349.39877998692 34 37 30
-918.093468089844 -81.4390559018912 2358.94433282995 38 41 34
-894.710538564015 -80.6167017628879 2383.86478424608 25 28 21
-922.970326081573 -81.1180199201084 2380.70010988583 21 24 17
-944.618852255289 -81.4659437482201 2380.2268538073 1 4 0
-931.924818234567 -81.0327276475223 2392.96510312255 2 5 0
-934.492108792418 -80.9462548161916 2399.82762175017 5 8 1
-933.224763798267 -80.7730739746661 2408.12332327904 6 9 2
-938.658015639546 -80.7509846769821 2413.89310751315 11 14 7
-962.345155979795 -81.1382763519674 2412.9272927476 16 19 12
-913.953227141268 -79.9084122620358 2438.50329879084 24 25 19
-909.722189631537 -79.67083178729 2447.71249825551 22 23 17
-928.614256039295 -79.9492588013357 2448.53541172899 19 20 14
-919.543463676476 -79.6039661586995 2459.45081649944 19 20 14
-905.603796388225 -79.1518989977642 2472.01858748561 18 19 13
-910.981784942409 -79.1288409515583 2477.68651954469 15 16 10
-897.943536066456 -78.6989537334137 2489.79018971334 16 19 12
-915.92655115092 -78.9536372147012 2491.06363589497 16 19 12
-918.394372621497 -78.8657194186083 2497.74364727877 18 21 14
-905.284816230893 -78.4365040667861 2509.71596789082 26 29 22
-907.725520703597 -78.3487042575334 2516.3465749375 28 31 24
-914.067184930251 -78.3458458173672 2521.6660083975 30 33 26
-924.325059123609 -78.4277194889466 2525.70288336289 28 31 24
-924.815193961262 -78.2967815422678 2532.98810435071 27 30 23
-920.397511795479 -78.0598892200183 2541.85432758697 27 30 23
-924.78892225603 -78.0137744778121 2547.82999995126 27 30 23
-925.25274270171 -77.8828858718385 2555.06731338379 27 30 23
-920.789916657899 -77.6464406043773 2563.84987011999 29 32 25
-912.36579218261 -77.3258906602415 2573.83237500961 27 30 23
-909.828189116304 -77.132231609525 2581.91279802515 27 30 23
-936.901533164679 -77.5700893141271 2580.81522469352 29 32 25
-956.12548720921 -77.8384780650566 2582.25155872199 28 31 24
-962.518146679079 -77.8330919897909 2587.66554183947 26 29 22
-982.798119269453 -78.1209648010253 2588.92342781826 35 37 32
-1005.10695385143 -78.4498578939529 2589.67032216117 20 22 17
-956.889330761201 -77.2927887485239 2611.31491440916 23 25 20
-960.903160035442 -90.7815095695248 2293.16804444079 22 25 18
-929.644250928594 -89.8093929816101 2314.22267183695 21 24 17
-934.160881728557 -89.7717730975615 2320.42609263711 12 15 8
-938.679590406933 -89.7335966719784 2326.63350239815 15 18 11
-933.734762240937 -89.4499736340561 2336.65855606339 15 18 11
-872.840849065945 -87.7216248825089 2369.00024704392 28 31 24
-868.721180156542 -87.463839394547 2378.42034973324 35 38 31
-890.242742838032 -87.8660136389532 2377.69777465064 32 35 28
-892.777951104048 -87.7785933494471 2384.50157301877 26 29 22
-888.638637620239 -87.5201554596126 2393.88574194748 16 19 12
-902.610654920795 -87.7247388452103 2396.25699997422 9 12 5
-933.812343443567 -88.3667632560806 2392.11580209877 8 11 4
-939.251027869711 -88.3503704129251 2397.89386480145 11 14 7
-937.028578724757 -88.1391040908824 2406.55971242582 11 14 7
-891.611670205905 -86.8355307961198 2431.28408244563 15 18 11
-929.65332980708 -87.6439140962197 2424.86820644415 18 21 14
-922.568436027276 -87.31161351439 2435.20203072337 24 25 19
-927.015243906472 -87.2699502683042 2441.2782503749 22 23 17
-908.311567965822 -86.6477852963742 2455.70979417513 20 21 15
-906.935556457517 -86.4612168104619 2463.81016837771 20 21 15
-907.480730780799 -86.3228892296471 2471.19934347206 20 21 15
-849.903648095602 -84.738232462227 2499.0230738613 17 18 12
-899.817650963405 -85.8292063533161 2488.97801079868 17 20 13
-904.210900758467 -85.7870877382379 2494.95586431398 17 20 13
-912.496147120474 -85.8407713652694 2499.6027932134 18 21 14
-900.34531994528 -85.3899797392636 2511.23008068493 24 27 20
-897.902810856823 -85.179502149676 2519.49096078827 25 28 21
-908.136368595088 -85.2805737588529 2523.47734013459 29 32 25
-918.387499800003 -85.3811406591997 2527.49619206475 27 30 23
-915.930542173168 -85.1704510469112 2535.73056243312 25 28 21
-919.338728876399 -85.1031286157341 2542.01908405861 25 28 21
-916.857742204572 -84.8925755333952 2550.20871533356 25 28 21
-919.274225640056 -84.8013120181481 2556.7958170895 24 27 20
-923.656030010653 -84.7575551482333 2562.75260879782 27 30 23
-930.010472227208 -84.7611624790644 2568.09359891482 23 26 19
-939.331753540864 -84.8357813366542 2572.52539413997 23 26 19
-942.740751043273 -84.7676810976608 2578.81564087621 26 29 22
-959.008847408716 -85.007473288705 2581.16911578784 26 29 22
-954.509758833482 -84.7494788491468 2589.89145941518 25 28 21
-949.989380327263 -84.4918579952344 2598.57503887913 30 32 27
-926.579873950427 -83.7857367926879 2612.83665193274 25 27 22
-929.947833780516 -83.7180070543636 2619.05131149484 25 27 22
-1000.63698476881 -99.7460881718274 2259.91721944889 20 23 16
-966.704035802962 -98.5907225720665 2282.45380932502 23 26 17
-930.783407615053 -97.3821762712031 2305.58079035034 25 28 21
-951.336260143461 -97.8107727372462 2305.18343436597 17 20 13
-929.440041649007 -97.0123863285035 2322.25600567298 12 15 8
-957.592120852078 -97.6573317012132 2318.85004434333 13 16 9
-941.30536051846 -97.0225815424654 2333.50041811512 14 17 10
-921.170664280361 -96.2797753634736 2349.56643706053 12 15 8
-928.506847393076 -96.3249936345536 2354.58571497351 21 24 17
-894.967936581774 -95.2033470131969 2375.72207350111 28 31 24
-887.986698255406 -94.8419222434387 2386.25529730771 24 27 20
-884.790038989538 -94.5890439374294 2395.25670791781 21 24 17
-896.849935998965 -94.7690006816274 2398.3482326789 21 24 17
-946.88426173407 -95.8557281494485 2394.87114866486 18 21 14
-908.243031980475 -94.6028155580601 2417.23738818185 18 21 14
-928.039121250712 -94.9960148881384 2417.57365064722 18 21 14
-884.442273973646 -93.6105935419552 2441.44045976851 19 22 15
-935.038368671698 -94.8642148931768 2430.48617701969 20 21 15
-925.044883032513 -94.4215375229013 2441.84866568815 20 21 15
-905.364358323806 -93.7106983131124 2456.62507214044 20 21 15
-897.217056283754 -93.3227111997417 2467.13698371623 21 22 16
-888.070667619708 -92.9082986790859 2477.93413892981 21 22 16
-885.672564262197 -92.6818406156713 2486.28149493122 21 22 16
-889.079622059431 -92.6159202114385 2492.56751867362 22 25 18
-887.628813756355 -92.4161183276566 2500.53380326194 20 23 16
-897.83783923372 -92.5369222423405 2504.46912938722 20 23 16
-903.193917832226 -92.5236698089223 2510.09432053365 22 25 18
-894.899875534918 -92.1369554871424 2520.33546303989 23 26 19
-892.434076681494 -91.910476302567 2528.55832104135 28 31 24
-904.6214912089 -92.0831829621508 2531.88655400693 25 28 21
-907.039084109013 -91.989483599633 2538.47642878148 21 24 17
-908.47337277867 -91.8691099168069 2545.38014450062 21 24 17
-904.010818374259 -91.5894990236916 2554.17668589551 21 24 17
-907.392083997256 -91.5221721819497 2560.41569607561 19 22 15
-921.60122875671 -91.7460586677716 2563.21676560924 19 22 15
-946.680398180385 -92.2601876754617 2562.65870823101 18 21 14
-960.959459835435 -92.4824438913424 2565.58885793174 19 22 15
-974.277945267282 -92.6776111934448 2568.87578268863 20 23 16
-971.789033341983 -92.4500777449127 2577.05644857912 24 27 20
-963.339093330698 -92.0646899474758 2587.01097211374 24 27 20
-941.960513916262 -91.3376690484774 2600.78401204145 27 29 24
-918.530186270745 -90.5592939805252 2615.02905925997 30 32 27
-936.198021944144 -90.7125995259078 2624.21302101172 25 27 22
-1025.09948061815 -108.127840501022 2249.51412344995 22 25 18
-955.434718725134 -105.724878397498 2287.07649756407 26 29 20
-961.876967770088 -105.752316454292 2292.57181403209 30 33 26
-936.251106973709 -104.761032170089 2311.30310774931 17 20 13
-904.87660882524 -103.591281358776 2332.20457864499 13 16 9
-903.676939369769 -103.379538857511 2340.63684837442 13 16 9
-959.300419763792 -104.960165068221 2326.14070235983 16 19 12
-917.363415180929 -103.463097037944 2350.97853561657 12 15 8
-910.446298996765 -103.071543514447 2361.63925632624 17 20 13
-891.135381243308 -102.292664507897 2377.11589832583 24 27 20
-879.381372551886 -101.752798468272 2389.49979385974 24 27 20
-885.706624277186 -101.778763932397 2394.78037377914 22 25 18
-898.724364999103 -102.012404376251 2397.50260452608 19 22 15
-922.286969579997 -102.572006277546 2396.25643270744 17 20 13
-938.242532075366 -102.892867209974 2398.01072179414 17 20 13
-902.449885275744 -101.610887655021 2419.27986330844 17 20 13
-934.037496871026 -102.065859055112 2430.70930266864 19 20 14
-918.251923275475 -101.408038134366 2444.17358874113 20 21 15
-913.998511164548 -101.105462541254 2453.36168689379 22 23 17
-899.0906620047 -100.478378013729 2466.31622574624 23 24 18
-893.81298821495 -100.146809110898 2475.7435340026 23 24 18
-892.388330006303 -99.9334027657834 2483.76250877372 23 24 18
-881.245022499332 -99.4255305724551 2495.14467028836 22 25 18
-936.146836236361 -100.918489730486 2483.57771398404 21 24 17
-913.335041308255 -100.057324345327 2498.9857566211 21 24 17
-889.478925740108 -99.1679363113395 2514.5958855232 23 26 19
-888.966835310782 -98.9839041378256 2522.16910173687 24 27 20
-908.960682718708 -99.4155492881293 2522.85751597564 25 28 21
-897.692732934376 -98.9088382386906 2534.01059269495 23 26 19
-894.222329904906 -98.6368841632547 2542.5142751349 20 23 16
-891.714127658525 -98.3943355460536 2550.66397799019 19 22 15
-887.225806611661 -98.0935508621222 2559.41899299933 18 21 14
-901.401510845362 -98.3475590501081 2562.15000532148 17 20 13
-924.467727103804 -98.8633452808314 2562.1188605335 17 20 13
-944.627133678237 -99.290535335391 2563.11260374333 20 23 16
-966.804122194527 -99.7750149776076 2563.57072521268 22 25 18
-983.098176327513 -100.08383862427 2565.95118196377 23 26 19
-973.688296319817 -99.6364605864436 2576.27364201766 24 27 20
-946.403455728398 -98.667145429331 2591.94665878799 25 28 21
-940.872233607917 -98.3374159023265 2600.90759657061 28 30 25
-937.304984574597 -98.0661423630445 2609.23295691184 23 25 20
-926.754018307546 -97.5924935489193 2619.57945090001 17 19 14
-911.184823293546 -96.9748502006248 2631.31481506213 18 20 15
-992.248570376846 -114.648130332086 2263.27234141868 24 27 20
-1012.85957963672 -115.172998783531 2262.95299522947 27 30 21
-955.294519077643 -112.986848167195 2295.20982131367 42 45 38
-925.872857841241 -111.782030401661 2315.48335764766 16 19 12
-871.789125052676 -109.730638794602 2345.64275348962 9 12 5
-922.588643874597 -111.29808391856 2332.85343199852 12 15 8
-911.375828983603 -110.359757908535 2361.15711049045 19 22 15
-888.250595846255 -109.386476160714 2378.13669397566 21 24 17
-887.919318302481 -109.193170675613 2386.04524671285 23 26 19
-896.163768049574 -109.291688048751 2390.60416498844 22 25 18
-904.420916482195 -109.389668242049 2395.18609575789 21 24 17
-913.646834031403 -109.519400200425 2399.42592596448 20 23 16
-934.383634996163 -110.037007686901 2399.33961292299 16 19 12
-923.1648563939 -109.290980505026 2419.1147932853 18 21 14
-928.579140716047 -109.289618956826 2424.84295527727 18 21 14
-918.587660780096 -108.771522438694 2436.23231718285 18 19 13
-906.63102209177 -108.189337309081 2448.25576123707 20 21 15
-936.158096643837 -108.993199306587 2445.2160779851 23 24 18
-903.865974180575 -107.734870266505 2464.45650792336 24 25 19
-901.494988606737 -107.475501878617 2472.86363530347 24 25 19
-894.259875743158 -107.05532493164 2482.94810984997 25 26 20
-897.675725373859 -106.988915757554 2489.25045035952 26 29 22
-899.146825250417 -106.858029106297 2496.22503006826 23 26 19
-904.505829414187 -106.855318708201 2501.85243164837 22 25 18
-926.440476489332 -107.397102944475 2501.84710609889 23 26 19
-924.998659237889 -107.169215506722 2509.83837279193 24 27 20
-910.837869676877 -106.525468365519 2522.05710186936 22 25 18
-920.117221984636 -106.649746406766 2526.3963441978 21 24 17
-905.893717879895 -106.006862362813 2538.49896600666 18 21 14
-903.397586225826 -105.747743356576 2546.67585194845 18 21 14
-919.552810514631 -106.094766540104 2548.78948790842 18 21 14
-931.805804658125 -106.313551482698 2552.22498126274 17 20 13
-931.275798559334 -106.117767192649 2559.76878140693 18 21 14
-920.871435513924 -105.603935438371 2570.39698929521 23 26 19
-956.849819934062 -106.584778458088 2566.47941413199 25 28 21
-961.266779680418 -106.54745913025 2572.49943132024 25 28 21
-951.822727170762 -106.065596156416 2582.76941226919 24 27 20
-929.455129984873 -105.172198484534 2596.88880488088 24 27 20
-936.804245708207 -105.23061490742 2601.92739501267 24 26 21
-947.145229003596 -105.383675731011 2606.0957152713 20 22 17
-956.508465422016 -105.50467996333 2610.59022026734 19 21 16
-952.929920505634 -105.214575357788 2618.90097256696 18 20 15
-1024.24556074232 -123.414784697022 2249.69089833484 23 26 19
-995.006599725716 -122.113428601993 2270.32998903204 22 25 16
-961.905456918724 -120.671833189902 2292.36769807981 45 48 41
-901.324691018562 -118.2077354037 2325.50657931601 16 19 12
-880.272891987883 -117.228205915407 2342.07186614837 14 17 10
-970.680046393906 -120.204936644604 2321.33597689452 18 21 14
-922.078016778755 -118.203389159534 2348.87192596711 20 23 16
-884.739310958446 -116.626262724731 2371.61694725953 19 22 15
-880.603549232006 -116.281778972124 2381.03352433548 20 23 16
-894.555914867363 -116.604980533354 2383.33296836476 21 24 17
-901.855528577648 -116.681476676102 2388.27507831925 22 25 18
-902.474770544321 -116.511777338268 2395.80991145897 23 26 19
-904.999619406181 -116.412014585269 2402.59887288019 22 25 18
-902.73022100753 -116.136751070671 2411.19711334347 15 18 11
-913.878864718387 -116.351724647529 2414.71745048918 14 17 10
-915.438817550156 -116.216118321337 2421.85737052261 16 19 12
-904.484936244326 -115.625570745838 2433.61278357901 16 19 12
-907.943714467666 -115.559654884083 2439.99392924279 16 17 11
-893.071421910133 -114.829982626023 2453.04471347477 18 19 13
-908.097436564684 -115.182885567576 2455.19455829813 22 23 17
-946.370238905014 -116.371913287973 2449.08932804873 22 23 17
-903.369591335317 -114.631393174908 2472.04464350558 22 23 17
-896.132160639959 -114.181668059216 2482.13323665497 23 24 18
-894.692919786484 -113.940959130271 2490.13360175199 27 30 23
-915.608282445601 -114.50016591836 2490.36318640807 23 26 19
-925.857600413991 -114.675974295692 2494.35607675584 22 25 18
-931.248907362394 -114.677576784683 2500.04159206593 22 25 18
-909.306248605458 -113.707385278287 2514.96561741187 21 24 17
-912.715505979182 -113.639754654147 2521.25620087566 24 27 20
-914.166505706622 -113.502696234786 2528.19566872953 22 25 18
-919.532552640268 -113.504038178481 2533.83480462145 21 24 17
-919.995894862959 -113.332145838808 2541.0830649643 23 26 19
-937.158860575852 -113.747976126206 2542.9146299646 24 27 20
-944.516228911616 -113.817493467911 2547.96556411628 24 27 20
-942.029350409001 -113.541483090763 2556.16454788353 26 29 22
-939.526523467724 -113.265662628174 2564.33414245483 26 29 22
-933.055842493441 -112.852161148121 2573.70723553336 24 27 20
-938.430286573651 -112.85239670375 2579.36164377822 19 22 15
-915.083079306801 -111.854433277562 2593.82559940089 19 22 15
-932.331591618454 -112.267738111857 2595.81525964083 20 23 16
-932.732377596061 -112.096031238748 2602.94891612107 19 21 16
-964.946707961176 -113.023272205886 2600.58438042793 27 29 24
-997.235255547787 -113.948890783328 2598.35683161501 21 23 18
-1013.9409225378 -130.64458442195 2253.94424534269 22 25 18
-963.954180493742 -128.412766597708 2283.23280597652 22 25 18
-914.762415047706 -126.221120211508 2311.85659372128 29 32 25
-897.53524219083 -125.323099944567 2326.97185196831 14 17 10
-957.408775689014 -127.107247983226 2326.57602680172 18 21 14
-923.961621497302 -125.564742764589 2348.00770358935 22 25 18
-884.707689949835 -123.796514778274 2371.51734269432 22 25 18
-891.041559454658 -123.84669261187 2376.80649110678 21 24 17
-908.82454610442 -124.350333197728 2377.63667761809 21 24 17
-903.731214480617 -123.945664617533 2387.42551157533 22 25 18
-905.30650624522 -123.805473528416 2394.59502143667 22 25 18
-903.046770902721 -123.51405425726 2403.21639664398 22 25 18
-901.729846937489 -123.260335051307 2411.44513300801 19 22 15
-909.038786896906 -123.34588076864 2416.40217847868 20 23 16
-906.74520790309 -123.054096356063 2424.96141885046 16 19 12
-896.735579453964 -122.461082812107 2436.33942723023 15 18 11
-890.544439068737 -122.018992143941 2446.23524376213 16 19 12
-885.292011817488 -121.614711318736 2455.7313552661 17 20 13
-901.276660518421 -122.03736066857 2457.50852924573 20 23 16
-907.617494145108 -122.083585264866 2462.81167476961 20 23 16
-895.554895551755 -121.416276151807 2474.6663420855 21 24 17
-903.826290999424 -121.537190363581 2479.26757896511 22 25 18
-903.365989770991 -121.320249520885 2486.94594129125 24 27 20
-906.786190563757 -121.253138557572 2493.25649542356 23 26 19
-918.973003804737 -121.52261197176 2496.55502693969 22 25 18
-919.477479709264 -121.342579714261 2503.8818917084 28 31 24
-904.346349686645 -120.564492033253 2516.47068198213 27 30 23
-897.967626429935 -120.123335157532 2526.02121862335 23 26 19
-905.272842365099 -120.20517308973 2530.97252994461 25 28 21
-916.510168411532 -120.435753640978 2534.65127671529 23 26 19
-924.822197675517 -120.553938614164 2539.32806732686 23 26 19
-944.944531138072 -121.118746385661 2540.21274600291 25 28 21
-958.219008781428 -121.421949580519 2543.38624373095 24 27 20
-957.718377959722 -121.203804956741 2550.99079458928 24 27 20
-950.297397903408 -120.725452695568 2560.7509200546 23 26 19
-943.83613863317 -120.284776407803 2570.14951340535 21 24 17
-939.327954829284 -119.918728452615 2578.88762323686 20 23 16
-944.707715563436 -119.923982323504 2584.55030066308 20 23 16
-937.193400853186 -119.447155115353 2594.1383080778 20 23 16
-923.689671878198 -118.748580303722 2605.46667559634 21 24 17
-973.806603916217 -120.419809472272 2597.73564471006 22 25 18
-990.178406016123 -120.83099429959 2600.22831195763 20 23 16
-998.604636683934 -120.945751254838 2605.11617063686 23 26 19
-964.102032931821 -119.471893078664 2622.47124045158 11 13 8
-998.923583398206 -137.605056361102 2260.18556996612 23 26 19
-943.242023608546 -134.976361694648 2291.80947670512 26 29 22
-904.379099530541 -133.082611690534 2316.07599692696 27 30 23
-1006.73707283596 -136.607410111094 2306.58052481623 17 20 13
-940.094800280777 -133.538967235383 2341.44223030408 23 26 19
-905.602233182191 -131.852351823207 2363.10933856882 23 26 19
-908.15384546538 -131.74783871974 2369.9489513296 24 27 20
-883.995687693886 -130.508813636228 2387.22401641386 24 27 20
-898.921597505932 -130.930624252723 2389.16902819087 22 25 18
-905.270396167108 -130.987389962843 2394.48365292767 21 24 17
-910.668833912064 -131.003234655 2400.17749589495 22 25 18
-901.687059115552 -130.412550311694 2411.33041468518 20 23 16
-903.234138173207 -130.266313603429 2418.44985428397 21 24 17
-916.314496081821 -130.604208977405 2421.25589777495 17 20 13
-894.757095005626 -129.489301013426 2436.93200150433 16 19 12
-870.239488950525 -128.254467619494 2453.54471517119 16 19 12
-883.29898085889 -128.591843313731 2456.31253856452 17 20 13
-914.75190119403 -129.693451749732 2452.49519509154 19 22 15
-893.037467195307 -128.580354650551 2467.88194209849 20 23 16
-908.089708762159 -128.996317886434 2470.06105942257 23 26 19
-913.466317694975 -129.00958626038 2475.71552998058 25 28 21
-914.95979460299 -128.861890200359 2482.7368243176 26 29 22
-872.653978867619 -126.907941793477 2504.91894099899 24 27 20
-884.797297482778 -127.202336766476 2508.12998353125 21 24 17
-899.890921834734 -127.616300453477 2510.38581264416 22 25 18
-902.313171249098 -127.508717003719 2516.98792259276 21 24 17
-894.948549457153 -127.000651541993 2526.86063656552 21 24 17
-896.372165416529 -126.853046893054 2533.75291215563 23 26 19
-898.770739489783 -126.745333636401 2540.31202211782 21 24 17
-910.988744701007 -127.03712378016 2543.66070599209 21 24 17
-932.081108133151 -127.687642034117 2544.18836802347 23 26 19
-944.355890701747 -127.977901172393 2547.642440453 21 24 17
-964.542498468404 -128.586642259799 2548.63161536039 22 25 18
-945.277062164908 -127.600296673042 2562.13949634198 21 24 17
-957.58909157797 -127.889491843505 2565.66239246281 21 24 17
-927.356027425809 -126.466848447088 2582.39431648694 20 23 16
-936.68456216786 -126.63668907838 2586.81031263496 21 24 17
-918.237091244793 -125.693254700939 2599.69487737962 22 25 18
-948.429686471273 -126.69721334007 2597.81903460044 24 27 20
-935.901880341679 -125.992929631864 2608.82921953938 24 27 20
-948.242319834311 -126.28110508728 2612.40416937902 20 23 16
-973.575370256099 -127.08407750068 2612.22567982482 23 26 19
-921.357780966024 -141.136320334198 2308.92685519782 25 28 21
-932.474790439122 -141.42050703346 2312.36769311656 13 16 9
-967.84467667637 -142.354806124761 2322.15008348931 14 17 10
-956.238679811342 -141.59770881008 2334.87102155442 21 24 17
-930.316892204063 -140.19236875732 2353.18256730954 22 25 18
-890.974409702833 -138.183374831158 2376.60174850723 24 27 20
-892.543989828431 -138.032909351028 2383.76333910733 24 27 20
-887.419558106349 -137.580158397331 2393.50943370804 20 23 16
-911.930558742556 -138.464712549693 2391.79451145396 18 21 14
-915.421111141639 -138.399452371788 2398.23389843833 23 26 19
-901.643098051628 -137.558193042741 2411.21601929971 21 24 17
-898.385056433319 -137.191206837561 2420.13885124799 22 25 18
-902.803866073553 -137.168576674457 2426.15734914036 18 21 14
-894.70285369918 -136.586375205644 2436.81280022682 17 20 13
-876.92534785785 -135.574603778016 2450.950103231 16 19 12
-890.961800564886 -135.981446669198 2453.3785417381 17 20 13
-889.552636317308 -135.70052427484 2461.44631623658 20 23 16
-896.845412430959 -135.805673101964 2466.3677383783 21 24 17
-909.966046363915 -136.167758389994 2469.24058239572 22 25 18
-933.792685028073 -137.000660649201 2468.39732589923 23 26 19
-920.727401704996 -136.204392920264 2480.56195743817 22 25 18
-892.041301907803 -134.723624187134 2498.04171100294 22 25 18
-883.741081303903 -134.142965768283 2508.3298135864 20 23 16
-913.477712233434 -135.230410187399 2505.59026343848 23 26 19
-924.712715255617 -135.504241767998 2509.25173124125 23 26 19
-904.649818242877 -134.41077730952 2523.43994889381 22 25 18
