ply
format ascii 1.0
comment KinectMotionCapture
element vertex 760
property float x
property float y
property float z
property uchar red
property uchar green
property uchar blue
end_header
-1107.96547341955 730.250148675457 2334.2246614993 24 27 20
-1061.24782248396 724.397563832272 2359.63871695145 40 43 36
-1055.79933021936 724.158986941185 2399.56387892085 25 27 16
-1048.14860124732 713.549304565289 2335.63721486905 23 28 22
-1080.67660976131 717.984924527224 2353.33378883667 28 31 24
-1164.65913118293 719.490858221005 2335.20058351196 27 30 21
-1121.7460720105 705.35686203041 2359.46651139909 23 26 17
-918.666149981846 681.290853353243 2444.76310137334 24 27 16
-1031.96736105012 696.360791019132 2520.50639200027 33 35 24
-987.046718219508 680.844307738148 2422.82113101638 20 23 14
-945.049093946787 676.056820400162 2445.62476671875 17 20 11
-1144.48709847512 700.238225635628 2439.9040516265 20 21 13
-1035.78506046661 687.988999198941 2510.35637117512 21 21 11
-1095.92305516499 695.186535336116 2502.27809937608 24 24 14
-1055.56530793789 679.028091755702 2333.94252270752 25 25 17
-1044.43341810596 678.479020038696 2385.46049626462 20 23 14
-1003.52199693846 673.942941454001 2408.34520475347 20 23 14
-969.395988575412 670.178670253262 2428.77937800846 19 22 13
-913.714202129438 663.943928888275 2455.92798185128 15 18 9
-1099.67638853011 686.609849408024 2491.96495673204 19 19 9
-1067.29053917711 683.02287864263 2510.85017712573 23 23 13
-1066.38626052938 683.050906570467 2520.51922456216 39 41 28
-1082.83750867222 673.338494640626 2334.43430680341 29 29 19
-1017.92003709181 666.552582580747 2385.00338014723 25 26 18
-1039.66715436815 669.42060440065 2406.23888189771 17 20 11
-1044.51055980765 671.525702103292 2508.36538828059 19 19 11
-1018.00731906178 668.689431239682 2525.39061962449 21 21 11
-1095.86047441567 677.563247834006 2512.36777475833 22 24 11
-1040.55537709398 659.315530789956 2320.40533229431 36 36 28
-1043.58856067337 659.80313301721 2328.92808595116 46 46 36
-1083.56474064197 664.303187550465 2324.7264713348 36 36 26
-989.347845655079 654.223446720844 2366.59800329893 27 27 17
-1055.61664717796 661.581820952962 2353.54397801337 26 26 16
-1064.50113368843 662.704203954026 2360.13697165216 29 29 19
-1039.28289063171 660.115941231706 2378.12127918212 25 27 16
-1044.26235215265 660.811848063061 2385.98403648616 19 22 13
-1031.30453795899 660.601178456164 2465.71032074975 20 21 15
-1054.35404511316 663.991443726746 2515.1619375367 22 22 12
-1036.57749302515 650.030509066474 2322.00793815813 43 39 30
-1040.58000120083 650.618009659692 2330.18584413181 52 50 38
-966.973284159259 643.304100662242 2383.7865680919 30 28 16
-1063.43120164682 653.689799938579 2360.72421376427 30 28 16
-1073.29679224663 654.897865406001 2367.03262826889 28 28 18
-1039.07214131168 652.674324645123 2463.59133843116 19 20 14
-1095.69711369151 659.773852430874 2512.99824289002 21 23 10
-1037.33077838684 641.0774673386 2312.36652311923 184 170 159
-1054.91760363266 643.060158440403 2315.79010806487 134 124 112
-1057.9611312935 643.544332922673 2324.35937337091 70 60 48
-1051.29072375323 643.026152147965 2336.28141142629 56 47 32
-1025.1668430149 640.498800337669 2354.79662504868 30 18 6
-1035.97155847296 641.781124362111 2360.64328136418 37 25 13
-1033.16029526319 641.657232705571 2371.11231055548 35 25 13
-1053.71860931769 643.947753835386 2373.77862427949 22 14 3
-1026.54521253112 641.30364996255 2392.29414231014 69 62 52
-992.508328565307 637.945835252601 2412.88198448443 20 16 5
-1012.09650949618 640.134698122992 2415.89061816703 26 26 14
-1031.70727177497 642.327228168305 2418.99551493282 17 19 8
-971.220272275426 636.221512947307 2447.67790017281 13 16 5
-1079.73126243586 636.274059235681 2287.86527239077 159 149 139
-1056.62007865301 634.136130315516 2305.75681132984 201 185 172
-1062.57538065866 634.910457061917 2313.31715303648 140 126 113
-1067.56527083187 635.587864397161 2321.23674577978 72 60 46
-1057.01996938456 634.705063311574 2334.52494078328 45 33 17
-1063.95133757091 635.576290858226 2341.77190517524 47 33 20
-1043.66103447988 633.711079452437 2358.2631589435 36 22 9
-1033.07282065687 632.818762619306 2371.36785419118 24 12 0
-1039.99440924853 633.686573500482 2378.57482004598 68 58 48
-1045.94807184672 634.456855923986 2386.13031631914 72 63 54
-1013.88600939107 631.397505370234 2406.13091261624 21 17 8
-948.613073842967 624.986668941748 2436.68628970731 14 14 4
-986.725009049068 628.993651382137 2433.67364774768 14 15 7
-1055.16222043752 636.063274943702 2421.23081880195 15 18 7
-1084.58862279449 639.201405713513 2421.46666698459 14 17 6
-1041.05134427557 635.628996380502 2482.3383504087 17 18 13
-1109.06913171775 643.005796150397 2490.64974363117 17 17 9
-987.30171512294 630.822056250175 2535.38807481683 18 20 9
-1062.32942519487 625.757329875012 2303.94659793471 178 159 145
-1065.37899028564 626.237992719621 2312.54561947055 146 127 110
-1057.7572620956 625.676474133298 2324.85748747071 78 57 40
-1055.94853709747 625.681143179141 2335.11116902021 63 42 25
-1041.50566905687 624.450042570059 2349.65601272227 74 53 36
-1037.73497299913 624.260292120089 2360.49237095352 74 55 40
-1036.87516433011 624.354163767457 2370.318651567 107 89 75
-1047.69191830712 625.590209138499 2376.2455761133 98 84 73
-1016.63967984078 622.725487914629 2396.02515709693 32 22 12
-973.850495167442 618.706455899445 2419.44514807613 26 21 15
-974.888159079149 618.979596003955 2428.4145323712 11 10 5
-972.021695499156 618.868981294997 2438.63142150607 13 16 9
-1063.86298640346 628.054418315395 2418.7146266402 17 20 11
-1112.96880922274 633.227061736162 2422.45085970364 12 15 6
-1061.6564560031 629.036169182245 2485.87937098273 16 15 10
-1014.76431026709 624.909286091365 2527.7362109085 17 17 7
-1063.19080218732 616.880662021778 2303.84938813127 184 162 148
-1057.5175357083 616.531657365539 2315.50949334535 161 138 120
-1059.59407749623 616.916454288258 2324.43360577358 89 64 44
-1043.23030096512 615.550171123308 2339.70723021996 96 71 51
-1036.55502920974 615.10154029149 2351.56584033039 135 110 90
-1029.86852012435 614.650339471583 2363.37753029546 121 98 82
-1034.83992623193 615.306379686264 2371.22823905719 124 102 88
-1039.81513696161 615.962442553415 2379.09569984863 38 22 9
-1000.98032798675 612.446931276828 2401.41807967029 35 22 13
-977.681828850294 610.406375345549 2418.42692781761 22 17 11
-974.823804683944 610.311048999449 2428.67201374706 23 22 17
-1006.1018578397 613.470662756207 2427.9407663362 17 20 13
-1006.18142412631 613.655439681818 2437.2965997757 16 19 10
-1071.69978881947 620.088498482057 2426.03636451367 15 18 7
-984.890804783365 612.146331207667 2471.9535530207 14 15 9
-995.711535314115 613.354152454441 2477.91568746856 14 15 9
-1063.08220920429 607.902711278336 2304.09499643111 191 165 148
-1061.28838679144 607.932234538064 2314.3997289054 189 161 140
-1049.7934334685 607.066968151396 2328.05039062032 102 74 52
-1035.37082136423 605.929682485696 2342.6293147419 133 102 81
-1029.66500030895 605.594059177253 2354.13700888736 173 142 121
-1030.74939623994 605.88368247208 2363.30262646244 186 158 137
-1032.8049314619 606.262526668001 2372.1376730789 198 171 152
-1032.91531496014 606.460959380546 2381.62018657841 72 53 38
-1010.63673753708 604.588087483539 2398.468364135 30 13 3
-1000.98877699805 603.88053475194 2411.05019152342 29 22 16
-989.376645633126 602.989359703262 2424.19973802086 20 17 12
-999.201448924116 604.08217773919 2430.39620495995 15 16 11
-1024.64873823871 606.623758569893 2431.67537407307 15 16 8
-992.517447085691 603.825893757698 2451.21819795085 16 18 7
-1060.89015589573 598.531013103511 2295.3912696438 160 144 129
-1065.8770089452 599.177175178232 2303.3158565149 186 160 143
-1059.24357530642 598.785209459026 2315.32658727162 180 152 131
-1047.75282524832 597.957625436622 2328.97252104224 159 129 105
-1037.21474353896 597.213009587135 2342.21125432059 157 125 102
-1033.45435832346 597.072888383475 2353.06385775102 170 138 115
-1033.57144624208 597.27896178172 2362.5714207809 169 137 116
-1031.74234970196 597.309792874315 2372.72103234911 130 102 81
-1036.71527142828 597.949550068843 2380.58799693936 44 21 5
-1037.80007763351 598.240272898255 2389.75368929778 34 14 3
-1048.61993093979 599.40454065938 2395.73648851737 36 25 19
-1033.24871717326 598.406432609784 2419.72377276503 16 15 10
-1005.05956741459 596.059754202 2438.14585545108 17 17 7
-1033.44589016709 598.803100101284 2438.58603384736 12 12 2
-1077.22039999068 590.960667156308 2289.78252136453 161 145 132
-1069.63697991701 590.512462425971 2302.19654944841 179 153 138
-1060.10455505379 589.893778498095 2315.23631015571 177 150 131
-1045.71271137099 588.852244404882 2329.89449969052 172 144 122
-1037.1173150498 588.310579904204 2342.46164078014 177 146 125
-1035.30009418489 588.355141205994 2352.65442133216 180 148 125
-1037.36131183533 588.735432499482 2361.51365686112 169 134 112
-1035.53692996759 588.777596372791 2371.6762920053 147 115 92
-1036.62391878383 589.071821249141 2380.84954241348 84 57 38
-1037.70954910173 589.365245156297 2390.01836401117 57 34 16
-1039.76753000146 589.742777434567 2398.8649593176 49 33 20
-1042.79967318098 590.204500491944 2407.39726324625 38 28 18
-1100.40696313292 595.424060944363 2398.44452990751 29 20 11
-1028.48492829108 589.543013343243 2440.39945994859 16 13 4
-1092.57201071556 583.210942206071 2284.52434887235 164 147 137
-1074.3607110788 581.900312958237 2300.73788849437 169 146 132
-1062.90002374132 581.152391236753 2314.46944113846 177 151 134
-1051.42217741431 580.400803092512 2328.12753787604 164 137 116
-1047.68119697265 580.296382124943 2339.04465218746 166 138 116
-1040.05342733327 579.86421450342 2351.25381807411 169 137 114
-1039.20693625736 580.000368399663 2361.11391462437 182 148 123
-1034.4724223691 579.808446257569 2372.26082046744 180 146 121
-1036.53152589181 580.187156468286 2381.11166987496 128 97 76
-1033.72882998862 580.155691469887 2391.56408920466 88 61 42
-1032.86634698341 580.286632689726 2401.35569563229 63 46 30
-1034.92083426935 580.662807749335 2410.18769433876 59 45 32
-1047.6917310864 581.943424527242 2415.58666872823 37 29 18
-1044.87893074612 581.907721665656 2425.99705466938 28 24 13
-1038.15850323706 581.540418423539 2437.60884832618 19 16 7
-1092.91934183667 586.374938948146 2430.00978549678 21 18 9
-1010.03374492212 579.556893124146 2465.21389391066 22 19 12
-301.796852891315 500.274658422131 2143.21514839911 213 194 188
-331.9727965974 503.15977500617 2151.45912751587 208 189 183
-351.21042743975 505.022567277944 2157.6712259525 214 199 192
-447.396740054336 514.026747891331 2175.23441515299 185 180 174
-438.775898662997 513.549043604347 2187.65072490971 232 229 224
-429.199742458025 512.99533059601 2200.45956640079 255 254 251
-428.090691399195 513.101856348742 2209.18009896502 254 253 251
-440.794944623236 514.675737327137 2227.78213287212 248 252 253
-442.51693490899 515.003979945919 2235.17715086108 248 252 255
-1081.01496560227 573.411229958529 2298.59885532485 160 138 125
-1065.69277878237 572.388029669062 2313.70412697077 161 140 123
-1057.12699818408 571.910201555873 2326.36313907962 160 135 115
-1049.5166370986 571.508066049693 2338.63135315763 167 140 119
-1043.83327795142 571.260681081595 2350.18612847878 169 138 117
-1040.08037636025 571.168773781008 2361.04335121891 182 148 123
-1038.26188925973 571.232958839456 2371.21900995583 184 150 123
-1036.43833726595 571.29564307188 2381.37431900748 174 142 117
-1034.61018919096 571.356997667866 2391.50907072007 135 107 85
-1028.88660830557 571.099405981102 2402.8926091883 76 55 36
-1029.96593456451 571.395787537047 2412.0319118841 64 48 32
-1032.9922307715 571.850423393017 2420.54261914938 32 22 10
-1039.91765300421 572.623558933811 2427.82216317476 30 24 12
-1034.17282562478 572.359799406265 2439.11570509313 16 14 2
-1043.05434483849 573.292320238167 2445.807293843 17 15 3
-1091.975766454 577.507077571471 2440.18153449855 20 17 8
-1092.10739042205 577.724982942309 2449.74619254257 19 16 9
-1108.01486887562 579.443297200401 2464.15181782838 13 13 5
-294.630733133422 492.393376805811 2139.05573202327 199 180 174
-293.479647481791 492.497538896569 2147.5924262248 209 186 178
-303.519104985835 493.431766249923 2150.27274137177 215 191 181
-319.170842791368 494.784358081774 2150.09622791061 215 191 181
-319.895749141294 495.029575464186 2157.70275933303 218 194 184
-321.554178722796 495.344320762715 2164.82563098599 222 200 189
-334.436414438234 496.495355801689 2166.23503836275 214 194 183
-339.846195854141 497.091189416507 2171.49648643323 206 186 175
-347.134231022005 497.827891577638 2175.83784813519 207 189 177
-355.366874913873 498.636215389335 2179.74316765676 205 189 176
-361.732885526522 499.306075602811 2184.61727911059 213 197 184
-426.129113684177 504.520558710857 2169.1289913173 228 216 204
-443.823263467888 506.046747723237 2168.73760354244 200 193 185
-444.614291614904 506.306021750164 2176.62723797261 171 164 156
-440.699891864389 506.211421591926 2186.77439079025 199 194 188
-431.129404822991 505.690393231037 2199.58898983438 244 241 236
-428.139121906587 505.663389537147 2209.21108249164 255 255 251
-436.455156626785 506.488356297229 2213.47408112519 255 255 253
-445.723218886837 507.386171910624 2217.33300734724 254 255 255
-449.337917651007 507.857960413917 2223.870060083 252 253 255
-452.955020356887 508.33017817686 2230.4185399026 250 254 255
-459.410539851895 509.017625377715 2235.67673488026 249 254 255
-466.818100363693 509.777923766298 2240.53091546053 249 254 255
-474.233024329698 510.539510479247 2245.41787231529 250 254 255
-480.708807110636 511.230641151162 2250.76319248752 250 254 255
-488.138524180404 511.994893103404 2255.7126822482 249 253 254
-497.472181538437 512.904765027038 2259.85356707011 248 252 253
-507.76490982684 513.888692969245 2263.61962028429 250 251 253
-495.281209831076 513.137615201278 2277.40253945965 252 254 253
-497.030779479182 513.470345736813 2284.91644833496 252 254 253
-1077.02927600185 564.045483842099 2300.21454497883 152 132 121
-1060.74378679626 562.994746452961 2315.64755468722 144 126 112
-1056.05115249237 562.849475425259 2326.95156740355 138 117 98
-1052.31856958139 562.778038146056 2337.88628613658 145 123 102
-1047.609528859 562.628710388482 2349.12038877313 156 128 107
-1040.95214814213 562.32486991628 2360.97376253872 187 153 128
-1035.25440272454 562.094778259138 2372.45497231765 192 156 130
-1034.40228375332 562.244420208754 2382.28233589184 199 165 138
-1031.60303794935 562.239817433796 2392.73415886042 198 166 141
-1031.71498605201 562.463455186652 2402.20874212535 155 130 108
-1032.79745783941 562.762914206573 2411.35900935427 126 105 84
-1037.77283277973 563.36915032414 2419.25758662964 93 80 63
-1045.67484643297 564.206360101807 2426.24537536158 71 63 50
-1045.78596294305 564.427539747109 2435.71773992991 54 50 39
-1043.94350487183 564.49319712232 2445.7879892253 29 25 14
-1047.95276277277 565.021411982757 2454.03050830234 25 22 13
-1088.10136159501 568.415011614228 2451.23945095726 21 18 11
-1106.93533293095 570.333278690561 2464.75297694307 21 21 13
-1148.16842077343 573.821861642421 2462.1285298818 17 17 7
-306.0877018195 485.863258776952 2125.03209217179 88 84 85
-298.429361929391 485.513325337194 2137.05818049165 132 122 121
-294.486472175171 485.426980424969 2147.07493450123 197 178 174
-299.861662331529 486.004673465902 2152.19462328058 196 173 167
-314.57360733481 487.249857796217 2152.49642178967 149 122 115
-321.832441067667 487.964622015765 2156.72309476555 125 98 89
-320.689756119275 488.079135521176 2165.28963252248 187 157 147
-329.828157396892 488.930020621405 2168.6048008784 203 173 162
-334.298622130296 489.447512842389 2174.32956324129 199 170 154
-343.453939337624 490.301906560493 2177.71720925803 200 171 155
-346.998373838269 490.754408457217 2183.95598098931 208 179 161
-356.169993537227 491.612146684609 2187.41349802918 220 193 172
-369.104082204988 492.742299192133 2189.0625953488 216 189 168
-398.010733989996 495.025980149396 2182.95319066726 210 190 166
-422.256657937718 496.977587598712 2179.28545610086 206 188 166
-438.073189071507 498.323608295907 2179.83898174935 222 205 185
-441.681185998667 498.788810748781 2186.35146244713 213 197 184
-431.174695766327 498.232246588128 2199.61880008074 191 177 168
-428.186609829783 498.218813603189 2209.24259204702 255 252 250
-431.788979898623 498.682983545097 2215.73088486006 255 250 248
-441.995172925229 499.627335316703 2219.13889135226 255 253 252
-448.438238542035 500.299203747974 2224.35137030338 245 245 247
-452.999096559522 500.834841109461 2230.46378508531 245 246 248
-461.343176573549 501.646558209448 2234.85816043067 247 251 252
-468.750672013935 502.390993996588 2239.72138413299 252 255 255
-478.05777977521 503.274919887871 2243.76053677083 249 253 254
-481.694957147911 503.745453246161 2250.39738141933 249 253 254
-490.071234987271 504.5630946198 2254.93015443695 244 248 249
-499.40419896297 505.451672764365 2259.08050812293 248 252 253
-510.644392132319 506.481221069089 2262.43839813535 250 251 253
-516.202098505755 507.094983329003 2268.34114360213 252 254 253
-519.865528475061 507.569948342285 2275.09106573535 252 254 253
-524.481951900206 508.115210496785 2281.44267267215 252 254 253
-532.906247588019 508.94105360563 2286.18221595405 252 254 253
-541.339391121887 509.768487150623 2290.95981249178 252 254 253
-550.733771424398 510.667748550441 2295.37343188401 252 254 253
-551.562149357159 510.935182696358 2303.42393784647 253 253 253
-557.15723959296 511.554713344416 2309.48693892353 253 253 253
-565.619532314753 512.386848872801 2314.39021799492 252 254 253
-575.045310287161 513.291098884476 2318.94034585065 252 254 253
-581.615360672231 513.98455809207 2324.69969373472 253 253 253
-593.927277917278 515.104680270564 2328.17053783619 252 254 253
-604.339972010175 516.084974794007 2332.46736643985 252 254 253
-1054.53309173157 553.068029695691 2298.67463682331 134 123 117
-1017.23520115796 550.933710742708 2340.6274951941 115 99 84
-1025.10032327034 551.753422830235 2347.46301014924 124 107 91
-1027.15939206192 552.13351546265 2356.31289341617 141 120 103
-1026.30994487967 552.292645052533 2366.14645010906 184 157 138
-1026.42701407123 552.524124905548 2375.64007378037 188 161 140
-1021.68793982079 552.385966867886 2386.73526175452 190 163 142
-1021.79744539283 552.614966693398 2396.19592802873 184 159 139
-1021.90435932688 552.842951950744 2405.64685720183 155 136 119
-1024.92685408797 553.29219836799 2414.14506941256 116 99 83
-1028.92409458377 553.815207642148 2422.33769464671 68 56 42
-1031.94988644447 554.263868136948 2430.85078039506 54 47 37
-1032.05373643768 554.488937898175 2440.28883647165 20 16 7
-1028.25455001976 554.414872997162 2450.93160732838 9 6 0
-1030.30245736931 554.78666862153 2459.73718689151 7 4 0
-1039.18488091288 555.681106209949 2466.45515995898 7 4 0
-1042.21416755941 556.127305922833 2474.9850930952 9 6 0
-1040.35693953844 556.19837557003 2484.98598776503 10 10 2
-1038.49481293308 556.267844635804 2494.96623786447 17 17 9
-310.911648924368 479.800404177535 2154.41155659245 90 65 60
-326.567711836768 481.075137761683 2154.30098212881 72 45 38
-332.90201899239 481.71185339295 2159.05488447797 93 63 53
-342.981262928235 482.607198924155 2161.93230413344 85 55 44
-344.65408175141 482.925073030454 2169.11674279844 131 99 86
-346.327036293894 483.243202051727 2176.3016295881 194 163 145
-344.253874557777 483.30285683456 2185.35879637881 204 173 153
-354.35895757997 484.203603722601 2188.34690100803 218 190 168
-365.412954048842 485.17151126488 2190.92055635312 220 192 170
-376.479431585491 486.141927831679 2193.54773473486 208 187 160
-395.070386407485 487.635585242272 2192.56982737767 207 187 160
-413.683430373788 489.133602359965 2191.68777966781 216 196 172
-428.558008389104 490.374573238564 2192.70979738929 223 206 190
-427.455968368141 490.506032555646 2201.44655951041 200 183 173
-430.116339666482 490.899135775129 2208.38098265885 229 218 216
-431.835931057604 491.226962868044 2215.76567413713 230 220 219
-438.268953713875 491.883740849293 2220.94386014851 231 225 225
-445.651794225447 492.607765431307 2225.71044525879 227 227 229
-453.042202274141 493.333158680045 2230.50957228494 235 235 237
-460.440211789786 494.05998432425 2235.3413532581 242 246 247
-465.955421166878 494.65550934821 2241.06755906403 244 248 249
-474.313044341514 495.451233386746 2245.53101996062 244 248 249
-479.840349981242 496.04902722628 2251.30919441349 244 248 249
-488.213795553865 496.847607653428 2255.84069786116 252 255 255
-495.648503716536 497.581021480481 2260.83031922584 244 248 249
-507.832030906419 498.65008156292 2263.76434954923 229 233 234
-516.233805473759 499.453684715794 2268.41773263739 219 223 224
-524.644414410218 500.258875970402 2273.10911096729 230 234 235
-527.363355019072 500.662195016721 2280.29670197804 229 233 234
-533.886663024265 501.335003926373 2285.86222188399 232 236 237
-541.367589626928 502.076249951525 2291.05090163403 244 248 249
-550.759819109128 502.953920129321 2295.46882893718 245 249 250
-557.304472177301 503.630265640776 2301.12741376384 245 249 250
-566.715226687137 504.510958227288 2305.62410890048 243 247 248
-574.228409148989 505.257502211194 2310.95181043129 243 247 248
-586.521037183912 506.345473116775 2314.35656550775 243 247 248
-594.052500159675 507.094952163794 2319.76309518836 244 248 249
-604.458466705338 508.050477931014 2324.04484652316 245 249 250
-611.050582217738 508.734234754188 2329.90821908492 246 250 251
-614.778686696456 509.213518061835 2336.94059442352 244 248 249
-622.339310912158 509.967354070425 2342.47306267647 252 255 255
-632.781627189284 510.928552668894 2346.91274167063 239 243 244
-841.989633857889 528.409182135252 2365.40124983049 212 211 209
-938.851797228656 536.56728712397 2377.3274482577 255 252 249
-965.071806978546 538.704609567147 2377.69194721751 239 235 232
-978.722952236605 539.926801958368 2382.44667342524 210 206 203
-985.599968782859 540.654643579856 2389.53955456034 198 194 191
-996.365323863333 541.667272242465 2395.37139241858 214 210 207
-996.459889006242 541.89873009933 2404.76586324608 243 239 236
-1002.38233838246 542.556754058224 2412.24984287408 255 251 248
-1001.50365248329 542.715620727756 2421.95471160514 246 242 239
-1009.37784857837 543.51654081776 2428.84126458609 239 235 234
-1009.47123389472 543.74558309112 2438.23087077596 243 241 242
-1015.40709751231 544.403790097224 2445.77385360405 242 241 239
-1021.34799239067 545.062290080269 2453.3388347413 238 237 235
-1028.26950210518 545.793081922408 2460.62495673136 231 230 228
-1034.22108305088 546.452333718731 2468.2365846352 221 220 216
-1037.24771368681 546.895354345491 2476.75668369578 220 219 215
-1049.07114978921 547.988557285536 2482.64723793757 204 203 198
-1058.95139183147 548.938654992945 2489.17194333572 201 200 195
-378.888475562295 477.282128946617 2127.35258626006 221 200 195
-379.653510441312 477.543161364222 2135.12773158439 189 168 163
-379.483379624735 477.742583428723 2143.3735557745 79 54 47
-380.24563967983 478.003482313076 2151.13655216863 97 67 57
-376.329223055114 477.955206157945 2161.24648480222 131 102 88
-363.043389998416 477.286252592397 2176.00284758271 132 105 88
-363.790111621129 477.544575681676 2183.6988877056 169 144 122
-364.535993101697 477.802856088856 2191.39016437262 181 156 134
-369.970924880739 478.37244265752 2196.7778770633 218 196 172
-382.920368430735 479.442370213395 2198.53005917488 221 201 176
-399.641822083776 480.765319610505 2198.52835770093 215 194 173
-419.202854033425 482.280109055856 2197.25633294074 217 199 185
-426.560632904249 482.983491288749 2201.92570961423 198 184 173
-432.985132375563 483.625474201224 2207.07395313638 211 200 198
-431.881925205505 483.764599163386 2215.80106344523 207 197 196
-437.371679884448 484.345012497269 2221.42398941378 202 196 196
-444.752581555511 485.052734208744 2226.19161969371 208 208 210
-454.971854624938 485.9519133602 2229.68383343728 208 208 210
-461.425423818501 486.599349421328 2234.95805392134 193 197 198
-466.940821009765 487.184422983985 2240.69014814216 197 201 202
-473.40647949001 487.834068800774 2246.01634127021 212 216 215
-478.932515030959 488.42099795064 2251.79530919301 212 216 215
-486.357096876936 489.136632857341 2256.75076516265 223 227 226
-495.683959089195 489.981851724653 2260.89864706982 231 235 234
-505.968487929351 490.892867714428 2264.67253963901 228 232 231
-513.41896642056 491.613161877655 2269.7393706991 226 230 229
-518.02962403031 492.14157397317 2276.07548079155 223 227 226
-523.593845757319 492.734944009799 2282.01893069313 236 240 239
-527.262601400647 493.199897566023 2288.79820922116 241 245 244
-536.639764110644 494.053726418454 2293.1637663495 240 244 243
-545.075470780546 494.844463230819 2297.97424135842 242 246 245
-555.424542121723 495.766588274714 2302.02492491441 241 245 246
-563.879149482085 496.560425425987 2306.91686371786 237 241 242
-573.296211402932 497.420921176606 2311.45323205431 234 238 239
-586.539360554007 498.544454994956 2314.46920692257 233 237 238
-594.069572250491 499.277808119306 2319.87970748808 237 241 242
-602.562621383725 500.078014725815 2324.9372965465 239 243 244
-609.152790455998 500.74811567473 2330.79903750228 227 231 232
-615.749109345766 501.419121172545 2336.68843247537 229 233 234
-624.266198720697 502.222855555634 2341.84988174214 246 250 251
-635.6657126885 503.226185881888 2345.92416497176 231 235 236
-646.118981733671 504.165331120368 2350.42507922737 225 229 230
-659.460847570973 505.305083571373 2353.86543091002 249 253 252
-798.550528655805 516.504750895722 2363.25464275835 232 232 232
-807.221591164893 517.333304570714 2369.07998831275 255 255 255
-818.795231570931 518.36501576577 2373.90596648602 255 254 255
-831.346519854064 519.465972286943 2378.44288966588 253 251 252
-840.04836638646 520.298874756983 2384.40132951275 252 251 249
-851.658336812509 521.335953251563 2389.3842417786 238 237 235
-874.885504026966 523.188127184786 2390.39857463049 238 237 235
-896.204599918716 524.909077706394 2392.1959275318 238 237 235
-905.929287125113 525.818115113358 2398.05931918575 248 247 245
-912.757038017104 526.524117296123 2404.94795275834 248 247 245
-929.286579536871 527.913113099321 2408.61813569144 243 242 240
-950.685406971489 529.64671733311 2410.75938912684 247 246 244
-961.430795878685 530.631242775266 2416.51977393881 252 251 249
-965.387576741382 531.13736405271 2424.54513013844 244 243 241
-963.515140283457 531.231311904217 2434.46555147556 248 247 245
-973.309132070123 532.149358520555 2440.63012645759 241 240 238
-982.139953147774 532.99974185639 2447.14662065437 240 238 239
-997.796737249543 534.334247750117 2451.55938761576 229 227 228
-1010.54725491541 535.463928742749 2456.95733524391 231 229 230
-1020.38641163958 536.387818815961 2463.31640957547 224 223 221
-1030.23531509827 537.312889370639 2469.71882571495 216 215 213
-1036.18892565715 537.961327374613 2477.34575758131 229 228 224
-1049.96329552411 539.166682149132 2482.65338562298 203 202 197
-1059.84211426312 540.095256800222 2489.18556469782 212 211 206
-1071.68737440454 541.164702656217 2495.18626134826 200 200 192
-393.083233038317 470.568812443151 2111.83066542408 227 213 213
-399.457170783466 471.186533057443 2116.77037519231 132 114 112
-403.97044363581 471.688126128038 2122.69312610874 52 34 32
-404.751286308263 471.955020686138 2130.53448174299 67 48 42
-404.596704195823 472.162805481897 2138.84390378073 81 60 55
-411.921582954113 472.843364838893 2143.3817273066 71 51 42
-408.959649017478 472.873858706051 2153.09492368562 71 51 40
-393.817070071716 472.131456668727 2168.82649456249 94 76 62
-383.338381703259 471.682439751407 2182.15200101146 95 78 62
-381.283004479357 471.766927278579 2191.27293078228 127 110 90
-386.729950796484 472.328284513213 2196.71734025269 158 141 121
-396.876438226149 473.189819189492 2199.91204626731 165 148 132
-411.732378103034 474.353383080835 2200.8963754827 163 149 138
-424.725083089446 475.400155718172 2202.85389774179 155 142 134
-433.028825379253 476.148769674325 2207.10763708291 205 195 193
-432.868761478625 476.356414861067 2215.39298532259 195 186 187
-438.358458983042 476.926173602632 2221.02192603053 180 176 177
-445.738675643629 477.617925329574 2225.79593078367 199 199 201
-457.842687804655 478.61427428219 2228.42342488047 198 199 201
-464.29735682063 479.24869783226 2233.70905893808 198 202 203
-468.869051835791 479.762390343216 2239.88322141948 203 207 208
-472.499809049234 480.215786745276 2246.50185455181 204 208 207
-479.916131846632 480.914139726218 2251.43108106766 206 210 209
-487.340042159069 481.613806982801 2256.39296952462 202 206 205
-496.665353512162 482.437596402264 2260.54770796629 202 206 205
-504.105705686678 483.140111645138 2265.58037363134 200 204 203
-512.501795742628 483.905647296114 2270.23109755434 205 209 208
-517.111496696599 484.425736612657 2276.567887258 216 220 219
-524.573425445856 485.131989253934 2281.69343350514 194 198 197
-528.242575571506 485.591759507349 2288.47858540917 195 199 198
-538.569278668612 486.486233028305 2292.44696533974 212 216 215
-545.102187087333 487.133977453789 2298.06953230026 211 215 214
-556.400853584512 488.09410834038 2301.72591848347 217 221 222
-566.759611099225 488.994018481982 2305.83235097095 224 228 229
-577.12945867847 489.895920306403 2309.98756762885 223 227 228
-585.603247634801 490.674336099957 2314.97310191514 223 227 228
-592.177278786738 491.328682958436 2320.7729959539 220 224 225
-600.667521894648 492.109659609166 2325.82953048285 216 220 221
-608.211069907777 492.829124351547 2331.3069672224 215 219 220
-613.849675830721 493.423461464744 2337.57762786944 221 225 226
-620.45042215869 494.081741588473 2343.49293092049 226 230 231
-629.92970228234 494.930928059692 2348.31120660179 242 246 247
-644.209541287327 496.098921133896 2351.3117913301 235 239 240
-656.588151573006 497.142545495658 2355.12151684364 241 245 244
-673.777206785134 498.506862431921 2357.15600573792 234 238 237
-700.585480681098 500.512692865242 2355.63366818211 249 251 250
-712.057306393421 501.501371332419 2360.03630270274 253 255 254
-721.619467328372 502.363917713265 2365.21085463325 247 249 248
-743.694665250821 504.061936414202 2365.79710971031 244 246 245
-773.495328977704 506.278671229824 2363.66661135714 248 250 249
-785.997552422745 507.342723837101 2368.00903231833 255 255 255
-795.622836001707 508.215394119887 2373.45578437396 255 255 255
-804.293773445812 509.02495081686 2379.29175222217 252 252 252
-813.938338454116 509.900395287013 2384.82292406909 246 246 246
-823.593180130172 510.777317718495 2390.39742512544 248 248 248
-828.427166481449 511.330658012261 2397.70407455591 238 238 238
-846.799632550802 512.79545204493 2400.33676257101 229 229 229
-863.258258398329 514.13318505215 2403.72568777909 236 236 236
-875.864003383648 515.212726575173 2408.51408770072 230 230 230
-882.671699167976 515.901775485592 2415.32431829565 231 231 231
-895.300990320462 516.984656360209 2420.2155984851 234 234 234
-916.672483909119 518.660360354223 2422.27045830461 238 238 238
-929.335048458452 519.748297620411 2427.30429980232 247 247 247
-943.953319837544 520.969879360104 2431.76469311263 250 250 250
-945.955957550412 521.336147641941 2440.37403962271 248 248 248
-957.681670541739 522.362728920651 2445.87315431843 244 244 244
-966.501087546303 523.192450836648 2452.35154798267 236 236 238
-987.011801641252 524.819095075049 2455.19857961467 231 231 233
-1000.72683346043 525.984448729386 2460.2693438535 226 228 227
-1008.60834218392 526.752503054342 2467.20745105059 230 230 230
-1024.30042135271 528.054722020102 2471.79582490392 230 230 230
-1036.10589629885 529.092342434867 2477.63992378718 217 219 216
-1046.94726759986 530.064683439144 2483.83042871766 211 213 208
-1053.89090296647 530.770555558348 2491.22870602326 214 215 210
-1068.66363235211 532.013685186349 2496.35705638059 189 190 185
-382.100706415664 462.249053762067 2109.33966008382 164 153 157
-386.600413276073 462.739734959522 2115.20904944492 57 47 48
-395.766462297965 463.511222185893 2118.69166248912 49 37 37
-407.741590269478 464.453023067641 2120.78330211483 63 49 49
-407.59213583575 464.666973409501 2129.11277969182 60 45 42
-413.046604092514 465.218583911308 2134.59606786434 61 46 43
-423.180544639729 466.053358355294 2137.7512245934 68 51 44
-427.712528435844 466.55119241251 2143.75863761833 65 51 42
-423.822996047038 466.539854201084 2153.96531196528 78 64 55
-412.431604391621 466.07290037621 2167.8380515088 75 61 50
-401.023374045953 465.602785562407 2181.6373628784 83 69 56
-400.854177800693 465.813779127952 2189.88158575881 112 96 80
-405.375987459978 466.310082272673 2195.84506611809 120 107 91
-420.233574753701 467.436964369285 2196.85822983325 126 113 104
-428.529329611216 468.165566572506 2201.08854221335 121 110 104
-434.012440128064 468.723481804983 2206.6954228309 188 180 178
-436.677339379676 469.109514382499 2213.65504387691 189 183 183
-443.110685743529 469.726591547096 2218.85692064328 174 170 171
-449.550170110349 470.344976175119 2224.08616238419 172 172 174
-460.710864095475 471.254364947964 2227.1644071805 184 185 187
-467.166381444182 471.875629581459 2232.46151912501 215 219 220
-474.572369269862 472.556225351323 2237.35564802309 199 203 204
-478.206593707066 473.004970697193 2243.99338174737 185 189 188
-483.734408645973 473.570976540435 2249.79249712661 183 187 186
-489.267575382426 474.13783868715 2255.61360554352 194 198 197
-497.645604233815 474.881675502694 2260.19750395792 197 201 200
-505.085284874791 475.56822309545 2265.2366021103 187 191 190
-513.48036157541 476.314897160548 2269.89395437571 178 182 181
-518.090373655545 476.827114703951 2276.23674500006 196 200 199
-526.500672793007 477.576483383489 2280.95959119297 198 202 201
-530.171073927866 478.030974432051 2287.75336081896 189 193 192
-540.496749271771 478.901435083502 2291.73133546344 190 194 193
-547.029953706331 479.535982774103 2297.36296872846 194 198 197
-556.424044095397 480.350222860252 2301.82640376591 202 206 207
-564.876100094533 481.106477368407 2306.72920468771 212 216 217
-575.242697205045 481.983794900158 2310.88347117838 213 217 218
-583.713680848513 482.743154416051 2315.86785192292 215 219 220
-589.331322267908 483.323736126423 2322.0542213886 212 216 217
-596.863538491021 484.025386696427 2327.49220145842 205 209 210
-605.358569827114 484.788448834227 2332.58037240608 203 207 208
-610.994719443413 485.37165793653 2338.84675428591 210 214 215
-615.679561587777 485.8950438125 2345.51272036224 210 214 215
-623.239725651604 486.600725461315 2351.07148374314 232 236 237
-637.511761713691 487.732945260529 2354.05872488933 226 230 231
-651.800030032884 488.867803184483 2357.11594303726 241 245 244
-666.104558275517 490.005477580125 2360.24315520287 234 238 237
-689.061855438796 491.695723347222 2360.16352625628 239 241 240
-705.324757311149 492.962181803207 2362.73190042517 254 255 255
-718.724054776522 494.04778276655 2366.45717902862 244 246 245
-733.099759082449 495.197207447915 2369.89112273069 240 242 241
-752.301992057383 496.657164766162 2371.62776618763 254 255 255
-767.676132234892 497.874042522161 2374.86422648913 237 237 237
-777.287600467836 498.723043254044 2380.2651082519 239 239 239
-788.837080371399 499.697288178644 2385.01842113922 255 255 255
-802.32828507897 500.797478319997 2389.14011503289 240 240 240
-813.904055872563 501.775640868481 2394.00697648409 246 246 246
-820.663287079033 502.444435388311 2400.61555724633 231 231 231
-834.193921501925 503.550529744636 2404.90752847673 219 219 219
-845.805395400514 504.53389314964 2409.92865936872 223 223 223
-857.4293949238 505.519136929849 2415.00387939178 221 221 221
-869.065899143917 506.506083905524 2420.13320053703 222 222 222
-882.652781073499 507.620648470494 2424.66804873176 232 232 232
-899.162928856355 508.926173412454 2428.30295295112 233 233 233
-909.871227536766 509.856257447591 2433.93191754958 236 236 236
-927.385935746215 511.230122777681 2437.39580479136 239 239 239
-936.17827903825 512.037452525207 2443.76806644934 235 235 235
-950.811290351308 513.226182290188 2448.31273484478 251 253 252
-960.597416855652 514.099824949512 2454.46876782664 231 232 234
-972.340065602388 515.101918120545 2460.05691430623 228 229 231
-981.173888364868 515.914568647855 2466.60774244784 227 228 230
-987.092850118938 516.536583335762 2474.09753308398 221 223 222
-1006.66782109773 518.0544517443 2477.44261314888 220 222 221
-1029.19249366601 519.768007446202 2479.99928725733 222 224 223
-1039.05092482281 520.651108262957 2486.46837314361 203 205 202
-1046.96561379028 521.406860232637 2493.55992742243 210 212 209
-1059.77542732482 522.485431676849 2499.24922771834 182 184 179
-1075.53343784161 523.759384801022 2504.14475805529 182 184 179
-427.888754950974 458.816416259246 2135.41423137105 37 32 29
-428.68254118176 459.091440843554 2143.30675554113 44 39 36
-435.090215465281 459.690083984181 2148.40743505807 41 36 32
-440.568046286344 460.235964330309 2153.99704241598 39 34 30
-441.36522820108 460.511879217298 2161.90509268614 50 43 37
-425.283114048193 459.809796495484 2178.02813614574 60 52 41
-432.635305980379 460.464425587227 2182.70156855975 78 69 60
-436.239596775517 460.90230364726 2189.21270281321 76 67 62
-434.209269111329 461.012695923762 2198.42769261291 72 64 61
-437.814960053922 461.450887222234 2204.9458988953 180 176 175
-442.364252242504 461.944487916088 2211.03207257819 177 175 176
-450.682958111992 462.658958050347 2215.37183233842 150 150 150
-458.068550195649 463.319996075633 2220.18758909345 161 162 164
-467.347090993153 464.092861086251 2224.16509523136 152 156 157
-475.692280467055 464.812265702206 2228.61865468333 148 152 153
-480.270906869528 465.311352499233 2234.83086503706 141 145 146
-484.853441108505 465.811000491195 2241.05996548944 164 169 165
-488.494624749828 466.255628935079 2247.73078689685 162 167 163
-494.975862829352 466.868216492986 2253.14634274673 161 166 162
-499.570734965868 467.369943749168 2259.42858811632 175 180 176
-506.063251312057 467.984439886291 2264.89380634229 173 178 174
-514.457355563125 468.712375154166 2269.55789498423 157 162 158
-523.80863328481 469.498302144145 2273.84823921402 155 160 156
-531.27231121137 470.172981555309 2279.00006368518 166 171 167
-537.794031603176 470.792420584308 2284.59106448486 199 204 200
-544.322356672613 471.412817231962 2290.20951964215 193 198 194
-551.807407090997 472.091153699171 2295.45445905404 183 188 184
-558.349100568612 472.713692408379 2301.13056321577 185 189 188
-564.897181638979 473.337221844882 2306.83423207146 185 189 188
-573.356492383096 474.076046930756 2311.77925298908 185 189 188
-580.871371624733 474.75897169849 2317.15293666331 193 197 196
-591.255295856592 475.615282155838 2321.39591209119 200 204 203
-598.787486964127 476.300961342232 2326.84317533357 193 197 196
-608.237059966755 477.103001838442 2331.55827407679 182 186 185
-612.918945317759 477.618007738343 2338.21613964926 200 204 203
-616.648604212632 478.075692401753 2345.2680682566 205 209 208
-624.208137173729 478.765413403695 2350.83343816714 182 186 185
-636.562343926126 479.746496311731 2354.57241251825 150 154 153
-647.97233626092 480.671645792989 2358.73993928966 237 238 240
-656.518842870625 481.423954715303 2364.06126458829 240 241 243
-668.911512352738 482.411166442801 2367.9650366658 205 206 208
-690.916793696541 483.985883787942 2368.31572091644 242 243 245
-710.066846104994 485.389293622161 2369.85459975931 246 247 249
-723.472216202833 486.443851698354 2373.62598269697 245 246 248
-735.931129189618 487.441959315686 2377.81525314852 238 239 241
-750.32821102906 488.560157429944 2381.36285141579 226 227 229
-759.926911048852 489.385470716822 2386.72031485893 237 238 240
-773.390074878875 490.44910108184 2390.73994778527 250 251 253
-786.868020266495 491.515073295854 2394.82442576726 201 202 204
-802.290762041145 492.702316131322 2398.29356936127 229 230 232
-811.93833792105 493.534880594551 2403.86214304922 215 216 218
-823.528006133415 494.488202302895 2408.80485509133 219 220 222
-832.230049290701 495.26398148069 2414.79775943548 213 214 216
-842.875648719405 496.160758621054 2420.17002509808 212 213 215
-856.436139242213 497.239119834805 2424.61095761534 200 201 203
-870.980352087351 498.379897890077 2428.79253251956 224 225 227
-884.571670180585 499.462949691784 2433.36546378093 225 226 228
-897.208002430455 500.487810186764 2438.32189678747 229 230 232
-912.76957294317 501.696079178198 2442.38934633795 241 242 244
-926.406193817055 502.785776102856 2447.1590856724 236 237 239
-940.05801694136 503.877746324817 2451.99339137575 237 238 240
-949.835511673017 504.728604449229 2458.12478892203 225 226 230
-958.650184701876 505.519727559906 2464.6049804576 228 232 233
-967.473839662672 506.311872957248 2471.12306386489 230 234 235
-973.38360687952 506.921650319472 2478.57953567723 217 221 222
-988.071247527032 508.08304913678 2483.3810075104 215 219 220
-1008.62734913857 509.61510006942 2486.48367933762 218 222 221
-1029.2068094276 511.150747135374 2489.68825421471 225 229 228
-1041.99731930969 512.1973255002 2495.31022238959 221 225 224
-1057.73297961423 513.430787176381 2500.13108058427 168 173 169
-1071.53047520765 514.543130604312 2505.59532011362 175 180 176
-455.578297498221 453.511596125182 2146.63156223072 245 244 242
-455.44953025207 453.740642272097 2155.04332059458 255 251 248
-456.25605105988 454.02088096487 2162.98889386683 73 66 60
-448.619508770261 453.835261314167 2175.01439094657 49 42 36
-447.541095011118 454.010499244063 2183.82951481527 65 60 57
-442.702313861993 453.977079380673 2194.42373327527 72 68 67
-446.313522451513 454.411019780167 2200.96875372336 159 157 158
-452.749004193715 455.00202865822 2206.19537270966 153 151 152
-461.072843140693 455.698933270661 2210.56808322779 139 139 141
-466.580436141842 456.240146982098 2216.29267104115 124 125 127
-473.97784331077 456.887438085463 2221.16857734769 130 134 135
-482.325726536723 457.588854650486 2225.64458700456 131 135 136
-488.795488528377 458.186206362014 2231.01853383824 136 140 141
-493.383239498269 458.678832307895 2237.27475234553 143 147 146
-497.0299472875 459.119153127303 2243.97244992979 152 156 155
-501.624894466311 459.612909865377 2250.25971397734 149 153 152
-504.331868770513 460.000895292597 2257.40250689094 163 167 166
-511.773061051022 460.655841369551 2262.4679395866 162 166 165
-521.116623431676 461.419142564837 2266.73759333994 164 168 167
-529.522289258767 462.130625826846 2271.46230546788 149 153 152
-536.988388371142 462.789815443427 2276.63390966756 136 140 139
-542.563837270726 463.342667148938 2282.65066450774 165 169 168
-550.993558478858 464.058085770884 2287.47906382946 172 176 175
-557.53162015789 464.666920941357 2293.14722417181 170 174 173
-563.124971504711 465.222468668244 2299.24128177914 172 176 175
-567.771990477394 465.724492980671 2305.75314138161 170 174 173
-574.327124080704 466.33589317257 2311.49610818975 174 178 177
-584.699966527525 467.166391394122 2315.70543281332 171 175 174
-596.990823364508 468.108211693782 2319.1883439863 190 194 193
-602.617535945748 468.668888878644 2325.42530698948 184 188 187
-611.113122116906 469.394848563274 2330.53774531078 184 188 187
-615.796565210667 469.902198623423 2337.20697810866 181 185 184
-622.395521535502 470.52014826417 2343.13920085995 208 212 211
-629.957515638249 471.194270689362 2348.72459054951 177 181 180
-636.569852898252 471.814133155254 2354.71465233571 154 158 157
-647.977317354008 472.712348749674 2358.88688145081 212 213 215
-656.522502567724 473.445787720697 2364.21239619723 245 246 248
-669.871005571582 474.45902427771 2367.75749398059 195 196 198
-687.073041252563 475.698084773779 2369.92285403359 230 231 233
-704.295049277913 476.940489087455 2372.17425699838 219 220 222
-717.693774113235 477.962007026422 2375.93470380655 237 238 240
-727.261585408829 478.761156200249 2381.17252905306 234 235 237
-740.687882393061 479.787045103348 2385.05190374871 227 231 232
-757.016996055772 480.984443086611 2387.95266426132 251 255 255
-768.548487893606 481.902290902822 2392.65988232276 246 250 251
-782.020441650112 482.935336198737 2396.73623785935 185 189 190
-791.649068658769 483.74363116248 2402.23667285998 211 215 216
-804.183467652668 484.724037095537 2406.76898962616 208 212 213
-813.834066193327 485.535501503159 2412.36437967002 212 216 217
-827.360448307631 486.576759754402 2416.67574726267 214 218 219
-838.000794488686 487.44867640075 2422.03948622547 205 209 210
-850.587503557561 488.436767674435 2426.79887741162 196 200 201
-861.251640182022 489.312053125274 2432.26546933002 219 223 224
-874.833418589677 490.361531298179 2436.81719657268 203 207 208
-889.399825064407 491.470979881054 2441.11499634572 199 203 204
-903.982428916469 492.582771289102 2445.48279310573 219 223 224
-917.610612332819 493.639175492047 2450.23384743063 220 224 225
-930.282250529657 494.639721600688 2455.3601596732 225 229 230
-941.023842371047 495.525935882544 2461.16163584318 217 221 222
-950.803953065066 496.355437090605 2467.31712226487 228 232 233
-964.487020680175 497.419554691928 2472.30549116635 222 226 227
-974.289603734632 498.252022837297 2478.55825867716 214 218 219
-986.051128718941 499.202831636223 2484.2597485087 216 220 221
-998.800333583898 500.213965911997 2489.72055007768 209 213 214
-1022.29554681391 501.873700454238 2492.02923440193 200 204 205
-1037.03116490455 503.007612449045 2497.05937570498 209 213 212
-1051.78316689681 504.143771015245 2502.15930613101 223 227 226
-1063.61872395627 505.104915703781 2508.18094463147 186 190 189
-1079.37948498914 506.304530321127 2513.13123239553 203 207 206
-443.677515670744 446.492495549214 2194.01040912974 206 206 208
-448.228972983355 446.9705620946 2200.11526027314 139 140 142
-455.604743582188 447.597849116385 2204.90758915535 218 219 221
-467.691985757675 448.474825177533 2207.53030987647 197 198 200
-475.085814946967 449.10554234551 2212.401284205 104 108 109
-483.429376467254 449.78758211848 2216.86964673741 104 108 109
-492.724536636705 450.521209920212 2220.94346543134 111 115 116
-498.256722729454 451.056270255176 2226.78004376573 111 115 116
-503.794050035848 451.592163276753 2232.63878748528 128 132 133
-509.336743091697 452.129030721631 2238.51951624842 123 127 128
-513.939143193894 452.616339171202 2244.84450124613 126 130 131
-517.600048280872 453.053610424785 2251.60546753409 130 134 135
-519.370971421813 453.389866162757 2259.21139877104 130 134 135
-528.717540076587 454.132572268595 2263.50641325617 154 158 159
-538.073985396668 454.87694417449 2267.84505665047 148 152 153
-545.544345534128 455.521020536841 2273.0443264999 148 152 153
-552.073396425673 456.115233303569 2278.68246696107 153 157 158
-558.609051994848 456.710403688953 2284.34806177986 156 160 161
-563.25101946055 457.203916594603 2290.84266766877 150 154 155
-569.797993014737 457.800828884329 2296.55819791824 155 159 158
-572.546690190968 458.192338861597 2303.88277277708 157 161 160
-581.007755217466 458.894269257236 2308.85722432368 154 158 157
-589.477660401603 459.597557350993 2313.86983213543 156 160 159
-601.768734468586 460.510258087206 2317.37082772495 149 153 152
-607.397685764034 461.060633371372 2323.62480144262 173 177 176
-617.803515294497 461.872779216036 2327.99028039749 179 183 182
-625.355816479888 462.529718456509 2333.54306410651 186 190 189
-633.87122368902 463.240193990015 2338.75195259292 206 210 209
-638.570845101342 463.741957909031 2345.49576195289 183 187 186
-643.27435944831 464.243933332331 2352.25660142196 155 159 158
-647.981774893313 464.746468783359 2359.03430198262 212 213 215
-654.609015030534 465.355143985865 2365.09661439999 240 241 243
-666.035964045034 466.229717925984 2369.36860893614 178 179 181
-683.23108694256 467.425117968356 2371.52918694242 209 210 212
-701.406001260703 468.677175880345 2373.41755917169 214 215 217
