ply
format ascii 1.0
comment KinectMotionCapture
element vertex 770
property float x
property float y
property float z
property uchar red
property uchar green
property uchar blue
end_header
-656.290385582927 90.3525007152891 2511.04818164753 189 190 192
-654.333449751305 90.9716972708637 2520.28731601169 180 181 183
-656.188001136965 91.3003972737832 2528.26620542907 176 177 179
-657.087894113769 91.7012010327194 2536.55340415575 196 197 199
-661.808175771569 91.8130227885517 2543.61760568515 212 213 215
-666.532361540407 91.9253183166571 2550.6987323158 223 227 228
-671.260454908263 92.0381171469923 2557.79678204918 226 230 231
-676.949557825304 92.0795491619635 2564.6151622165 229 233 234
-683.601730703657 92.0499873232409 2571.16164640413 223 227 226
-693.135300288445 91.8065630249625 2576.86179064646 208 212 211
-697.88390896674 91.9221055042395 2584.04862891202 178 182 181
-703.595970007637 91.9667332272229 2590.966296166 175 179 178
-707.392728978224 92.1545493929613 2598.47263413539 170 174 173
-713.113762370929 92.2003407687622 2605.42915430917 175 179 178
-715.955312678823 92.4599050459295 2613.2415860315 184 189 185
-724.571322867712 92.2938423422506 2619.40825386108 184 189 185
-750.525422044007 90.8541617112102 2620.70596069772 183 188 182
-775.547354140001 89.490467824632 2622.40771631527 190 193 186
-816.4027166273 58.2307266779662 2255.79027442822 197 201 202
-793.019690851151 60.6816902285308 2274.34129049531 215 219 220
-761.142374097653 63.8241083721554 2296.06579719496 253 255 254
-745.213608848715 65.6428134960415 2311.38302544704 203 204 206
-728.320382871743 67.5344859970701 2326.96377398813 147 148 150
-713.286793057789 69.2672984314478 2341.7186869376 170 171 173
-702.001403599407 70.6877888086645 2354.9484000886 165 169 170
-695.415439528117 71.7203258978717 2366.32937662095 171 175 178
-676.548448993303 73.7497012144527 2382.24548941085 196 200 203
-668.988138201467 74.8533470408388 2393.84860246532 212 216 217
-663.305979613876 75.801441307207 2404.70552629951 238 242 243
-665.179707240217 76.1355745156182 2412.76572162825 240 244 247
-662.322001310166 76.8515831755053 2422.53609554702 252 255 255
-665.140047515131 77.1086381687804 2430.24643055263 247 251 252
-662.274423914084 77.8228575443448 2439.98188064727 252 255 255
-655.61000701356 78.8401260842099 2451.02721576564 252 255 255
-651.781084529103 79.6273967799962 2461.03234294293 247 248 252
-649.843899237996 80.2615268987827 2470.34972611367 251 252 255
-646.951798667698 80.9703919147404 2479.97273912398 250 251 255
-648.807127589541 81.299862966288 2487.95460130735 248 249 253
-648.760276228017 81.7802044799737 2496.57843803329 242 243 247
-650.614811836197 82.1091620820514 2504.55710641461 218 219 223
-648.659573402358 82.7391527132047 2513.79737176691 229 230 234
-652.418187167031 82.9169900785981 2521.14257563541 240 241 245
-655.226036206153 83.1701687851719 2528.80916955822 224 225 229
-658.035097509666 83.4234112425282 2536.48215432961 182 183 187
-660.845595138405 83.6767434019416 2544.16141561621 177 178 182
-664.6132907246 83.8553310985831 2551.5451114827 168 172 173
-670.295975115774 83.8849487846536 2558.34215673594 173 177 178
-676.94080873193 83.8407230331896 2564.86492474783 181 185 186
-684.549193517114 83.7230091791586 2571.12155711487 200 204 203
-689.291103095823 83.82933543911 2578.284295974 209 213 212
-692.119619342819 84.0845320352201 2586.04077464443 221 225 224
-698.786575802879 84.0434424822959 2592.66027043122 227 231 230
-703.540120222323 84.1511766361803 2599.873451013 192 196 195
-709.25802936884 84.1855218230751 2606.82293623571 181 185 184
-712.097654024858 84.4418326464624 2614.62770959305 177 182 178
-723.594813537609 84.0352529107158 2619.96262471647 185 189 188
-743.766251493731 82.968726254191 2622.89973212662 192 197 193
-765.88781577261 81.7592323811285 2625.39932156711 200 203 196
-830.387926590162 48.2284104199365 2250.39226093412 227 231 230
-805.144959938641 50.9145597909558 2269.72287753924 238 242 241
-776.10729345194 53.9150847443332 2290.37366908631 125 130 126
-757.37380351013 56.0270269281653 2306.82949913517 125 129 128
-731.085156967093 58.7740277441941 2326.07286387854 231 235 234
-715.118190443375 60.6355371196569 2341.19549286959 246 250 249
-704.781578429767 62.0141015252808 2354.07323221396 158 160 159
-699.1435660881 62.991405177419 2365.10859620159 167 168 170
-677.456351412118 65.3192890025437 2382.09082440031 169 170 172
-667.068037277689 66.6881891148067 2394.74641868633 185 187 186
-661.387605173703 67.6574652482631 2405.59957832838 179 181 180
-660.424534328137 68.2287175673303 2414.69004668172 182 183 185
-660.404186512674 68.7200858946125 2423.42418766311 192 193 195
-659.434860943823 69.2899076888873 2432.48793549631 212 214 213
-659.409247505978 69.7800875301577 2441.20065855628 244 246 245
-652.746468627824 70.8211709269015 2452.23920462224 243 244 246
-649.866865089451 71.5454502359758 2461.90713414832 236 237 241
-646.03206070369 72.3470761495671 2471.87789901528 249 250 254
-644.089584863078 72.9903415730892 2481.16659589421 237 238 242
-644.042913163232 73.475919244889 2489.78923098623 225 226 230
-643.043119262052 74.0391473268142 2498.72259603002 211 212 216
-641.088318132469 74.6797137657443 2507.95856805163 230 231 235
-640.080916582425 75.2412335864427 2516.85941416256 247 248 252
-645.739644708974 75.256606575913 2523.55927260108 215 216 220
-651.403767839392 75.2726987239402 2530.28139513335 193 194 198
-655.164634507632 75.4449097640438 2537.63983581148 168 169 173
-656.064375631381 75.8501289309777 2545.9226819769 174 175 179
-661.739396267856 75.8676442806801 2552.69307451823 186 187 189
-668.375632034789 75.8084932209452 2559.18673404039 178 179 181
-677.887638100372 75.5185525499898 2564.8192164264 180 181 183
-682.624103678545 75.6158944561884 2571.96325019158 178 179 181
-687.364446413886 75.71370546583 2579.12409302981 195 196 198
-690.191807043555 75.9658510978954 2586.87836027366 192 193 195
-695.897617966831 75.9876006244414 2593.7819421227 200 201 203
-700.648970728109 76.0867546890501 2600.9905115264 218 219 221
-707.324788026219 76.0331725688448 2607.65531457133 204 205 207
-712.085103031602 76.1334885354598 2614.90269338425 185 187 186
-722.618269528055 75.776006642003 2620.51722908444 182 183 185
-742.783631390232 74.6576193705097 2623.45806445012 204 206 205
-766.823802718855 73.2385607996601 2625.42258716085 200 202 197
-819.968241323342 40.3006677750293 2254.70729326902 150 154 153
-789.095102083855 43.5621375922131 2276.23035534668 118 122 121
-776.969083406889 45.1571419918155 2290.20844880632 173 178 174
-763.884572957581 46.8315841287377 2304.47364596274 136 141 137
-743.254877128377 49.1641448347876 2321.55675364786 45 50 44
-716.947490174916 51.9869376237735 2340.67404541197 27 32 28
-706.6170928362 53.4006546855888 2353.55740813328 61 63 62
-700.040982876096 54.4818869941873 2364.95425301983 40 42 41
-680.249279611687 56.7128632877413 2381.23338055794 9 11 10
-672.699085805581 57.8705882781166 2392.84926727207 38 40 39
-668.914496701344 58.6977904550669 2403.02626642721 254 255 255
-663.232777930589 59.6874404799343 2413.86068660734 252 254 253
-658.486815765196 60.5934366812347 2424.31247145456 254 255 255
-651.840246593677 61.661193227127 2435.40567212493 254 255 255
-652.7577637826 62.0740167670576 2443.76346362389 233 235 234
-648.937000235904 62.8939566315937 2453.78424242474 215 217 216
-647.004996043556 63.5497368445237 2463.11280902872 190 191 195
-643.170878968813 64.3670728090744 2473.07736244441 175 176 180
-641.228441912892 65.0206136043071 2482.36018659295 218 219 223
-642.131337768205 65.4299370913531 2490.65452029298 235 236 240
-638.279967840348 66.2437060776536 2500.54514569524 232 233 237
-637.27516071289 66.8134997174885 2509.45255793402 232 233 237
-638.170684290747 67.2210400101581 2517.71545395622 228 229 233
-643.827514216065 67.2250924034276 2524.41360623336 224 225 229
-647.583418973357 67.3909207418157 2531.7528495642 224 225 229
-653.24933790466 67.3962582344675 2538.49029737564 217 218 222
-656.05734641818 67.6431860658451 2546.1623570056 213 214 218
-662.686840783842 67.5694312635045 2552.634899481 203 204 206
-667.411451184091 67.6567940034295 2559.7325619336 204 206 205
-675.008611524314 67.5047406253038 2565.95884391659 192 194 193
-681.656405721943 67.433720148426 2572.51150414617 186 188 187
-688.31078763229 67.3636254258318 2579.0915627178 178 180 179
-694.01331167336 67.3740886099843 2585.98729893145 182 184 183
-699.720952987209 67.3852935564652 2592.9051485117 188 190 189
-702.555752825803 67.6354302357797 2600.69337878903 174 176 175
-706.352029897159 67.8063136594375 2608.20755251914 170 172 171
-713.032368127277 67.7398455983306 2614.90094289082 175 177 176
-725.486334557985 67.1997198596826 2619.97315459474 174 176 175
-747.571768915367 65.8719654801286 2622.38417819978 190 192 191
-763.909091764364 65.021800134506 2626.52433657741 185 187 182
-787.982573734244 34.4016271395037 2267.60193028951 181 185 184
-775.871284374891 36.0387662191871 2281.62123376173 144 148 147
-770.316158215987 37.0730074061519 2292.98726673236 209 214 210
-776.968504581478 36.993417944186 2299.56502642884 115 120 116
-780.806339610955 37.1711238174873 2307.25831568183 59 64 58
-741.359859407842 41.2738312164169 2331.51734481523 51 56 50
-723.516822949674 43.4070122207822 2347.32812708325 36 38 37
-687.754187379664 47.659218894206 2378.61846541805 19 21 20
-678.325668141463 49.0143933638859 2390.95513502313 13 15 14
-688.709161552926 48.5866859243121 2395.95142940126 4 6 5
-663.204030821762 51.377881867922 2414.0650153282 15 17 16
-653.734266296161 52.7253045707088 2426.22449381147 254 255 255
-644.250151081525 54.0699538564043 2438.32127972804 248 250 249
-644.217130027767 54.5686130357265 2446.99637330219 252 254 253
-639.445954023126 55.4878302883223 2457.32818887113 254 255 255
-638.457640395747 56.068956113895 2466.30161573571 246 247 249
-637.465857488843 56.6493219144675 2475.26020198127 254 255 255
-638.368822458316 57.0611305277604 2483.55337856795 221 222 226
-636.421490968604 57.7239459522497 2492.81026640279 243 244 248
-633.519414887546 58.4694257856359 2502.36669952501 239 240 244
-632.513089260705 59.0465928049381 2511.26308360117 226 227 231
-633.406450807332 59.4560582000553 2519.51532018792 206 207 211
-637.15508420832 59.6151729126375 2526.82755688689 188 189 193
-641.859353398807 59.6913469056246 2533.84216512586 189 190 194
-647.520885890175 59.6849183375313 2540.56720417281 196 197 201
-653.18780002722 59.6792355399329 2547.31443279737 193 194 198
-658.859641187291 59.6743033357787 2554.08401765511 186 188 187
-662.626013649875 59.8356808078143 2561.47309198063 196 198 197
-670.218776046557 59.6665948835089 2567.69001208236 196 198 197
-676.86271551142 59.5812698027683 2574.23301323262 192 194 193
-686.384194217105 59.2494800230165 2579.93185179803 191 193 192
-692.084823782409 59.2487100336311 2586.82584684768 187 189 188
-699.707399662674 59.0841663641049 2593.17147069896 183 185 184
-704.460583481675 59.1671932877462 2600.39759425372 185 187 186
-709.217636094128 59.2507023289976 2607.64048237168 187 189 188
-715.899094562386 59.1708637208444 2614.34558686543 179 181 180
-728.351799501024 58.6010569569974 2619.43078353002 177 179 178
-750.432988994382 57.2164368155846 2621.85654840676 189 191 188
-768.692269373799 56.1625532237257 2625.47187909702 188 190 185
-775.791248893781 27.3468210705384 2281.82337727858 194 198 197
-782.444100011713 27.2536226804518 2288.41136553168 15 20 16
-637.732116008678 44.4117545452437 2406.16689389087 87 89 86
-649.903660591235 45.2960454910445 2436.49740583308 0 1 0
-644.197928345866 46.3227681114071 2447.2052903537 40 42 39
-634.695285569094 47.6953612053286 2459.20399754024 220 222 219
-631.810330639176 48.457458055512 2468.82718912536 216 218 217
-633.660184681714 48.7847803527252 2476.78618966884 202 203 205
-635.510295817567 49.1119880906835 2484.74639049334 213 214 216
-634.512510161108 49.6985889565241 2493.67485791021 198 199 201
-629.711351834972 50.6299682754859 2503.86740079649 196 197 199
-632.506507306231 50.8694775816257 2511.48718586427 192 193 195
-633.400808260928 51.2814197596174 2519.74210526046 208 209 211
-638.101418669942 51.3488029234261 2526.7457612826 198 199 201
-640.900940512601 51.5886202033538 2534.38460595389 203 204 206
-648.467444499719 51.3993226015605 2540.49770424954 210 211 213
-654.134091434892 51.3826868962326 2547.25128398217 206 207 209
-656.943122553984 51.623632269989 2554.93028207603 197 199 198
-657.843376686003 52.0357362540154 2563.21242583694 195 197 196
-661.609519705277 52.1912325777185 2570.60286179207 200 202 201
-672.071590077457 51.7499745782158 2575.95338144836 199 201 200
-684.458469151478 51.1401726123333 2580.77203536628 200 202 201
-694.944444795671 50.7027805828717 2586.22562156251 198 200 199
-703.525561581882 50.4371406705819 2592.29818346407 191 193 192
-712.115515275243 50.1728868191583 2598.40887062522 191 193 192
-715.917979832072 50.3337345101988 2605.95621266514 192 194 193
-725.482327970954 49.9870396773243 2611.85272527443 194 196 195
-737.938346784735 49.3883170906168 2616.96953212148 191 193 192
-758.097469791153 48.1164118697807 2619.97208333402 199 201 198
-766.738967815144 47.8602908391934 2626.30512100131 192 194 189
-814.16457127526 14.9102663854412 2266.8509927455 194 199 195
-827.411609641431 14.1700061698321 2270.97924210352 51 56 52
-784.325178396533 18.8904534778209 2297.06192937463 79 84 78
-573.660089668109 41.7913187408138 2421.55806744439 38 40 35
-573.594385345524 42.2945580006941 2430.08535947438 26 28 23
-566.921966886458 43.4287180801272 2441.02668333778 32 34 29
-722.647954404764 29.5841786156215 2401.75325687004 33 35 30
-665.951253781612 35.4950255522621 2430.95623110726 34 36 31
-652.691721912143 37.2631271700671 2444.39509577749 0 1 0
-629.946993742091 39.9241576785934 2461.07885769982 27 29 24
-629.902958751973 40.4303549448757 2469.69989746871 79 81 80
-631.752179460094 40.7571770406207 2477.65640137866 231 233 232
-636.446943222896 40.8159110671686 2484.63938085504 227 229 228
-634.502159069858 41.4997339629795 2493.89513781177 236 238 237
-631.603283846278 42.2716423491651 2503.45013134133 218 220 219
-633.44975288456 42.5974092971916 2511.39513041482 210 212 211
-632.44370487278 43.1897236633988 2520.28382864785 201 203 202
-635.240207977835 43.426168861211 2527.91135437365 205 207 206
-636.134011859468 43.8400497433503 2536.16294309757 205 207 206
-640.837794393732 43.8993624847338 2543.18532408686 199 201 200
-646.498815129589 43.8707748988343 2549.9211412553 203 205 204
-653.119149343862 43.7545902076567 2556.37827471026 211 213 212
-658.791096943497 43.7275916038077 2563.16130733758 243 245 242
-662.557608047775 43.8776252573211 2570.55766466173 237 239 236
-673.01803243452 43.4118423398857 2575.91535591529 237 239 236
-686.359267630037 42.6841525913689 2580.45129714117 217 219 216
-699.715557832225 41.9589693639649 2585.05210513126 158 160 157
-711.17134734817 41.4116444270612 2590.28750198616 137 139 136
-719.764646643831 41.1290815485379 2596.42370056702 125 127 124
-724.530966332261 41.197780408647 2603.71613561642 117 119 116
-732.179697505715 41.0049348737124 2610.19474737586 123 125 122
-739.836237679851 40.8132121762435 2616.70602325662 144 146 143
-756.147866666993 39.8383373037974 2620.80630977229 141 143 140
-766.709499244597 39.3887980220476 2626.60042854723 159 162 155
-824.383616855838 5.06223242903614 2262.99305944986 203 208 204
-771.099848281027 11.483868320585 2302.37745341856 37 42 36
-700.717700106731 19.0358173923844 2338.66075384035 29 34 28
-677.243821805444 21.8975545688907 2356.56981779766 33 35 30
-712.058943404291 18.9652652381681 2352.22378395916 21 23 18
-600.030099626057 31.0989184144889 2411.90286718906 35 37 32
-613.178344717388 30.3079555992124 2415.62559817182 42 44 39
-605.592313299564 31.5637287175379 2427.02589505048 32 34 29
-589.500186797625 33.6525427583486 2441.46439042339 24 26 21
-644.214092945185 28.7847318463113 2430.25121233145 24 26 21
-654.582243140587 28.2807722950897 2435.22474467696 20 22 17
-620.517161816557 32.1252861974359 2456.00965099358 25 27 22
-638.448927843666 30.8810188328171 2458.29482901037 15 17 12
-627.04923653014 32.5004848956956 2470.90274503789 5 7 4
-651.636785826661 30.6150435053634 2470.99723505399 1 3 2
-646.863165657888 31.5880587742876 2481.2866379938 1 3 2
-640.183811465972 32.7433280917547 2492.18389685427 92 94 93
-635.391854790762 33.7129052571031 2502.39560719157 185 187 186
-636.291510579591 34.1305621930509 2510.6707618327 230 232 231
-637.190160117715 34.5479146646915 2518.94166143047 224 226 225
-639.038923489255 34.8734354282191 2526.89691545353 218 220 219
-638.984165723763 35.381642563367 2535.47060877842 215 217 216
-640.832107558753 35.7067462290284 2543.42248796229 220 222 221
-647.445667313922 35.5759014489908 2549.85839183969 232 234 233
-655.019250810533 35.3549776683054 2556.0212880114 244 246 243
-663.554697650369 35.0442935346187 2561.91909540275 247 249 246
-668.279380269411 35.0983752056753 2569.03665093069 129 131 128
-692.118790499834 33.3383477946273 2570.31705151408 0 1 0
-705.468968796468 32.5800834429997 2574.91147058058 6 8 5
-723.618231852406 31.3717254744088 2578.13394486274 3 5 2
-735.086943252918 30.7997667548674 2583.44077175933 40 42 39
-735.072080583043 31.3134324238665 2592.18596887869 99 101 98
-734.096084558894 31.9167229559015 2601.20063763092 117 119 116
-736.953515770932 32.1589346322934 2609.09325598365 133 135 132
-742.69199955175 32.1312833747054 2616.16986916223 157 159 156
-756.119763849032 31.3854473262392 2621.09778043747 151 153 148
-806.477031801825 -1.95282940525665 2270.23311696025 208 213 209
-824.401877683385 -3.24255189745881 2272.51453605727 32 37 31
-685.639358715115 12.0990872137838 2344.64730307669 32 37 30
-699.754351870141 11.1847812397411 2348.14622247644 43 48 41
-698.840001780169 11.8104213607351 2357.41939337113 27 29 24
-608.491182235388 22.0697469631778 2408.93060816436 30 32 27
-623.493370227154 21.5740562476422 2420.64920842958 35 37 32
-607.419693275399 23.7162450427112 2435.13760984428 30 32 27
-615.824396105255 23.8897387842545 2449.28731828024 37 39 34
-629.957459775828 22.977651742399 2452.86456166105 30 32 27
-589.243142210255 27.5834237760152 2475.79837639948 29 31 26
-647.860544319046 22.2065306255275 2463.8589617658 19 21 18
-669.613314347288 20.542585442029 2465.00072505023 21 23 20
-647.794102063891 23.2421224034524 2481.18378804762 18 20 17
-641.118631838287 24.4216952471301 2492.08495376766 18 20 17
-637.279335040569 25.3156044861821 2501.9816444456 19 21 18
-635.332213101325 26.019228705071 2511.21436686963 13 15 12
-639.081974364531 26.1559565778093 2518.5436543757 4 6 3
-638.079922967677 26.7641130996761 2527.44064615411 5 7 4
-636.122929254299 27.4656368756195 2536.63110327564 0 1 0
-637.969626535754 27.7902067816149 2544.57781218085 11 13 10
-651.249277913694 26.988023410389 2548.88728081402 6 8 5
-662.637414316247 26.3759010867161 2553.86267084829 13 15 10
-687.394059459268 24.4544586031879 2554.72238267384 16 18 13
-744.636801891755 19.3570799607403 2545.67492395759 21 23 18
-740.817598856828 20.2531536288901 2555.65888626452 16 18 13
-742.707056792671 22.1489483456476 2590.20940238239 24 26 21
-676.203338432022 4.64945679114559 2348.45931309535 45 50 43
-694.066174111531 3.30275530030444 2350.50099276399 27 32 25
-709.130204134421 2.2560940640789 2353.70335549047 27 30 23
-635.750128889287 11.5401836397745 2407.65320482454 33 36 29
-621.589014597559 13.5406925032142 2421.53889043903 36 39 32
-649.847752691588 11.1165598856816 2419.90087998204 33 36 29
-650.752669435951 12.0698574201828 2436.9980694846 38 41 34
-604.426135240041 17.392659652298 2462.11901851314 33 36 29
-593.969543402481 18.9877054356351 2474.34073047209 32 35 28
-624.184689209205 16.3788963340854 2472.31849990171 23 25 20
-633.606641250328 15.9234996456394 2477.65146828857 21 23 18
-613.667531857014 18.4915999312708 2493.08275432204 16 18 13
-604.129227970292 19.9835177149189 2504.85413526265 18 20 15
-610.703930717468 19.8193723599459 2511.13948553598 17 19 14
-632.474443625352 18.1017842867033 2512.39098514853 13 15 10
-649.521190619077 16.8739318818704 2515.32409794627 16 18 13
-642.82434435742 18.0727852029223 2526.11864199963 9 11 6
-643.725682174492 18.4950418309166 2534.39958964654 14 16 11
-649.385325708565 18.4333648355193 2541.14771377127 11 13 8
-675.050632151365 16.343776191213 2541.55508839737 16 18 13
-679.78042643055 16.3824580644923 2548.70422649791 17 19 14
-704.540899375299 14.3975557790049 2549.61921721296 20 23 16
-755.106788270312 10.3468872492071 2551.54388765775 21 24 17
-653.631899554483 -1.8627867988219 2348.51899122849 43 48 41
-675.219514750576 -3.66717368391378 2349.01559055825 40 45 38
-659.269396685824 -1.40247248674941 2363.97640569841 40 43 36
-615.104690724372 3.90318588675187 2389.52088476886 40 43 36
-627.276233422775 3.64468216854352 2402.29683257355 33 36 29
-509.554307757599 16.8216686473417 2454.50197847354 30 33 26
-572.575783315332 10.5658011088233 2439.70222569978 32 35 28
-637.563436177055 4.12216051075481 2424.5642109659 26 29 22
-642.255151413106 4.14748509919111 2431.55340722049 26 29 22
-637.510426340947 5.18083324320395 2441.93465274785 26 29 22
-635.591320606002 5.91069369091546 2451.2753993882 25 28 21
-644.065569046109 5.53389322991094 2456.94241889741 26 29 22
-621.333991315849 8.47222796091668 2473.52102793347 26 29 22
-623.180040910329 8.79690262083799 2481.46482114451 25 28 21
-623.13219262526 9.32189195538069 2490.05800446186 22 25 18
-603.179024844023 11.9482289431095 2505.39308822642 18 21 14
-616.39073226946 11.0702638606074 2509.44772905551 17 20 13
-643.852627904684 8.69676774968109 2508.82499567377 19 22 15
-640.011043994306 9.62118962962799 2518.69257506848 14 17 10
-625.709232269573 11.6404542506714 2531.94832175951 15 18 11
-626.600572670958 12.0632080595167 2540.18383620691 11 14 7
-630.345337310267 12.187362727874 2547.49850086255 15 18 11
-644.565784942659 11.2192979057068 2551.493732539 21 24 17
-649.275381902034 11.2461651258688 2558.56081862537 18 21 14
-679.728980334664 8.59764583689426 2557.61270370275 18 21 12
-701.63429961752 6.84657478592055 2559.47901773997 16 19 10
-688.281498182104 -14.0950262064261 2335.24319053887 31 36 29
-593.433803937824 -1.4053375390557 2406.51014240865 39 42 35
-600.914351326756 -1.705926570085 2412.30992448002 33 36 29
-625.287105033444 -2.80739812998704 2429.22350647391 28 31 24
-609.222036658315 -0.513477669355167 2443.66059861799 27 30 23
-610.12087077098 -0.0860125905354781 2451.92636365206 26 29 22
-626.128008003918 -1.31238084225516 2454.83389097742 26 29 22
-625.144804754823 -0.677204227229722 2463.79804619875 26 29 22
-627.94063896042 -0.455278330687148 2471.43007773708 20 23 16
-635.468629343238 -0.748258541950819 2477.43553207696 22 25 18
-633.536347229211 -0.0108673755874755 2486.71378669009 26 29 22
-634.441705292069 0.417178162985254 2495.00795859341 22 25 18
-646.722605278597 -0.38739939092286 2499.47416833923 16 19 12
-642.889902549471 0.554345491478758 2509.3717809127 16 19 12
-628.607805361391 2.62202063853834 2522.6848412898 20 23 16
-629.503563567335 3.04797667722712 2530.93793967792 16 19 12
-638.952970210446 2.55331773994877 2536.41498160377 20 23 16
-642.705748189943 2.67322714689983 2543.76745456914 15 18 11
-636.943462885133 3.81395785981897 2554.1579915369 14 17 10
-657.838449689405 2.09865728532233 2556.10756654989 12 15 6
-666.369208905126 1.7114045518648 2562.02975272313 16 19 10
-695.888927202838 -0.912261787115343 2561.50821310547 19 22 13
-695.8627046741 -0.379738860691536 2570.19334734083 15 18 9
-743.578226152118 -4.92290520639344 2564.40373670975 16 19 10
-755.044460650091 -5.60273056012295 2569.76309258065 18 21 12
-626.929894520707 8.50728886187441 2616.63442096932 19 22 13
-683.543603302243 -22.0289209234545 2337.25846886149 35 40 33
-617.899027794275 -13.4385908732156 2380.13719306636 44 47 38
-622.549702771655 -12.8927237592956 2395.752188186 43 46 37
-606.540286075318 -10.5386012903447 2410.39910477894 46 49 40
-567.925486344986 -5.62996936768095 2433.29257193932 40 43 34
-590.45803310128 -7.65335549660112 2433.52657182004 39 42 33
-598.885990022521 -8.07613062654905 2439.01555866144 32 35 26
-589.40974437904 -6.477959283191 2450.99899545053 31 34 25
-602.560718000993 -7.43067973848144 2454.82889046957 30 33 24
-608.174528223006 -7.53227483496077 2461.39961159494 29 32 23
-609.070258637548 -7.10323015454806 2469.65185729055 27 30 21
-618.472618398884 -7.62712363740087 2474.93769199131 29 32 25
-638.289728584967 -9.31246703395106 2476.67630884625 22 25 18
-639.200478966871 -8.88104483636409 2484.99334277862 19 22 15
-645.79320064602 -9.08305526570152 2491.3792794191 21 24 17
-634.385324734752 -7.28113292004667 2503.84381457496 22 25 18
-627.701999753906 -6.00879613848082 2514.65580700712 27 30 23
-621.95667387064 -4.84368092384696 2525.10782118322 17 20 13
-632.344954180028 -5.46690742535028 2530.24020731356 24 27 20
-648.445952200024 -6.71811223398805 2533.57486089047 22 25 18
-642.696325986699 -5.55403116126668 2544.00853358754 25 28 21
-652.160530699096 -6.06800036413624 2549.56105557456 25 28 21
-657.826380213701 -6.16165893106913 2556.35642374527 23 26 17
-647.301614737049 -4.47719609871655 2568.2251312533 26 29 20
-671.080279691755 -6.55544357215271 2569.42501986315 26 29 20
-681.532625355384 -7.16813701046792 2574.83351958679 22 25 16
-700.587148656879 -8.71693934191986 2577.6889234334 24 27 18
-680.502063475975 -5.99323693843018 2592.38543610688 22 25 16
-682.37192667157 -5.66672976078225 2600.43308791341 18 21 12
-662.850024766848 -29.1758138119984 2327.73856293286 46 48 43
-672.229330501336 -29.7244203076396 2332.93843012975 30 32 27
-702.230632360841 -32.6908549802925 2330.18422381996 40 43 36
-632.892914714096 -24.0044260856075 2365.84512946286 40 43 36
-639.442798074903 -23.6775076149386 2380.84509550233 42 45 38
-680.765451107083 -27.9501873943821 2374.06634707298 40 43 36
-635.645038322441 -21.5995273699074 2408.45510072966 34 37 30
-623.39041411436 -19.6341045980633 2421.64970267494 28 31 24
-604.524880318023 -16.9082027828215 2437.16147414291 26 29 22
-609.193803984831 -16.912157804762 2444.06745894575 24 27 20
-619.525015448665 -17.5688311731622 2448.96912568561 26 29 22
-610.050273752481 -15.9391217145929 2460.93955363151 27 30 23
-606.226673555151 -14.9640685461712 2470.85768634924 25 28 21
-617.514936662744 -15.7274602504465 2475.48194891462 23 26 19
-634.48922127128 -17.1394793454422 2478.20298518944 23 26 19
-642.967931708609 -17.572888444681 2483.92296217692 22 25 18
-627.785602694385 -15.2987298519651 2497.70512894463 21 24 17
-619.213313822885 -13.7854797238512 2509.16437466295 20 23 16
-615.367683436071 -12.8147631910884 2518.98798036292 19 22 15
-623.847385619266 -13.2483259195937 2524.71241791279 21 24 17
-631.386775651837 -13.5726235091231 2530.78543911437 17 20 13
-634.184467098536 -13.3571590060615 2538.42945510578 16 19 12
-632.230719727719 -12.6035359993894 2547.60466082428 17 20 13
-642.637206888394 -13.2481450879572 2552.82985335219 17 20 13
-653.055049755516 -13.8908595059747 2558.10397127044 24 27 20
-653.007998482377 -13.3517191771835 2566.69342993865 24 27 20
-651.052819216076 -12.5987620176191 2575.86163112106 25 28 21
-660.53607633606 -13.1313150066388 2581.5101257603 25 28 21
-677.663445784776 -14.5177647452929 2584.89070282519 24 27 20
-688.126887946869 -15.1529711541475 2590.36134149709 19 22 15
-668.026402628858 -12.3710475170065 2604.95574848109 29 32 25
-627.26383768941 -33.8569820104083 2333.16482587879 5 10 4
-659.997205353224 -37.2553485830439 2329.0334166958 27 29 24
-660.949202922387 -36.8112119140435 2337.52364481054 30 32 27
-655.344083136663 -35.5784004506748 2348.55367096731 48 51 44
-683.516423493417 -37.2842265889002 2364.33808190076 34 37 30
-734.245461359605 -42.7889033132828 2354.16766273685 32 35 28
-679.796795544483 -35.7210654870476 2383.48236863579 31 34 27
-633.736843118547 -29.6746741914058 2409.35243880783 31 34 27
-604.550246035879 -25.654199668227 2428.74705546695 30 33 26
-617.658033121961 -26.1255332159282 2441.21740808555 29 32 25
-627.049814826462 -26.6944178570264 2446.4841785246 28 31 24
-596.830084212603 -22.5784567020771 2465.82645851569 28 31 24
-604.32836365828 -22.9256832261809 2471.73180887773 27 30 23
-621.280273846338 -24.3844909239452 2474.38285652627 24 27 20
-633.526419981858 -25.2839974131353 2478.75066850527 24 27 20
-628.760949514045 -24.1818559179532 2489.0000358855 23 26 19
-622.094028301162 -22.8593262388974 2499.85479093064 23 26 19
-610.680839663309 -20.9845272317032 2512.25305148536 23 26 19
-632.420372155822 -22.9888515382277 2513.53776886841 22 25 18
-649.444625931491 -24.4354954016114 2516.49936319064 23 26 19
-642.765024112772 -23.1154876158317 2527.29972348866 19 22 15
-642.721705787743 -22.5704201232881 2535.90105909847 17 20 13
-634.070678947811 -20.4898414500083 2555.79355429311 16 19 12
-632.111792246 -19.7269484735092 2564.94066086993 16 19 12
-637.76492408959 -19.8449004036895 2571.69318982006 17 20 13
-642.470391476691 -19.8521288453288 2578.76213259068 18 21 14
-630.973597771845 -17.9926302931104 2590.80206677446 18 21 14
-661.431924301973 -20.961392350262 2590.06314290626 17 20 13
-666.155292351534 -20.9657442935225 2597.20927442859 18 21 14
-689.985614971937 -23.1584267906427 2598.70410336732 27 30 23
-652.456494425084 -45.307633074608 2323.32391448953 17 22 16
-653.405739607435 -44.8617366325682 2331.80206537453 20 22 17
-650.611811722643 -43.9539977207962 2341.73962615866 16 18 13
-674.027007449428 -46.2788571421614 2341.48290939988 35 38 31
-665.631774819576 -44.1170724782007 2362.45481828891 39 42 35
-734.125806769486 -51.9575795738501 2345.3628073819 38 41 34
-633.737415566748 -39.0863879010042 2392.10750765909 35 38 31
-643.117923888527 -39.6787661422386 2397.33733284789 35 38 31
-608.296026371384 -34.3229593652393 2427.56868298665 32 35 28
-656.260965387212 -39.6127240050321 2418.76086822893 28 31 24
-634.592109372818 -36.4234265114623 2435.31842627274 26 29 22
-594.986460303104 -31.0673004099934 2458.13884589028 25 28 21
-609.080786403992 -32.2313482835612 2461.69358439221 25 28 21
-583.557053474514 -28.5998118684127 2479.23093751361 25 28 21
-601.435230066688 -30.2188173532444 2481.50037838275 22 25 18
-607.051053411973 -30.3535220436604 2488.09835805834 22 25 18
-630.637056504364 -32.6493481777609 2488.57724035847 22 25 18
-633.436371096139 -32.4392265734838 2496.23263778977 22 25 18
-625.822752546412 -30.9796228314214 2507.39148338287 22 25 18
-647.566036398789 -33.0395869212501 2508.72545691844 22 25 18
-673.127807525184 -35.5484712321686 2508.92212500049 24 27 20
-671.210455277477 -34.7677773228936 2518.24069993216 20 23 16
-634.165919562606 -29.8017858172457 2538.9071044646 18 21 14
-616.068401895281 -27.1053539207545 2553.26412397348 18 21 14
-599.845904962768 -24.6393243322353 2566.90626638275 17 20 13
-628.302196313211 -27.4797459033578 2566.38363676054 15 18 11
-654.89008569075 -30.088745244289 2566.60445042467 17 20 13
-649.130563258276 -28.8637958119492 2576.95762749667 20 23 16
-662.420711716912 -29.8904385050788 2581.44428553667 18 21 14
-652.839577027274 -28.2173198592838 2592.92143930733 17 20 13
-660.419663242846 -28.5677967320959 2599.18918909649 17 20 13
-637.452678002902 -25.3276737904187 2614.55295528405 15 18 11
-719.536245389214 -33.8657974106183 2607.62975716333 17 20 13
-716.862411438806 -61.8855886539172 2297.91280577805 15 20 14
-699.161242011285 -59.0630436083451 2313.94327436057 31 33 28
-669.275593110122 -54.707972567579 2334.61707389433 26 28 23
-618.71189779718 -46.0785430389035 2389.24661534412 35 38 31
-648.721256085881 -49.2847364804384 2386.66892857257 34 37 30
-601.76832942633 -42.842194908672 2412.92744401601 33 36 29
-581.06101349442 -39.7002977142292 2429.19357400644 28 31 24
-586.651698902156 -39.8500319044189 2435.69070774296 26 29 22
-598.833965740158 -40.8197709744586 2439.81833930818 21 24 17
-609.147044999966 -41.5528091435084 2444.6839339998 21 24 17
-621.355650818243 -42.5179730328727 2448.92602569933 21 24 17
-604.353441871471 -39.8556343190259 2463.573251898 22 25 18
-619.400727570467 -41.169903020644 2466.85922747459 23 26 19
-579.715296611286 -35.7111809469743 2489.26773860152 23 26 19
-601.373996412654 -37.8419810314961 2490.2706495797 23 26 19
-607.935764033338 -38.1041530845728 2496.55556993808 23 26 19
-633.420366075886 -40.6932136003274 2496.46043008982 23 26 19
-657.989804992954 -43.160596943656 2496.81739460943 23 26 19
-652.283134854542 -41.9049574250123 2507.38541837985 23 26 19
-666.468198441706 -43.088628231954 2511.35154000125 25 28 21
-677.824663927903 -43.9216069973674 2516.31727030914 21 24 17
-662.623845290279 -41.5083960978673 2529.93508872593 19 22 15
-636.955740392294 -37.825814033951 2546.80623253706 18 21 14
-638.75650213825 -36.9494724485909 2563.33988734434 15 18 11
-662.489204781465 -39.2819192838179 2564.486751338 17 20 13
-698.627039765454 -43.1085723771829 2561.93898298991 20 23 16
-679.555937052686 -40.2452277763609 2576.46514663483 21 24 17
-673.803688237168 -38.998123176628 2586.83734450056 18 21 14
-652.779412165681 -35.9128551214668 2601.73898682059 14 17 10
-701.404771572483 -41.2195477385924 2595.85132062037 25 28 21
-780.655130599217 -50.1886093852792 2581.25433305245 18 21 14
-721.463067277187 -71.0891135983157 2296.25854549531 26 31 25
-731.870838043126 -71.261037394743 2310.32527464703 21 23 18
-665.507499390209 -62.1011513888503 2345.14422844514 28 31 24
-606.497773366731 -52.7941626440452 2394.05419745384 34 37 30
-599.904734476945 -51.3875152591643 2405.18504521952 25 28 21
-635.542536057812 -55.3965805002354 2400.54113097809 22 25 18
-608.290549946744 -51.3445609271562 2419.3293905123 20 23 16
-574.421186463652 -46.458626421162 2440.36312620216 20 23 16
-572.483986330147 -45.660272730195 2449.58385302693 21 24 17
-600.659608524674 -48.698726706675 2447.94090987422 23 26 19
-631.695797376231 -52.0904545841858 2445.43966203416 25 28 21
-569.471426713998 -43.6292870164919 2476.12513631926 26 29 22
-634.472626921369 -51.3220912394805 2461.78153623007 27 30 23
-637.276237427927 -51.1172585544394 2469.45788829162 26 29 22
-604.198717943508 -46.3774514429267 2489.51157184832 26 29 22
-606.036759282036 -46.0570384373801 2497.42258264373 25 28 21
-620.166690713209 -47.2851687979184 2501.17190993479 25 28 21
-625.797763157414 -47.4393908616677 2507.84965180268 24 27 20
-634.274513930716 -47.9494910265189 2513.60501415297 24 27 20
-638.970316847286 -47.9828554749033 2520.64782846423 25 28 21
-647.462434340778 -48.4903806621185 2526.46939090387 21 24 17
-637.939618496053 -46.7433644668012 2538.16006692124 20 23 16
-645.4883663873 -47.1314387133064 2544.31183557696 20 23 16
-624.549142339571 -43.9673223101599 2559.54297641751 20 23 16
-691.023650567415 -51.6878815203237 2547.15045100433 19 22 15
-698.6152074713 -52.0686562830179 2553.48656747275 15 18 11
-660.532326074983 -46.7822609850166 2573.94537867708 15 18 11
-694.774695247532 -50.4677530446074 2572.07488346528 21 24 17
-663.305745793005 -46.0160812059546 2590.27242510502 23 26 19
-672.797008564939 -46.6337500509145 2596.00625961779 17 20 13
-711.878361447842 -50.8955607519951 2593.01496519496 9 12 5
-708.041765792929 -49.8614865553716 2602.84111821117 26 29 22
-709.257991889404 -78.0954081912424 2301.27805483679 25 30 24
-734.533239304179 -80.8543496291107 2300.35921009093 26 28 23
-717.779143427135 -78.0426970588306 2316.01303005015 27 29 24
-691.648000652733 -73.9997328349272 2335.18820363208 22 25 18
-627.091364428229 -63.7580524849156 2386.4450632876 32 35 28
-645.834923085212 -65.6494993027357 2388.13171036015 19 22 15
-636.449647784456 -63.846345228217 2400.39545065159 17 20 13
-630.80602008551 -62.5374492765787 2411.20995197366 17 20 13
-601.662255994552 -58.1600415396261 2430.58337896964 19 22 15
-548.031782113444 -50.5995280278868 2458.65732737238 16 19 12
-600.645150850197 -56.9046313869098 2448.14724020372 19 22 15
-557.295515635767 -50.7046920240105 2472.19991049853 21 24 17
-562.875392593351 -50.8786508061012 2478.66366410117 21 24 17
-620.309706702598 -57.776519663618 2466.96187752395 22 25 18
-627.820829460975 -58.1871288217786 2472.96110250376 26 29 22
-618.348432152199 -56.3994597481858 2484.85004089269 26 29 22
-613.584381049069 -55.2241107205642 2495.06260453032 24 27 20
-607.866796564712 -53.9284338113828 2505.55898472973 24 27 20
-603.085064844486 -52.7561670236522 2515.6965366831 22 25 18
-615.330954430819 -53.7746390838482 2520.13318982244 22 25 18
-632.325844998709 -55.3982931292001 2523.06950457149 25 28 21
-636.073280253297 -55.3187836177241 2530.42328272782 21 24 17
-629.392581317653 -53.9045975091819 2541.16232947338 20 23 16
-654.014635071992 -56.4916121965422 2541.82150847625 21 24 17
-646.382828656224 -54.9566506801903 2552.85588488932 21 24 17
-632.087845583982 -52.5770265415667 2565.92868444066 19 22 15
-651.048669102645 -54.4314001425291 2568.55092019519 15 18 11
-665.27520603653 -55.6781189260929 2572.73687999584 13 16 9
-652.861761834521 -53.543789322034 2585.13228422236 22 25 18
-663.293105107561 -54.3057656432379 2590.53603865018 25 28 21
-682.315083264077 -56.1497435709935 2593.42055610526 22 25 18
-708.990419885879 -58.9524651650465 2594.14065372423 23 26 19
-720.413443853864 -59.256165082449 2608.20227282253 34 37 30
-774.874948627762 -65.5269971950478 2601.25848634345 25 28 21
-685.819802301499 -84.1031517727652 2301.77800639285 2 7 1
-703.592534737133 -85.9228260168487 2303.70082647418 20 25 19
-701.778277335678 -85.0824495994644 2313.43859328985 24 26 21
-689.681634326748 -82.8526551974437 2327.17277008981 25 27 22
-672.891829537464 -79.9946444827269 2342.64088328709 24 27 20
-635.494669301648 -74.3651232254718 2365.9195608242 32 35 28
-645.792476611446 -75.1738660347622 2370.76238551761 24 27 20
-673.901206739493 -78.373776672321 2368.91964098307 23 26 19
-656.110442601217 -75.401087635908 2384.46590753838 26 29 22
-637.355804701262 -72.3071263336499 2400.25095594666 24 27 20
-619.513096507685 -69.3435234009023 2415.57367126885 20 23 16
-608.219543079697 -67.2630572732632 2428.37923309188 22 25 18
-589.389959608867 -64.1822749712019 2443.84069325792 24 27 20
-589.343881051292 -63.6123789433948 2452.41634877264 26 29 22
-588.354531862796 -62.9176944994828 2461.31842088871 29 32 25
-579.827674581056 -61.2228864228006 2472.87107786493 32 35 28
-621.234149212824 -66.1547466034683 2466.84940399623 33 36 29
-623.08644215796 -65.8325935661555 2474.82219213711 31 34 27
-624.938995069369 -65.5104190008401 2482.79611317683 30 33 26
-623.014649249854 -64.6895489080396 2492.06132650039 29 32 25
-618.251211378549 -63.4958758382965 2502.265814787 29 32 25
-606.860969881272 -61.4325573303115 2514.65431262724 27 30 23
-606.806768775743 -60.8643141233396 2523.19514765934 26 29 22
-620.951320698123 -62.1600045874741 2527.04863788994 22 25 18
-624.691495274206 -62.0875073662937 2534.37345931045 21 24 17
-629.382272786968 -62.138577304057 2541.40345618228 19 22 15
-646.408609859227 -63.7998295091354 2544.50045632523 21 24 17
-657.759746369448 -64.7148066951163 2549.49093289311 20 23 16
-653.926245129313 -63.6484992611754 2559.31176314306 19 22 15
-632.02701132569 -60.2353126666594 2574.72245989172 16 19 12
-661.454638324688 -63.4954176606152 2574.16944547856 14 17 10
-658.561203898841 -62.5546454315015 2583.64909409459 18 21 14
-665.184571324255 -62.8475563043814 2590.22462460137 21 24 17
-676.579060800297 -63.7551831740755 2595.40181605451 21 24 17
-720.406863963346 -68.8443304106441 2591.02852102463 16 19 12
-728.030767662301 -69.2522044082712 2597.52420137147 17 20 13
-776.741222829335 -74.3595493159869 2601.00707818198 37 40 33
-699.79629754374 -93.9818357459701 2305.38168631704 16 21 15
-671.845747711496 -89.5135788590548 2325.40326111333 25 27 22
-673.745029243971 -89.1834439513887 2333.57841331938 24 26 21
-670.971313822769 -88.2082723140111 2343.56646652664 22 25 18
-674.738796686532 -88.1363762562895 2351.01197755336 26 29 22
-646.688873972771 -83.6854498093542 2370.60585147959 17 20 13
-621.409235678976 -79.627384088814 2388.96795534582 16 19 12
-646.698697197644 -82.5180700248581 2388.18923392798 18 21 14
-636.385210859528 -80.5219207220475 2400.80563503193 17 20 13
-606.350540756268 -75.8331728184395 2420.62650360853 16 19 12
-592.236445630896 -73.3317956735311 2434.42587475749 18 21 14
-615.685559355788 -75.9595012552597 2434.4967444268 21 24 17
-605.315978647948 -73.9732348977001 2446.87068789092 24 27 20
-578.936052177965 -69.8150185060789 2464.8828762752 26 29 22
-603.357947836384 -72.5651922299547 2464.7549219955 29 32 25
-611.794479995667 -73.1391484671257 2470.37170246812 29 32 25
-629.666814910766 -74.987551162932 2472.750325496 32 35 28
-620.204519422063 -73.1350343131684 2484.64563697 29 32 25
-624.886616885164 -73.1958299248899 2491.6431048746 26 29 22
-617.293580231238 -71.6013723647386 2502.81332952633 26 29 22
-605.90780939064 -69.5003719759453 2515.19936439948 27 30 23
-593.558979770445 -67.275278902916 2527.8261135274 27 30 23
-589.709759401956 -66.1960040406743 2537.56896282877 30 33 26
-611.422709838829 -68.5427859390453 2538.93796675771 29 32 25
-636.952670910735 -71.3920070523075 2539.19463643677 30 33 26
-645.44497752972 -71.9564686086616 2545.05160679556 36 39 32
-653.946190441499 -72.5194037273065 2550.94692560191 32 35 28
-634.870706781977 -68.8410495506751 2574.08723422217 17 20 13
-627.212190684017 -67.2580893204422 2584.97676754846 15 18 11
-669.012672391958 -72.234090675039 2580.71727786189 16 19 12
-676.593989035753 -72.6656015244169 2587.03811116402 20 23 16
-692.756436018735 -74.2287066114174 2590.82699377085 25 28 21
-727.048774317708 -78.1781649423184 2589.33303401969 24 27 20
-727.045021736365 -77.5964810182628 2598.08826887327 19 22 15
-737.538237354973 -78.3963317894081 2603.78694495519 25 28 21
-754.728349303225 -80.0723584461962 2607.61432124456 32 35 28
-769.071337723942 -81.3689208827269 2612.34274968046 41 44 37
-681.082263606498 -99.9120180366808 2312.98306132975 12 17 11
-668.992702354811 -97.6021794196679 2326.70245144254 24 26 21
-675.559360594467 -97.9319165342654 2333.04866224349 21 23 18
-683.06677024109 -98.3922351275167 2339.06076258365 24 27 20
-664.403380739646 -95.166266074199 2355.17026126801 29 32 25
-636.357485653789 -90.6299969977979 2374.73168749174 17 20 13
-639.16632439469 -90.4364208852894 2382.43878531968 18 21 14
-591.389638645658 -83.1533172892535 2409.13044570188 18 21 14
-626.977904175966 -87.5561712365918 2404.49986078815 18 21 14
-635.407905692631 -88.1502674429159 2410.0997091655 18 21 14
-604.423553645112 -83.2424760617688 2430.16330466062 21 24 17
-608.149021365814 -83.1837050041004 2437.43247890957 23 26 19
-587.44026772155 -79.725084682927 2453.50490090251 25 28 21
-576.107211410971 -77.5779635662533 2466.09609960705 26 29 22
-591.108613565412 -79.088681215643 2469.29543075238 26 29 22
-639.088895316978 -85.1612173206279 2461.01562552407 26 29 22
-621.164469434278 -82.1010132368733 2475.92142806706 21 24 17
-622.073791398233 -81.6494403616388 2484.22031559791 20 23 16
-620.151536351975 -80.8077668283667 2493.48141975606 19 22 15
-615.391887325663 -79.5769313234696 2503.68074614212 20 23 16
-596.451061430123 -76.3992436483294 2518.59609804032 19 22 15
-599.229116012859 -76.2112178827444 2526.16972128452 17 20 13
-601.062426381645 -75.8932496222874 2534.06132262552 16 19 12
-627.510046726394 -78.9439111662886 2533.92488795177 17 20 13
-647.359117707956 -81.0827878350779 2536.07109591233 17 20 13
-636.897747808192 -79.0783433026988 2548.0309580074 21 24 17
-638.751804711411 -78.7568193848256 2556.01188918962 20 23 16
-631.114253375046 -77.1439226467924 2566.97511122629 16 19 12
-632.012801398494 -76.6944033038461 2575.22664398884 17 20 13
-662.373322714783 -80.241579730417 2574.39693853905 17 20 13
-672.799438693898 -81.0772333511807 2579.82099308483 17 20 13
-716.544969692812 -86.4155790809844 2575.23281640792 20 23 16
-722.253983325032 -86.6005533534697 2582.27209942183 31 34 27
-713.674701304355 -84.8573188851762 2593.56526002495 49 52 45
-716.524092157624 -84.6569978305632 2601.44708662829 31 34 27
-721.283275912662 -84.7130056414122 2608.78142504215 29 32 25
-753.734570479253 -88.4852020946002 2608.1833200703 31 34 27
-732.724142568288 -85.0791699998908 2622.95732241781 44 47 40
-719.242002611993 -113.95873972793 2298.01546683921 12 17 11
-667.074003430337 -105.814590975201 2327.63423872046 22 24 19
-682.038697456171 -107.36936219972 2330.69772361315 20 22 17
-722.239382682426 -112.550673380053 2324.0657730432 16 19 12
-640.989793674965 -100.261344188308 2364.35463763143 28 31 24
-668.118580692289 -103.559879098681 2362.80811370784 16 19 12
-642.872887057774 -99.3425683332241 2381.22613453095 19 22 15
-638.19428107897 -98.0794256798548 2391.76358118547 19 22 15
-623.199094878677 -95.3448887439856 2406.09962731779 19 22 15
-595.054244472077 -90.7411892747515 2425.18425272011 22 25 18
-610.006584865976 -91.7055908622514 2436.959962638 26 29 22
-596.823805252971 -89.2495767856924 2450.33243425124 27 30 23
-579.860823019991 -86.2635187117397 2464.96211475618 28 31 24
-621.203513252085 -91.5432126277621 2458.86395458118 26 29 22
-629.648446598438 -92.1538391888813 2464.5393238028 25 28 21
-641.870686177652 -93.295084643627 2468.94397270987 20 23 16
-614.514580701445 -88.8508970568011 2487.04276202048 20 23 16
-623.908726334001 -89.5933706330463 2492.42096221801 22 25 18
-629.537236528759 -89.8032056732553 2499.12012307772 23 26 19
-623.836620045396 -88.4208469180515 2509.64137702807 20 23 16
-665.383640599356 -93.6651496774932 2504.42279784643 18 21 14
-694.688050673573 -97.1792963199637 2503.47623779721 21 24 17
-646.425291782999 -89.8398487255632 2527.99284065997 23 26 19
-653.970203492556 -90.310191842929 2534.17609275589 20 23 16
-628.355951943759 -86.1567553910901 2551.00760422303 19 22 15
-590.378821410209 -80.2939979101047 2571.59341713699 20 23 16
-632.054283331696 -85.5160573722208 2566.92774171086 19 22 15
-652.89337361507 -87.8306038572956 2568.98346137873 19 22 15
-679.458131563726 -90.9306638676371 2569.39117051186 18 21 14
-691.794406300336 -92.0521013148324 2574.28775989557 15 18 11
-712.706655804487 -94.3539781965548 2576.65840931975 17 20 13
-721.268391412782 -94.9443922233754 2582.83658813209 24 27 20
-720.313178449074 -94.2211696929841 2591.87229891709 33 36 29
-708.869272139734 -92.0564414594026 2603.96467284214 22 25 18
-731.743002066187 -94.0185317352049 2614.77888174006 24 27 20
-737.723490635974 -125.958429225328 2281.70841547365 22 27 21
-725.692476600032 -123.559739095598 2295.63353873362 6 11 5
-704.318787125897 -119.790601891704 2313.15072753382 19 21 16
-679.18257666169 -115.477768160579 2331.99392427367 24 26 21
-677.352649153239 -114.599646807447 2341.64152565755 18 21 14
-693.270169579011 -116.326078629394 2344.44718443873 30 33 26
-685.833422235124 -114.625945769094 2356.24395491774 11 14 7
-653.125119843032 -109.233636746565 2377.5397546084 17 20 13
-634.413645761968 -105.89992022792 2393.37399143956 20 23 16
-633.474071244337 -105.166457550157 2402.47259129196 22 25 18
-616.595443174411 -102.11301857813 2417.43435351074 26 29 22
-611.862329373815 -100.243770808454 2436.48901449054 26 29 22
-612.775332191809 -99.7871588656488 2444.80007175572 25 28 21
-596.769649977794 -96.8813248522978 2459.13894591334 24 27 20
-596.728992570986 -96.2909585645984 2467.72645019789 21 24 17
-636.212864441282 -101.407186787472 2462.45393402736 19 22 15
-638.077348325487 -101.084589842142 2470.48018136502 22 25 18
-645.595977559834 -101.575796493406 2476.56097541902 21 24 17
-621.061856852682 -97.4573445535656 2493.61524895235 21 24 17
-645.559434437929 -100.387324787814 2493.92763549739 22 25 18
-652.147344427567 -100.740942069991 2500.38153926608 22 25 18
-671.969142853968 -102.986488082352 2502.4703080874 20 23 16
-633.197139489885 -96.8509693497606 2523.95051728146 20 23 16
-642.621515062279 -97.6098791614102 2529.47159523712 22 25 18
