ply
format ascii 1.0
comment KinectMotionCapture
element vertex 752
property float x
property float y
property float z
property uchar red
property uchar green
property uchar blue
end_header
-689.695596694946 368.1680560112 2296.99993133545 186 186 186
-691.814959049225 372.67741560936 2325.00004768372 190 192 191
-1001.79648399353 373.390674591064 2372.99990653992 139 136 131
-998.275339603424 374.489277601242 2380.00011444092 195 191 188
-991.384565830231 374.32986497879 2378.99994850159 199 198 194
-979.119658470154 372.125893831253 2365.00000953674 201 201 201
-963.642656803131 368.663877248764 2342.99993515015 205 205 205
-954.007208347321 367.405593395233 2335.00003814697 175 175 175
-948.47571849823 367.721438407898 2336.99989318848 175 175 175
-939.710378646851 366.779386997223 2331.00008964539 212 212 212
-923.771560192108 363.005667924881 2306.99992179871 210 210 210
-907.567322254181 359.075337648392 2282.00006484985 192 192 192
-897.42523431778 357.505887746811 2272.0000743866 191 191 191
-889.300346374512 356.723845005035 2266.99995994568 181 181 181
-881.983280181885 356.257200241089 2263.99993896484 184 184 184
-875.070631504059 355.948507785797 2262.00008392334 188 188 188
-867.401957511902 355.325698852539 2257.99989700317 183 183 183
-859.756350517273 354.703575372696 2253.99994850159 178 178 176
-852.512359619141 354.239404201508 2250.99992752075 168 168 166
-846.037805080414 354.090511798859 2250 166 166 164
-839.942991733551 354.099601507187 2250 166 166 164
-834.961116313934 354.581385850906 2253.00002098084 166 166 164
-828.492343425751 354.434251785278 2252.00009346008 163 164 159
-822.395145893097 354.445040225983 2252.00009346008 163 164 159
-815.573811531067 354.141533374786 2250 166 167 162
-808.764040470123 353.838533163071 2247.99990653992 168 169 164
-801.608920097351 353.378623723984 2244.99988555908 172 172 170
-795.888185501099 353.548914194107 2246.00005149841 168 168 166
-790.162563323975 353.719621896744 2246.99997901917 161 161 159
-784.781157970428 354.048222303391 2249.00007247925 151 151 149
-779.043138027191 354.219943284988 2250 149 149 147
-772.613286972046 354.077219963074 2249.00007247925 149 149 147
-766.87079668045 354.249775409698 2250 146 146 144
-760.109007358551 353.950470685959 2247.99990653992 141 141 139
-754.700064659119 354.281425476074 2250 140 140 138
-748.947739601135 354.455232620239 2250.99992752075 141 141 139
-743.850469589233 354.944467544556 2253.99994850159 142 142 140
-738.409876823425 355.276674032211 2256.00004196167 142 142 140
-732.633948326111 355.451732873917 2256.99996948242 151 150 146
-727.49650478363 355.942189693451 2259.99999046326 152 151 147
-722.34308719635 356.433063745499 2263.00001144409 148 149 144
-717.489838600159 357.081770896912 2266.99995994568 144 145 140
-712.928712368011 357.888460159302 2272.0000743866 146 146 144
-707.71849155426 358.380496501923 2275.00009536743 156 156 154
-702.183485031128 358.715295791626 2276.99995040894 156 156 154
-696.943283081055 359.207957983017 2279.99997138977 159 159 157
-692.595601081848 360.173732042313 2286.00001335144 166 168 165
-690.917730331421 362.557888031006 2301.00011825562 184 186 185
-692.431628704071 366.67588353157 2326.99990272522 187 189 188
-1003.05986404419 367.403745651245 2375.99992752075 138 135 130
-999.531328678131 368.483632802963 2382.99989700317 193 189 186
-992.216646671295 368.172734975815 2381.00004196167 196 195 191
-980.775117874146 366.316348314285 2368.99995803833 202 202 202
-964.876711368561 362.759828567505 2345.99995613098 208 208 208
-954.825282096863 361.368864774704 2336.99989318848 182 182 182
-948.883414268494 361.525028944016 2338.00005912781 176 176 176
-940.922200679779 360.90874671936 2334.00011062622 209 209 209
-926.577806472778 357.819050550461 2313.99989128113 217 217 217
-907.571196556091 352.874428033829 2282.00006484985 198 198 198
-897.034704685211 351.177722215652 2270.99990844727 197 197 197
-888.521015644073 350.254833698273 2265.00010490417 188 188 188
-882.37863779068 350.260406732559 2265.00010490417 186 186 186
-875.077188014984 349.802702665329 2262.00008392334 187 187 187
-868.177354335785 349.500209093094 2259.99999046326 186 186 186
-860.145568847656 348.734468221664 2255.00011444092 186 186 184
-852.899372577667 348.278552293777 2252.00009346008 173 173 171
-846.422553062439 348.132461309433 2250.99992752075 166 166 164
-840.325772762299 348.141700029373 2250.99992752075 164 164 162
-834.971129894257 348.460763692856 2253.00002098084 168 168 166
-829.238712787628 348.625749349594 2253.99994850159 165 166 161
-823.501825332642 348.79133105278 2255.00011444092 163 164 159
-817.035317420959 348.648011684418 2253.99994850159 161 162 157
-809.85552072525 348.195821046829 2250.99992752075 163 164 159
-802.692770957947 347.744166851044 2247.99990653992 171 171 169
-796.255588531494 347.602337598801 2246.99997901917 169 169 167
-790.527820587158 347.7703332901 2247.99990653992 166 166 164
-784.79528427124 347.938895225525 2249.00007247925 155 155 153
-779.750168323517 348.417311906815 2252.00009346008 151 151 149
-772.97168970108 348.1225669384 2250 148 148 146
-767.567932605743 348.447203636169 2252.00009346008 148 148 146
-760.462880134583 347.998559474945 2249.00007247925 145 145 143
-755.3870677948 348.478734493256 2252.00009346008 145 145 143
-749.297201633453 348.495155572891 2252.00009346008 150 150 148
-743.867456912994 348.821371793747 2253.99994850159 152 152 150
-738.427221775055 349.148094654083 2256.00004196167 152 152 150
-732.976257801056 349.475145339966 2257.99989700317 155 154 150
-728.158533573151 350.112199783325 2262.00008392334 154 153 149
-723.957479000092 351.059168577194 2267.99988746643 147 148 143
-719.407618045807 351.851791143417 2273.00000190735 140 141 136
-714.516878128052 352.490037679672 2276.99995040894 136 136 134
-708.982467651367 352.819085121155 2279.00004386902 155 155 153
-702.820181846619 352.838754653931 2279.00004386902 156 156 154
-697.269141674042 353.168308734894 2280.99989891052 159 159 157
-692.919075489044 354.117661714554 2286.99994087219 165 167 164
-691.238880157471 356.460958719254 2302.00004577637 182 184 183
-693.345785140991 360.817909240723 2329.99992370605 184 186 185
-695.890665054321 365.485370159149 2359.99989509583 200 201 203
-999.529361724854 362.006187438965 2382.99989700317 194 190 187
-992.215692996979 361.701041460037 2381.00004196167 195 194 190
-982.016742229462 360.333293676376 2371.99997901917 203 203 203
-965.699791908264 356.687664985657 2348.00004959106 210 210 210
-954.826474189758 355.017632246017 2336.99989318848 187 187 187
-947.261929512024 354.563653469086 2334.00011062622 182 182 182
-939.715504646301 354.110360145569 2331.00008964539 202 202 202
-925.379991531372 351.075291633606 2311.00010871887 202 202 202
-908.370614051819 346.977382898331 2283.99991989136 182 182 182
-897.829413414001 345.310777425766 2273.00000190735 187 187 187
-889.703035354614 344.556242227554 2267.99988746643 198 198 198
-883.163809776306 344.410121440887 2266.99995994568 203 203 203
-875.470638275146 343.808799982071 2263.00001144409 197 197 197
-868.184626102448 343.360036611557 2259.99999046326 196 196 196
-860.916197299957 342.911809682846 2256.99996948242 190 190 188
-852.528989315033 342.008322477341 2250.99992752075 175 175 173
-846.4315533638 342.017024755478 2250.99992752075 169 169 167
-840.708613395691 342.178255319595 2252.00009346008 172 172 170
-835.72244644165 342.64400601387 2255.00011444092 170 170 168
-829.985201358795 342.806339263916 2256.00004196167 168 169 164
-823.51291179657 342.665314674377 2255.00011444092 167 168 163
-817.409515380859 342.676788568497 2255.00011444092 162 163 158
-810.587346553802 342.38475561142 2253.00002098084 159 160 155
-804.133772850037 342.245221138 2252.00009346008 157 157 155
-797.331809997559 341.954171657562 2250 160 160 158
-791.244685649872 341.96749329567 2250 163 163 161
-785.158216953278 341.981321573257 2250 162 162 160
-779.764711856842 342.299610376358 2252.00009346008 157 157 155
-773.33015203476 342.162281274796 2250.99992752075 147 147 145
-767.924010753632 342.481434345245 2253.00002098084 141 141 139
-761.154890060425 342.192947864532 2250.99992752075 137 137 135
-756.074011325836 342.664986848831 2253.99994850159 138 138 136
-749.979078769684 342.681288719177 2253.99994850159 148 148 146
-744.214534759521 342.850089073181 2255.00011444092 152 152 150
-738.771975040436 343.171268701553 2256.99996948242 155 155 153
-733.643233776093 343.644887208939 2259.99999046326 159 158 154
-729.786157608032 344.72718834877 2266.99995994568 152 151 147
-725.25292634964 345.505803823471 2272.0000743866 142 143 138
-721.009075641632 346.436828374863 2278.00011634827 143 144 139
-715.477526187897 346.75994515419 2279.99997138977 151 151 149
-709.624052047729 346.931338310242 2280.99989891052 167 167 165
-702.839970588684 346.646726131439 2279.00004386902 166 166 164
-697.289168834686 346.970736980438 2280.99989891052 162 162 160
-692.636430263519 347.751498222351 2286.00001335144 166 168 165
-691.259682178497 350.206017494202 2302.00004577637 184 186 185
-693.367004394531 354.486763477325 2329.99992370605 187 189 188
-697.092056274414 359.681218862534 2364.00008201599 196 197 199
-998.68905544281 355.230450630188 2381.00004196167 195 191 188
-990.547955036163 354.632675647736 2377.00009346008 194 193 189
-980.774760246277 353.438854217529 2368.99995803833 200 200 200
-964.877963066101 350.007921457291 2345.99995613098 208 208 208
-953.602433204651 348.218888044357 2334.00011062622 187 187 187
-946.046590805054 347.773253917694 2331.00008964539 181 181 181
-939.71848487854 347.775965929031 2331.00008964539 195 195 195
-926.985323429108 345.392227172852 2315.00005722046 207 207 207
-910.761058330536 341.666281223297 2289.99996185303 177 177 177
-899.019300937653 339.582145214081 2276.00002288818 174 174 174
-890.885531902313 338.841378688812 2270.99990844727 179 179 179
-883.55952501297 338.399678468704 2267.99988746643 191 191 191
-876.25116109848 337.958633899689 2265.00010490417 196 196 196
-868.576049804688 337.368875741959 2260.99991798401 195 195 195
-861.305415630341 336.928904056549 2257.99989700317 193 193 191
-852.916240692139 336.041897535324 2252.00009346008 179 179 177
-846.440553665161 335.901468992233 2250.99992752075 173 173 171
-840.7182097435 336.060106754303 2252.00009346008 173 173 171
-835.732638835907 336.517721414566 2255.00011444092 166 166 164
-829.99587059021 336.677402257919 2256.00004196167 165 166 161
-823.524117469788 336.53911948204 2255.00011444092 166 167 162
-817.783713340759 336.699843406677 2256.00004196167 166 167 162
-812.038600444794 336.861073970795 2256.99996948242 162 163 158
-805.574655532837 336.724281311035 2256.00004196167 158 158 156
-798.762381076813 336.438685655594 2253.99994850159 158 158 156
-791.96172952652 336.153566837311 2252.00009346008 158 158 156
-786.219120025635 336.316615343094 2253.00002098084 160 160 158
-780.125439167023 336.33092045784 2253.00002098084 158 158 156
-773.688673973084 336.196333169937 2252.00009346008 149 149 147
-768.280267715454 336.509972810745 2253.99994850159 144 144 142
-762.523293495178 336.674839258194 2255.00011444092 138 138 136
-757.096529006958 336.989313364029 2256.99996948242 138 138 136
-750.661075115204 336.856305599213 2256.00004196167 149 149 147
-744.891405105591 337.022304534912 2256.99996948242 155 155 153
-739.116430282593 337.18866109848 2257.99989700317 159 159 157
-734.634697437286 337.952762842178 2263.00001144409 155 154 150
-730.76993227005 339.015901088715 2269.99998092651 148 147 143
-726.548135280609 339.930206537247 2276.00002288818 146 147 142
-721.660852432251 340.546160936356 2279.99997138977 148 149 144
-715.49654006958 340.565025806427 2279.99997138977 154 154 152
-709.021151065826 340.434789657593 2279.00004386902 168 168 166
-702.859580516815 340.454250574112 2279.00004386902 167 167 165
-697.614908218384 340.922117233276 2282.00006484985 164 164 162
-693.262696266174 341.838538646698 2288.00010681152 168 170 167
-691.280245780945 343.950629234314 2302.00004577637 184 186 185
-693.090617656708 348.005712032318 2328.9999961853 187 189 188
-696.523904800415 352.958112955093 2361.99998855591 195 196 198
-996.590495109558 348.02633523941 2375.99992752075 195 191 188
-989.297270774841 347.732663154602 2374.00007247925 195 194 190
-980.775117874146 347.000300884247 2368.99995803833 200 200 200
-964.879035949707 343.632131814957 2345.99995613098 205 205 205
-954.01269197464 342.02241897583 2335.00003814697 181 181 181
-946.049094200134 341.438710689545 2331.00008964539 178 178 178
-939.721524715424 341.441571712494 2331.00008964539 185 185 185
-928.190350532532 339.540958404541 2318.00007820129 200 200 200
-912.356317043304 336.0296189785 2293.99991035461 193 193 193
-900.209307670593 333.83721113205 2279.00004386902 188 188 188
-892.460465431213 333.256751298904 2275.00009536743 181 181 181
-884.734451770782 332.676827907562 2270.99990844727 172 172 172
-877.805411815643 332.390487194061 2269.00005340576 161 161 161
-870.504379272461 331.958293914795 2266.00003242493 172 172 172
-863.220810890198 331.526607275009 2263.00001144409 183 183 181
-853.682279586792 330.216437578201 2253.99994850159 175 175 173
-846.825778484344 329.932361841202 2252.00009346008 169 169 167
-840.35450220108 329.795330762863 2250.99992752075 174 174 172
-835.372090339661 330.244809389114 2253.99994850159 162 162 160
-829.638719558716 330.401837825775 2255.00011444092 163 164 159
-823.53538274765 330.412834882736 2255.00011444092 165 166 161
-817.432940006256 330.424338579178 2255.00011444092 167 168 163
-811.691045761108 330.582857131958 2256.00004196167 165 166 161
-805.587410926819 330.595314502716 2256.00004196167 166 166 164
-799.129962921143 330.461740493774 2255.00011444092 159 159 157
-793.381989002228 330.621659755707 2256.00004196167 151 151 149
-787.629008293152 330.781996250153 2256.99996948242 147 147 145
-780.486106872559 330.356568098068 2253.99994850159 149 149 147
-773.703575134277 330.078125 2252.00009346008 148 148 146
-768.295466899872 330.386251211166 2253.99994850159 148 148 146
-763.215243816376 330.841511487961 2256.99996948242 146 146 144
-757.112622261047 330.857336521149 2256.99996948242 151 151 149
-751.010358333588 330.87357878685 2256.99996948242 164 164 162
-745.238244533539 331.036776304245 2257.99989700317 162 162 160
-740.770280361176 331.786781549454 2263.00001144409 158 158 156
-736.275374889374 332.537204027176 2267.99988746643 146 145 141
-732.075572013855 333.434700965881 2273.9999294281 147 146 142
-726.885676383972 333.892673254013 2276.99995040894 151 152 147
-721.679389476776 334.351003170013 2279.99997138977 156 157 152
-715.515494346619 334.369748830795 2279.99997138977 163 163 161
-709.351480007172 334.388732910156 2279.99997138977 177 177 175
-703.187465667725 334.408044815063 2279.99997138977 173 173 171
-697.940349578857 334.867596626282 2282.99999237061 167 167 165
-693.888783454895 335.91428399086 2289.99996185303 171 173 170
-691.300690174103 337.69479393959 2302.00004577637 183 185 184
-693.409085273743 341.823011636734 2329.99992370605 185 187 186
-695.660710334778 346.098750829697 2358.99996757507 194 195 197
-997.008919715881 341.71199798584 2377.00009346008 198 194 191
-988.463580608368 340.992718935013 2371.99997901917 197 196 192
-979.533553123474 340.130478143692 2365.9999370575 202 202 202
-964.469015598297 337.112605571747 2345.00002861023 206 206 206
-954.831719398499 335.964232683182 2336.99989318848 182 182 182
-946.863353252411 335.391640663147 2332.99994468689 180 180 180
-941.337585449219 335.682302713394 2335.00003814697 186 186 186
-930.596828460693 334.104657173157 2323.99988174438 201 201 201
-914.747297763824 330.658733844757 2299.99995231628 197 197 197
-901.399612426758 328.076004981995 2282.00006484985 195 195 195
-892.858505249023 327.218949794769 2276.00002288818 196 196 196
-884.740889072418 326.50625705719 2270.99990844727 191 191 191
-879.359900951386 326.800614595413 2273.00000190735 173 173 173
-872.816979885101 326.664239168167 2272.0000743866 166 166 166
-865.89914560318 326.384574174881 2269.99998092651 162 162 160
-856.342136859894 325.098961591721 2260.99991798401 171 171 169
-848.715126514435 324.532806873322 2256.99996948242 176 176 174
-841.484189033508 324.110925197601 2253.99994850159 169 169 167
-835.753083229065 324.264794588089 2255.00011444092 165 165 163
-829.281449317932 324.131518602371 2253.99994850159 163 164 159
-823.546707630157 324.286371469498 2255.00011444092 163 164 159
-817.807197570801 324.441701173782 2256.00004196167 165 166 161
-812.78270483017 324.885159730911 2259.0000629425 165 166 161
-806.671440601349 324.897617101669 2259.0000629425 162 162 160
-799.851834774017 324.622869491577 2256.99996948242 160 160 158
-793.043911457062 324.348598718643 2255.00011444092 157 157 155
-787.294149398804 324.506193399429 2256.00004196167 150 150 148
-781.193137168884 324.520379304886 2256.00004196167 146 146 144
-774.749100208282 324.391186237335 2255.00011444092 142 142 140
-768.992483615875 324.550002813339 2256.00004196167 154 154 152
-763.230919837952 324.709266424179 2256.99996948242 155 155 153
-757.799625396729 325.01283288002 2259.0000629425 160 160 158
-751.026690006256 324.741184711456 2256.99996948242 163 163 161
-745.915055274963 325.1893222332 2259.99999046326 156 156 154
-741.442203521729 325.9257376194 2265.00010490417 150 150 148
-737.591505050659 326.950281858444 2272.0000743866 147 146 142
-733.059287071228 327.687412500381 2276.99995040894 148 147 143
-727.542281150818 327.993214130402 2279.00004386902 152 153 148
-721.697926521301 328.155398368835 2279.99997138977 157 158 153
-715.84814786911 328.317910432816 2280.99989891052 163 163 161
-709.370672702789 328.192889690399 2279.99997138977 174 174 172
-703.515231609344 328.355938196182 2280.99989891052 170 170 168
-698.265671730042 328.807234764099 2283.99991989136 160 160 158
-694.514751434326 329.978704452515 2292.00005531311 165 167 164
-692.221939563751 331.870436668396 2305.0000667572 183 185 184
-694.32270526886 335.922390222549 2332.99994468689 186 188 187
-696.271777153015 339.97517824173 2361.00006103516 187 188 190
-1001.20258331299 336.661696434021 2387.00008392334 193 189 186
-991.380631923676 335.533142089844 2378.99994850159 186 185 181
-980.362415313721 333.982288837433 2368.00003051758 199 199 199
-966.526865959167 331.444829702377 2349.99990463257 204 204 204
-956.059575080872 330.03631234169 2339.99991416931 180 180 180
-948.083877563477 329.474836587906 2335.99996566772 177 177 177
-941.341042518616 329.337060451508 2335.00003814697 182 182 182
-931.401968002319 328.071624040604 2325.99997520447 197 197 197
-916.740655899048 325.114190578461 2305.0000667572 190 190 190
-903.379917144775 322.580486536026 2286.99994087219 183 183 183
-894.82581615448 321.739852428436 2280.99989891052 179 179 179
-885.916233062744 320.758819580078 2273.9999294281 177 177 177
-879.753887653351 320.76570391655 2273.9999294281 183 183 183
-873.592913150787 320.773154497147 2273.9999294281 188 188 188
-867.051839828491 320.64014673233 2273.00000190735 181 181 179
-858.244717121124 319.661229848862 2266.00003242493 168 168 166
-850.604712963104 319.106042385101 2262.00008392334 161 161 159
-842.240750789642 318.26913356781 2256.00004196167 171 171 169
-835.392653942108 317.997008562088 2253.99994850159 172 172 170
-828.556478023529 317.725419998169 2252.00009346008 167 168 163
-823.192715644836 318.018615245819 2253.99994850159 165 166 161
-818.181455135345 318.453431129456 2256.99996948242 166 167 162
-813.154697418213 318.888694047928 2259.99999046326 167 168 163
-807.041168212891 318.901151418686 2259.99999046326 161 161 159
-800.573766231537 318.772971630096 2259.0000629425 160 160 158
-793.760716915131 318.504065275192 2256.99996948242 158 158 156
-788.005948066711 318.658918142319 2257.99989700317 153 153 151
-782.246351242065 318.814218044281 2259.0000629425 151 151 149
-776.481628417969 318.969935178757 2259.99999046326 150 150 148
-770.03026008606 318.843722343445 2259.0000629425 147 147 145
-763.584494590759 318.717896938324 2257.99989700317 160 160 158
-757.815420627594 318.87474656105 2259.0000629425 163 163 161
-752.373993396759 319.173127412796 2260.99991798401 159 159 157
-746.921956539154 319.471925497055 2263.00001144409 150 150 148
-743.095993995667 320.476919412613 2269.99998092651 144 144 142
-738.907516002655 321.341216564178 2276.00002288818 146 145 141
-733.72083902359 321.782290935516 2279.00004386902 149 148 144
-727.241098880768 321.658939123154 2278.00011634827 153 154 149
-721.083283424377 321.677058935165 2278.00011634827 157 158 153
-715.239107608795 321.836680173874 2279.00004386902 161 161 159
-709.389567375183 321.996599435806 2279.99997138977 160 160 158
-703.84281873703 322.298049926758 2282.00006484985 163 163 161
-698.896646499634 322.882264852524 2286.00001335144 168 168 166
-695.443630218506 324.17306303978 2295.00007629395 172 174 171
-693.743646144867 326.31179690361 2309.99994277954 183 185 184
-695.236206054688 330.004990100861 2335.99996566772 184 186 185
-697.47257232666 334.122747182846 2365.00000953674 186 187 189
-1000.78272819519 330.035626888275 2385.99991798401 197 193 190
-991.380989551544 329.067409038544 2378.99994850159 191 190 186
-981.191396713257 327.823281288147 2369.99988555908 198 198 198
-967.351198196411 325.334966182709 2351.99999809265 203 203 203
-955.653429031372 323.53886961937 2338.99998664856 180 180 180
-947.275280952454 322.85013794899 2334.00011062622 176 176 176
-940.941691398621 322.853565216064 2334.00011062622 181 181 181
-931.806683540344 321.889340877533 2326.99990272522 192 192 192
-917.541086673737 319.12750005722 2306.99992179871 189 189 189
-903.780460357666 316.50447845459 2288.00010681152 185 185 185
-894.43963766098 315.403670072556 2279.99997138977 183 183 183
-886.312484741211 314.718395471573 2275.00009536743 184 184 184
-878.600478172302 314.171999692917 2270.99990844727 182 182 182
-872.064113616943 314.041197299957 2269.99998092651 181 181 181
-866.678655147552 314.325988292694 2272.0000743866 179 179 177
-859.010994434357 313.781142234802 2267.99988746643 177 177 175
-851.366102695465 313.236862421036 2263.99993896484 173 173 171
-842.997133731842 312.416285276413 2257.99989700317 164 164 162
-835.773706436157 312.011331319809 2255.00011444092 171 171 169
-828.567326068878 311.606794595718 2252.00009346008 169 170 165
-823.203861713409 311.894506216049 2253.99994850159 167 168 163
-817.830681800842 312.182813882828 2256.00004196167 165 166 161
-813.526690006256 312.886655330658 2260.99991798401 165 166 161
-807.410895824432 312.899112701416 2260.99991798401 172 172 170
-801.650166511536 313.050389289856 2262.00008392334 168 168 166
-794.477701187134 312.648504972458 2259.0000629425 164 164 162
-788.368940353394 312.662184238434 2259.0000629425 162 162 160
-783.299565315247 313.091546297073 2262.00008392334 161 161 159
-777.870655059814 313.382834196091 2263.99993896484 156 156 154
-772.090613842011 313.536196947098 2265.00010490417 154 154 152
-764.952778816223 313.136160373688 2262.00008392334 161 161 159
-758.837759494781 313.151806592941 2262.00008392334 160 160 158
-753.388464450836 313.444644212723 2263.99993896484 148 148 146
-748.258650302887 313.876301050186 2266.99995994568 144 144 142
-743.767559528351 314.585328102112 2272.0000743866 142 142 140
-739.249467849731 315.294682979584 2276.99995040894 150 149 145
-734.06046628952 315.727442502975 2279.99997138977 155 154 150
-728.216707706451 315.883636474609 2280.99989891052 163 164 159
-722.051084041595 315.901637077332 2280.99989891052 165 166 161
-715.88534116745 315.919935703278 2280.99989891052 167 167 165
-709.71941947937 315.938472747803 2280.99989891052 183 183 181
-703.861951828003 316.09582901001 2282.00006484985 184 184 182
-699.221611022949 316.807478666306 2286.99994087219 177 177 175
-695.76632976532 318.073689937592 2296.0000038147 175 177 174
-693.763673305511 320.032894611359 2309.99994277954 186 188 187
-695.256650447845 323.655217885971 2335.99996566772 189 191 190
-695.428967475891 326.723992824554 2358.00004005432 187 188 190
-691.098630428314 327.714800834656 2365.00000953674 208 209 211
-1000.78248977661 323.550671339035 2385.99991798401 198 194 191
-993.048369884491 323.1440782547 2382.99989700317 196 195 191
-982.848644256592 321.924656629562 2374.00007247925 199 199 199
-967.764317989349 319.078654050827 2352.9999256134 206 206 206
-955.655992031097 317.18248128891 2338.99998664856 184 184 184
-947.278499603271 316.507458686829 2334.00011062622 181 181 181
-941.348552703857 316.646665334702 2335.00003814697 186 186 186
-932.211697101593 315.70166349411 2328.00006866455 188 188 188
-918.739199638367 313.265472650528 2309.99994277954 195 195 195
-904.181122779846 310.422986745834 2289.00003433228 191 191 191
-895.23047208786 309.479594230652 2282.00006484985 187 187 187
-886.31933927536 308.53682756424 2275.00009536743 187 187 187
-878.220856189728 307.865738868713 2269.99998092651 191 191 191
-871.303498744965 307.602047920227 2267.99988746643 190 190 190
-865.542650222778 307.745814323425 2269.00005340576 183 183 181
-858.641088008881 307.483166456223 2266.99995994568 180 180 178
-850.623369216919 306.814134120941 2262.00008392334 177 177 175
-843.380331993103 306.416839361191 2259.0000629425 175 175 173
-836.154580116272 306.019991636276 2256.00004196167 168 168 166
-829.31387424469 305.759251117706 2253.99994850159 169 170 165
-823.580503463745 305.905938148499 2255.00011444092 168 169 164
-817.117393016815 305.781751871109 2253.99994850159 164 165 160
-812.099695205688 306.200683116913 2256.99996948242 163 164 159
-806.352198123932 306.348711252213 2257.99989700317 175 175 173
-802.017450332642 307.03991651535 2263.00001144409 173 173 171
-795.897960662842 307.05314874649 2263.00001144409 173 173 171
-789.778769016266 307.066768407822 2263.00001144409 180 180 178
-783.660113811493 307.080835103989 2263.00001144409 181 181 179
-778.572618961334 307.502388954163 2266.00003242493 174 174 172
-772.446513175964 307.517170906067 2266.00003242493 169 169 167
-765.644431114197 307.260900735855 2263.99993896484 167 167 165
-759.188890457153 307.140707969666 2263.00001144409 160 160 158
-754.402875900269 307.699471712112 2266.99995994568 152 152 150
-749.595403671265 308.25862288475 2270.99990844727 142 142 140
-745.093822479248 308.953911066055 2276.00002288818 142 142 140
-739.91596698761 309.378087520599 2279.00004386902 151 150 146
-734.399855136871 309.666812419891 2280.99989891052 157 156 152
-728.553771972656 309.820115566254 2282.00006484985 164 165 160
-722.069084644318 309.702187776566 2280.99989891052 166 167 162
-716.217517852783 309.856116771698 2282.00006484985 168 168 166
-710.049152374268 309.874475002289 2282.00006484985 172 172 170
-704.497635364532 310.1646900177 2283.99991989136 175 175 173
-699.546635150909 310.726821422577 2288.00010681152 174 174 172
-695.482790470123 311.69667840004 2295.00007629395 174 176 173
-693.783521652222 313.753485679626 2309.99994277954 185 187 186
-694.086372852325 316.761612892151 2332.00001716614 187 189 188
-695.15472650528 320.177793502808 2357.00011253357 187 188 190
-689.073920249939 320.334255695343 2358.00004005432 206 207 209
-993.882596492767 316.933453083038 2384.99999046326 194 193 189
-984.920024871826 316.137254238129 2378.99994850159 199 199 199
-968.589007854462 312.94983625412 2355.00001907349 206 206 206
-955.658733844757 310.826152563095 2338.99998664856 185 185 185
-948.09353351593 310.430616140366 2335.99996566772 181 181 181
-941.755712032318 310.434371232986 2335.99996566772 187 187 187
-933.417558670044 309.774309396744 2331.00008964539 189 189 189
-919.142186641693 307.121396064758 2311.00010871887 198 198 198
-904.976725578308 304.468929767609 2290.99988937378 195 195 195
-894.84441280365 303.146004676819 2280.99989891052 188 188 188
-886.32607460022 302.355200052261 2275.00009536743 188 188 188
-878.22824716568 301.697790622711 2269.99998092651 185 185 185
-871.311366558075 301.439553499222 2267.99988746643 183 183 183
-865.932464599609 301.713585853577 2269.99998092651 179 179 177
-859.0287566185 301.456391811371 2267.99988746643 177 177 175
-851.008772850037 300.800949335098 2263.00001144409 175 175 173
-843.763589859009 300.41179060936 2259.99999046326 171 171 169
-837.276935577393 300.289005041122 2259.0000629425 170 170 168
-831.532299518585 300.432473421097 2259.99999046326 171 172 167
-825.052678585052 300.310581922531 2259.0000629425 169 170 165
-817.854106426239 299.923181533813 2256.00004196167 165 166 161
-812.471628189087 300.200968980789 2257.99989700317 166 167 162
-807.079017162323 300.479203462601 2259.99999046326 167 167 165
-802.384853363037 301.023781299591 2263.99993896484 165 165 163
-796.614825725555 301.169961690903 2265.00010490417 162 162 160
-789.792597293854 300.917565822601 2263.00001144409 159 159 157
-784.02054309845 301.064491271973 2263.99993896484 162 162 160
-778.587162494659 301.344782114029 2266.00003242493 172 172 170
-773.143231868744 301.625460386276 2267.99988746643 173 173 171
-766.336143016815 301.374554634094 2266.00003242493 163 163 161
-760.210990905762 301.389962434769 2266.00003242493 155 155 153
-755.08439540863 301.804691553116 2269.00005340576 149 149 147
-750.271916389465 302.352875471115 2273.00000190735 148 148 146
-745.110511779785 302.768379449844 2276.00002288818 150 150 148
-739.608287811279 303.051203489304 2278.00011634827 161 160 156
-734.417200088501 303.467392921448 2280.99989891052 165 164 160
-728.890717029572 303.750842809677 2282.99999237061 169 170 165
-723.66988658905 304.167687892914 2286.00001335144 170 171 166
-717.491090297699 304.185628890991 2286.00001335144 171 171 169
-711.001098155975 304.070800542831 2285.00008583069 183 183 181
-705.133199691772 304.22231554985 2286.00001335144 183 183 181
-699.565529823303 304.507225751877 2288.00010681152 180 180 178
-695.501923561096 305.4578602314 2295.00007629395 180 182 179
-692.601680755615 306.941211223602 2305.99999427795 184 186 185
-692.915797233582 309.889286756516 2328.00006866455 183 185 184
-693.995356559753 313.237249851227 2352.9999256134 185 186 188
-691.432356834412 314.988285303116 2365.9999370575 202 203 205
-996.383905410767 311.232537031174 2391.00003242493 201 200 195
-985.33570766449 309.802055358887 2380.00011444092 198 198 198
-968.180000782013 306.419670581818 2354.00009155273 203 203 203
-955.253124237061 304.339647293091 2338.00005912781 184 184 184
-948.502779006958 304.212719202042 2336.99989318848 180 180 180
-941.759943962097 304.086446762085 2335.99996566772 183 183 183
-934.223175048828 303.700417280197 2332.99994468689 185 185 185
-920.738399028778 301.362335681915 2315.00005722046 199 199 199
-906.167685985565 298.634141683578 2293.99991035461 196 196 196
-895.635426044464 297.208279371262 2282.99999237061 186 186 186
-887.50171661377 296.564012765884 2278.00011634827 184 184 184
-879.783153533936 296.050399541855 2273.9999294281 179 179 177
-872.856140136719 295.797735452652 2272.0000743866 176 176 174
-865.940868854523 295.545518398285 2269.99998092651 172 172 170
-858.280181884766 295.033395290375 2266.00003242493 172 172 170
-851.394236087799 294.782161712646 2263.99993896484 173 173 171
-844.893455505371 294.661581516266 2263.00001144409 174 174 172
-838.399112224579 294.541507959366 2262.00008392334 176 176 174
-831.54308795929 294.291585683823 2259.99999046326 171 171 169
-824.698567390442 294.042110443115 2257.99989700317 169 169 167
-818.228304386139 293.923318386078 2256.99996948242 172 172 170
-812.483608722687 294.065326452255 2257.99989700317 174 174 172
-807.091534137726 294.33810710907 2259.99999046326 169 169 167
-802.397906780243 294.871747493744 2263.99993896484 165 165 163
-796.62811756134 295.015096664429 2265.00010490417 166 166 164
-790.504276752472 295.028567314148 2265.00010490417 167 167 165
-784.381031990051 295.042425394058 2265.00010490417 158 158 156
-779.288768768311 295.447409152985 2267.99988746643 154 154 152
-773.839890956879 295.72257399559 2269.99998092651 149 149 147
-767.70406961441 295.737534761429 2269.99998092651 145 145 143
-761.903882026672 295.883059501648 2270.99990844727 146 146 144
-756.764233112335 296.289622783661 2273.9999294281 147 147 145
-751.608431339264 296.696454286575 2276.99995040894 152 152 150
-745.78183889389 296.843111515045 2278.00011634827 157 157 155
-739.949762821198 296.990007162094 2279.00004386902 165 165 163
-734.434306621552 297.267526388168 2280.99989891052 168 168 166
-728.908121585846 297.545373439789 2282.99999237061 171 171 169
-722.737848758698 297.56286740303 2282.99999237061 173 173 171
-716.881334781647 297.710925340652 2283.99991989136 172 172 170
-710.708141326904 297.728925943375 2283.99991989136 172 172 170
-705.151677131653 298.007875680923 2286.00001335144 172 172 170
-699.89001750946 298.417538404465 2289.00003433228 179 179 177
-695.217847824097 299.08812046051 2293.99991035461 181 181 179
-692.620992660522 300.67178606987 2305.99999427795 185 185 183
-691.744804382324 303.038150072098 2323.99988174438 189 189 187
-693.425595760345 306.578755378723 2351.0000705719 191 193 192
-690.576016902924 308.16376209259 2362.99991607666 200 202 201
-998.468518257141 305.37161231041 2395.99990844727 204 203 198
-986.579537391663 303.716331720352 2382.99989700317 206 206 206
-969.004929065704 300.277322530746 2355.99994659424 208 208 208
-955.664694309235 298.113465309143 2338.99998664856 187 187 187
-947.694897651672 297.607064247131 2335.00003814697 182 182 182
-940.151572227478 297.228693962097 2332.00001716614 186 186 186
-933.026731014252 296.978384256363 2329.99992370605 191 191 191
-920.345902442932 294.944167137146 2313.99989128113 199 199 199
-906.963706016541 292.655557394028 2296.0000038147 196 196 196
-894.857168197632 290.749758481979 2280.99989891052 186 186 186
-887.898206710815 290.501534938812 2279.00004386902 181 181 181
-880.564510822296 290.126353502274 2276.00002288818 179 179 177
-873.632371425629 289.879113435745 2273.9999294281 179 179 177
-866.712391376495 289.632380008698 2272.0000743866 184 184 182
-859.046638011932 289.131104946136 2267.99988746643 188 188 186
-852.155745029449 288.885325193405 2266.00003242493 189 189 187
-844.903409481049 288.512498140335 2263.00001144409 188 188 186
-838.780045509338 288.52254152298 2263.00001144409 190 190 188
-831.921696662903 288.278013467789 2260.99991798401 184 184 182
-825.074970722198 288.033992052078 2259.0000629425 179 179 177
-818.964958190918 288.045346736908 2259.0000629425 172 172 170
-812.855541706085 288.057118654251 2259.0000629425 173 173 171
-807.818233966827 288.451850414276 2262.00008392334 180 180 178
-802.410662174225 288.71950507164 2263.99993896484 180 180 178
-796.641409397125 288.86005282402 2265.00010490417 176 176 174
-790.866911411285 289.000928401947 2266.00003242493 165 165 163
-784.741222858429 289.014667272568 2266.00003242493 167 167 165
-779.646813869476 289.411455392838 2269.00005340576 172 172 170
-774.195492267609 289.681017398834 2270.99990844727 171 171 169
-769.071936607361 290.078490972519 2273.9999294281 149 149 147
-763.261318206787 290.221273899078 2275.00009536743 141 141 139
-757.445633411407 290.364354848862 2276.00002288818 136 136 134
-751.954674720764 290.635347366333 2278.00011634827 138 138 136
-746.12557888031 290.779054164886 2279.00004386902 142 142 140
-740.615785121918 291.050642728806 2280.99989891052 156 156 154
-734.451234340668 291.067332029343 2280.99989891052 159 159 157
-728.606104850769 291.212022304535 2282.00006484985 166 166 164
-722.755372524261 291.356861591339 2282.99999237061 173 173 171
-717.212975025177 291.629642248154 2285.00008583069 177 177 175
-711.348474025726 291.775077581406 2286.00001335144 177 177 175
-705.478370189667 291.920721530914 2286.99994087219 177 177 175
-700.214266777039 292.321979999542 2289.99996185303 184 184 182
-695.842802524567 293.106436729431 2296.0000038147 185 185 183
-692.640066146851 294.401913881302 2305.99999427795 187 187 185
-690.871298313141 296.336114406586 2321.00009918213 190 190 188
-690.790712833405 299.036830663681 2342.00000762939 191 193 192
-688.842713832855 300.971984863281 2357.00011253357 197 199 198
-997.219741344452 298.485726118088 2392.99988746643 203 202 197
-988.65157365799 297.863811254501 2388.00001144409 203 203 203
-972.709238529205 294.997274875641 2365.00000953674 206 206 206
-958.119332790375 292.505532503128 2345.00002861023 189 189 189
-948.104500770569 291.386425495148 2335.99996566772 182 182 182
-940.559089183807 291.016310453415 2332.99994468689 185 185 185
-933.432161808014 290.771573781967 2331.00008964539 185 185 185
-921.942353248596 289.155125617981 2318.00007820129 195 195 195
-907.759726047516 286.666005849838 2298.00009727478 196 196 196
-894.863605499268 284.551501274109 2280.99989891052 195 195 195
-887.905240058899 284.308791160584 2279.00004386902 192 192 192
-881.732642650604 284.316033124924 2279.00004386902 204 204 202
-874.408721923828 283.949464559555 2276.00002288818 205 205 203
-867.102205753326 283.583402633667 2273.00000190735 208 208 206
-859.434425830841 283.093065023422 2269.00005340576 208 208 206
-852.9172539711 282.977432012558 2267.99988746643 205 205 203
-846.033275127411 282.737493515015 2266.00003242493 196 196 194
-839.902281761169 282.747507095337 2266.00003242493 186 186 184
-833.036243915558 282.508432865143 2263.99993896484 189 189 187
-825.45131444931 282.020181417465 2259.99999046326 185 185 183
-818.97646188736 281.906694173813 2259.0000629425 173 173 171
-812.507688999176 281.793594360352 2257.99989700317 171 171 169
-807.473361492157 282.180070877075 2260.99991798401 179 179 177
-802.069067955017 282.442182302475 2263.00001144409 184 184 182
-796.302735805511 282.579869031906 2263.99993896484 184 184 182
-791.578412055969 283.092349767685 2267.99988746643 173 173 171
-785.794079303741 283.230870962143 2269.00005340576 174 174 172
-780.691862106323 283.619344234467 2272.0000743866 170 170 168
-774.891912937164 283.758521080017 2273.00000190735 153 153 151
-769.763290882111 284.1477394104 2276.00002288818 136 136 134
-763.947546482086 284.287601709366 2276.99995040894 140 140 138
-757.793843746185 284.302920103073 2276.99995040894 151 151 149
-752.300620079041 284.568339586258 2279.00004386902 165 165 163
-747.123956680298 284.958899021149 2282.00006484985 168 168 166
-741.60635471344 285.224914550781 2283.99991989136 178 178 176
-735.112071037292 285.116583108902 2282.99999237061 179 179 177
-728.942334651947 285.133361816406 2282.99999237061 180 180 178
-722.772657871246 285.150438547134 2282.99999237061 183 183 181
-716.602742671967 285.167753696442 2282.99999237061 184 184 182
-711.055159568787 285.435199737549 2285.00008583069 185 185 183
-705.496430397034 285.702764987946 2286.99994087219 184 184 182
-700.538337230682 286.220550537109 2290.99988937378 188 188 186
-696.164309978485 286.988466978073 2296.99993133545 187 187 185
-693.560004234314 288.506418466568 2309.00001525879 186 186 184
-691.188097000122 290.149688720703 2322.00002670288 188 188 186
-690.515339374542 292.543143033981 2341.00008010864 192 194 193
-689.154744148254 294.687151908875 2358.00004005432 196 198 197
-998.88813495636 292.470306158066 2397.0000743866 199 198 193
-990.723729133606 291.984111070633 2392.99988746643 196 196 196
-976.824879646301 289.790362119675 2375 202 202 202
-959.348380565643 286.498934030533 2348.00004959106 197 197 197
-947.702467441559 284.916341304779 2335.00003814697 191 191 191
-939.757227897644 284.432470798492 2331.00008964539 196 196 196
-932.636201381683 284.193187952042 2328.9999961853 192 192 192
-922.743380069733 283.100247383118 2319.9999332428 199 199 199
-909.345805644989 280.909597873688 2302.00004577637 198 198 198
-895.654797554016 278.597295284271 2282.99999237061 197 197 197
-888.691425323486 278.36000919342 2280.99989891052 197 197 197
-882.51394033432 278.367280960083 2280.99989891052 189 189 187
-875.56928396225 278.130948543549 2279.00004386902 183 183 181
-867.873728275299 277.651011943817 2275.00009536743 162 162 160
-860.200703144073 277.171492576599 2270.99990844727 155 155 153
-853.67876291275 277.058571577072 2269.99998092651 151 151 149
-846.416354179382 276.701956987381 2266.99995994568 148 148 146
-840.283274650574 276.711970567703 2266.99995994568 150 150 148
-834.150791168213 276.722371578217 2266.99995994568 149 149 147
-827.653884887695 276.611149311066 2266.00003242493 147 147 145
-820.800602436066 276.378214359283 2263.99993896484 149 149 147
-813.958942890167 276.145726442337 2262.00008392334 154 154 152
-807.485699653625 276.035636663437 2260.99991798401 161 161 159
-801.372766494751 276.048004627228 2260.99991798401 169 169 167
-796.315670013428 276.427030563354 2263.99993896484 179 179 177
-791.591823101044 276.928544044495 2267.99988746643 188 188 186
-786.500334739685 277.308344841003 2270.99990844727 186 186 184
-781.04954957962 277.566462755203 2273.00000190735 172 172 170
-775.58821439743 277.824908494949 2275.00009536743 168 168 166
-770.454585552216 278.205841779709 2278.00011634827 165 165 163
-764.63371515274 278.342813253403 2279.00004386902 169 169 167
-758.474946022034 278.357982635498 2279.00004386902 173 173 171
-752.976477146149 278.617739677429 2280.99989891052 180 180 178
-747.139990329742 278.755694627762 2282.00006484985 184 184 182
-741.297960281372 278.893917798996 2282.99999237061 175 175 173
-735.12864112854 278.910249471664 2282.99999237061 178 178 176
-729.278564453125 279.049009084702 2283.99991989136 179 179 177
-723.106324672699 279.065877199173 2283.99991989136 180 180 178
-717.24796295166 279.205173254013 2285.00008583069 178 178 176
-711.383819580078 279.34467792511 2286.00001335144 177 177 175
-705.822825431824 279.606699943542 2288.00010681152 176 176 174
-700.862228870392 280.113339424133 2292.00005531311 184 184 182
-696.788907051086 280.986934900284 2299.00002479553 185 185 183
-693.879008293152 282.349735498428 2309.99994277954 188 188 186
-691.206991672516 283.835142850876 2322.00002670288 192 192 190
-689.64958190918 285.809934139252 2338.00005912781 194 196 195
-689.466595649719 288.396418094635 2358.99996757507 195 197 196
-691.486179828644 291.961520910263 2388.00001144409 202 204 203
-998.056292533875 285.717338323593 2394.99998092651 199 198 193
-990.311920642853 285.361468791962 2391.99995994568 205 205 205
-976.005136966705 283.097416162491 2372.99990653992 207 207 207
-959.760367870331 280.237406492233 2348.99997711182 198 198 198
-947.706520557404 278.570950031281 2335.00003814697 190 190 190
-939.761757850647 278.09801697731 2331.00008964539 195 195 195
-933.04169178009 277.983516454697 2329.99992370605 192 192 192
-924.339950084686 277.273058891296 2323.99988174438 197 197 197
-911.722004413605 275.369971990585 2308.00008773804 192 192 192
-897.230565547943 272.870749235153 2286.99994087219 185 185 185
-889.088094234467 272.280991077423 2282.00006484985 186 186 186
-883.295238018036 272.407561540604 2282.99999237061 187 187 185
-875.57727098465 271.938025951386 2279.00004386902 183 183 181
-867.882192134857 271.468937397003 2275.00009536743 170 170 168
-860.588550567627 271.119594573975 2272.0000743866 167 167 165
-854.440212249756 271.12865447998 2272.0000743866 165 165 163
-847.919583320618 271.018832921982 2270.99990844727 164 164 162
-842.146754264832 271.148175001144 2272.0000743866 159 159 157
-836.00115776062 271.158516407013 2272.0000743866 152 152 150
-830.221712589264 271.28866314888 2273.00000190735 149 149 147
-822.987258434296 270.941764116287 2269.99998092651 152 152 150
-815.769851207733 270.595222711563 2266.99995994568 156 156 154
-808.212161064148 270.129680633545 2263.00001144409 164 164 162
-801.385343074799 269.903182983398 2260.99991798401 165 165 163
-795.97681760788 270.154565572739 2263.00001144409 170 170 168
-790.907025337219 270.525693893433 2266.00003242493 186 186 184
-785.821378231049 270.897209644318 2269.00005340576 187 187 185
-780.719876289368 271.269083023071 2272.0000743866 185 185 183
-775.943398475647 271.760702133179 2276.00002288818 196 196 194
-770.469129085541 272.013902664185 2278.00011634827 173 173 171
-764.98419046402 272.267371416092 2279.99997138977 172 172 170
-758.822977542877 272.282391786575 2279.99997138977 176 176 174
-753.322243690491 272.53657579422 2282.00006484985 180 180 178
-747.483253479004 272.671580314636 2282.99999237061 179 179 177
-741.314053535461 272.687405347824 2282.99999237061 189 189 187
-735.789060592651 272.942453622818 2285.00008583069 189 189 187
-729.933738708496 273.078262805939 2286.00001335144 184 184 182
-723.756432533264 273.094922304153 2286.00001335144 183 183 181
-717.265009880066 272.992342710495 2285.00008583069 181 181 179
-711.401224136353 273.128867149353 2286.00001335144 184 184 182
-706.148862838745 273.504674434662 2289.00003433228 182 182 180
-701.49153470993 274.119675159454 2293.99991035461 184 184 182
-697.413206100464 274.974018335342 2301.00011825562 185 185 183
-694.197773933411 276.187151670456 2311.00010871887 191 191 189
-691.225588321686 277.520149946213 2322.00002670288 197 197 195
-689.37349319458 279.331594705582 2336.99989318848 196 198 197
-688.609063625336 281.621634960175 2355.99994659424 192 194 193
-689.478814601898 284.629344940186 2381.00004196167 199 201 200
-996.391236782074 278.742104768753 2391.00003242493 177 176 171
-986.5882396698 277.811616659164 2382.99989700317 187 187 187
-973.129034042358 275.83247423172 2365.9999370575 196 196 196
-957.720994949341 273.270964622498 2344.00010108948 199 199 199
-947.304725646973 272.108942270279 2334.00011062622 190 190 190
-939.363121986389 271.646916866302 2329.99992370605 189 189 189
-932.646453380585 271.535247564316 2328.9999961853 188 188 188
-924.34549331665 270.957678556442 2323.99988174438 185 185 185
-912.913262844086 269.447892904282 2311.00010871887 194 194 194
-898.414015769959 267.005741596222 2289.99996185303 191 191 191
-889.874219894409 266.312956809998 2283.99991989136 185 185 185
-883.302807807922 266.203671693802 2282.99999237061 172 172 170
-875.969350337982 265.861541032791 2279.99997138977 172 172 170
-867.890596389771 265.286713838577 2275.00009536743 174 174 172
-861.354887485504 265.178710222244 2273.9999294281 172 172 170
-855.201661586761 265.187740325928 2273.9999294281 168 168 166
-849.04944896698 265.197187662125 2273.9999294281 170 170 168
-842.898190021515 265.20711183548 2273.9999294281 172 172 170
-837.11564540863 265.334039926529 2275.00009536743 164 164 162
-830.963134765625 265.344738960266 2275.00009536743 160 160 158
-824.811518192291 265.355855226517 2275.00009536743 167 167 165
-817.580819129944 265.017360448837 2272.0000743866 170 170 168
-810.009777545929 264.562547206879 2267.99988746643 170 170 168
-802.815496921539 264.224797487259 2265.00010490417 169 169 167
-797.044813632965 264.353930950165 2266.00003242493 169 169 167
-790.92013835907 264.366775751114 2266.00003242493 174 174 172
-785.142064094543 264.496594667435 2266.99995994568 178 178 176
-779.702723026276 264.743477106094 2269.00005340576 185 185 183
-774.934709072113 265.224069356918 2273.00000190735 190 190 188
-769.807100296021 265.588283538818 2276.00002288818 193 193 191
-764.663398265839 265.952855348587 2279.00004386902 193 193 191
-759.170889854431 266.201078891754 2280.99989891052 188 188 186
-753.337621688843 266.332864761353 2282.00006484985 182 182 180
-747.826159000397 266.581654548645 2283.99991989136 184 184 182
-741.654574871063 266.597270965576 2283.99991989136 183 183 181
-736.127138137817 266.846656799316 2286.00001335144 184 184 182
-729.630887508392 266.74610376358 2285.00008583069 185 185 183
-723.456501960754 266.762465238571 2285.00008583069 189 189 187
-717.909634113312 267.012596130371 2286.99994087219 190 190 188
-712.040781974792 267.146229743958 2288.00010681152 185 185 183
