ply
format ascii 1.0
comment KinectMotionCapture
element vertex 751
property float x
property float y
property float z
property uchar red
property uchar green
property uchar blue
end_header
-528.602683387198 430.689910597577 2652.55692725498 125 129 128
-520.578852786532 430.810513345299 2654.41457536998 124 128 127
-513.564167178383 431.700999001616 2661.2971962091 109 113 112
-506.728040015465 432.746071014059 2669.19290577902 112 116 115
-452.419174345547 435.12611170078 2692.30485710456 140 146 144
-445.112578148787 435.863848074829 2698.21520430311 129 133 134
-437.966671381925 436.756915013747 2705.14544317377 118 119 121
-431.664354136217 438.425812744054 2717.16100176066 120 120 118
-424.126630029747 439.010091808929 2722.07693726698 121 120 118
-1225.15717298573 362.907444730588 2175.69817726684 35 41 31
-1233.06850254721 367.881305256918 2208.39787873879 25 31 21
-1227.96851704792 368.900913461202 2215.66111586273 22 27 20
-1212.35198751365 366.665090955144 2201.96695302895 128 133 127
-1197.7338259332 364.708382530023 2190.06472631287 127 132 126
-1188.6082458694 364.449099736909 2189.09409539517 124 129 123
-1180.39939254851 364.472419446076 2189.94532712006 156 161 157
-1172.19990676632 364.494850782171 2190.79283393192 168 173 169
-1163.56663290615 364.374232561999 2190.7206026883 170 174 177
-1154.06655196986 363.968199794833 2188.80866754968 175 178 183
-1143.71480984231 363.275936040404 2185.05120954032 193 196 201
-1134.70507242737 363.008969692628 2184.03790890141 200 203 208
-1127.44763855528 363.310883609392 2186.69758706323 204 207 212
-1120.62012382525 363.754912661501 2190.27859281195 205 208 213
-1113.35886914482 364.055963519579 2192.93959409777 205 208 213
-1105.24604765322 364.070720150015 2193.75503344943 214 217 222
-1097.98868359285 364.370487471395 2196.41452428198 219 222 227
-1090.31046890855 364.526759173092 2198.14954273993 216 219 224
-1083.47221455823 364.968541803286 2201.73402679465 209 212 217
-1076.21316201613 365.266767212809 2204.39401477631 182 187 191
-1068.12822879952 365.277694541609 2205.19903234341 209 214 218
-1060.05313666811 365.287747159743 2206.00066258163 223 226 231
-1051.58017008426 365.153181698476 2205.86913334265 206 205 211
-1045.55197488233 365.879664938014 2211.31414038317 164 161 168
-1039.10548705364 366.462268519431 2215.83346235108 134 129 136
-1031.04901271973 366.469330555111 2216.62810240006 133 128 135
-1023.0022275143 366.475253442057 2217.41888176895 210 207 214
-1014.96540574512 366.480356388533 2218.20623348671 218 217 223
-1008.50707100787 367.061219546161 2222.72972856366 235 238 243
-1000.47974689763 367.064700720653 2223.51350705996 220 225 229
-993.236414058817 367.356058834865 2226.16726533467 113 118 122
-986.377255289915 367.791274010458 2229.75884922478 123 126 131
-980.276612212955 368.515407610548 2235.23000201498 137 140 145
-974.539711054572 369.384256343266 2241.64646893132 180 183 188
-968.028487579696 369.963778325358 2246.18933358427 179 182 187
-960.758192543106 370.25315301808 2248.85273858567 175 178 183
-953.859378827281 370.686999927746 2252.45862736936 179 182 187
-947.324468645091 371.265541962606 2257.01002435403 173 176 181
-941.512312700964 372.134413724955 2263.45383589781 202 205 210
-934.951407889943 372.712734771404 2268.01440672817 247 250 255
-929.103233388278 373.581869016818 2274.47157927657 167 170 175
-923.234382932627 374.451050826859 2280.93601345911 230 233 238
-916.275887578855 374.883597521635 2284.56348871989 197 200 205
-908.250882771382 374.878591241705 2285.34578413441 201 204 209
-901.640937694216 375.455732159113 2289.92408409252 204 207 212
-896.415543950066 376.616542516809 2298.31009690685 237 240 245
-890.813254099444 377.631795825884 2305.75525717634 235 238 243
-885.185476403483 378.647436028619 2313.20996163422 232 235 240
-879.53215586769 379.663538517419 2320.67398164528 238 241 246
-873.853230497777 380.680000302661 2328.14707765839 246 249 254
-867.812943694179 381.550343781358 2334.67388875409 240 243 248
-861.085680716583 382.127827786314 2339.29509490299 248 251 255
-856.663688337158 383.731398181321 2350.62253179963 233 236 241
-851.539331054907 385.042664656801 2360.04974266476 243 246 251
-845.728000282613 386.061144796784 2367.57109882105 244 247 252
-839.891358190354 387.079885827825 2375.10192552035 240 243 248
-835.311466561611 388.6870664343 2386.4870055403 221 224 229
-831.00368851531 390.442543147398 2398.85096189216 245 248 253
-826.960393009193 392.346435544209 2412.19657624246 225 228 233
-823.48684385832 394.546564204912 2427.49089862467 229 232 237
-818.085276739726 395.864198070512 2437.01931066356 228 231 236
-812.955966517321 397.329943786231 2447.52653306065 233 236 241
-807.480963245974 398.649064263677 2457.08199368418 209 212 217
-802.273066949342 400.11663065296 2467.61790672603 201 204 209
-795.524347853875 400.846082618614 2473.32493115107 194 198 201
-789.950706530281 402.167046948326 2482.91611549962 173 177 180
-785.816472560748 404.228705786572 2497.37348548145 143 147 150
-780.744051243434 405.847764458765 2508.93816194771 138 142 145
-774.756686883606 407.023465815331 2517.60215085175 140 144 147
-768.451845654635 408.05139334204 2525.30378501614 133 137 140
-762.406659462784 409.228103874172 2533.98885890712 130 134 137
-754.920527768431 409.662988973694 2537.8082207019 135 139 142
-747.429820224941 410.097516937564 2541.62921812806 136 140 143
-739.380542732352 410.234405325615 2543.49759513735 150 154 157
-732.434884649237 410.965479674907 2549.27629730398 174 178 181
-725.202559664865 411.547649337321 2554.08111068235 208 212 211
-717.69135076691 411.980820966829 2557.90970898817 189 194 190
-709.908796458744 412.264429570549 2560.75880195992 166 171 167
-702.655406531739 412.845874134374 2565.57121431318 149 154 150
-696.17765901132 413.874663466182 2573.33573685123 140 145 141
-689.67504599247 414.903842751938 2581.10906907606 150 155 151
-681.864603183616 415.186516517143 2583.96822445239 194 198 197
-675.325174595912 416.215989434373 2591.75520961619 184 188 187
-668.257881162726 416.946815120742 2597.57808771143 146 151 147
-662.918622830657 418.725214500133 2610.31854913956 140 144 143
-655.557954297881 419.306980803129 2615.16996411483 167 171 170
-647.944077504003 419.738805181738 2619.03576387064 139 144 140
-638.636904657718 419.120818626087 2615.97093518387 135 137 134
-628.167653737926 417.751047215339 2607.93857424215 127 129 126
-618.227700028872 416.678987469791 2601.86947504172 156 158 155
-609.502609698246 416.355980888011 2600.74877740743 150 152 149
-604.495720208859 418.436512838732 2615.52438561293 129 131 128
-598.285926792777 419.766915022324 2625.34742000818 127 129 126
-587.070117465775 417.787573921498 2613.27383951087 127 129 126
-581.070134398783 419.268290253293 2624.09853960693 130 132 129
-578.34306417327 423.009871752526 2649.90426853025 134 136 133
-550.31672266062 414.96763789406 2598.68246280544 145 147 144
-550.487933483433 420.824379467458 2638.5275341309 145 150 146
-534.658977595396 421.223265841979 2643.24232862928 151 156 152
-1247.70255301184 367.168466132532 2255.29206399411 34 40 30
-1227.41660572962 363.597254430505 2232.52764775342 30 35 28
-1200.92545938345 358.074020714042 2196.93747133701 37 42 35
-1193.13225526308 358.243659604321 2198.71527835118 96 101 94
-1183.99847486321 357.995059316758 2197.74843293563 138 143 136
-1174.88449469716 357.745254651795 2196.7745567846 142 147 141
-1164.90379428032 357.215286301714 2193.96108707234 164 168 169
-1154.51250663223 356.544041504972 2190.21958334963 169 173 176
-1145.47046714552 356.289757837286 2189.2192305002 186 189 194
-1136.01270879329 355.89439827497 2187.29272328774 194 197 202
-1128.74457469189 356.196670821021 2189.95631630386 199 202 207
-1121.04530153799 356.35848380795 2191.69914988822 202 205 210
-1114.20634185275 356.799744345668 2195.28410513015 203 206 211
-1106.51090688677 356.960335396887 2197.02545195969 205 208 213
-1097.55194169203 356.699529707776 2195.99442300325 210 213 218
-1089.45311704091 356.718027054584 2196.80505902015 218 222 225
-1081.78160713545 356.876061486694 2198.53777438098 218 221 226
-1075.77488900898 357.595750183417 2203.97446533431 204 207 212
-1067.68973931514 357.612045640067 2204.77996658954 190 193 198
-1060.43426977469 357.908999535084 2207.43855679434 178 181 186
-1052.3635544399 357.923645250355 2208.23894333449 231 230 236
-1045.92180650545 358.501299440564 2212.75616968135 216 213 220
-1039.06723143386 358.93775103175 2216.34643573687 206 201 208
-1031.40752887672 359.091347731334 2218.07427190537 219 214 221
-1023.35551173687 359.102940170236 2218.86763431452 225 222 229
-1015.31324665874 359.113629208326 2219.65713096513 215 214 220
-1008.06491507166 359.406254614701 2222.31280109203 209 212 217
-1000.03735001737 359.415164425105 2223.09707673161 227 230 235
-993.180347974206 359.848210997418 2226.68771337767 228 233 237
-985.164835094473 359.855412892775 2227.46722683945 222 225 230
-979.068292044484 360.571227652496 2232.93626226609 224 227 232
-972.576899235444 361.14503181761 2237.47149027499 205 208 213
-966.451670712947 361.86077661175 2242.95094293204 200 203 208
-959.562581834709 362.292159144876 2246.55311237588 210 213 218
-953.039783898614 362.865404114002 2251.09970885461 184 187 192
-947.244497539279 363.723314115307 2257.53656396233 194 197 202
-940.695656037883 364.296399560395 2262.09235670479 157 160 165
-934.500363787371 365.011904957915 2267.59724808258 225 228 233
-928.289596205576 365.727419636172 2273.10776292964 165 168 173
-922.063367277975 366.443002600454 2278.62390061656 211 214 219
-915.109338322114 366.872681216574 2282.24979097139 161 164 169
-908.150036398794 367.301805425304 2285.87730105714 182 185 190
-901.53664314452 367.873780986961 2290.45646413314 171 174 179
-895.610154189682 368.731981192081 2296.94126627265 161 164 169
-888.971150551715 369.303707057173 2301.52971572283 157 160 165
-883.008776424648 370.162072811281 2308.02731447873 230 233 238
-877.707696334778 371.30773733978 2316.43968420781 173 176 181
-873.052569556445 372.741181077713 2326.77243502142 170 173 178
-867.013621075738 373.600574261956 2333.29793363695 193 196 201
-860.621162560193 374.316460336353 2338.87449164598 203 206 211
-856.197152034567 375.895871995677 2350.20083899573 230 233 238
-851.071094962604 377.188267409352 2359.62724360656 239 242 247
-846.234842899961 378.625587688128 2370.02584222396 230 233 238
-840.066159706739 379.486954404374 2376.5986272388 221 224 229
-835.799464940087 381.214324942101 2388.9455358365 238 241 246
-831.799693385719 383.087560460762 2402.27327749544 218 221 226
-828.05903409065 385.106755399315 2416.58418874326 234 237 242
-824.257341291387 387.12766685779 2430.91765957465 225 228 233
-817.913427311691 387.992546953988 2437.55437760505 231 234 239
-812.779757789913 389.436891572356 2448.0618234576 234 237 242
-809.43552599133 391.751533251514 2464.38435641682 191 194 199
-804.507810957728 393.343305565994 2475.89465116184 192 195 200
-799.534357809454 394.936104912255 2487.42138746752 172 176 179
-793.326010361332 395.949303773396 2495.08685051622 151 155 158
-789.156028194682 397.979844388541 2509.55486124094 135 139 142
-782.879416552623 398.994474219823 2517.24498089864 133 137 140
-777.446867561302 400.445735351048 2527.86154274867 134 138 141
-770.251135093953 401.02456926295 2532.65280900369 132 136 139
-764.183977885721 402.185880797278 2541.34470391106 131 135 138
-755.54872758468 402.035980751373 2541.27098142212 136 140 143
-747.767669555987 402.32238936761 2544.11974200477 140 144 147
-739.156560257473 402.170473921286 2544.03709611782 177 181 184
-731.384388155048 402.455463328562 2546.88252102817 195 199 202
-723.884577700227 402.886059313904 2550.70652920981 190 195 191
-716.649554598724 403.462425097195 2555.51213930877 163 168 162
-708.604982297648 403.599725117864 2557.37883780362 140 145 139
-700.830296714299 403.882728440603 2560.22502610273 142 147 141
-694.102456944811 404.751119428094 2567.00150369303 144 149 143
-687.872883934628 405.912942335183 2575.75244894457 134 139 133
-681.356888849423 406.928590372873 2583.52962242239 133 138 132
-675.831662953184 408.531744391517 2595.25787407075 121 126 120
-671.769132387497 411.017355848071 2612.92110243279 124 129 123
-666.635635054845 412.91728542538 2626.66252904754 126 131 125
-658.984594933104 413.348193819852 2630.54150821828 116 121 115
-650.354563288335 413.190288527025 2630.46528558687 121 126 120
-639.811852421253 411.853461732528 2622.46210112666 163 165 160
-628.13334721017 409.777533494586 2609.4825372239 183 185 180
-1200.94189107258 350.441198684683 2197.42214871385 20 28 17
-1196.75124948754 351.704599732482 2206.50649407805 19 27 16
-1192.97232487837 353.105646271813 2216.51844331794 129 137 126
-1177.56677712641 350.956503946763 2202.75416303742 140 147 139
-1166.2397144194 350.033387840719 2197.20054496877 156 162 160
-1156.27923016756 349.518291552067 2194.38085208533 169 175 175
-1147.66244956519 349.41215492341 2194.30372088096 176 182 182
-1138.62498289183 349.167935463548 2193.30246591726 189 193 196
-1130.47286024323 349.196674381842 2194.13323984114 197 201 204
-1122.76055969514 349.361722193429 2195.88130514499 202 205 210
-1114.62497847061 349.388623610604 2196.70593030591 202 205 210
-1107.34929715517 349.689583212919 2199.37216644462 204 205 209
-1098.80532059054 349.577445043634 2199.2681299734 209 210 214
-1090.69617431869 349.601810855039 2200.08321331301 219 220 222
-1081.76162597156 349.349592907798 2199.04370645245 221 222 226
-1074.92162082615 349.785475084227 2202.62863574337 212 215 220
-1067.66356451716 350.083006488969 2205.28820939236 204 207 212
-1061.22449755078 350.656208616954 2209.80412572763 194 197 202
-1053.55311351179 350.814714544909 2211.53683093156 209 210 215
-1046.69562563062 351.249030693611 2215.12773989239 221 222 227
-1039.02842934592 351.406301024274 2216.85883030012 203 204 209
-1031.36589624834 351.562793591908 2218.58816771339 212 213 218
-1022.91401616229 351.441220070423 2218.44995722048 223 224 229
-1014.47711147684 351.318584872729 2218.30622549697 221 222 227
-1007.23078989355 351.611072173253 2220.9611548937 213 216 221
-1000.37343468961 352.04204823245 2224.55176363282 219 222 227
-993.12386558117 352.33353096579 2227.2077971812 225 228 233
-985.105623656556 352.346185492668 2227.98896792248 225 228 233
-977.860570894792 352.636419786829 2230.64326631577 226 229 234
-971.752477754484 353.343872265957 2236.11586737656 228 231 236
-965.252194376073 353.912082393031 2240.65364927883 229 232 237
-958.741519170242 354.479970334823 2245.19543691812 230 233 238
-952.963151337812 355.326976214214 2251.62532215624 229 232 237
-946.42647883048 355.894808236361 2256.17655137226 230 233 238
-939.87930799676 356.462349617912 2260.73131878996 231 234 239
-933.32184322831 357.029862747698 2265.29007855435 230 233 238
-927.476276389634 357.877053239567 2271.74439364436 230 233 238
-922.327370708608 359.004741085801 2280.10011632651 231 234 239
-915.367406045441 359.431925983957 2283.72772088645 235 238 243
-908.75579725804 359.998994413843 2288.30611965295 234 237 242
-901.432028794722 360.284980157662 2290.98869785684 234 237 242
-895.153346494596 360.992012847637 2296.52324869201 236 239 244
-888.167665863143 361.417701586528 2300.16008394137 238 241 246
-882.206637055936 362.265235876454 2306.65637664078 237 240 245
-877.247241995978 363.535396194963 2316.0205490103 237 240 245
-872.252075775824 364.806239882183 2325.39776994695 237 240 245
-866.214546846908 365.654963665462 2331.92220206792 236 239 244
-859.49053350288 366.221376818463 2336.54113788419 233 236 241
-854.408695715858 367.493880757635 2345.94997512465 232 235 240
-849.291248386519 368.767107609836 2355.37205949932 232 235 240
-844.138081514586 370.040969952865 2364.80691576879 211 214 221
-839.27202786117 371.457122974593 2375.21474531996 206 209 216
-835.646155015873 373.440732121728 2389.48151964029 232 235 242
-832.276706954907 375.567771746134 2404.73250350258 230 233 240
-829.786283977309 378.12205047561 2422.89626343106 219 222 229
-823.77639107834 379.117919274208 2430.48805860305 229 232 237
-817.741291734959 380.114163968893 2438.08929489013 230 233 238
-812.910495565924 381.67911566815 2449.56209740841 224 228 231
-810.777799335577 384.524934402604 2469.75124571444 158 162 163
-806.43723660296 386.377557685932 2483.20100007534 172 176 177
-801.741077045609 388.089316144392 2495.7027714035 122 123 125
-794.616779144477 388.662486104722 2500.46790974899 126 128 127
-788.955782861689 389.948453447317 2510.08819285623 118 120 119
-781.507047636219 390.378899443153 2513.893632172 135 139 140
-775.211793768511 391.380189910079 2521.58977307929 134 135 137
-767.45667015605 391.66743107782 2524.42917353191 136 140 141
-761.69282782545 392.954737965757 2534.08692554147 140 141 143
-753.639118147311 393.098469378884 2535.9574292474 142 143 145
-745.870329903744 393.38451757708 2538.8017045622 152 153 155
-735.888389335847 392.524065404435 2533.83038313111 207 208 210
-728.689591602293 393.094906367055 2538.62241433693 201 202 204
-721.481165965427 393.665482223491 2543.41766941365 138 140 135
-1173.78629391093 337.228763967287 2160.42667350007 34 42 29
-1191.63611611707 345.024433202254 2214.26083093052 34 42 29
-1179.80137127441 343.994756373023 2207.81682212806 54 65 51
-1167.57414349938 342.828514773195 2200.43855684695 156 162 158
-1158.04419671381 342.464098614263 2198.54035882727 162 168 166
-1148.53916431517 342.098218657229 2196.63325233451 168 174 172
-1139.05890134375 341.730729294296 2194.71677044115 192 196 199
-1130.46888038251 341.630633529975 2194.63037224707 194 198 201
-1122.32363824307 341.663913557122 2195.45924316275 198 202 205
-1115.4704955706 342.10014420367 2199.048717798 200 203 208
-1107.76171523199 342.266662340423 2200.79561501592 203 204 208
-1098.79020162597 342.0279048363 2199.77080893931 204 205 209
-1089.83843767413 341.787734106603 2198.73846613627 208 209 211
-1080.90663824947 341.546293026811 2197.69902792605 211 212 214
-1074.48323245928 342.114403011405 2202.20912406278 218 221 226
-1067.63682578116 342.54721415641 2205.79589325145 216 219 224
-1060.7847665895 342.979710243436 2209.38469243895 207 210 215
-1054.33422738454 343.547332294513 2213.90461034888 191 194 199
-1047.0639082084 343.843675498515 2216.56854990638 208 211 216
-1038.58726528103 343.732359836824 2216.44011065558 209 212 217
-1030.12552784098 343.619985231241 2216.30617578246 208 211 216
-1021.67871335811 343.506372343432 2216.16672540819 217 220 225
-1014.42966168688 343.799502306682 2218.82269523833 217 220 225
-1006.78857802673 343.956109427646 2220.54424790869 216 219 224
-1000.31970387679 344.520458061348 2225.07058060812 220 223 228
-993.067055091474 344.812120704981 2227.72774669328 224 227 232
-985.045925190875 344.830321009057 2228.51013087718 224 227 232
-977.416289713569 344.984039091369 2230.2273060102 225 228 233
-970.170394465827 345.273651240672 2232.88186356847 228 231 236
-963.67690639239 345.835997921907 2237.4167340749 229 232 237
-957.173033494147 346.398260351636 2241.95562572652 231 234 239
-951.772375383366 347.371093507242 2249.32432494444 230 233 238
-944.871279398965 347.79626179641 2252.93064245149 231 234 239
-937.964802742611 348.220998991168 2256.53862812672 232 235 240
-931.780220432554 348.919768617788 2262.0383654403 231 234 239
-927.385143958448 350.305307007096 2272.27276137203 232 235 240
-922.232152824211 351.416896860659 2280.6287538335 233 236 241
-915.624835172399 351.978973885642 2285.20521685982 231 234 239
-908.300534634561 352.265635494222 2287.88803938143 231 234 239
-900.976194960773 352.551703113672 2290.57083130518 233 236 241
-894.696457454798 353.250558885714 2296.10514857475 235 238 243
-888.401367405547 353.949478691613 2301.6450488313 236 239 244
-882.777065159114 354.924441941682 2309.09516708156 236 239 244
-876.786710682046 355.761569261898 2315.60132967565 236 239 244
-870.438006677702 356.460738274545 2321.16072869857 236 239 244
-864.07405106173 357.159848272765 2326.72566475204 236 239 244
-858.027659266372 357.997438612153 2333.25222274385 235 238 243
-853.94265966276 359.666136315424 2345.5286877063 235 238 243
-848.495740542434 360.781828888446 2353.99178480015 240 243 248
-843.668656371876 362.175542528947 2364.38401649282 226 229 236
-838.155497044057 363.292527419796 2372.87102434386 220 223 230
-835.492386017921 365.660262917916 2390.01689710345 234 237 244
-833.070178899638 368.169296086983 2408.15245779865 232 235 242
-830.56634800079 370.680804614534 2426.31786224841 223 226 233
-823.607722698603 371.246024733779 2431.02195138351 224 227 232
-817.568686600318 372.22896456196 2438.62361416806 239 243 246
-813.347838515677 374.048502977497 2452.02737539543 219 223 224
-811.813311507563 377.124966191783 2474.14970132829 152 156 157
-805.946971865521 378.25055920034 2482.76593665246 139 143 142
-799.451184136549 379.097196696394 2489.45645968619 128 130 129
-790.262273536114 378.686149145207 2487.43108630526 148 150 149
-783.455032324806 379.392340494827 2493.15761896213 195 197 196
-756.361744682626 382.357513626652 2517.09160319157 135 136 131
-1169.25278874982 330.79181194007 2169.05459014143 49 57 44
-1176.24553861763 335.293845976885 2200.98588981332 40 51 37
-1169.34990616735 335.732034947541 2204.59095033921 161 167 163
-1159.80755472919 335.381667714493 2202.6985737148 163 169 167
-1149.4148155483 334.766696603703 2198.96184332794 167 173 171
-1139.49218731953 334.28138557202 2196.13064327487 192 196 197
-1130.89701762658 334.189530529312 2196.04673758398 193 197 200
-1122.31648425202 334.096567510379 2195.95743037039 198 202 205
-1115.46016039583 334.530183096741 2199.54786353869 200 203 208
-1107.74848577184 334.699434628479 2201.2960185982 204 205 209
-1099.6189839663 334.73580540629 2202.11914935627 204 205 209
-1091.07955681382 334.639078335701 2202.01487701002 206 207 209
-1082.13753925755 334.408769622408 2200.97973708034 210 211 213
-1075.70307642643 334.971892513435 2205.4934743711 214 217 222
-1068.02175452314 335.137277981133 2207.23030944659 217 220 225
-1061.1639098755 335.567201235012 2210.82101658315 215 218 223
-1053.89354877396 335.864022492419 2213.48500744362 196 199 204
-1046.62271223959 336.160385915563 2216.14913650236 195 198 203
-1038.54775655556 336.190099006903 2216.95194627297 202 205 210
-1030.08340474278 336.085925628212 2216.8195800953 208 211 216
-1022.0306857391 336.113684051653 2217.61441726729 209 212 217
-1013.98771529865 336.140479659145 2218.40538546889 213 216 221
-1006.73775822514 336.433109040127 2221.06164649595 219 222 227
-1000.26548952905 336.992171118373 2225.58881368242 218 221 226
-993.00971911325 337.283896208186 2228.24711868483 215 218 223
-984.601926963741 337.173820176836 2228.09375689287 220 223 228
-976.590515239492 337.196523932573 2228.87294989096 221 224 229
-968.967871185452 337.351993542799 2230.58771693293 223 226 231
-963.231093788853 338.176888164464 2237.0008224741 225 228 233
-956.726346715134 338.733705986977 2241.53962094219 226 229 234
-951.32433513926 339.69301421348 2248.9077914473 227 230 235
-944.053924686522 339.981142827735 2251.57114436511 230 233 238
-937.515318532672 340.537556910321 2256.12221464575 230 233 238
-930.966312748368 341.093722355714 2260.67704474262 230 233 238
-926.93277790536 342.592082518247 2271.85514784266 231 234 239
-921.061744919034 343.418041729844 2278.31736811173 232 235 240
-914.814279580175 344.10939700252 2283.83913946111 231 234 239
-907.491963921044 344.395921487175 2286.52123045554 232 235 240
-900.520277597322 344.816940537588 2290.15288301716 232 235 240
-894.587515506688 345.642943832756 2296.63728080895 232 235 240
-888.634272288752 346.469032939017 2303.12912663804 232 235 240
-882.660575914466 347.29532586695 2309.6284192456 232 235 240
-876.666535566754 348.121864210109 2316.13537640495 232 235 240
-869.976356302811 348.677486329995 2320.74120482863 232 235 240
-864.281869955669 349.639814409195 2328.21612455983 233 236 241
-858.229143501444 350.466754325864 2334.74418057971 235 238 243
-853.476578106788 351.837143062429 2345.10732259608 236 239 244
-848.028113130087 352.936578839632 2353.5697547564 233 236 241
-843.199168239509 354.30868832207 2363.96103245031 231 234 241
-838.329393151695 355.681752131175 2374.36696298845 222 225 232
-835.978030631806 358.145437004734 2392.47336157921 225 228 235
-834.179584492309 360.884174040932 2412.53273048427 222 225 232
-831.345072093247 363.216564549343 2429.73821296361 215 218 225
-824.375387074642 363.776903092035 2434.44620649153 227 230 235
-817.705346149081 364.473458404125 2440.12190777243 230 234 237
-813.170034411419 366.126928219538 2452.5610933812 213 217 218
-809.497368167918 368.191927899604 2467.91731247827 154 158 159
-803.946879416866 369.4377125284 2477.4946665045 186 190 189
-1174.63974526219 324.782430758663 2180.51013743753 88 96 83
-1171.12411973354 328.607374389203 2208.74203470228 161 168 161
-1161.12921248805 328.142217722722 2205.93861700942 165 171 167
-1149.85192712398 327.288989479817 2200.37193180834 174 180 178
-1138.62001625786 326.433319171131 2194.78883039564 185 189 190
-1130.02738479479 326.349344880085 2194.70459708581 188 192 193
-1122.3088964827 326.522568607788 2196.45527321737 195 199 202
-1115.87665675825 327.08274612706 2200.96798053699 198 202 205
-1108.15953252156 327.254890471704 2202.71833391281 203 204 208
-1099.60265810342 327.167434426072 2202.62084602178 203 204 208
-1091.06051438379 327.078807163836 2202.51791754462 205 206 208
-1084.20107915558 327.507661094629 2206.10912191669 209 210 212
-1077.75045561457 328.065996351193 2210.6283697656 211 214 219
-1069.22963886281 327.97492769851 2210.51750819328 215 218 223
-1061.54231150526 328.142572631759 2212.25669575612 217 220 225
-1053.85947173994 328.309519907628 2213.99394586356 204 207 212
-1046.18136239388 328.475673101662 2215.72967162255 198 201 206
-1037.70459439 328.38056043465 2215.60250035856 195 198 203
-1030.04091159995 328.545137435393 2217.33286548167 204 207 212
-1022.77844010129 328.839327832561 2219.99379125052 204 207 212
-1014.72754524804 328.871852357548 2220.78807094487 209 212 217
-1005.9037660741 328.641970926406 2219.71025711487 218 221 226
-998.655465916963 328.933940033968 2222.3658663033 217 220 225
-992.179428607656 329.487075105382 2226.89395556635 214 217 222
-984.925325592397 329.778079960175 2229.55160039665 219 222 227
-977.289697989768 329.937465134537 2231.27112597972 220 223 228
-969.658979082427 330.095989707904 2232.98905742099 222 225 230
-963.161289525135 330.647708011165 2237.52490686145 222 225 230
-956.279548007173 331.067726751979 2241.1235493171 223 226 231
-950.505286039135 331.882056851253 2247.5494773007 226 229 234
-943.236878601681 332.170107184641 2250.21209654142 228 231 236
-936.699960596647 332.721036072362 2254.76213958749 229 232 237
-930.152544265225 333.271674319489 2259.31572083524 229 232 237
-926.119659273462 334.745579130104 2270.49199692982 231 234 239
-920.249906119869 335.560663576266 2276.95267736393 232 235 240
-913.648496502924 336.111730819262 2281.52616307368 233 236 241
-905.977756009108 336.265923862424 2283.25830903943 233 236 241
-899.363357704915 336.816202273272 2287.83620020314 233 236 241
-893.782448466729 337.763550907632 2295.2687228823 234 237 242
-888.175861862224 338.711321224964 2302.71035262435 235 238 243
-882.20095897332 339.526882418267 2309.20927387747 234 237 242
-875.525264580622 340.077160607228 2313.80969050059 233 236 241
-869.177024729336 340.760053821709 2319.36769284432 232 235 240
-863.148582168192 341.575861318674 2325.88608565502 232 235 240
-857.764849186023 342.657879306068 2334.3236840507 234 237 242
-852.350543101178 343.740496617946 2342.77243602273 235 238 243
-847.560440209223 345.089960876531 2353.14763803629 235 238 243
-843.379265288553 346.70715312863 2365.4551609347 231 234 239
-839.46945254827 348.458960233717 2378.74105521042 232 235 240
-837.421833205265 351.013428571781 2397.81049849291 226 229 236
-834.970282876826 353.436960558487 2415.95026947758 220 223 230
-830.549473090427 355.060778718011 2428.34536065736 216 219 226
-824.205504664199 355.88320046436 2434.97889491993 232 235 240
-817.53192656066 356.571840822056 2440.65553849973 223 227 230
-812.684911363492 358.064402111219 2452.12902633324 183 187 188
-804.139795060157 357.94909268409 2452.02516469543 162 166 165
-1146.44668183222 311.586833899677 2140.69296010625 104 115 99
-1168.91490988471 320.321205202283 2204.65303965383 155 162 154
-1162.8893903806 321.005778464283 2210.09391233811 165 172 165
-1152.47474135681 320.429492747028 2206.36780718944 170 176 172
-1140.35637618862 319.346478317308 2198.95626765788 185 189 188
-1131.31876471178 319.144784546149 2197.95827393785 190 194 195
-1124.0194142943 319.447443346988 2200.63323815745 193 197 200
-1116.29241146443 319.623189562552 2202.38745256407 195 199 202
-1107.72077176921 319.544886034434 2202.29602002477 199 200 204
-1098.74181660985 319.338710158023 2201.27612177454 200 201 205
-1091.46040933525 319.638583398519 2203.94435640151 204 205 209
-1086.26263889984 320.572685392838 2211.23667088492 203 204 206
-1079.38153739585 320.99917027391 2214.83556868007 210 213 218
-1070.84782552168 320.916645083508 2214.73003700786 210 213 218
-1061.91983782056 320.70566469293 2213.69151216298 211 214 219
-1053.82505961228 320.748168263385 2214.5027435684 211 214 219
-1046.54804973023 321.044653846572 2217.16912485336 207 210 215
-1038.46753295594 321.085363160779 2217.97478485947 198 201 206
-1030.79581026358 321.252874655001 2219.70829259324 195 198 203
-1022.73233130325 321.291846172145 2220.50763100214 196 199 204
-1014.28489221663 321.201899784063 2220.37019324507 196 199 204
-1005.46117997096 320.982794624309 2219.29316818441 202 205 210
-997.823669228911 321.146646541132 2221.01396931086 207 210 215
-990.963139409388 321.56607450413 2224.60486018474 211 214 219
-983.713605223726 321.856841250289 2227.26082702199 213 216 221
-977.225836156799 322.403884111705 2231.79271920619 214 217 222
-970.727449916562 322.950760080967 2236.32820211065 218 221 226
-964.970375664102 323.754651952923 2242.74709757078 220 223 228
-957.699262636571 324.043939510245 2245.4107932045 222 225 230
-951.169524521584 324.590300062928 2249.9578828387 224 227 232
-943.524690141268 324.749733601506 2251.68101154428 227 230 235
-937.347395164273 325.424457235134 2257.17628678751 228 231 236
-930.065298651458 325.711851521053 2259.84383028356 228 231 236
-924.585678447075 326.644655086549 2267.23819909897 231 234 239
-918.006520248701 327.190029009611 2271.80317046263 232 235 240
-911.416942376373 327.735109218222 2276.37165121866 231 234 239
-903.758597195932 327.891497667581 2278.09945914847 232 235 240
-898.207070911188 328.824775217585 2285.52024421141 232 235 240
-892.977540727881 329.888155422815 2293.90015438358 235 238 243
-888.062516964226 331.082022712545 2303.24244856396 237 240 245
-881.741265054219 331.756893629583 2308.79003987995 235 238 243
-875.064684256866 332.301846792987 2313.39037678549 234 237 242
-869.727855378866 333.367024627774 2321.80966254226 233 236 241
-863.69051933587 334.172341256556 2328.33049513615 232 235 240
-857.965241868399 335.108121531565 2335.8145993635 232 235 240
-851.884650423895 335.913878057772 2342.35118146015 232 235 240
-846.765471830678 337.11137674116 2351.76792675149 231 234 239
-842.260034475241 338.570876985148 2363.11481201868 225 228 233
-839.963563778059 340.946304610586 2381.19460719851 226 229 234
-837.585328662058 343.324286333998 2399.30404886783 216 219 226
-834.808532847149 345.573907073379 2416.48231563339 212 215 222
-828.496325541415 346.384963730526 2423.10345237398 212 215 222
-822.787743017156 347.458298210966 2431.65842562338 226 229 234
-816.43008852315 348.269761320157 2438.29610570167 218 222 225
-811.279424952481 349.606623910029 2448.8016164397 162 166 167
-1228.79579671562 324.476842550141 2292.00623382949 124 132 117
-1140.68056716009 302.518182322016 2129.30432410181 115 126 110
-1170.68696077298 313.164067987355 2208.80220507815 151 158 150
-1163.76843911678 313.5943836878 2212.41524236659 166 173 166
-1152.03530695432 312.667108998347 2205.94178596112 178 184 180
-1140.78735329976 311.86077908933 2200.36823630787 188 192 191
-1131.31265445428 311.546371188547 2198.45373783968 193 197 196
-1124.86929103713 312.096621414548 2202.96973778447 193 197 200
-1117.13424130798 312.27518329332 2204.72708837808 197 201 204
-1108.13046397975 312.081351910488 2203.71714036573 199 200 204
-1098.72491007746 311.762143714273 2201.77741105828 201 202 206
-1091.02110719798 311.937949761746 2203.52294626081 204 205 209
-1085.40539830014 312.734218855332 2209.89015753317 203 204 206
-1078.5261563538 313.157772572696 2213.48815852021 206 209 214
-1071.22970716225 313.456625773784 2216.1617814769 207 210 215
-1061.88765104059 313.132091190131 2214.19832485142 211 214 219
-1054.19649615984 313.304709409609 2215.93927833958 215 218 223
-1046.50997650091 313.476550958986 2217.67848907657 210 213 218
-1039.63071345081 313.897366115459 2221.2762911026 200 203 208
-1031.94838154617 314.067972067543 2223.0138870434 196 199 204
-1023.47825951272 313.987666287073 2222.88541825201 196 199 204
-1014.62943845376 313.780916823395 2221.81844842316 193 196 201
-1006.19177709673 313.69815139334 2221.67799986449 194 197 202
-998.934692328325 313.990285161214 2224.33681325597 200 203 208
-992.063238432874 314.407460219829 2227.93150327166 206 209 214
-984.419536941002 314.573042877075 2229.65468431714 208 211 216
-977.923129015057 315.114958278127 2234.18907414292 210 213 218
-970.659661057578 315.405078539925 2236.85005486447 215 218 223
-964.898934137637 316.198261033472 2243.26972374142 217 220 225
-957.997861345662 316.613675602127 2246.87504258276 220 223 228
-950.720861592297 316.902597702979 2249.54084951077 221 224 229
-943.075632331766 317.064786059731 2251.26432954659 225 228 233
-936.166281723579 317.478737582104 2254.87254564024 226 229 234
-929.614642931499 318.0186887192 2259.42710901226 226 229 234
-924.494021271358 319.064592101189 2267.76612997374 229 232 237
-918.627069676957 319.857816937228 2274.22439745895 231 234 239
-912.028936787794 320.397871821246 2278.79560740511 232 235 240
-904.715168681775 320.684062254595 2281.47456754779 233 236 241
-897.751548433936 321.096607465448 2285.1026500364 231 234 239
-891.825416074042 321.88977679212 2291.58216162268 228 231 236
-887.258808341582 323.191559603923 2301.87256181026 225 228 233
-881.62399812797 324.112787187294 2309.32269786301 226 229 234
-875.283832517765 324.779702708477 2314.87656098926 227 230 235
-869.265680194554 325.574086240042 2321.38959849767 227 230 235
-863.227144625445 326.368611309211 2327.91005268405 226 229 234
-857.168239795915 327.163336921271 2334.43792291897 223 226 231
-850.75938427891 327.830495321582 2340.01676199358 222 225 230
-845.643648014419 329.008862429535 2349.4308130497 218 221 226
-841.79038533357 330.699622232959 2362.69155444873 220 223 228
-840.45658270269 333.415899360888 2383.64696251916 221 224 229
-838.387045496958 335.879143412053 2402.71774067143 206 209 216
-834.963318914967 337.832209466845 2417.97531937516 211 214 221
-826.759093396543 337.862925092253 2418.82517337405 223 226 231
-821.059207316107 338.919721596011 2427.37573906207 222 226 229
-814.71059909185 339.720111828111 2434.00929682457 213 217 220
-809.874893560151 341.163636798936 2445.47497556337 220 224 223
-1146.89211469478 292.316801097105 2108.14499754469 129 138 121
-1165.08590230503 306.286077017981 2215.65161435992 189 196 188
-1154.65468294865 305.748300187437 2211.93468969763 164 171 164
-1142.95523007435 304.846077044104 2205.45114082637 186 191 187
-1133.46554596479 304.545892166541 2203.5431602172 189 193 192
-1125.71805881665 304.728155919018 2205.30530910449 190 194 195
-1118.40173692101 305.030822920415 2207.98644031821 194 198 201
-1108.11536025058 304.484467377335 2204.21624159106 199 200 204
-1099.12900579535 304.300198002556 2203.20068466343 198 199 203
-1090.58164069963 304.235952855623 2203.10149297782 204 205 209
-1084.96481616879 305.021367559065 2209.46829062047 204 205 207
-1077.6709922404 305.320535023932 2212.14098343217 201 204 209
-1070.78796433514 305.740961349881 2215.74012403359 203 206 211
-1061.44613956489 305.429876445506 2213.77759814924 204 207 212
-1054.16091838862 305.727099801528 2216.4470185719 207 210 215
-1046.87518681725 306.023747585942 2219.11658101248 207 210 215
-1039.5889623319 306.31987866742 2221.78628356115 206 209 214
-1031.10652630178 306.248735017168 2221.6632345098 201 204 209
-1023.03492042842 306.298683929689 2222.4663539934 196 199 204
-1014.97314433873 306.347772264497 2223.26583701549 194 197 202
-1007.31220943373 306.518435267397 2224.99566292734 194 197 202
-999.656000637809 306.688318048184 2226.72371279728 195 198 203
-993.16194508756 307.225794228898 2231.25691297037 196 199 204
-985.507630890563 307.394531032374 2232.98418799555 202 205 210
-977.858102226096 307.562425739516 2234.70966071952 204 207 212
-970.213323325816 307.729552991339 2236.43309546481 207 210 215
-964.075783865923 308.38866867975 2241.9127483913 210 213 218
-957.922639740834 309.047917807188 2247.39808114686 219 222 227
-950.27209372821 309.213529751211 2249.12375127351 220 223 228
-943.362197692103 309.625299170833 2252.73200089847 223 226 231
-936.447107894563 310.036841016201 2256.34237474642 224 227 232
-929.889392567757 310.571624105285 2260.89850170898 225 228 233
-923.68157962028 311.230091731763 2266.40363873528 224 227 232
-917.815913099286 312.012382045691 2272.86035997265 224 227 232
-911.929757534824 312.794923444402 2279.32479889896 225 228 233
-905.31787667735 313.329441329883 2283.90058622293 225 228 233
-898.345776100354 313.739651822306 2287.53131947011 224 227 232
-892.410843708225 314.52231293737 2294.0134898825 223 226 231
-886.800168745952 315.429569112071 2301.4535482217 223 226 231
-881.163999823751 316.337271971262 2308.90315748227 221 224 229
-875.502192861447 317.245394976499 2316.36185940107 221 224 229
-869.140573948567 317.904394801472 2321.92292006592 222 225 230
-863.767514440829 318.937818196872 2330.35297384794 223 226 231
-857.367712342892 319.597238344964 2335.92793961192 220 223 228
-851.611611479589 320.506485768432 2343.42098688526 218 221 226
-845.830146872651 321.416234339202 2350.9235418768 217 221 224
-841.969352304263 323.07746670853 2364.18453769612 217 220 225
-840.305106819786 325.617282633172 2384.18039185311 215 218 223
-837.910428309923 327.909304890476 2402.28957655121 215 218 223
-833.850642993982 329.57634890781 2415.62331168022 218 221 226
-825.96547789927 329.737969158971 2417.43392655078 222 225 230
-820.266544547455 330.778424909702 2425.98265883555 218 222 225
-814.228351200443 331.693799990227 2433.57891754881 209 213 216
-1158.7580236762 294.642762222318 2185.0732877411 167 175 162
-1165.96264210885 298.83689749375 2217.97093239068 174 182 171
-1155.96113459885 298.436255234834 2215.17478053686 149 156 148
-1144.25253135792 297.561426247081 2208.69662327022 181 186 182
-1133.0260565232 296.802328957306 2203.1185790264 192 196 195
-1124.41986338601 296.750566267656 2203.04170359885 189 193 194
-1117.1081942159 297.052991881638 2205.72112608959 193 197 200
-1108.52368463249 296.999369384247 2205.63623188717 198 199 203
-1099.95390924607 296.944635085388 2205.54590031046 198 199 203
-1091.39882261017 296.888731209315 2205.45014351258 202 203 207
-1084.52406617786 297.307093578312 2209.04637735365 205 206 210
-1077.64354805191 297.725158847528 2212.64442791249 201 204 209
-1069.93484174574 297.904835052513 2214.3922910289 202 205 210
-1060.59583511802 297.607098731707 2212.42974837948 204 207 212
-1053.31266589351 297.904182342488 2215.09841270701 207 210 215
-1046.43252519766 298.320088994127 2218.69616326018 207 210 215
-1039.94787369847 298.855099643852 2223.22601486536 207 210 215
-1032.25711050133 299.031275667471 2224.96709448215 205 208 213
-1024.57091529386 299.206691339794 2226.70620270177 200 203 208
-1016.4962098127 299.2616309511 2227.51107925074 197 200 205
-1008.82210337678 299.435548103014 2229.24593640517 194 197 202
-1001.15262784683 299.608583341043 2230.97879013048 195 198 203
-994.645020169144 300.141215800536 2235.51680313916 195 198 203
-986.977499478935 300.31308901568 2237.24911322656 200 203 208
-978.934180606279 300.363838089008 2238.04201535392 203 206 211
-970.522873686808 300.293322752919 2237.8929155275 205 208 213
-963.252935230483 300.583159924842 2240.55622586469 207 210 215
-957.474151332351 301.354670303523 2246.98056601902 210 213 218
-950.193477630825 301.643616884103 2249.6477096774 214 217 222
-943.280415213827 302.052876077473 2253.25717467213 217 220 225
-935.996808599698 302.340865347196 2255.92531173718 220 223 228
-930.163488745432 303.112244102786 2262.36945692126 222 225 230
-924.30954794296 303.883833237608 2268.82111034369 224 227 232
-917.720085505706 304.413352207552 2273.38862934277 224 227 232
-911.83009474411 305.185218743933 2279.85340199957 226 229 234
-904.510084363109 305.471593582969 2282.53464410888 228 231 236
-898.589259388244 306.24347412981 2289.01062105043 229 232 237
-891.953484972135 306.772361415603 2293.59491926908 228 231 236
-885.996794213104 307.544452614306 2300.08394349096 227 230 235
-880.703928042884 308.560330382118 2308.48353617622 225 228 233
-875.04076236917 309.454869111423 2315.94170681059 225 228 233
-869.015086350792 310.227869802561 2322.45586459055 223 226 231
-863.972440025643 311.367337877247 2331.84067863793 221 224 229
-857.898331530682 312.141040345598 2338.3724867057 213 216 221
-852.791864000122 313.281765751711 2347.78032995619 210 213 218
-846.66942090434 314.05610662028 2354.32974796793 211 215 218
-843.120312602183 315.810478168688 2368.55133450401 212 216 219
-840.796482177915 318.056973338612 2386.63134234051 212 216 219
-838.710038256458 320.428705538494 2405.70110431695 215 218 223
-833.05513988911 321.452538678607 2414.23283714089 218 221 226
-826.427951268255 322.108339544967 2419.89014788744 212 216 219
-820.09707904837 322.887074371712 2426.51562755857 206 210 213
-814.981399713864 324.158267404877 2437.00321803161 203 207 208
-1161.85569953306 287.840324840835 2191.96748951763 168 176 163
-1168.59515337496 291.830762412829 2223.9522203779 136 144 133
-1157.26617290627 291.101159395297 2218.41364567038 144 151 143
-1144.68012484246 290.022990894046 2210.10558798872 182 187 183
-1133.01787885294 289.172850773426 2203.61245020618 185 190 186
-1124.40914125629 289.129286578352 2203.53711786581 191 195 196
-1117.09445881845 289.431710851672 2206.21763508872 186 190 193
-1108.50745802507 289.386271076512 2206.13451774115 195 196 200
-1099.93510321691 289.339617534883 2206.04573307126 198 199 203
-1092.21494100386 289.523923775662 2207.79785358721 199 200 204
-1085.74804037758 290.055977723658 2212.32103254577 201 202 206
-1078.44299536317 290.355464621819 2214.99782650117 202 205 210
-1069.08175698033 290.0726513911 2213.04448745427 203 206 211
-1060.15419429994 289.904829490117 2212.00906456036 204 207 212
-1052.46453593565 290.08525006927 2213.75006300838 206 209 214
-1046.3931793936 290.731595860703 2219.20470568623 207 210 215
-1039.50421198617 291.144453017442 2222.80543322593 208 211 216
-1031.81307138149 291.323264072653 2224.5468487864 205 208 213
-1024.52233044225 291.618380626739 2227.21811578467 202 205 210
-1016.44477194174 291.678864649084 2228.02419297213 199 202 207
-1009.15831313126 291.972563261995 2230.69379712628 197 200 205
-1001.48344124374 292.14859464409 2232.42909192007 196 199 204
-994.969771008336 292.675939405604 2236.96865441313 196 199 204
-986.913837387793 292.733242081029 2237.76688873714 200 203 208
-978.107021622864 292.554388710532 2236.68676161226 203 206 211
-970.453800951556 292.727265098992 2238.41369735153 206 209 214
-963.556070464633 293.134853163822 2242.01746559097 207 210 215
-958.143655452392 294.013577439854 2249.38333586746 210 213 218
-950.114547422257 294.067032793102 2250.17153316045 214 217 222
-943.198117731192 294.473578786528 2253.78176259178 216 219 224
-935.546418352688 294.643523539908 2255.50817869695 217 220 225
-929.711912952142 295.404050637671 2261.95193585961 219 222 227
-923.496915639969 296.046422277902 2267.45846876754 220 223 228
-916.909056638253 296.570413503116 2272.02473379585 220 223 228
-911.020523869464 297.331370928752 2278.48840790454 223 226 231
-904.406897506908 297.855118592304 2283.06401680562 224 227 232
-898.132694793791 298.49748154655 2288.59206060376 225 228 233
-891.496044017417 299.020924310511 2293.17626643914 225 228 233
-884.849077571545 299.544247950956 2297.76395705133 226 229 234
-878.875858772993 300.305551132917 2304.25817255758 224 227 232
-873.900503132761 301.42464293092 2313.61699994945 226 229 234
-867.878755724054 302.186592095278 2320.12889646264 231 234 239
-863.173735745513 303.42643111098 2330.46491325888 230 233 238
-857.764459590692 304.428099520529 2338.90572994449 219 222 227
-853.64122942318 305.908797306762 2351.18190061258 215 218 223
-847.833990004314 306.792457098904 2358.69185212124 206 210 213
-844.917615025459 308.754564535691 2374.83232935838 203 207 210
-842.251217794536 310.838558428144 2391.95773305708 202 206 209
-839.18942046378 312.805025358204 2408.15163093191 209 212 217
-832.892581573987 313.572901812981 2414.76392573461 215 218 223
-827.203166222311 314.581171200214 2423.30702556522 216 220 223
-820.549654842108 315.22930622796 2428.97332195901 210 214 217
-814.498424069875 316.11816797665 2436.57206287999 208 212 213
-1138.01064322285 274.139286793929 2143.06597929541 174 182 169
-1169.02988173766 284.22308716161 2225.35336846632 136 144 133
-1154.64111051585 282.729957840277 2213.40277340199 167 174 166
-1143.37118691209 282.02174843225 2207.8443552996 185 190 184
-1133.44073373456 281.649415334561 2205.0245227098 181 186 182
-1125.25570865805 281.72702206736 2205.87093847602 187 191 190
-1117.08027996462 281.803644549095 2206.71404755781 187 191 194
-1109.33804280759 281.992446175671 2208.47452791396 195 196 200
-1100.75809661898 281.954234230514 2208.38939271486 200 201 205
-1093.02993995007 282.141532740518 2210.14464368834 201 202 206
-1085.30636338971 282.32810259492 2211.89842986341 202 203 207
-1078.41428833446 282.741021651376 2215.50029119871 201 204 209
-1070.2837298332 282.812793841289 2216.32673129235 201 204 209
-1060.93760032378 282.542372438885 2214.36883760756 202 205 210
-1052.83400300546 282.611913599011 2215.18505905091 203 206 211
-1045.95006307253 283.022357164269 2218.78403211625 204 207 212
-1039.86187099669 283.660547238236 2224.24417641387 205 208 213
-1032.56336970668 283.956443493468 2226.91832186871 204 207 212
-1024.47320611946 284.02325622416 2227.7294564687 203 206 211
-1015.6068633496 283.860485739224 2226.67217121961 203 206 211
-1008.71288642196 284.268595871035 2230.27436073553 202 205 210
-1001.42551521787 284.561794174909 2232.94425864743 202 205 210
-994.523117182849 284.969101930956 2236.54944732738 202 205 210
-985.701357994593 284.802206977717 2235.47565199107 204 207 212
-977.660249712201 284.863753957332 2236.26881995249 207 210 215
-970.384365151721 285.154240375036 2238.93433971925 211 214 219
-963.483288370357 285.559233523729 2242.53887369731 212 215 220
-956.949448577949 286.079075141935 2247.085452729 216 219 224
-949.295091858267 286.252889206816 2248.81287198649 217 220 225
-942.380613437924 286.656724968423 2252.42244226182 218 221 226
-935.460750852785 287.060189323987 2256.03368647799 220 223 228
-929.622501080153 287.809964766705 2262.4779928821 221 224 229
-923.403925572518 288.444377194978 2267.98522534757 224 227 232
-916.812720027809 288.963006745565 2272.55255605898 225 228 233
-910.565771038471 289.597396567047 2278.07009597018 226 229 234
-904.303300672529 290.231692056336 2283.59301395763 224 227 232
-897.676048857447 290.750062897562 2288.17342211272 224 227 232
