ply
format ascii 1.0
comment KinectMotionCapture
element vertex 755
property float x
property float y
property float z
property uchar red
property uchar green
property uchar blue
end_header
-724.456577405907 198.553753934065 2406.03174819273 189 191 190
-740.643187868844 198.366146339417 2409.11917269698 189 191 190
-756.848831995014 198.181620331298 2412.28757156923 188 190 189
-761.629799117566 198.423084598318 2419.54293666758 188 190 189
-766.41470055552 198.664998943692 2426.81537390097 196 197 199
-772.158329559552 198.872248517714 2433.77649889461 198 199 201
-779.818177171414 199.010346465222 2440.10835951634 199 201 200
-791.309993052707 199.010333122532 2445.18059845176 199 201 200
-801.857538291618 199.046980910699 2450.62776736454 199 201 200
-815.288698253189 198.981590226797 2455.17042614859 199 201 198
-831.608791860288 198.815239879483 2458.83246492772 199 201 198
-857.53317246416 198.308460267052 2459.45051273018 193 195 190
-884.448088607222 197.772686214196 2459.89299100229 194 196 191
-777.684408092141 180.209449048946 2223.04112276401 213 217 218
-768.347593683999 181.049721674352 2236.08365863129 159 163 164
-756.171374010558 182.007500499481 2250.21641931063 234 238 239
-743.976935107554 182.961689583849 2264.27100695427 232 236 237
-735.535576766066 183.752895661526 2276.73189062016 241 245 246
-727.080908525229 184.541449148162 2289.13568338194 198 202 201
-722.388965865273 185.168847783976 2299.98828481749 223 227 226
-714.854741355594 185.913010084516 2311.91778550396 239 243 242
-707.308199772935 186.654849255457 2323.79546288243 188 192 191
-698.804035272458 187.433469708047 2335.98698894338 168 172 171
-701.644239911621 187.739255704821 2343.76630476941 179 181 180
-704.486197056435 188.04504314544 2351.55225588346 177 179 178
-703.53856478292 188.506708694608 2360.77521082364 177 179 178
-699.742448018574 189.084092440355 2371.04834752087 186 188 187
-700.684080435322 189.466181294005 2379.52939531129 189 191 190
-705.423021438491 189.693394869233 2386.60795094842 186 188 187
-709.215566629298 189.959562635017 2394.05072313889 183 185 184
-714.912576668752 190.14916264438 2400.81679905989 184 186 185
-724.420704107079 190.186266416908 2406.23874671205 187 189 188
-741.555353538961 189.919522079071 2408.99282942104 191 193 192
-756.804603073919 189.732271808678 2412.50589838116 189 191 190
-762.538472459359 189.927417582411 2419.43113594222 187 189 188
-768.277526027283 190.123201005136 2426.3788429486 195 196 198
-774.97645718227 190.281902677855 2433.02064054644 197 198 200
-785.502356884579 190.291011267712 2438.3875380223 197 199 198
-795.083693400354 190.339333635859 2444.12657497389 196 198 197
-800.849629181091 190.538732147785 2451.19061419344 195 197 196
-812.362852147583 190.51509197865 2456.37108158592 199 201 198
-828.67692846051 190.307521427312 2460.03084908398 197 199 196
-856.508671608538 189.658233456748 2460.02375363835 193 195 190
-882.456468334667 189.088591681213 2460.78087340369 190 192 187
-782.306876065311 171.373939403346 2221.26652471222 170 174 175
-772.036832608287 172.289868591467 2234.70971032876 155 159 160
-770.22211544667 172.817548144318 2244.6293692602 158 162 163
-753.333288090084 174.027146016307 2260.63067467369 207 211 212
-739.247448170267 175.104380381388 2275.39110237086 241 245 246
-726.083919026745 176.135203973066 2289.6866531227 234 238 237
-718.563115010988 176.908158005007 2301.65835786788 187 191 190
-712.918733278509 177.594261683966 2312.83692897036 213 217 216
-705.375015858977 178.362610390654 2324.7103727821 185 189 188
-698.764717936574 179.086559304557 2336.1667082684 192 196 195
-698.766929004023 179.514987692661 2345.03727587902 179 181 180
-700.660393960446 179.859192644188 2353.17852136537 175 177 176
-704.448785745913 180.119926072635 2360.60618756288 171 173 172
-701.604015432357 180.671824797582 2370.52900094121 177 179 178
-700.650472053903 181.139495417121 2379.72237616706 183 185 184
-703.490473692419 181.440936309091 2387.50335310423 186 188 187
-708.231805158542 181.659944065824 2394.59726889042 180 182 181
-714.878189574619 181.797192515815 2401.02013342008 181 183 182
-725.33520678375 181.771357521137 2406.10513410001 185 187 186
-740.562633442771 181.542884364084 2409.5451984627 188 190 189
-752.950316043996 181.439610832945 2414.06946970083 189 191 190
-760.587105281726 181.541867422297 2420.32080258077 188 190 189
-766.324284351801 181.7263632804 2427.26688844841 193 194 196
-773.975151837399 181.83062455452 2433.57907909526 193 194 196
-783.543196573589 181.855268424712 2439.2734717406 193 195 194
-791.210611836858 181.961933218795 2445.65716774114 194 196 195
-796.01743496358 182.189942161401 2453.03438324697 196 198 197
-800.828188917726 182.418371652405 2460.42867288635 201 203 200
-821.917103541993 181.969153925623 2462.48813682659 198 200 197
-849.736495661965 181.245643509178 2462.47027086649 193 195 190
-878.548248050069 180.488190230916 2462.28778668107 187 189 184
-793.503123365115 162.184841317548 2216.77073367519 144 148 149
-776.663298467241 163.456353102193 2232.95155636343 197 201 202
-772.971690939015 164.086058676841 2243.65444687102 158 162 163
-762.682341018568 165.03211081815 2256.99483976859 161 165 166
-749.550832190509 166.110943878656 2271.40325284475 248 252 253
-734.514460276997 167.276357954117 2286.47963144774 239 243 242
-722.286065219845 168.302388888062 2300.34233371714 201 205 204
-711.927488567779 169.23503251907 2313.38556026827 198 202 201
-705.331536624474 169.985214449035 2324.88968298606 200 204 203
-703.451001150609 170.509621391822 2334.52123342162 182 186 185
-701.565787992473 171.032928829077 2344.13281798324 185 187 186
-701.568693939757 171.466205343646 2353.00468253498 188 190 189
-702.516654461462 171.85448126164 2361.50997656618 188 190 189
-697.77738662471 172.507930569801 2372.13871389967 172 174 173
-697.771206029714 172.938881083487 2380.97190599788 172 174 173
-699.660787416824 173.281053828509 2389.09723352176 182 184 183
-708.197724739923 173.315432059134 2394.7975680156 181 183 182
-716.743349032486 173.351183238633 2400.53646117997 182 184 183
-724.34694266038 173.43205384193 2406.65518006013 184 186 185
-738.61831374545 173.208811884913 2410.43672927261 187 189 188
-749.097929887477 173.162204823006 2415.63244488931 191 193 192
-762.446906945259 172.987239395034 2419.87740681882 191 193 192
-767.231476680953 173.204104406363 2427.16311558149 192 193 195
-772.019980732051 173.421419496045 2434.4658964792 192 193 195
-780.630426638196 173.466981423964 2440.48466059244 192 194 193
-788.294698938229 173.556816591086 2446.86440552627 193 195 194
-795.966397639223 173.647690653869 2453.27735082001 196 198 197
-801.733369240541 173.825040723772 2460.35783622373 200 202 199
-822.817128380304 173.321446210806 2462.4265647839 199 201 198
-848.713800316921 172.609584892306 2463.04313462401 191 193 188
-870.809024884368 172.072464249889 2465.03118817155 190 192 187
-812.20567997296 152.536856772757 2209.16853995732 150 154 155
-775.646104777585 154.879446136608 2233.51387250932 150 154 155
-768.194118042113 155.717833093906 2245.75034026098 181 185 186
-758.847605685665 156.650100434479 2258.69711951393 178 182 183
-757.021234583693 157.195517654573 2268.55499176499 177 181 182
-743.880938071659 158.314510607383 2282.90106051435 173 177 176
-730.721175950957 159.429755778752 2297.16355691921 206 210 209
-715.654729741327 160.63661780913 2312.08303254325 187 191 190
-705.28765282807 161.601516527724 2325.06983066566 191 195 194
-702.463944164754 162.183890520182 2335.06861564177 188 192 191
-700.580016170416 162.717631369828 2344.67972678179 179 183 182
-701.52986669916 163.108664432366 2353.19172760863 178 182 181
-701.531845009377 163.546437317114 2362.05685983985 176 178 177
-698.689683599639 164.124502967461 2371.97577901792 174 176 175
-697.737455797814 164.607558576565 2381.16590248264 181 183 182
-700.576222826445 164.902682274307 2388.94515458591 185 187 186
-709.11192503392 164.917913034205 2394.65239477748 185 187 186
-715.756981181434 165.027654392366 2401.08558496499 185 187 186
-721.457837100541 165.184655915411 2407.88778140867 184 186 185
-730.968229576186 165.15713972299 2413.35880388153 183 185 184
-743.344151152305 164.99254720677 2417.8662286927 188 190 189
-756.68596926679 164.784102347963 2422.1004221191 192 194 193
-760.513618681934 165.037912127049 2429.7040658653 194 195 197
-764.343965784847 165.29192885556 2437.31947545445 197 198 200
-772.947844650541 165.317377955093 2443.32113111931 199 201 200
-782.515367372191 165.2984848755 2449.03883048037 198 200 199
-791.137643843783 165.326686839806 2455.11993743279 197 199 198
-799.768820644252 165.356141221685 2461.23952772203 195 197 194
-820.845564719813 164.797905665971 2463.30948195156 199 201 198
-845.776627651562 164.062925451987 2464.23994050946 188 190 185
-866.905829276081 163.513429250395 2466.53591266723 198 200 195
-819.626618818572 143.38802256762 2206.23959699036 153 157 160
-782.145945535251 145.893324795249 2230.98783160931 185 189 192
-766.239933827945 147.217624906696 2246.69503152335 192 196 199
-756.896636407774 148.181804674952 2259.63720778681 178 182 185
-756.953777362123 148.636074776153 2268.73571523015 175 179 180
-747.58786147167 149.595716372462 2281.57980429881 171 175 176
-735.378981266223 150.703979271629 2295.48013407214 176 180 181
-718.435241130513 152.060582817489 2311.15299826213 188 192 193
-703.354862477289 153.312077717503 2325.98591434096 191 195 196
-700.532360268006 153.907433023895 2335.98129405193 192 196 195
-701.484724230831 154.301360144022 2344.50266832474 191 195 194
-703.381883618996 154.644990145638 2352.66053176891 188 194 192
-701.493401683828 155.187703030909 2362.24738497874 186 190 189
-699.600456136264 155.729369557464 2371.81409796861 181 185 184
-698.650432482432 156.220356589119 2381.00926917335 181 185 184
-702.438570399708 156.463099197532 2388.44531188381 185 189 188
-708.127122334811 156.607411567693 2395.20075324283 182 186 185
-715.720048472889 156.653880028375 2401.29161283378 186 188 187
-718.569780754812 156.947229503901 2409.12022768913 182 184 183
-728.076588599329 156.897385199469 2414.58750047128 183 185 184
-741.398854643617 156.65344599683 2418.75641284514 189 191 190
-755.688380844159 156.363174834356 2422.65738832761 188 190 189
-761.420749503761 156.51379134876 2429.601117073 193 195 194
-764.298310397028 156.810833067082 2437.55018913854 195 197 196
-772.900578484274 156.817056765696 2443.55605454009 191 193 192
-783.420815990045 156.727878235013 2448.95581039585 190 192 191
-790.131809619395 156.833433926552 2455.68310733433 192 194 191
-800.672304548249 156.74733040991 2461.17032042414 195 197 194
-817.918553229041 156.326767050365 2464.5066449336 197 199 196
-842.840466782508 155.526144267979 2465.43648129418 196 198 195
-862.046998735803 155.01742131955 2468.34889555014 188 190 185
-874.568386319686 154.84627812668 2473.50226655889 197 199 194
-818.593393597601 134.674383382078 2206.81169041526 148 152 155
-778.308215643218 137.454332575452 2232.71043045991 226 230 233
-762.406435240526 138.829320445006 2248.40646305172 171 175 178
-751.18393364103 139.932266154364 2262.10006568109 201 205 208
-748.415296521022 140.551183218288 2272.31894769885 195 199 200
-741.873457543504 141.382069341017 2284.01405569571 176 180 181
-735.320788660373 142.210790297771 2295.66271437968 175 179 180
-724.042276868981 143.302777502273 2309.11486291417 173 177 178
-710.859387120133 144.49743857198 2323.22873585009 188 192 193
-704.266822943758 145.318381269766 2334.70616784471 194 198 197
-702.387931556325 145.873416142139 2344.32694872276 199 205 203
-703.340900066872 146.269443858486 2352.84975147843 198 204 202
-702.40057936288 146.770210811737 2362.08192723019 195 201 199
-699.563489885778 147.374898948176 2372.00753778365 182 186 185
-697.667544445477 147.926009176155 2381.55656345461 179 183 182
-699.55900436593 148.267321355199 2389.6906750336 183 187 186
-706.193790535246 148.348064629887 2396.0956655162 181 185 184
-712.834800645205 148.429725292757 2402.5286290937 189 191 190
-717.582738388018 148.616034191186 2409.67088833505 185 187 186
-724.235618219709 148.699304128193 2416.15412380012 182 184 183
-737.552175782723 148.422123877758 2420.31743262104 185 187 186
-748.980596787705 148.250417896021 2425.2113012738 187 189 188
-753.755508543853 148.440560265423 2432.4701688092 193 195 194
-761.393173773512 148.477307058744 2438.76389253596 195 197 196
-769.991981254084 148.463956011628 2444.76602174034 192 194 193
-779.554004637144 148.400824527455 2450.48442102693 192 194 193
-785.306841555797 148.543139750528 2457.52431365276 193 195 192
-796.797328853385 148.380940807463 2462.68609035764 198 200 197
-814.99255377206 147.865564583775 2465.70350981082 199 201 198
-843.732298196759 146.796719346091 2465.38686770517 194 196 193
-865.805900304106 146.087518149316 2467.3819388304 187 189 186
-880.24276007601 145.78591600359 2471.9388152794 193 195 192
-780.106488090612 128.692004284818 2232.1180640957 201 205 208
-763.272872600856 130.174679610437 2248.20204950888 252 255 255
-750.175733723086 131.427814148458 2262.65939791678 248 252 255
-741.763543368687 132.396557029923 2275.14439115945 222 226 227
-737.103894609112 133.138657531873 2286.07183420181 195 199 200
-729.609613622142 134.04680568331 2298.08089790034 183 187 188
-727.759548860826 134.61778218531 2307.81932912637 174 178 179
-718.358131078429 135.633188340634 2320.47526395887 175 179 180
-712.718112910757 136.423545918204 2331.61065828857 186 190 189
-705.179062076796 137.322852915402 2343.42872678129 195 199 198
-703.299261413114 137.887680756949 2353.03974096058 196 202 200
-700.469063646638 138.50668048828 2362.987302742 195 201 199
-694.793482123339 139.28980608203 2373.97132450033 183 187 186
-691.949601385321 139.905900582812 2383.86030000131 177 181 180
-692.890373736391 140.301160783599 2392.32981089146 178 182 181
-704.261091966755 140.093296411304 2396.99067511678 181 185 184
-713.746571597333 139.996859186242 2402.39245436652 190 192 191
-720.393665198829 140.06570369068 2408.8597633524 190 192 191
-726.097366401226 140.189935011896 2415.69268570258 188 190 189
-735.608994144989 140.097491919795 2421.20733935918 186 188 187
-748.936410373161 139.789667117444 2425.43543541804 185 187 186
-755.614829769347 139.863200129332 2432.03802624494 192 194 193
-763.252439760645 139.883608748998 2438.34111613988 193 195 194
-771.850876340894 139.851247067142 2444.35279237861 192 194 193
-782.365983543027 139.712599032513 2449.75903751254 192 194 193
-787.165638373807 139.897857813583 2457.12980963255 193 195 192
-794.834496073694 139.922796786047 2463.56793029765 197 199 196
-810.156532788132 139.521202680039 2467.52781147701 197 199 196
-840.797335692713 138.268910250335 2466.58341208604 193 195 192
-870.518656079475 137.076187986135 2466.10861264923 188 190 187
-884.955079879642 136.739712604226 2470.68407925463 193 195 192
-822.265943258346 117.367889075654 2214.94746084588 169 173 176
-766.956150952371 121.331198088514 2246.84993660064 195 199 202
-747.287877113325 123.040443743563 2263.97983009814 240 244 247
-734.175201857072 124.332540269228 2278.34580011823 243 247 248
-733.278001621772 124.857437610499 2287.75379674901 244 248 249
-729.5520813644 125.557419129577 2298.2641516221 205 209 210
-730.531092674402 125.963366985681 2306.8958792281 197 201 202
-725.851096096164 126.719341788444 2317.72549766804 165 169 170
-717.388104242454 127.70674848924 2329.97673924858 160 164 163
-708.912013310782 128.691584108561 2342.17068457344 169 173 172
-701.367399785238 129.615745427306 2353.94853573692 186 192 190
-698.537974303036 130.247792689849 2363.89291292587 192 198 196
-690.972275480039 131.167737654257 2375.58033006379 202 206 205
-690.021669040193 131.681201916677 2384.75862639452 202 206 205
-693.803938143431 131.905802287263 2392.18056481734 201 205 204
-704.224793892445 131.728136156562 2397.19443301126 191 195 194
-712.759819452385 131.667059193458 2402.9435732152 178 180 179
-720.354661112065 131.664642229469 2409.07162650627 180 182 181
-724.157769209696 131.892100167663 2416.5837127957 189 191 190
-732.716087463752 131.834509874968 2422.43235685012 189 191 190
-743.185025648657 131.664389770626 2427.65475199483 188 190 189
-750.810576651941 131.666583460954 2433.91541647958 192 194 193
-758.443796825924 131.669888627567 2440.2092220072 192 194 193
-764.178784304132 131.787547877323 2447.18496157084 194 196 195
-773.733227958558 131.679859417983 2452.89616717133 195 197 196
-781.389201616926 131.686554648802 2459.28933012301 196 198 197
-790.962674786746 131.581771899468 2465.08268166915 193 195 192
-808.189219360531 131.029148054231 2468.40985221537 194 196 193
-840.731650010508 129.58280449778 2466.84644093846 193 195 192
-870.444296939386 128.311174455662 2466.37983223574 189 191 188
-885.834360695291 127.883326284511 2470.65492146828 192 194 191
-836.245218591745 107.650230360904 2209.35586969072 189 193 196
-799.744343831133 110.544666262002 2233.63529200836 163 167 170
-750.978216204579 114.231564003899 2262.63956564238 210 214 217
-727.531523305546 116.244207725501 2281.16783315727 252 255 255
-724.750050685495 116.898967813918 2291.30907288327 246 250 251
-722.903848821228 117.491163596525 2301.05313217811 234 238 239
-727.647642462432 117.653787598968 2308.19106080664 223 227 228
-721.083210101112 118.550283319878 2319.74801993727 169 173 174
-711.67825871992 119.627616550968 2332.35087380709 156 160 159
-708.865932933419 120.275960533605 2342.36101689141 159 163 162
-706.992390045865 120.862250534707 2351.98698309007 169 175 173
-703.223795383839 121.568869188653 2362.30538624671 176 182 180
-694.719323920888 122.576745629447 2374.36071876938 195 199 198
-690.933357094799 123.279848953092 2384.60463778228 199 203 202
-692.822332034292 123.619457960246 2392.72880085605 200 204 203
-702.292723486223 123.477121394338 2398.09000299563 189 193 192
-711.773067470599 123.336478232746 2403.49515212268 177 179 178
-721.263568864377 123.197392011985 2408.9441448957 180 182 181
-726.966576372626 123.299432800792 2415.78706217695 184 186 185
-734.574621220273 123.282697830544 2421.9828041021 186 188 187
-745.042772046845 123.088058510262 2427.21506468463 187 189 188
-750.765487489401 123.193019678193 2434.14419519813 190 191 193
-757.445508610596 123.23923653843 2440.76882420435 190 191 193
-763.179226309092 123.34569850726 2447.74555426324 193 195 194
-773.684241951103 123.15670713899 2453.13694048396 195 197 196
-780.385165221955 123.20600784635 2459.85294897555 195 197 196
-788.04711356833 123.197150651849 2466.28050085693 195 197 196
-806.222294887765 122.541642694748 2469.29201759315 195 197 196
-837.798459524094 121.066729631379 2468.0428057471 191 193 190
-867.50055946348 119.715809434952 2467.57635682198 187 189 186
-877.143350724994 119.600759199822 2473.68228915785 191 193 190
-787.454013301997 102.657710784788 2238.7970941347 202 206 209
-746.21209568289 105.974155415764 2264.720745847 193 197 200
-722.771576306361 108.059127158318 2283.23367647286 242 246 247
-719.048558084313 108.790663185027 2293.73826005179 246 250 251
-720.024159544551 109.200489435856 2302.35268075349 243 247 248
-721.940482668172 109.546093845582 2310.59382935545 246 250 251
-715.375841513999 110.465968823105 2322.13611750948 239 243 244
-707.857461801712 111.447434877861 2333.99586516796 205 209 208
-707.875678851821 111.917741808844 2342.91341916314 171 175 174
-708.83606929635 112.32396426133 2351.46293101771 162 168 166
-706.01602162788 112.983379855556 2361.43253508859 164 170 168
-699.408532253928 113.894590649441 2372.790018922 185 189 188
-695.628201787419 114.614174498893 2383.04908166983 184 188 187
-693.734175012024 115.206201548878 2392.58140973286 176 180 179
-699.4138344772 115.293725355973 2399.33106693315 184 188 187
-706.046568961708 115.319181578285 2405.76062096168 187 189 188
-717.428590857313 115.03199372141 2410.51795112021 190 192 191
-723.128441577305 115.122452518487 2417.35376992611 182 184 183
-734.53202712727 114.838725027049 2422.20408667384 183 185 184
-744.997677860808 114.619425703658 2427.44092102762 190 192 191
-751.670910173969 114.650972758132 2434.04426294181 190 191 193
-755.495635534579 114.86991221316 2441.65553120779 190 191 193
-761.227446549388 114.965037653603 2448.63052709752 191 193 192
-766.964462199573 115.060862137367 2455.62804644963 193 195 194
-774.613731618874 115.033682630438 2462.010504272 193 195 194
-781.316388581383 115.069384800574 2468.74215062164 197 199 198
-799.482629438518 114.36671385706 2471.74092385673 196 198 197
-828.178801100208 112.991140143609 2471.4137691797 189 191 188
-855.953978401585 111.6829016263 2471.54498527185 186 188 185
-863.674338347152 111.667139405116 2478.23399356505 191 193 190
-754.528305975637 96.313655966305 2252.36752421201 225 229 232
-734.875965083486 98.2074166243124 2269.45910173842 239 243 246
-716.135030126749 100.028999385496 2286.05290469928 226 230 231
-709.589643487849 100.976261334646 2297.66393119926 230 234 235
-708.678267129154 101.520845839065 2306.99788033076 229 233 234
-711.529377669824 101.798063659604 2314.84097028888 234 238 239
-708.729518846852 102.474614783466 2324.88945946545 245 249 250
-705.92402066755 103.149944817256 2334.91273018935 232 236 235
-704.999042992972 103.691421291771 2344.18857214214 217 221 220
-706.902326950656 104.033479917689 2352.37434819394 160 166 164
-708.805908432463 104.375430987599 2360.56149856906 157 163 161
-705.0389732337 105.113143047193 2370.86892614952 178 182 181
-698.427615418875 106.046952957453 2382.19715775595 179 183 182
-694.644531206746 106.78139048126 2392.43534947065 186 190 189
-697.483385831857 107.05476430237 2400.22669373092 186 190 189
-705.061425026377 107.000594099073 2406.31223167256 192 194 193
-714.543918152483 106.816704722152 2411.75120075504 193 195 194
-722.138798551665 106.765048319852 2417.90838578416 184 186 185
-732.589543857349 106.518970725507 2423.0952883546 183 185 184
-743.05191574336 106.274735084382 2428.33125453752 186 188 187
-751.624194908713 106.162244992812 2434.27479507587 190 191 193
-755.448892001128 106.375524560423 2441.88926773686 190 191 193
-761.180052937799 106.459502210325 2448.86795577475 186 187 189
-768.821609918475 106.414918515599 2455.22666473171 190 191 193
-776.47083107537 106.37145989493 2461.61848472521 196 198 197
-782.220023521703 106.45799683001 2468.67512467728 200 202 201
-796.564205571333 105.966295013991 2472.93542019734 199 201 200
-823.340219045205 104.642530881821 2473.22928345105 193 195 194
-853.01565530552 103.131978840724 2472.73922925839 188 190 187
-859.776435048532 103.163416054273 2479.72950651559 181 183 180
-745.949218283191 87.8462144984272 2246.88401094098 201 205 208
-730.066405269735 89.5241428789953 2262.48653145422 228 232 235
-719.792262265405 90.7789362122265 2275.71234328422 239 243 246
-711.380950870153 91.8913610871907 2288.11670067031 232 236 237
-701.076545012353 93.1404062221812 2301.21253786514 232 236 237
-697.339729239357 93.9001991674024 2311.63970170249 212 216 217
-700.183449892305 94.1729968934329 2319.45391373095 201 205 206
-702.087085994317 94.51513097912 2327.64119715021 197 201 202
-703.048741022862 94.9263596946124 2336.19333696886 200 204 203
-701.180585240427 95.5442875466752 2345.8244335003 202 206 205
-700.25128443883 96.0923044861028 2355.0773783812 170 176 174
-703.095257828748 96.3643360681343 2362.89315473498 166 172 170
-705.940771871404 96.636446497586 2370.71567371533 176 180 179
-703.115423443238 97.3201398796633 2380.64655377781 172 176 175
-700.283940605284 98.0026099913741 2390.55220800092 180 184 183
-700.286793369853 98.4787179844802 2399.3975597116 178 182 181
-705.970940310362 98.5447751636132 2406.17961727861 192 194 193
-711.660308851159 98.6115632504376 2412.98425432359 191 193 192
-719.252022346236 98.5429862968921 2419.13743626747 187 189 188
-731.597008274098 98.1360157612719 2423.65218606609 186 188 187
-743.006175101308 97.7991204276534 2428.55836871974 185 187 186
-750.626511708827 97.7350386299036 2434.83503665538 189 190 192
-751.59756620237 98.1452632325415 2443.42918650917 188 189 191
-757.325590803677 98.2177202850419 2450.40083008878 187 188 190
-763.058798080966 98.2908581142611 2457.39491110887 192 193 195
-769.750216654752 98.2974394491797 2464.09307616783 196 197 199
-775.494409460555 98.3721041076324 2471.13466771364 197 199 198
-788.876688084356 97.9111471007234 2475.6945864026 197 199 198
-815.640012323245 96.5156618719244 2475.97471759567 195 197 196
-844.346310249423 94.9920644713973 2475.77924776244 194 196 195
-851.100765373636 95.0087114068308 2482.74926785967 190 192 191
-732.757736604454 80.2705348077355 2252.44814654695 222 226 229
-720.623674283616 81.7074967322419 2266.48483691848 184 188 191
-717.854688771738 82.4158932160751 2276.64955484878 174 178 181
-711.323971183085 83.4127438618801 2288.29605516898 167 171 172
-700.084866336693 84.7689530581988 2301.76644662103 199 203 204
-690.708950638871 85.9776330201542 2314.42108096434 245 249 250
-692.607930778518 86.3186279742038 2322.58851753563 252 255 255
-695.448521234489 86.5875570361726 2330.39121153777 237 241 242
-697.348728331878 86.9284897234349 2338.56409141384 231 235 234
-698.30666656864 87.3409981974582 2347.09910019806 227 233 231
-700.206835298276 87.6816060551963 2355.27200205786 219 225 223
-703.99511721075 87.8790179752757 2362.73534132442 224 230 228
-707.785952580247 88.0767838131354 2370.21081083891 186 190 189
-706.85413162965 88.6313498005767 2379.44879855773 168 172 171
-703.081907531028 89.3986929725156 2389.71440574042 143 147 146
-701.194863980336 90.0224302623651 2399.2599413909 157 161 160
-706.879180901735 90.0773820610354 2406.048193403 180 182 181
-712.568500594556 90.1330831110578 2412.85913622866 183 185 184
-722.055778183579 89.9065743454529 2418.34534214958 184 186 185
-729.655724043554 89.8229212053553 2424.54366794849 188 190 189
-738.212725026143 89.6699353054641 2430.44370233847 185 187 186
-741.078482353228 89.9408388871198 2438.35504829052 188 189 193
-744.896114480089 90.1414963302409 2445.94689898195 188 189 191
-751.570586836437 90.1318509185659 2452.57993330291 191 192 194
-757.299421150728 90.193225021455 2459.56166357263 197 198 200
-765.891067773801 90.045372511919 2465.61134728796 198 199 201
-776.398014522833 89.7591778951327 2471.06841485312 195 196 198
-792.638797834057 89.0562401445586 2474.6976564514 193 194 196
-813.670470665421 88.0081782705457 2476.85710070027 191 193 192
-841.412444558352 86.4775937332404 2476.97169373519 192 194 193
-851.986332177359 86.2024141974628 2482.71834897321 186 188 187
-754.160850560864 69.4720459742847 2234.63864801731 207 211 214
-732.689074718111 71.7083811822525 2252.62515593917 211 215 218
-719.623125918694 73.26100678096 2267.0437949099 167 171 174
-714.979658642666 74.1328943627929 2277.96620635359 173 177 180
-711.266390777101 74.928034945258 2288.47634548851 166 170 171
-700.971526584491 76.2468530682625 2301.57319055507 146 150 151
-691.600909700967 77.4877935584446 2314.23111352201 207 211 212
-689.739306599172 78.127668538884 2323.87817634888 226 230 231
-689.755102679189 78.6172111909463 2332.77374833454 238 242 243
-690.710574147158 79.0316353708076 2341.29676036112 241 245 244
-693.549570301898 79.2968461066117 2349.0946159531 233 239 237
-695.447247148946 79.636530593179 2357.25708024181 220 226 224
-699.23240561742 79.8276163272106 2364.71037667373 204 210 208
-703.020095583523 80.0190377124216 2372.17571733168 151 155 154
-702.086743925621 80.5808737244816 2381.40268388271 151 155 154
-699.259296750125 81.2897161130521 2391.3095238331 165 169 168
-698.317857268137 81.8497462271748 2400.50191294979 163 167 166
-703.999415023496 81.8932122309085 2407.28584846948 181 183 182
-709.686207856081 81.9374114767487 2414.09242148124 183 185 184
-721.065506542458 81.5416128712548 2418.90163290897 183 185 184
-728.663525376452 81.4412539460914 2425.10129292029 182 184 183
-733.421856217479 81.5618213833398 2432.32801711025 182 184 183
-736.284585664642 81.8291906041274 2440.22918568815 193 194 198
-742.000114686104 81.8775301605035 2447.15886526929 194 195 197
-751.524464288083 81.6349530465856 2452.81788267845 194 195 197
-758.204395202428 81.6123976911601 2459.48256375264 196 197 199
-767.747180065597 81.3727245934217 2465.22110947791 196 197 199
-776.347341371273 81.2072125527369 2471.31870054138 194 195 197
-791.630540614696 80.5357677912779 2475.26615882921 192 193 195
-805.023306579175 80.0119348372504 2479.90927235149 195 197 196
-833.706272716799 78.3345343606058 2479.70036477473 201 203 202
-853.82606364716 77.3124007829117 2482.38377512616 202 204 203
-732.559352708735 62.636927044973 2243.71875486707 240 244 247
-726.064868455569 63.6873909149508 2255.493386555 248 252 255
-713.937510393583 65.2041649335599 2269.51159046911 238 242 245
-713.981368512934 65.7042378212013 2278.52462639889 244 248 251
-712.146651915007 66.3594435769579 2288.28114956384 224 228 229
-708.429430619021 67.1691721781384 2298.76528741437 231 235 236
-698.128521186557 68.5208008026476 2311.81619561187 191 195 196
-691.572361723929 69.5594245355007 2323.32601483725 156 160 161
-690.650146431395 70.1316374717879 2332.59486484049 172 176 177
-689.724318660118 70.7030784382904 2341.84933664272 198 202 201
-690.678920985379 71.1194475851659 2350.36846117116 210 216 214
-689.747507343144 71.6895883453965 2359.59908315218 217 223 221
-691.642358159716 72.028146952257 2367.74975653094 225 231 229
-694.481521238818 72.2897146306345 2375.54940400449 231 235 234
-693.544174100802 72.8583503416421 2384.75476481133 208 212 211
-691.658377309847 73.5028425002152 2394.29250065572 185 189 188
-691.659179564198 73.9933024712709 2403.12146168492 165 169 168
-698.282206726311 73.9483945617052 2409.54853914174 175 177 176
-707.752302032223 73.6756076575454 2414.98624933085 183 185 184
-720.075252266899 73.1759601862074 2419.45840673865 181 183 182
-726.723230313846 73.1349691970579 2425.99312833953 183 185 184
-727.68483648169 73.550701871543 2434.54240376824 190 192 191
-731.49348883394 73.7385372848333 2442.10222590734 196 197 201
-739.105181783603 73.6237410482664 2448.37063349184 201 202 206
-749.576537021276 73.2832199963646 2453.7028174229 198 199 201
-756.254004564223 73.2465978358206 2460.36600351189 198 199 201
-767.697478286749 72.833900722367 2465.46794620875 198 199 201
-781.058684705915 72.2726092461616 2469.99402210276 194 195 197
-799.200523558426 71.337890411527 2473.02283547278 189 191 190
-810.68742655172 70.9322675737165 2478.31199165648 188 190 189
-836.50260726436 69.4041079843064 2479.0484978684 194 196 195
-865.213759639991 67.6567282681983 2479.00604098103 195 197 196
-728.746382377229 54.3817369866063 2245.44235215284 220 223 228
-723.189176809113 55.3748470938932 2256.82341400832 238 241 246
-711.065142376337 56.9315776694251 2270.83384901299 220 224 227
-706.421774616361 57.8396252570748 2281.73543084717 217 221 224
-702.707984694396 58.6654958349379 2292.22519512164 233 237 240
-701.80284880787 59.2486635661907 2301.56394996868 202 206 209
-699.95518906126 59.911418745394 2311.25899785215 154 158 159
-693.40374686342 60.9743328562456 2322.77531725221 153 157 158
-692.484104405746 61.5544960853619 2332.05191495356 152 156 157
-689.679108221325 62.2939258342032 2342.03969639664 158 162 163
-691.576431343217 62.6327391280968 2350.20111437595 193 197 196
-688.762549235076 63.3703388355226 2360.15190210968 199 203 202
-689.714544581709 63.7880803409302 2368.65764520386 204 208 207
-691.609055862522 64.1259437676499 2376.80723127504 205 209 208
-691.61571320745 64.6225827874074 2385.65727247557 218 222 221
-691.619962752917 65.1187018952496 2394.49809573265 205 209 208
-692.567540046622 65.535027295003 2402.98520325176 180 184 183
-698.244035599052 65.5554737581862 2409.76037113585 175 179 178
-704.872294007837 65.4976583163447 2416.2191786737 180 184 183
-714.348960585522 65.2041433687301 2421.69695081324 183 187 186
-722.887793329496 64.9910555770345 2427.55227546459 184 188 187
-723.847858911675 65.4087776093294 2436.09359211152 187 191 190
-728.60325632011 65.511886420535 2443.31765850402 191 195 196
-735.261914102969 65.4586279414657 2449.90774291114 192 196 197
-745.728501344274 65.092939950523 2455.23371867958 196 200 201
-752.402508169949 65.0420509066 2461.89004617275 196 200 199
-762.889398972086 64.6796050132916 2467.30358421158 192 196 195
-778.148516642171 63.9288976114029 2471.19154493359 186 190 189
-796.283660501349 62.9473886742743 2474.21837672264 178 182 181
-811.580003716963 62.20284166147 2478.26566485775 187 192 188
-830.709849457503 61.1504651377545 2481.16100124391 188 193 189
-859.409137762256 59.3260852749741 2481.11046699776 205 210 206
-732.416880369428 45.472636387383 2244.07251662925 248 252 255
-720.314589709432 47.0726314817421 2258.1533204254 212 216 219
-705.385118568619 48.9197294389075 2273.29982111902 231 235 238
-697.929791758511 50.0958104334825 2285.32294997674 240 244 247
-693.275373915204 51.0198345726873 2296.16644190261 222 226 229
-695.180393080086 51.3601544956595 2304.36088692359 238 242 243
-696.14669335689 51.7834672931354 2312.92747532592 236 240 241
-693.354397442566 52.5382147697297 2322.96221207621 219 223 224
-694.31639239483 52.9605070230641 2331.51042899322 201 205 206
-692.455479055032 53.6306421487572 2341.14273327897 179 183 184
-693.413993973752 54.052000562964 2349.67507800978 160 164 163
-690.603527083268 54.8030348876616 2359.6330133536 161 165 164
-690.615173559483 55.3057013551558 2368.5014943881 172 176 175
-692.510897608642 55.6433265025552 2376.65656476223 175 179 178
-694.40692766438 55.9808600261307 2384.81303746748 169 173 172
-693.469899366275 56.5644332814426 2394.01101749063 172 176 175
-695.364630960733 56.901423707692 2402.16208786081 181 185 184
-700.096680177405 56.992837378791 2409.29014739148 176 180 179
-705.778956688262 57.0030475265169 2416.09681016969 174 178 177
-710.519593013791 57.0956882863927 2423.2619877072 183 187 186
-718.106840815497 56.9443187425277 2429.44418713543 184 188 187
-720.012826052269 57.2825353300745 2437.64412633799 182 186 185
-724.765394304844 57.3767800727781 2444.86093939823 182 186 185
-730.471254348073 57.390395499247 2451.76952191005 180 184 183
-739.032363077034 57.1615401097124 2457.73228134907 178 182 181
-746.651826388701 57.015071037393 2464.05355854517 181 185 184
-758.08390940638 56.546396436467 2469.13823137526 190 194 193
-777.143469957434 55.4339298620407 2471.75919379837 189 194 190
-795.273141973977 54.4058716169317 2474.78929228443 196 201 197
-812.471075865268 53.4619302490354 2478.2205478955 197 202 198
-825.87418666377 52.8429444134854 2482.96521252352 199 204 200
-844.064023292749 51.8249460428953 2486.25451400515 209 214 210
-860.365340273407 50.970872446424 2490.23830852413 220 225 219
-741.693104356652 36.017374026982 2240.38644610886 223 227 230
-724.925205016723 38.0902807542854 2256.41285983957 249 253 255
-704.388637051303 40.5035350067317 2273.85888114505 230 234 237
-688.506142070396 42.4810015882522 2289.28662450532 217 221 224
-681.973660532921 43.5944647127795 2300.85676420092 203 207 210
-682.933992760453 44.0189147884831 2309.39529862524 213 217 218
-688.586036517076 44.0142992552016 2316.07745848173 199 203 204
-689.547604422294 44.4387608890097 2324.62143121451 201 205 206
-688.628601237995 45.0340039438454 2333.89197646101 196 200 201
-685.825298847349 45.7993681889849 2343.87305432047 209 213 214
-685.839430995222 46.307599540278 2352.74921557098 178 182 181
-687.734542637827 46.6449016659497 2360.90177732045 173 177 176
-690.572140120849 46.8970415445018 2368.70115741178 176 180 179
-693.411278494095 47.1493181631802 2376.50724712558 174 178 177
-696.252174842444 47.4016984133458 2384.31993612552 171 175 174
-692.485577435214 48.2476080301056 2394.56521394021 178 182 181
-693.435612340851 48.6688136973343 2403.060280697 169 173 172
-696.275270689246 48.9206307938866 2410.86893199627 158 162 161
-700.06235068717 49.0881116764574 2418.3456658054 163 167 166
-704.798922735708 49.1716021111752 2425.49831572339 181 185 184
-711.433979259908 49.0872115215228 2432.00162389106 185 189 188
-719.971026059753 48.835588951928 2437.87174354328 187 191 190
-725.671615654715 48.8373864339032 2444.76405235781 188 192 191
-730.428419441478 48.9238461933995 2452.00410849056 182 186 185
-737.088656989954 48.8432532960788 2458.6161450551 180 184 183
-744.705336036294 48.6800006626202 2464.93611112995 185 189 188
-757.084664816286 48.1001033934825 2469.70281873338 192 196 195
-773.283771810647 47.1887244346333 2473.27100882131 193 198 194
-787.597495921718 46.4471503936962 2477.54405582884 191 196 192
-801.927567081339 45.7082922127328 2481.88753995391 194 199 195
-812.460385827983 45.3046134568678 2487.52771475418 201 206 202
-831.590880881836 44.1556665720215 2490.48162551022 185 190 186
-846.925131095031 43.3421298876986 2494.7376175606 201 206 200
-741.617121205564 27.3932370222888 2240.56765039726 169 173 176
-723.921111626677 29.6089720089958 2256.97667568892 196 200 203
-705.2636000511 31.9090035113069 2273.6566821229 190 194 195
-690.324952858751 33.8489113322429 2288.70816012515 188 192 193
-683.79717986612 34.9865910098768 2300.28480499173 194 198 199
-681.946789671153 35.6793176214342 2309.95019273168 214 218 219
-683.844637606767 36.0172094187612 2318.11446533627 197 201 200
-681.987464075002 36.7085007187967 2327.75080599631 178 182 181
-682.00444408042 37.2223725496663 2336.63728540977 185 189 188
-682.019289022988 37.73571546262 2345.51466760062 199 203 202
-684.854308729234 37.9844455405374 2353.30360764769 205 209 208
-685.807916960932 38.4092189901318 2361.81340849176 210 214 213
-690.528513176742 38.4824069951558 2368.90171925517 218 222 221
-694.310622699681 38.6438797277888 2376.35899767981 202 206 205
-699.981735836915 38.6305486443051 2383.13031439675 199 203 202
-698.107817931725 39.3178837672338 2392.69519661135 207 211 210
-698.117911942496 39.8295070455635 2401.55265489719 189 193 192
-698.126062765414 40.3405783934868 2410.40078859661 188 192 191
-699.077359153266 40.7639968448648 2418.90119909277 196 200 199
-703.812944898216 40.8389134959778 2426.05454560941 187 191 190
-710.446391802387 40.7405043473235 2432.55900612405 179 183 182
-720.876271073194 40.2957819305693 2437.76971093052 178 182 181
-727.524856911256 40.1998343856137 2444.34052087051 162 166 165
-731.333871162954 40.3646657754977 2451.91438155143 163 167 166
-737.04419695961 40.3568542001096 2458.85524540398 178 182 181
-746.559615798353 40.0042439832327 2464.53962661155 181 185 184
-756.085431328259 39.6532337578531 2470.26779414656 175 180 176
-769.426015123979 38.9592293529339 2474.78213872188 157 162 158
-778.97458551059 38.611929216445 2480.60839508955 175 180 176
-791.390495760509 38.008428636384 2485.55127079601 184 189 185
-805.726511090217 37.2355131012065 2489.94097977666 189 194 188
-821.986364611019 36.2938292438655 2493.7935919386 198 203 197
-841.127791383669 35.0984248501629 2496.82408533493 197 202 195
-740.606402565443 18.8550551562325 2241.13572249659 24 25 27
-726.656329943789 20.7602904558566 2256.00741588579 191 192 194
-706.137579009761 23.3031522779593 2273.45571833913 199 200 202
-691.20567941324 25.2916077195944 2288.50946241497 192 194 193
-684.682225588206 26.4533657930214 2300.08989148147 205 207 206
-682.834077234616 27.1566609992797 2309.76002837222 203 205 204
-681.919602079624 27.7678037051269 2319.04008865404 212 214 213
-678.185922375251 28.651493875434 2329.40819951193 215 217 214
-678.201666993033 29.1699389353287 2338.286545273 233 235 232
-681.034578738991 29.4153229225543 2346.06925090653 229 231 228
-683.869238471095 29.6608377368088 2353.85849581358 219 221 218
-684.82312677252 30.0878146698033 2362.36823478898 183 185 182
-687.659645371861 30.3334200625028 2370.16561765889 155 157 154
-697.093078023869 29.9462737359563 2375.50903358631 157 159 156
-706.536946291345 29.5607775318796 2380.89637787865 159 161 158
-707.499454681507 29.9888137115705 2389.44347890844 143 145 142
-702.796629672237 30.957054516212 2400.04765422182 122 124 121
-698.085444999617 31.9237026681896 2410.61592879682 144 146 143
-699.037889160474 32.3494909689111 2419.1189167624 145 147 144
-703.773108540898 32.4159412195089 2426.27562852651 150 152 149
-711.351826022292 32.214005431339 2432.45106628142 157 159 156
-719.885800252979 31.923713601074 2438.32930401245 161 163 160
-727.480503918651 31.7243443882177 2444.57367651373 165 167 164
-735.083126263225 31.5261603994786 2450.85115974788 165 167 164
-742.693434980898 31.3291776441023 2457.16180703637 174 176 173
-752.210846896082 30.9551909980418 2462.86645739197 182 184 181
-761.738187640329 30.5828647247192 2468.6149697124 193 195 192
-774.128403016607 29.9455103325857 2473.46453073418 208 210 205
-784.629576537727 29.4880006821018 2478.99692004467 205 207 202
-791.333597011488 29.3870204346655 2485.81388053265 209 211 206
-801.854823316221 28.9327801544171 2491.43379741459 211 213 208
-741.463631346105 10.1272873899839 2240.93265511795 40 42 41
-723.782248347027 12.4561247401926 2257.33961041609 26 28 27
-709.815497014321 14.4029717441453 2272.11441957695 18 20 19
-693.956986554129 16.5345167636536 2287.55614221403 0 1 0
-693.056771431558 17.1558800359305 2296.89411540735 216 218 217
-689.342236177205 18.0585930239411 2307.33539912257 213 215 214
-683.745377737333 19.1477654387886 2318.48631331785 228 230 227
-676.262661614098 20.4227288022372 2330.33058972934 235 237 234
-681.911595436323 20.3838776440088 2337.01809529217 167 169 166
-691.323296258752 19.971561945766 2342.28055208214 24 26 23
-698.865193916724 19.7478470143367 2348.30546388886 0 1 0
-691.363960089855 21.0190966222103 2360.07032495769 0 1 0
-691.380933936905 21.5421368601316 2368.95138467625 0 1 0
-705.524550313067 20.6676444439341 2372.5530174161 3 5 2
-723.454624584045 19.423807185455 2374.83048760801 14 16 13
-729.1452736497 19.3915453890694 2381.69793887788 91 93 90
-719.740572437634 20.8450423295538 2394.08173433846 92 94 91
-711.265856092795 22.2031285063877 2406.06220309541 157 159 156
-708.447663132509 23.0031988098067 2415.9572515709 161 163 160
-710.351816544751 23.3397096591782 2424.15012196051 168 170 167
-716.041179491228 23.3066449679028 2431.01346449672 172 174 171
-719.84215434084 23.4589039924607 2438.55929360299 167 169 166
-732.173069546684 22.7821496230233 2443.17071774809 188 190 187
-743.569842516972 22.1997259274023 2448.16669770391 191 193 190
-755.928131865522 21.5274833823958 2452.89500794726 191 193 190
-770.198842970073 20.6738921075985 2457.04439978836 192 194 191
-783.535796221836 19.9147832617021 2461.58103840491 197 199 196
-801.640877473128 18.7001607548991 2464.61250684205 169 171 166
-816.913866743303 17.7635942630148 2468.66982364837 123 125 120
-828.396970591562 17.1955459027746 2474.03777200171 109 111 106
-768.552556216031 -0.793088949225973 2239.13590146481 41 43 42
-701.338161714986 6.73695176611677 2275.72072788618 25 27 24
-702.318090941325 7.17358255400391 2284.33845366107 3 5 2
-703.296895530605 7.60999523957362 2292.95243832951 8 10 7
-693.035152789695 9.20687954556943 2306.03168611402 3 5 2
-687.444117241836 10.3177730411484 2317.19439727957 7 9 4
-687.470647235485 10.8478415168453 2326.1134330962 9 11 6
-700.634211747272 10.027815140493 2329.92076449368 22 24 19
-713.812939318705 9.21037185327955 2333.79339376412 19 21 16
-704.452924503181 10.7038831171852 2346.35056807039 16 18 13
-667.808235711556 14.9807850181078 2369.18314170314 17 19 14
-677.220703343419 14.5465173065047 2374.46188895384 20 22 17
-697.001062698325 13.0595664933221 2375.92187247158 19 21 16
-704.556451661335 12.8213753533977 2382.0147491607 18 20 15
-715.890822291295 12.2018996834201 2386.75754127645 20 22 17
-724.407486543376 11.8711490009354 2392.58438427227 23 25 20
-726.324678178861 12.209744718694 2400.83348232074 10 12 7
-717.850420963504 13.5966682820741 2412.80009946786 11 13 8
-725.433232719647 13.3627571525219 2419.01129939302 0 1 0
-720.726706415002 14.3662175769116 2429.57844964012 3 5 0
-731.156520714232 13.8484101422574 2434.83185436512 0 1 0
-742.544836907158 13.237642315728 2439.8072399882 0 1 0
-757.736891264195 12.249928789703 2443.53908044433 3 5 2
-775.791770799795 10.9812332398949 2446.38113524726 98 100 95
-798.613181475743 9.24344879877359 2447.71896769799 103 105 100
-823.361249150819 7.32150243769925 2448.54226504146 104 106 101
-848.139529210625 5.40468246331288 2449.49459394446 102 104 99
-878.652900986375 2.92773470873153 2448.70896197618 117 119 114
-744.185863461753 -6.91748597164243 2249.28325015179 35 37 34
-728.375941812164 -4.67732006766741 2264.8762821873 26 28 25
-787.350412129134 -10.4143175487357 2250.16462465686 31 33 28
-677.036886821165 1.88111810850744 2303.63692808298 24 26 21
-697.661398404218 0.228161855592268 2304.35796481741 23 25 20
-686.454896857924 1.95690587344505 2317.75291234547 15 17 12
-708.983680704212 0.110466640449836 2317.8651698846 30 33 26
-695.889017384391 2.03519496797594 2331.93841749095 15 18 11
-677.142063967986 4.55045304293611 2348.09770249201 9 12 5
-664.004767551784 6.46747123986557 2361.9876190029 11 13 8
-665.888583792434 6.80034367160165 2370.09301211627 14 16 11
-683.763774731416 5.45564490642886 2372.18795822627 18 20 15
-687.541349243645 5.59314085670659 2379.6393551458 19 21 16
-683.786439211465 6.51871894644851 2389.88927586284 19 21 16
-697.932128755346 5.57426705233999 2393.54119205214 23 25 20
-713.037245915587 4.53435394372242 2396.9206393082 26 28 23
-758.359944649825 0.357203492884095 2389.48549524645 16 18 13
-830.277354495138 -6.00890845766411 2382.05417278987 16 18 13
-791.600640174605 -1.45362702597512 2404.88263787537 26 28 23
-818.241063486163 -3.1060573423613 2413.8851355687 21 23 18
-786.105721873067 0.750527613978313 2434.0525867421 26 28 23
-804.174325717558 -0.561406634632056 2436.98055033386 0 1 0
-818.469478371731 -1.48066341174047 2441.27626800372 94 96 91
-840.375462284594 -3.17436074747646 2443.11176543745 122 125 118
-859.458116746501 -4.5724810713228 2446.00141870969 118 121 114
-880.464288192015 -6.16061509616617 2448.36614198685 103 106 99
-704.845209773112 -11.8098838854187 2256.51612263463 45 46 41
-728.237206500959 -13.8298885886436 2255.97787215488 36 37 32
-720.830909848242 -12.4628509576464 2268.10474162791 25 26 21
-661.065424132563 -5.36485862607977 2301.3133539625 35 36 31
-695.693058472545 -8.61039902815347 2296.3253874806 23 24 18
-662.971575493715 -4.49283849489179 2318.31395776588 19 20 14
-690.148965496479 -6.91458693858554 2316.46482297384 17 18 12
-695.803272029739 -6.9858243356522 2323.1961387301 23 24 18
-690.208454107358 -5.83422373728421 2334.31932640028 24 25 17
-672.404067646669 -3.36200354446681 2350.09992459752 32 33 25
-686.503215113816 -4.34927158071929 2353.57193268521 18 19 13
-687.462798426856 -3.912665001569 2362.10001690323 20 21 15
-695.00353099169 -4.18606090347345 2368.1501017744 21 22 16
-688.438088511993 -2.93893386101468 2379.49529343973 18 19 13
-668.67965626502 -0.277296425510998 2395.66773139713 16 17 11
-701.655606140629 -3.28054693045221 2392.37288458997 18 19 13
-704.502801218137 -3.04595132032637 2400.22487616824 16 17 11
-810.665931417911 -10.5170136856511 2425.87454249505 27 28 22
-796.522015261099 -8.4696454221817 2439.80845181452 10 11 5
-829.776202906111 -11.4249828434401 2437.71149973282 17 18 12
-841.244572340875 -12.0761995955091 2443.06343671792 4 5 0
-859.372876983906 -13.4236328745103 2446.27535573445 137 138 130
-874.671746494856 -14.4684780499662 2450.5114881623 144 145 137
-679.558086742583 -18.064136348919 2258.12641049009 33 34 29
-710.488945447378 -19.8950973989575 2272.47082211354 29 30 25
-667.558429375524 -14.5112268754533 2298.8514438512 33 34 29
-680.673171643286 -15.4368500407298 2302.50574494469 18 19 13
-678.832061625795 -14.6818730502651 2312.17541284409 19 20 14
-682.603992035657 -14.5563698422216 2319.61007875237 21 22 16
