ply
format ascii 1.0
comment KinectMotionCapture
element vertex 775
property float x
property float y
property float z
property uchar red
property uchar green
property uchar blue
end_header
-941.056689282096 -88.8618280218642 2373.5665911255 15 18 9
-889.852669951163 -87.2468136511697 2408.89057257201 18 21 14
-882.791667296973 -86.9152940562213 2419.26860636901 16 19 12
-907.554542053465 -87.0861386914361 2433.03615769891 21 24 17
-886.0081973548 -86.3909832013644 2448.60636763794 21 24 17
-911.600811184112 -86.882720836736 2446.88405809361 21 24 17
-904.452851379639 -86.5510826142953 2457.1016932769 22 25 18
-920.459500131864 -86.7993652021032 2458.97176514777 23 26 19
-950.041011828943 -87.3845417447372 2456.09796508477 23 26 19
-924.483439564728 -86.5942337795614 2472.77911246587 21 24 17
-906.606627592535 -85.9977678804713 2486.60888220891 23 26 19
-897.412895251251 -85.6187223602896 2497.30832816559 24 27 20
-897.909447864673 -85.4803533373769 2504.60809153884 26 29 22
-904.240191885743 -85.4859859830898 2509.9048873012 26 29 22
-920.328294104233 -85.7310237061671 2511.92574273761 23 26 19
-930.591515068547 -85.831505729917 2515.96685546232 22 25 18
-913.499610199305 -85.2615025394574 2529.11695094221 21 24 17
-912.015035884741 -85.0748382393049 2537.01768717661 19 22 15
-893.854264081262 -84.4823131990749 2550.32351370667 19 22 15
-903.117001942092 -84.5586632459609 2554.64711624969 20 23 16
-894.705418921025 -84.2056701091098 2564.66193927182 22 25 18
-896.102595859965 -84.091146854995 2571.49614465201 25 26 20
-913.259571783347 -84.3569927756053 2573.36179682233 24 27 20
-925.51907386695 -84.5032851615859 2576.8305552716 24 27 20
-916.067158678499 -84.1271368256507 2587.05428468494 25 28 21
-929.332837848727 -84.2965498525849 2590.25183396256 26 29 22
-940.642979763473 -84.4180700566307 2594.09679490111 26 29 22
-949.989380327263 -84.4918579952344 2598.57503887913 24 27 20
-910.690814393488 -83.4078227318138 2617.5667330928 20 25 18
-933.925164432459 -83.812381401562 2617.87826545199 18 23 16
-993.053819177137 -85.0643644789214 2607.81230016097 18 23 16
-960.60873312881 -84.1475612932237 2624.55389881984 18 23 16
-972.346803073809 -98.7545530627897 2280.09281489993 8 10 5
-968.453441795982 -98.4735412677743 2289.93662744619 20 23 16
-973.969531774429 -98.4650290023312 2295.85417896228 21 24 17
-883.54249734501 -95.3638016033717 2356.77515615169 34 37 30
-954.358609020456 -97.230745559704 2336.29561544189 16 19 10
-948.446897760756 -96.8950846560317 2346.67334735899 17 20 11
-970.820107231086 -97.1996555437278 2353.89085519311 17 20 11
-954.388219604869 -96.5656309453624 2368.27459948326 16 19 10
-894.592669715156 -94.5427563631081 2406.95454944264 20 23 16
-917.480671947145 -94.6994936457377 2421.50821380694 21 24 17
-909.432394502482 -94.310829597808 2432.20245322518 21 24 17
-907.127275668612 -94.0838847025703 2440.72097110861 23 26 19
-893.241409967427 -93.5343877316727 2453.41648798537 23 26 19
-910.189403617637 -93.8449706239603 2454.88433031996 24 27 20
-937.80277340444 -94.4497655313286 2452.61445761322 26 29 22
-927.743099194142 -94.0074922604516 2463.85509191815 26 29 22
-914.73978278852 -93.4853966937023 2476.0512425173 25 28 21
-878.407508065608 -92.3215797335693 2496.29237595532 26 29 20
-898.315116417242 -92.7102012133732 2496.83511898767 25 28 19
-893.946766886833 -92.4300870694017 2505.80456740481 26 29 20
-898.323684501578 -92.3902605864996 2511.75169377186 25 28 19
-907.57959117097 -92.4835303651303 2516.05714014248 23 26 17
-926.616966648893 -92.8426557371499 2517.12303576221 25 28 19
-919.290485539341 -92.4823009506271 2527.0214776624 24 27 18
-909.976796214477 -92.0692306765885 2537.51053283542 24 27 18
-900.629075067136 -91.6566542876837 2547.93684876433 25 28 19
-895.174704076745 -91.3507067943893 2557.03147377137 26 29 20
-894.611791231925 -91.1775926770263 2564.50843925541 27 30 21
-894.038258229974 -91.0046031378032 2571.96533062815 28 29 23
-902.325122861253 -91.0697306976263 2576.61179438599 24 27 20
-914.571935568591 -91.2402547117803 2580.05043203901 22 25 18
-913.99438451963 -91.0670175762186 2587.50000794866 20 23 16
-905.489828517709 -90.6828100589155 2597.35322354582 25 28 21
-931.63274088689 -91.2214699722697 2596.62890275875 26 29 22
-951.881672785156 -91.6009157889749 2597.80216130145 22 25 18
-983.101308705953 -92.2687533717691 2595.80151293423 18 23 16
-937.193922559119 -90.7388265175936 2623.92197739063 16 21 14
-962.961021819278 -105.964787619433 2283.92719162393 7 9 4
-955.282339968959 -105.542560265578 2295.31077363773 23 26 19
-937.194655729216 -104.790982837974 2310.91415548731 20 23 16
-957.778889421729 -105.266860633448 2310.56029668171 20 23 16
-993.248713328085 -105.851255953414 2320.63120988818 27 30 21
-961.73893451682 -104.682318371783 2341.28363044054 18 21 12
-941.546577660769 -103.872365017057 2357.26379358514 20 23 14
-941.29058965311 -103.688621677256 2365.30794195732 18 21 10
-936.25493136227 -103.355945392839 2375.1811980701 18 21 10
-901.589479276804 -102.101583808711 2396.40035143735 20 23 14
-893.597137218258 -101.680700327136 2407.20715529038 17 20 13
-876.559245306864 -100.810018846567 2429.00671222508 20 23 16
-898.237558425557 -101.308766348966 2428.54288388384 20 23 16
-926.694713247133 -102.013601084714 2425.68050644402 19 22 15
-914.781688330601 -101.474090423157 2437.77133105245 23 26 19
-925.964480452437 -101.644547662714 2441.36786035603 23 26 19
-903.379453495152 -100.780532307965 2457.1933234124 24 27 20
-861.390616451105 -99.3272512243074 2479.80836460993 26 29 22
-923.819602498841 -101.061023241036 2465.09292502634 27 30 23
-868.156999859566 -99.1967469651555 2492.29222197878 25 28 21
-869.598457253106 -99.0722403425924 2499.21036515008 26 29 20
-884.63980754878 -99.3594904134842 2501.4081582242 25 28 19
-889.98019428321 -99.3519496305583 2507.00277155884 25 28 19
-884.606764463892 -99.0211092601645 2516.25425218827 26 29 20
-888.966835310782 -98.9839041378256 2522.16910173687 25 28 19
-909.937592495872 -99.4448682241681 2522.53061493023 27 30 21
-911.38885331963 -99.3188858224644 2529.46723219408 27 30 21
-905.977268319307 -98.9880270958759 2538.64854401362 26 29 20
-887.790731783974 -98.277397042761 2551.94300543686 26 29 20
-890.172268084908 -98.1812002669392 2558.46681233701 26 29 20
-884.683077843436 -97.8514133879375 2567.50507165057 26 29 20
-890.002374462252 -97.8427332758867 2573.06073479632 25 26 20
-891.38208339938 -97.7172798158633 2579.86610028343 21 24 17
-903.616693467404 -97.9120849766694 2583.27448895892 20 23 16
-899.067667044274 -97.6118182511502 2591.91820420309 18 21 14
-917.265105541042 -97.9802034545452 2593.55131734275 18 21 14
-930.544711438757 -98.2026304501771 2596.75853798351 19 22 15
-957.743978562925 -98.8304950582544 2595.83542102121 21 24 17
-994.942306375123 -99.746912234481 2592.06561471473 18 23 16
-959.59009091416 -98.5479440635302 2609.8902278279 15 20 13
-954.026589133901 -98.2187171011835 2618.79164630277 16 21 14
-960.155655120191 -113.343465478805 2285.0083874119 24 26 21
-936.445816357428 -112.333890652219 2303.03899227474 25 28 21
-942.85990764615 -112.369286451788 2308.48012843627 16 19 12
-901.498412859941 -110.388470818626 2349.327010067 41 44 35
-945.815143725052 -111.724531000834 2339.48884625856 20 23 14
-982.641117574451 -112.798041334893 2332.87217262234 21 24 15
-950.097953632002 -111.498115740379 2353.77819980444 19 22 13
-893.635877731146 -109.387943586002 2383.81116871267 19 22 11
-880.898387479351 -108.772659066849 2396.52374169699 21 24 13
-902.510073704362 -109.324818430828 2395.92131227734 16 19 8
-883.033540025517 -108.482854951865 2411.11232725443 18 21 14
-897.023040552605 -108.77465184315 2413.48951316701 20 23 16
-893.773965150672 -108.48336963962 2422.40606981989 19 22 15
-886.664141232233 -108.062851089679 2432.72057204824 18 21 14
-907.418567575288 -108.57912789475 2432.66757969703 18 21 14
-910.882706594738 -108.513384551155 2439.05853296175 21 24 17
-903.737728508923 -108.092605098478 2449.30845872997 21 24 17
-879.180819663504 -107.09214224858 2465.7784072043 22 25 18
-893.228740687977 -107.380702653482 2468.26401233634 24 27 20
-916.019342802892 -107.958061886109 2467.70744661046 25 28 21
-915.590931705006 -107.762545016182 2475.43801805367 24 27 20
-879.229159466504 -106.378619462291 2495.69109151446 25 28 19
-884.564134072879 -106.376579285391 2501.27409681044 23 26 17
-886.983610289092 -106.278069426442 2507.8683777209 23 26 17
-898.172604256131 -106.467804355693 2511.47051613713 25 28 19
-897.669332863859 -106.272676670993 2519.06328882267 26 29 20
-898.132523996001 -106.109533141659 2526.30914457339 27 30 21
-904.459224035778 -106.138228982652 2531.59156712469 27 30 21
-896.094378241265 -105.687421223195 2541.72226760056 25 28 19
-892.60420833105 -105.396646434359 2550.19525493338 25 28 19
-886.147967858647 -105.01044923078 2559.58669575022 23 26 17
-887.535859635816 -104.87957846129 2566.40823582715 23 26 17
-913.544685993962 -105.54465990414 2565.39928879573 22 23 17
-899.171497244653 -104.904032906582 2577.22643877193 19 22 15
-897.591109432501 -104.677500128477 2584.96244158045 18 21 14
-910.831263629408 -104.927607251753 2588.08877935285 20 23 16
-907.262891268105 -104.637468257029 2596.41774693234 22 25 18
-925.489159275226 -105.045367356826 2598.09250437065 21 24 17
-940.775382812229 -105.357325424849 2600.73323373358 21 24 17
-954.10380915759 -105.605288259816 2604.02256490377 19 24 17
-946.554753288116 -105.188375160545 2613.52815530769 17 22 15
-971.866513652593 -105.815105107699 2613.36401355536 18 23 16
-1004.22027917305 -106.661595482985 2611.28020793673 19 24 17
-998.677272286268 -106.307602666082 2620.22676787343 9 14 10
-924.395247838302 -119.461995380344 2299.88173431932 23 25 20
-940.221534506001 -119.859261086645 2301.37528506594 20 23 16
-971.18625259163 -120.820438578134 2296.70227926987 17 20 13
-948.656938679219 -119.189403590518 2338.24047641328 22 25 16
-980.744436689105 -120.180615171353 2333.508636289 21 24 15
-959.606121223258 -119.20072733987 2349.91491139464 18 21 12
-860.815235835533 -115.171294297074 2404.19157106633 21 24 15
-859.467343108664 -114.932422480953 2412.35938955355 15 18 9
-898.300557800055 -116.166512486568 2405.1565092442 19 22 15
-876.855801162569 -115.190421488849 2420.9980414111 20 23 16
-862.060713182568 -114.46044842005 2434.19040514452 17 20 13
-917.360689330959 -116.286125235336 2421.14088749885 17 20 13
-890.052106702945 -115.100944749651 2438.95045716867 19 22 15
-886.74720534598 -114.790739427339 2447.77003030209 22 25 18
-877.635128777851 -114.271154094017 2458.66191941026 21 24 17
-866.556979502294 -113.682145394476 2470.18831825524 23 26 19
-893.165971695729 -114.453711125079 2468.13636416412 25 28 21
-887.871313677827 -114.073775466183 2477.54748448497 26 29 22
-870.913915108042 -113.27618592763 2491.01340160558 25 28 21
-879.153330790184 -113.384128801779 2495.56022687016 24 27 18
-879.625133225892 -113.213467099871 2502.82418125133 22 25 16
-886.905496888095 -113.285967632503 2507.73208842472 22 25 16
-888.344866009115 -113.149670028964 2514.65044092474 23 26 17
-900.51895246392 -113.395096294167 2517.93229280659 23 26 17
-895.117499229815 -113.01563465927 2527.14685471698 24 27 18
-884.797623357297 -112.463245975039 2537.94204479799 24 27 18
-888.164621632857 -112.396118573702 2544.15475475059 23 26 17
-886.623308513472 -112.155856972038 2551.96725583156 23 26 17
-891.948590575363 -112.157712002516 2557.53075915662 21 24 15
-908.103849228634 -112.539331196792 2559.63405456396 21 24 15
-921.33585720357 -112.816568394958 2562.73725136018 22 23 17
-929.659547178165 -112.920730560132 2567.44020934338 19 22 15
-930.09184725064 -112.748766593444 2574.63190329965 18 21 14
-912.709102342605 -111.956921613578 2587.3138034926 21 24 17
-907.158436849008 -111.579089081737 2596.25344696447 23 26 19
-918.445747405249 -111.78629384395 2600.03064970839 23 26 19
-922.800993745798 -111.752397936254 2605.93613520364 21 24 17
-930.141736749088 -111.821492821892 2610.95661938116 18 23 16
-944.462472353257 -112.130438124793 2613.9373458181 19 24 17
-958.810883261199 -112.438819401574 2616.96964603993 19 24 17
-951.606913533568 -111.821436543978 2633.51510038767 20 25 19
-979.837802148816 -128.843857343943 2284.82163430387 18 21 14
-998.587625951787 -129.387781470149 2285.30360133365 17 20 13
-918.264024933135 -125.337394880549 2350.28695798287 28 31 24
-963.63123758446 -126.939877544477 2340.1859033874 23 26 19
-1006.25546436507 -128.42634599313 2331.41928381876 19 22 15
-917.405643822703 -124.690751629648 2374.28230663 21 24 17
-921.871837437054 -124.663864174274 2380.38923254263 19 22 15
-850.811147602848 -121.652191254968 2415.56779733936 18 21 14
-847.520433345484 -121.324385832681 2424.41875585777 19 22 15
-855.714752023313 -121.449351464198 2428.8775204098 17 20 13
-852.4023853811 -121.121331169849 2437.68872086385 17 20 13
-891.365488950004 -122.451223048385 2430.6959202091 18 21 14
-899.623182655818 -122.574073081264 2435.27137494638 19 22 15
-919.458868567644 -123.147907685958 2435.62614198718 23 26 19
-883.361937599379 -121.539511756059 2456.43380980885 22 25 18
-900.310331810772 -121.999791039801 2457.85737196443 21 24 17
-885.36062291749 -121.219781231473 2470.7809110196 22 25 18
-856.795682509377 -119.915042567348 2488.43056279681 25 28 21
-861.134164308353 -119.886930172301 2494.30347602042 25 28 21
-873.247397098172 -120.158341494161 2497.46559266605 25 28 21
-875.654801859949 -120.054539224292 2504.03926351267 26 29 22
-885.852171787838 -120.249992754449 2507.93070423403 27 30 23
-897.04249739225 -120.482285217775 2511.52249381973 26 29 22
-895.555758798741 -120.228076901548 2519.43905722689 24 27 20
-889.165433876603 -119.787146811874 2528.96818809211 26 29 22
-885.686781555649 -119.458624928736 2537.47370972304 24 27 20
-885.131338031727 -119.24210797967 2544.97696055842 22 25 18
-889.47440159725 -119.211991098471 2550.85890327709 22 25 18
-898.735511024007 -119.368010185371 2555.15504841688 24 27 20
-908.996011398342 -119.560762029671 2559.16340998634 23 26 19
-906.459333680691 -119.269508898056 2567.27538774338 23 26 19
-911.803119248001 -119.275752504901 2572.87160264825 19 22 15
-928.023134338369 -119.690458388791 2575.08404707222 20 23 16
-922.504530369696 -119.287692722209 2584.09015545337 24 27 20
-918.944208103687 -118.9595229365 2592.44536529139 22 25 18
-928.263629822085 -119.113549574795 2596.84986077598 23 26 19
-929.650578801171 -118.970842752584 2603.67322622787 21 24 17
-936.005609828284 -119.013234787815 2609.0036358905 20 23 16
-964.694893706486 -119.688998513648 2615.03662978777 22 25 18
-985.073368014703 -120.247563475516 2616.39377125094 19 22 15
-964.498306195409 -119.291908439754 2629.59908652847 20 25 19
-1001.55577992663 -137.273763933122 2275.70129063232 14 17 10
-1018.449982568 -137.778680051444 2277.01176137248 18 21 14
-872.030099722752 -130.842368736996 2360.88670998534 36 39 32
-900.197479647694 -131.834780135064 2357.40439905816 29 32 25
-969.334462100853 -134.569341050934 2337.80582575542 24 27 20
-949.112289981813 -133.490564272605 2353.81199411133 20 23 16
-909.748879302128 -131.602447205479 2377.15583009303 20 23 16
-862.627596536631 -129.392358540242 2403.24825658912 18 21 14
-863.741767770241 -129.022030045564 2418.09859041661 18 21 14
-850.860753280097 -128.27089617963 2430.58804895918 17 20 13
-859.061261253379 -128.408639895894 2435.05435411183 17 20 13
-877.851651371864 -128.989836734095 2435.59921704723 18 21 14
-896.682906374568 -129.569985609418 2436.21955309525 19 22 15
-897.235974214402 -129.383140862125 2443.63783594711 23 26 19
-928.675194979953 -130.485266965133 2439.79514079604 22 25 18
-909.918325905769 -129.492156278101 2454.24040398586 21 24 17
-873.676864348678 -127.775637461311 2474.81527281256 23 26 19
-849.930441138078 -126.583709135269 2490.71812623771 24 27 20
-862.023620753034 -126.87976476139 2493.83645461928 23 26 19
-879.971240499022 -127.416129943618 2494.95959041066 24 27 20
-860.975561073474 -126.426335727922 2508.96464051819 23 26 19
-883.822883388527 -127.162233972676 2508.46471752731 24 27 20
-896.963573699795 -127.496042851766 2511.38295219551 25 28 21
-908.175602896243 -127.749051460987 2515.00792461249 23 26 19
-887.121811258072 -126.680413991365 2529.48154404085 24 27 20
-893.433219420611 -126.733045576425 2534.72864405707 22 25 18
-885.037717750443 -126.185608806085 2544.8320211876 20 23 16
-888.397598259244 -126.118152542627 2551.03173916605 20 23 16
-885.855848904049 -125.810976317313 2559.13917766999 20 23 16
-879.359007292928 -125.344311106997 2568.48014403346 20 23 16
-901.432594260429 -126.034526079974 2568.68571798701 20 23 16
-903.807122063891 -125.926595026327 2575.20016372986 19 22 15
-906.178600399385 -125.818641197174 2581.70900779456 20 23 16
-925.376002946414 -126.387252587763 2583.00672970169 25 28 21
-945.605797125719 -126.994622624067 2584.07574459497 24 27 20
-933.12516522975 -126.289422631397 2595.17296709118 22 25 18
-939.485491551033 -126.339758125718 2600.51072699778 20 23 16
-951.823595372921 -126.628022370117 2604.08185865661 19 22 15
-939.274706643329 -125.924078347255 2615.05316670217 20 23 16
-942.647131140279 -125.855202303012 2621.27638231865 22 25 18
-990.972742817827 -127.568968293568 2614.46759376993 22 25 18
-988.400674956403 -127.261384949284 2622.51939344601 29 34 28
-968.696974851679 -143.54176284355 2281.06115636475 16 18 13
-988.36807151319 -144.21567412969 2281.08311860156 12 15 8
-906.160974436159 -139.541665003682 2347.02002219515 42 45 38
-914.426377205456 -139.694471715712 2351.60115093919 29 32 25
-934.123128408047 -140.365300338904 2351.67122357369 25 28 21
-903.993733847622 -138.551157259047 2379.28655211397 21 24 17
-882.64242408694 -137.364364070869 2395.36280849329 19 22 15
-878.444462900425 -136.954945814959 2404.68502085718 20 23 16
-871.351451802254 -136.416315603859 2415.06596361024 17 20 13
-878.619283879998 -136.524095468139 2419.94071791622 17 20 13
-884.936412641085 -136.58829940134 2425.19485910466 16 19 12
-895.108442333722 -136.824264528102 2429.02751181879 18 21 14
-893.739709279767 -136.543361044381 2437.16913671834 19 22 15
-905.860245338239 -136.864321773798 2440.33028909059 20 23 16
-888.064402775197 -135.852560003061 2454.43336037444 20 23 16
-888.585615199889 -135.657585821769 2461.79550000704 21 24 17
-869.731125453782 -134.604067204394 2476.07938694162 22 25 18
-861.482957084697 -134.023322630876 2486.46375322169 23 26 19
-890.099696005984 -135.071776181123 2483.79104229955 22 25 18
-881.837661884604 -134.490812645066 2494.1499727814 21 24 17
-883.27966703872 -134.338321011534 2501.07753907132 21 24 17
-881.791349570194 -134.057395757648 2508.99973723417 22 25 18
-900.78819391992 -134.674482682627 2509.91351420682 25 28 21
-897.345483944925 -134.307627410957 2518.49666802491 24 27 20
-897.798979634894 -134.111805119949 2525.73451928853 25 28 21
-899.224160528389 -133.958658931547 2532.63184378023 24 27 20
-899.6624875589 -133.762780914755 2539.8418138732 22 25 18
-886.336760449877 -132.969996748768 2551.52589000991 22 25 18
-880.837656399156 -132.518869262601 2560.5819014754 22 25 18
-864.477969660399 -131.599653742118 2573.0694000218 21 24 17
-877.659623018128 -131.958026543517 2576.05508205908 20 23 16
-900.743528907932 -132.741007929995 2575.97612046859 20 23 16
-914.977373292379 -133.140390990814 2578.77034580989 22 25 18
-923.297255471638 -133.284128823776 2583.45439931989 23 26 19
-926.67185956363 -133.215374546531 2589.68158699087 22 25 18
-935.0104048303 -133.358681441377 2594.3995906674 22 25 18
-944.355518977153 -133.544042232433 2598.84141212008 21 24 17
-947.742902514028 -133.474810789396 2605.09224701258 19 22 15
-981.031848498405 -134.67589792399 2602.50697458878 20 23 16
-968.488659189807 -133.928721754204 2613.50176573271 21 24 17
-970.893560261071 -133.816765516704 2620.07328390752 24 27 20
-955.284662327839 -132.944036427241 2631.81233686666 30 35 29
-972.337180601599 -150.937648274907 2287.64736173437 15 18 11
-1000.54316492069 -152.070437830422 2284.19383662884 19 22 15
-1056.27137532616 -154.535644802958 2269.62429596689 11 14 7
-914.683620987523 -147.186490835368 2343.47635773043 41 44 37
-923.911629693781 -147.398240632127 2347.69486520606 25 28 21
-877.943728903153 -144.94648644449 2373.86644596423 23 26 19
-902.37810235524 -145.89245988052 2371.99212227363 23 26 19
-947.867751172809 -147.846007613021 2362.01067737486 22 25 18
-920.830585034443 -146.313374006729 2380.42391795518 19 22 15
-916.680341095099 -145.881434201893 2389.84015949507 20 23 16
-903.883465881076 -145.037385966598 2402.51230682122 18 21 14
-887.203329057535 -144.010837017932 2416.55751601306 17 20 13
-900.258621219888 -144.402976950064 2419.3006422949 17 20 13
-900.829684421541 -144.200023059461 2426.75686625752 17 20 13
-900.428798562021 -143.951118673805 2434.55462063311 17 20 13
-874.931484482977 -142.514815262779 2451.54085834573 16 19 12
-865.78038031193 -141.855654508723 2462.40294187423 16 19 12
-824.670306023718 -139.691444046569 2484.73267591594 20 23 16
-852.219614089056 -140.766372703149 2482.20360282836 22 25 18
-884.682901049638 -142.067638399989 2478.06966719827 22 25 18
-882.256550283271 -141.727682372846 2486.39920231599 21 24 17
-882.731987484294 -141.524271805707 2493.67968997211 19 22 15
-877.356125270213 -141.047864014946 2502.96996795509 20 23 16
-891.459642671061 -141.481061431242 2505.51432953233 22 25 18
-892.897089993168 -141.322687547624 2512.43578630023 25 28 21
-882.596057288374 -140.619250632099 2523.31105581099 25 28 21
-883.027779512157 -140.415651560306 2530.51120034617 20 23 16
-885.412031392482 -140.302759440561 2537.04502233609 19 22 15
-887.793248019135 -140.189844376044 2543.57326884144 18 21 14
-894.102692609259 -140.257923374959 2548.8126163688 19 22 15
-881.720155267667 -139.465372547532 2560.11601663107 19 22 15
-858.455229889755 -138.175626272519 2574.819553183 18 21 14
-866.697216759078 -138.334648346804 2579.35524248505 18 21 14
-893.724577583635 -139.352240826105 2577.99875906782 21 24 17
-921.802852055734 -140.413661713908 2576.44661365628 23 26 19
-923.197684293626 -140.25446579697 2583.28994072245 24 27 20
-919.627470483344 -139.869688670886 2591.64398123766 23 26 19
-917.031914925049 -139.530329412028 2599.66213845193 16 19 12
-938.28862021465 -140.273018938773 2600.46433724415 16 19 12
-956.603632481705 -140.879580994673 2602.24256937635 18 21 14
-951.027381529673 -140.404820831482 2611.16380048153 17 20 13
-974.379821343399 -141.235361679628 2611.5644195656 19 22 15
-944.802001213544 -139.681423840104 2627.42614046562 23 26 19
-948.169736790684 -139.612396821313 2633.64077770548 23 28 22
-974.386068975981 -158.746531697996 2278.49233871449 13 15 10
-981.795148028329 -158.877683187158 2283.61984359893 19 22 15
-929.160586589033 -155.423297240069 2329.55573982665 40 43 36
-932.708367580352 -155.35924641975 2336.10001694005 36 39 32
-918.187411784112 -154.371190946033 2349.87467481208 20 23 16
-896.951096201107 -153.043492381236 2366.20530391998 20 23 16
-947.163120366326 -155.359167752662 2354.22526328248 23 26 19
-932.572195790523 -154.371236405478 2367.87119849265 22 25 18
-964.782154396634 -155.761167781391 2363.24468220795 18 21 14
-934.836524978196 -153.9972899682 2382.72317105787 18 21 14
-893.295446666297 -151.653142623968 2406.4291203082 18 21 14
-906.352892440429 -152.072232778596 2409.16860721425 18 21 14
-912.706627544059 -152.151600212741 2414.48551414977 17 20 13
-907.516400802583 -151.649761905632 2424.12536133118 16 19 12
-891.699778642988 -150.615974933044 2437.64560441331 16 19 12
-916.368502316711 -151.613460212028 2436.18680277528 18 21 14
-856.044149509602 -148.357244097363 2465.80537837303 18 21 14
-873.937602151375 -149.016036065152 2466.79207465577 22 25 18
-847.292652989702 -147.453327353532 2483.82091864544 23 26 19
-865.203243053379 -148.111324361545 2484.8393728309 21 24 17
-884.123654777502 -148.816506790722 2485.58608408955 19 22 15
-886.544938937227 -148.701314283068 2492.18921120829 21 24 17
-893.834344489468 -148.826800207256 2497.09831847647 22 25 18
-890.403120874198 -148.42228684618 2505.71392239021 23 26 19
-889.883725293973 -148.162294536286 2513.2965459265 24 27 20
-891.309575835263 -147.998445323288 2520.1983206493 23 26 19
-889.791872757686 -147.690362328385 2528.07413598834 19 22 15
-891.202589673504 -147.526397883741 2534.94811186905 19 22 15
-903.409343896599 -147.890676088759 2538.2543044267 19 22 15
-896.957122448924 -147.342468964816 2547.70185678596 21 24 17
-879.648862283089 -146.267056790748 2560.60602266882 20 23 16
-862.285775063162 -145.192594829578 2573.40957010415 19 22 15
-868.55894266185 -145.269051356062 2578.57917408991 21 24 17
-884.723352976811 -145.823957292572 2580.64719006712 23 26 19
-900.920836945049 -146.378114854817 2582.77625957097 25 28 21
-920.124327847549 -147.075081095891 2584.04607579975 22 25 18
-910.592908055161 -146.384700504262 2594.21807807283 20 23 16
-904.008197173526 -145.838307423786 2603.42141270121 15 18 11
-934.206338156034 -147.059232731833 2601.49052309279 16 19 12
-941.562667948784 -147.180967286035 2606.5238443499 16 19 12
-951.92138175611 -147.445581318199 2610.69072358773 14 17 10
-959.301333699658 -147.566798224307 2615.76764595205 14 17 10
-978.691142731932 -148.259536767653 2617.38140652833 17 20 13
-1004.12915809998 -149.237138586842 2617.34395610866 14 19 13
-982.893474708121 -166.671560254768 2274.83638069616 11 13 8
-988.424523532335 -166.7103771546 2280.76721137008 23 26 19
-961.791861568743 -165.001451360042 2299.97742363599 14 17 10
-986.236741115787 -166.067190613298 2298.08640644359 12 15 8
-956.44508518249 -163.935146681796 2326.41849739464 20 23 16
-971.438943657731 -164.485552364309 2328.44980787663 19 22 15
-901.682221636776 -160.472076669875 2364.21307114484 18 21 14
-954.777625179481 -163.072533845508 2351.10554847796 20 23 16
-951.651358702466 -162.648080569628 2360.28802048995 19 22 15
-945.636983657063 -162.069960488896 2370.54984762277 15 18 11
-954.920630743514 -162.310769346067 2374.86194554065 15 18 11
-909.552765293225 -159.635431654431 2400.08953762976 14 17 10
-887.101195700706 -158.18931038467 2416.33550470753 15 18 11
-886.697140332427 -157.919376741482 2424.13324947935 16 19 12
-905.540995424243 -158.670850913066 2424.72523823205 17 20 13
-893.570359383409 -157.787718457155 2436.81394410082 17 20 13
-920.178622801317 -158.94593961927 2434.64437415907 19 22 15
-921.711308896529 -158.776741086136 2441.74424758582 22 25 18
-895.163543824729 -157.12911501733 2458.97686303303 19 22 15
-884.045345432316 -156.297996550657 2470.50291604754 18 21 14
-868.034639556603 -155.212750038261 2483.6816787889 22 25 18
-873.355314888807 -155.247985939257 2489.22667116202 23 26 19
-883.546903180141 -155.537252502257 2493.07926682902 23 26 19
-864.519390923878 -154.300521698448 2507.10002963695 24 27 20
-880.562588132874 -154.89445144293 2508.93337733868 24 27 20
-884.913083658505 -154.877806912899 2514.82493736403 21 24 17
-885.3520522268 -154.657872165408 2522.0433217317 20 23 16
-895.579975431174 -154.945406100129 2525.96326496236 23 26 19
-897.977518757212 -154.826624103789 2532.52330355371 23 26 19
-912.159641537975 -155.316081436081 2535.19481195149 23 26 19
-895.878187660114 -154.234090431658 2547.87514502849 24 27 20
-861.817330644842 -152.24154852482 2566.19814255044 24 27 20
-859.215080283179 -151.870479280074 2574.21352266766 23 26 19
-886.220412072371 -153.017176940516 2572.77769917078 23 26 19
-887.580151724099 -152.8480565019 2579.55896484734 26 29 22
-897.84431493984 -153.133563495053 2583.54616960645 26 29 22
-895.239040528293 -152.762116640064 2591.55610150034 19 22 15
-874.751102430841 -151.482266274384 2605.01864135348 15 18 11
-920.791536740276 -153.584123095922 2598.12039093632 16 19 12
-928.130304701225 -153.71693909346 2603.11808035953 17 20 13
-934.482541955878 -153.799042443151 2608.43140972995 18 21 14
-937.848837081301 -153.729884855619 2614.64343698143 16 19 12
-962.194472560401 -154.718009489112 2614.70853577175 15 18 11
-1001.59881959639 -156.459957242595 2610.51814759607 16 19 12
-1029.07620573566 -157.59639331536 2609.95309969367 18 23 17
-957.327488853758 -153.754808450945 2637.77092739509 8 13 7
-981.967573043911 -174.097084994287 2275.13006444187 22 24 19
-986.551156173973 -174.087059948527 2281.44832442233 22 25 18
-927.486099229248 -170.174694065078 2322.03999416939 12 15 8
-1017.39781425632 -175.02636909929 2293.48466816038 15 18 11
-1033.41750449926 -175.661999927608 2295.2622418669 18 21 14
-956.209277160985 -171.007487167955 2334.43300547669 17 20 13
-957.625672142034 -170.552547320201 2349.86412402959 16 19 12
-948.766214070397 -169.785799386702 2361.29495162438 17 20 13
-937.95892431397 -168.911566462159 2373.40578770312 14 17 10
-934.777377836577 -168.468449465293 2382.49220229931 12 15 8
-910.470378753324 -166.841181981495 2399.61027382626 13 16 9
-868.795564030291 -164.24655488207 2423.14558203071 17 20 13
-896.261536257413 -165.525920104179 2420.40226497945 17 20 13
-875.628043324758 -164.116031703613 2435.75100746645 16 19 12
-937.882154319808 -167.327627715626 2420.27003198171 17 20 13
-984.839757508361 -169.676637882606 2410.7541951473 18 21 14
-938.09927435352 -166.816444868553 2435.62768239733 20 23 16
-967.731052798282 -168.197154112852 2432.60709846414 21 24 17
-898.519391825998 -164.106284744542 2465.16549515158 17 20 13
-887.374787824648 -163.235004973523 2476.65506079711 22 25 18
-878.135710756533 -162.471359427935 2487.38676693443 22 25 18
-867.889050354297 -161.654592939488 2498.39611762593 27 30 23
-865.404895428288 -161.266577088349 2506.63379297149 26 29 22
-874.6190831242 -161.520621692363 2510.81416214406 25 28 21
-888.735567619873 -162.04155910201 2513.35598729204 23 26 19
-895.049916182173 -162.134099617851 2518.59649377615 22 25 18
-889.610756444794 -161.585236593337 2527.79264915208 24 27 20
-901.812319664775 -161.997792972843 2531.07477623683 23 26 19
-916.001725664561 -162.516443902465 2533.75140491073 22 25 18
-890.862331434564 -160.900711660408 2549.33457695894 22 25 18
-880.425523683063 -160.086063618542 2559.99407921119 23 26 19
-877.844584930738 -159.69834159969 2568.05315885992 23 26 19
-901.917838138282 -160.749034801679 2567.59848132575 22 25 18
-907.25240309728 -160.786882472303 2573.16823383872 19 22 15
-892.784113943471 -159.76032755969 2584.93653356315 17 20 13
-892.152391126834 -159.479219149427 2592.31891690475 19 22 15
-893.495691803182 -159.304594296497 2599.07210784858 19 22 15
-922.672017603444 -160.617808101316 2597.34896012594 17 20 13
-939.968557735975 -161.292244765895 2599.34842439244 19 22 15
-920.419001020371 -160.001932745173 2612.42516532962 19 22 15
-943.727771116913 -160.994128434033 2612.69685480322 15 18 11
-964.089724976921 -161.826175249757 2613.94137035062 15 18 11
-983.494283448451 -162.604357648197 2615.55656305134 20 23 16
-997.929682362959 -163.116770319809 2618.68749349357 17 22 16
-950.192032713029 -160.34597950095 2639.58532543215 12 17 11
-984.816705363839 -181.737719998028 2273.84283810256 29 31 26
-981.838954896276 -181.276104071279 2283.30963371484 20 23 16
-968.427835430364 -180.190248859796 2297.03958973365 18 21 14
-1003.32281567793 -181.997378267187 2290.88095502929 16 19 12
-1028.8087681651 -183.235612414732 2288.73798848783 18 21 14
-1013.47388175441 -182.035458236778 2303.19476578333 19 22 15
-951.18977109562 -177.768210570681 2344.31763184502 16 19 12
-924.849090104199 -175.656239551217 2370.53045247252 19 22 15
-927.402997724212 -175.534090689269 2377.37959022305 13 16 9
-905.034393703625 -173.941800584992 2393.82210217719 11 14 7
-879.716286045641 -172.181093537284 2411.2354882136 15 18 11
-915.826233926243 -174.036097180343 2405.18220426379 19 22 15
-882.73629894747 -171.824474069218 2425.35678668984 15 18 11
-897.728356574475 -172.435853052934 2427.36695336122 14 17 10
-904.066895286921 -172.538682384684 2432.6488558736 16 19 12
-963.553786504143 -175.741857795747 2418.42538916016 21 24 17
-958.367900971384 -175.166166036703 2428.09542991681 23 26 19
-910.531909870972 -172.11220444339 2453.12714807132 22 25 18
-926.583474784742 -172.776645513107 2454.95468125383 21 24 17
-882.443456742064 -169.950994657532 2478.25560796756 26 29 22
-901.399149250517 -170.783920300756 2479.02879191964 26 29 22
-863.906687788392 -168.354676915623 2499.63197469272 29 32 25
-856.53781350746 -167.669600987157 2509.54959412591 27 30 23
-862.811447908528 -167.771312364052 2514.71246197646 24 27 20
-880.825995892763 -168.546457487532 2515.88738903742 23 26 19
-885.171589719905 -168.534980610536 2521.76787567913 22 25 18
-877.754196311662 -167.849982082827 2531.59674056464 26 29 22
-871.289864189374 -167.221558573477 2541.04614195729 26 29 22
-897.237449880667 -168.442891462336 2539.75728555817 24 27 20
-892.731762011652 -167.926314926989 2548.54525300952 23 26 19
-892.147204804299 -167.634067993965 2556.01773209082 20 23 16
-904.38058979102 -168.069380542592 2559.35204618339 20 23 16
-914.660837498836 -168.392304056449 2563.35707706773 18 21 14
-909.127755191446 -167.820096753169 2572.38751184451 18 21 14
-899.608244763013 -167.024691944028 2582.61300062047 16 19 12
-898.982862094257 -166.732694807305 2590.01031912054 20 23 16
-917.218938185019 -167.501656645854 2591.59453617834 21 24 17
-920.574771589538 -167.432623636856 2597.78728495547 18 21 14
-943.239645129401 -168.186636082395 2605.4060595353 19 22 15
-972.574157046789 -169.566036356531 2603.95394122766 16 19 12
-966.984992741382 -168.9945559683 2612.8810123928 15 18 11
-983.39443362104 -169.648353861596 2615.36994531305 19 22 15
-983.800267894851 -169.411146164224 2622.53258401873 16 21 15
-946.062042473562 -167.060434977855 2640.54484224907 12 17 11
-1008.44743001547 -190.696063478467 2263.85136941087 76 78 73
-1009.28174129527 -190.45289478922 2271.8033437547 15 18 11
-987.375833750312 -188.783274480347 2289.12059791255 18 21 14
-1004.28616906071 -189.549729894804 2290.38158490587 17 20 13
-977.54409702278 -187.584007621213 2309.46779626469 20 23 16
-995.417199369728 -188.408639823345 2310.36769721087 20 23 16
-957.141644414758 -185.732033215263 2333.83461433659 21 24 17
-967.386299757388 -186.081529190548 2337.76669771672 17 20 13
-962.369932037682 -185.481837819946 2347.75572981169 16 19 12
-940.118321944498 -183.815711830818 2364.43561893399 20 23 16
-931.201248654439 -182.979629899943 2375.78133184969 14 17 10
-925.12653742737 -182.321454084077 2385.95626421049 12 15 8
-955.198762512163 -183.608392961089 2390.11833853574 18 21 14
-904.819290895537 -180.229557943642 2416.91473105881 18 21 14
-888.996919497676 -178.980965348956 2430.4895011006 13 16 9
-905.941289927275 -179.741874757199 2431.81475268141 16 19 12
-931.620082716257 -181.033296822784 2430.01045985522 19 22 15
-906.59360966254 -178.950295237923 2454.40203801682 20 23 16
-851.802543834101 -175.344021027677 2481.61330643949 21 24 17
-885.281638513399 -177.105487912295 2477.09393047824 27 30 23
-893.542130917809 -177.332923006583 2481.64358582713 26 29 22
-870.638009027703 -175.674862593886 2497.12096137294 24 27 20
-860.346262298356 -174.783472198756 2508.06983108738 23 26 19
-868.578279456458 -175.010773667852 2512.56715545388 21 24 17
-866.063280946718 -174.590476722472 2520.75730719566 22 25 18
-874.30597563153 -174.817119245124 2525.27446763848 22 25 18
-876.676907029289 -174.690795350602 2531.78783005381 20 23 16
-867.260374024077 -173.859242875062 2542.21358344517 20 23 16
-876.492911825895 -174.143972343075 2546.41847421575 20 23 16
-879.832847462656 -174.076074064066 2552.5816428639 19 22 15
-893.031199075242 -174.59470520956 2555.55034719092 16 19 12
-916.126741252608 -175.699167695706 2555.3961106595 15 18 11
-919.504011820551 -175.630115766929 2561.62829197574 19 22 15
-911.003664742213 -174.857854223896 2571.60644888089 19 22 15
-898.507787364769 -173.851867602323 2582.76608508596 18 21 14
-907.801747306282 -174.134447525141 2587.08458877683 22 25 18
-904.193643007759 -173.656111516343 2595.39707692322 22 25 18
-929.419540798446 -174.874039729605 2594.89672813511 20 23 16
-910.868830334685 -173.518657163311 2607.71529812245 19 22 15
-926.175740441409 -174.151072685446 2610.29770549433 19 22 15
-960.489653125747 -175.892525796134 2607.32023476438 16 19 12
-980.882219363663 -176.814999716763 2608.59436294568 16 19 12
-1002.31968829088 -177.794964020137 2609.65766543944 18 21 14
-983.697584442322 -176.441022495502 2622.34449663197 15 20 14
-1023.39178861674 -198.594453696412 2274.1564463413 18 21 14
-993.863802294549 -196.355906687047 2294.5458000503 17 20 13
-957.594244245708 -193.684195901359 2317.47104011787 17 20 13
-977.346668370507 -194.673558598722 2317.54771543946 17 20 13
-978.08924746727 -194.421586793266 2325.33412911247 19 22 15
-933.033687450342 -191.194510342525 2351.30152311571 17 20 13
-927.966258276678 -190.571555188267 2361.20363980692 19 22 15
-931.484045264421 -190.505970699939 2367.69321368918 19 22 15
-940.748403713196 -190.811474992695 2371.95038099645 16 19 12
-935.640782700375 -190.188053025427 2381.77871795282 12 15 8
-922.826163456298 -189.069985540048 2394.50063418247 12 15 8
-889.771204346619 -186.653912735875 2414.8010259692 18 21 14
-900.915709401377 -187.082511616401 2418.24950970669 17 20 13
-885.080133916515 -185.780451395658 2431.81556963327 15 18 11
-861.467585516097 -183.985023969896 2448.14663246697 19 22 15
-878.391548610789 -184.783520432797 2449.42304801496 20 23 16
-847.833651479945 -181.993805971183 2482.88855942337 22 25 18
-882.288672778631 -183.899826418059 2478.00582071108 27 30 23
-894.438867579147 -184.387064037254 2481.17151792198 26 29 22
-867.627016319836 -182.410445266544 2498.01736584443 24 27 20
-856.349144549921 -181.420034287086 2509.29765306569 23 26 19
-855.781597815443 -181.107021933418 2516.807662109 23 26 19
-866.945321649129 -181.531992470115 2520.29207955878 23 26 19
-864.412039888646 -181.095754376414 2528.45390315695 23 26 19
-859.900559172702 -180.536675318288 2537.24450216252 20 23 16
-859.297685901867 -180.223610924826 2544.68955491822 21 24 17
-864.586006512691 -180.27896772484 2550.16899028184 21 24 17
-870.863938748814 -180.395459180712 2555.33531795051 21 24 17
-897.859973023233 -181.799894184854 2553.80488753709 20 23 16
-908.129585503541 -182.160437995525 2557.77954932204 19 22 15
-912.483932695857 -182.152906344537 2563.67545282796 21 24 17
-904.959395010558 -181.409945409558 2573.32418614842 21 24 17
-914.259603575129 -181.708523043504 2577.64937134416 19 22 15
-897.765295449775 -180.415193363975 2590.00127646042 22 25 18
-895.134505215484 -179.979466429114 2597.98361049227 21 24 17
-913.388013728973 -180.828404015479 2599.57583854595 19 22 15
-945.631447155694 -182.532344059749 2597.03125877864 19 22 15
-932.049223973953 -181.423830849347 2608.33853833117 18 21 14
-930.412325593134 -181.049215258519 2616.01513955395 16 19 12
-986.785138732486 -184.215893797216 2606.65029621352 17 20 13
-1010.23836546755 -185.365849628702 2607.14022594106 17 20 13
-868.497303641317 -176.199650442454 2662.22204497198 10 15 9
-1003.36484783769 -204.456327089104 2290.54927909715 19 22 15
-983.249527031309 -202.772273472732 2306.93398608548 17 20 13
-1004.94464127521 -203.935775325247 2306.30115232431 17 20 13
-947.588672106501 -199.729821447723 2337.43513401022 19 22 15
-937.781910754104 -198.759090427981 2349.2998396111 19 22 15
-924.116181156005 -197.530199915 2362.60453495801 21 24 17
-934.325470708184 -197.916870183986 2366.46039510604 19 22 15
-938.803319059892 -197.915431227483 2372.58160754417 14 17 10
-934.648196427852 -197.332518861722 2382.03427693452 15 18 11
-909.335071679727 -195.32996161402 2399.52955694138 17 20 13
-890.678304150624 -193.780018546944 2414.32637643387 18 21 14
-890.265117736487 -193.456158929168 2422.1240484784 19 22 15
-886.947393710486 -192.93879367892 2430.98233577688 19 22 15
-864.292510609903 -191.132761710508 2446.96260505879 19 22 15
-829.849838129098 -187.973753824085 2481.85406257965 17 20 13
-850.658616899866 -189.06611842338 2481.72779241228 20 23 16
-862.762087556736 -189.578639159258 2484.79944799547 24 27 20
-840.809588501287 -187.840589305889 2499.93628655141 22 25 18
-876.312568951644 -189.894678111181 2494.8216090659 23 26 17
-867.968854765917 -189.056585999115 2505.10713480623 24 27 20
-866.436288320484 -188.668232652017 2512.98025694718 23 26 19
-864.890624626193 -188.280003836014 2520.82874916793 21 24 15
-858.430876016674 -187.571106057622 2530.31078079744 20 23 16
-851.944865995932 -186.862461912346 2539.74443663385 20 23 16
-853.294231134727 -186.66708380689 2546.51502217286 19 22 13
-866.446000644854 -187.240453969819 2549.38159234086 18 21 12
-883.564187430144 -188.069404168349 2551.00656680361 18 21 14
-898.745045166387 -188.769440955228 2553.33680574824 19 22 15
-902.101961867812 -188.70074957835 2559.53144416974 19 22 15
-901.501954435933 -188.376128766505 2566.98524298589 19 22 15
-911.785931151936 -188.754996283036 2570.98081289005 20 23 16
-901.261368901781 -187.791099289603 2581.52329671518 19 22 15
-890.700099018834 -186.827907198033 2591.99856078027 21 24 17
-897.005694621924 -186.951041701376 2597.21376871578 20 23 16
-954.093836989104 -190.329693142154 2586.98549786747 17 20 13
-954.498441112191 -190.068155558832 2594.15319061523 18 21 14
-924.950060097677 -187.893406512045 2610.25574652653 16 19 12
-943.289905865857 -188.780609961119 2611.99525716523 17 20 13
-986.68656459671 -191.26028844037 2606.46590488829 17 20 13
-991.107015421512 -191.253474499225 2612.48266494429 18 21 14
-1083.17217786113 -217.930375960652 2249.27691849323 22 25 18
-1036.6084273311 -214.289286096243 2276.825080807 21 24 17
-982.300881335621 -210.111062860203 2307.21242681954 17 20 13
-934.499665019262 -206.406826347052 2334.61845291451 18 21 14
-957.806973960568 -207.421218444004 2341.22568226447 16 19 12
-961.367445471813 -207.355007489541 2347.79394915452 19 22 15
-957.269796392165 -206.750256980622 2357.35889007319 21 24 17
-938.773082918585 -205.13660122893 2372.46923789399 22 25 18
-909.658416433831 -202.784235521061 2391.53819049524 21 24 17
-889.105634794399 -201.038057769744 2407.13650510613 17 18 10
-893.509898587656 -201.039504075702 2413.12151447399 16 17 9
-899.843766688718 -201.174887797208 2418.38503708467 20 21 13
-920.659706231672 -202.316829271134 2418.25652381904 20 21 13
-913.499554042833 -201.51135830632 2428.59473079835 19 20 12
-853.556794364704 -196.749530190304 2465.71279733082 18 19 11
-871.47342123957 -197.689012854226 2466.65770559737 20 21 13
-878.742346591447 -197.890376162984 2471.5063281045 22 23 15
-873.375696838592 -197.220463319517 2480.87224480505 24 25 17
-838.764881145922 -194.542097103603 2500.50531358996 23 26 17
-855.744450898951 -195.412787738345 2501.86228959387 18 24 12
-858.110413418916 -195.2790501829 2508.36924702685 19 25 15
-853.628392750846 -194.676867769159 2517.22648627868 20 26 16
-855.00020936216 -194.476199773308 2524.03995494885 17 23 11
-849.503419850824 -193.807568852485 2533.1656311759 16 22 10
-851.836656046861 -193.673630116475 2539.6124594355 15 21 11
-864.980595853951 -194.274156129514 2542.45646301216 15 21 9
-881.102862748159 -195.074191031128 2544.3732540742 16 22 10
-898.244032556849 -195.940180159031 2546.02885586798 17 23 13
-901.603885011881 -195.871512911775 2552.22888641898 17 23 13
-901.010351539969 -195.536033211428 2559.69836176948 17 23 13
-906.3433238608 -195.600607928921 2565.25714774008 19 22 15
-927.533256235253 -196.73080031881 2565.82051287855 19 22 15
-908.094551670267 -195.129720869174 2579.19458548432 19 22 15
-904.489919271499 -194.594854742352 2587.53045889398 19 22 15
-952.588239877108 -197.520222550832 2579.93928625267 18 21 14
-969.928131155377 -198.381335914918 2581.96234352705 18 21 14
-954.395541656572 -197.047663252815 2593.98035712233 17 20 13
-955.788422732861 -196.844763062872 2600.83273420584 18 21 14
-962.174603529115 -196.974146773452 2606.19427372539 15 18 11
-959.558391269618 -196.50574747161 2614.2132445837 15 18 11
-947.90499897683 -195.440274845259 2624.82545377245 20 23 16
-908.110549042472 -192.517809732999 2643.45798185404 12 17 11
-961.596821288949 -216.31159026241 2307.45296559527 24 27 20
-893.849383520967 -210.990875756375 2343.07468034138 21 24 17
-984.957787575992 -217.372023460093 2314.14503504399 22 25 18
-988.564253953524 -217.305796595257 2320.79789965828 19 22 15
-991.215353355891 -217.169104897967 2327.82965990097 18 21 14
-966.131151502402 -215.002659151026 2345.79575981849 18 21 14
-974.484150657388 -215.285745458235 2350.49831219144 19 22 15
-938.74176743346 -212.351374848923 2372.3573109056 18 21 14
-896.172191328 -208.929285255864 2396.61062473925 17 20 13
-894.820008768311 -208.514203001882 2404.82354366312 20 21 13
-933.889646306739 -211.032988500762 2397.66864858537 18 19 11
-920.032587115985 -209.70885237405 2410.65060057268 19 20 12
-925.435191848897 -209.781402119136 2416.33505497641 19 20 12
-925.042782579452 -209.434869046696 2424.1772541211 19 20 12
-845.271308053493 -203.368080098459 2461.17374409716 19 20 12
-854.896116717286 -203.44554407552 2472.50732373036 22 23 15
-858.255975028073 -203.379240305584 2478.70665430334 23 24 16
-842.154079323029 -201.919512058407 2491.8303169437 24 25 17
-865.948909071297 -203.315553652158 2490.75921009783 23 26 17
-844.917468533937 -201.508337014759 2505.49604371403 20 26 16
-847.267717117455 -201.372096159584 2511.9743489061 19 25 15
-851.571266027315 -201.374800870534 2517.7737468234 20 26 16
-863.713277629254 -201.93360180244 2520.90236878917 18 24 14
-870.973887211546 -202.144222880493 2525.73291307302 18 24 14
-872.351758185562 -201.937514832777 2532.5593331912 22 28 18
-889.458497171484 -202.841967071633 2534.14004375409 22 28 18
-894.784524508975 -202.912505700575 2539.68476740408 21 27 17
-894.199637633157 -202.566373820489 2547.17284451293 21 27 17
-880.769754151999 -201.318547193963 2558.80219903494 20 26 16
-883.112293151152 -201.180920927879 2565.26674151911 19 25 15
-916.136509934664 -203.192164063223 2561.95095274487 20 23 16
-906.619539978509 -202.222181052325 2572.23361328502 19 22 15
-909.970015597426 -202.153330021376 2578.41645339354 19 22 15
-907.357889510626 -201.668928118653 2586.44775178991 18 21 14
-948.508944610902 -204.230028662975 2580.99394276908 19 22 15
-958.873507862236 -204.644421922798 2585.12653840563 19 22 15
-976.238384653993 -205.542522713257 2587.18442568723 18 21 14
-920.723332904751 -201.393189998069 2611.1121577699 16 19 12
-957.068076812273 -203.60465327489 2607.49831081107 14 17 10
-966.459216617312 -203.949300860149 2611.97688091354 14 17 10
-941.773298316093 -201.945840777044 2626.39638076283 18 21 14
-909.987318582217 -199.460806383476 2642.70649291394 22 27 23
-982.678191199246 -225.611160631997 2290.55535555517 23 26 19
-977.544774044918 -224.534498363165 2308.93224912771 21 24 17
-1002.10531862584 -226.068792515638 2307.11305659864 23 26 19
-1017.18200560607 -226.874538551143 2309.21991752639 20 23 16
-959.684469811664 -222.155608083511 2340.24779534799 20 23 16
-967.07100535393 -222.379974509357 2345.30580689876 19 22 15
-978.299266791441 -222.894286761359 2348.88205380999 19 22 15
-944.465109291415 -219.995311877774 2370.0098802347 17 20 13
-906.687801019977 -216.807567507569 2392.43207447714 15 18 11
-904.384914842009 -216.306188213151 2401.03722687358 19 20 12
-902.066128470158 -215.804820992763 2409.61313228542 18 19 11
-915.161276023194 -216.463480396347 2412.3499160715 18 19 11
-872.273657179302 -212.917369260428 2436.05558727153 19 20 12
-946.853212124776 -217.8553013212 2423.68949665944 20 21 13
-880.537708126348 -212.573530608413 2455.58818515122 21 22 14
-850.927364858492 -210.045751946605 2473.79774398935 24 25 17
-841.643134037556 -209.038844215145 2484.51955825338 24 25 17
-847.899452057745 -209.189746308736 2489.63578543115 24 25 17
-851.2389590934 -209.123271261755 2495.79773780768 23 26 17
-854.578023478914 -209.056565131161 2501.95894556169 20 26 16
-853.03016441162 -208.628449943969 2509.81589901435 19 25 15
-857.340645271227 -208.633699668057 2515.62677646679 19 25 15
