ply
format ascii 1.0
comment KinectMotionCapture
element vertex 753
property float x
property float y
property float z
property uchar red
property uchar green
property uchar blue
end_header
-1282.99462795258 456.316113471985 2358.99996757507 193 194 189
-1275.80451965332 456.04681968689 2358.00004005432 171 172 167
-1268.62812042236 455.779701471329 2357.00011253357 156 156 154
-1259.85848903656 454.934507608414 2352.9999256134 190 189 185
-1251.11889839172 454.091638326645 2348.99997711182 183 179 176
-1244.52829360962 454.02404665947 2348.99997711182 207 203 200
-1238.9988899231 454.344868659973 2351.0000705719 177 173 170
-1233.9893579483 454.860717058182 2354.00009155273 180 176 173
-1227.92708873749 454.991847276688 2355.00001907349 171 167 164
-1222.38492965698 455.318033695221 2357.00011253357 184 180 177
-1215.80600738525 455.259472131729 2357.00011253357 186 182 179
-1209.74671840668 455.395936965942 2358.00004005432 184 180 177
-1203.68814468384 455.534130334854 2358.99996757507 192 188 185
-1197.63004779816 455.67399263382 2359.99989509583 212 208 205
-1191.57254695892 455.815583467484 2361.00006103516 220 219 215
-1186.01715564728 456.151813268662 2362.99991607666 173 172 168
-1180.45628070831 456.489652395248 2365.00000953674 160 159 155
-1174.39377307892 456.636071205139 2365.9999370575 153 152 148
-1168.33126544952 456.784129142761 2367.00010299683 156 155 151
-1162.26840019226 456.933706998825 2368.00003051758 167 166 162
-1156.20541572571 457.084834575653 2368.99995803833 179 178 174
-1149.17135238647 456.851720809937 2368.00003051758 177 176 172
-1143.11277866364 457.005888223648 2368.99995803833 166 165 161
-1136.09409332275 456.775814294815 2368.00003051758 163 162 158
-1129.08589839935 456.547319889069 2367.00010299683 171 170 166
-1123.03602695465 456.705957651138 2368.00003051758 172 172 170
-1117.45667457581 457.058906555176 2369.99988555908 160 160 158
-1111.87088489532 457.413256168365 2371.99997901917 163 163 161
-1105.34644126892 457.383334636688 2371.99997901917 159 159 157
-1099.28929805756 457.547575235367 2372.99990653992 158 158 156
-1093.69122982025 457.905977964401 2375 156 156 154
-1088.08648586273 458.265751600266 2377.00009346008 154 154 152
-1081.56430721283 458.241194486618 2377.00009346008 163 163 161
-1075.9505033493 458.603471517563 2378.99994850159 165 165 163
-1068.98069381714 458.388775587082 2378.00002098084 161 161 159
-1062.91377544403 458.560883998871 2378.99994850159 151 151 149
-1056.40053749084 458.541423082352 2378.99994850159 157 156 154
-1050.77362060547 458.908766508102 2381.00004196167 162 161 159
-1043.82312297821 458.699077367783 2380.00011444092 154 153 151
-1036.8812084198 458.490550518036 2378.99994850159 154 153 151
-1030.8141708374 458.668649196625 2380.00011444092 150 149 147
-1023.4534740448 458.269774913788 2378.00002098084 176 175 173
-1016.53432846069 458.064764738083 2377.00009346008 174 173 171
-1007.49886035919 456.897407770157 2371.00005149841 179 178 176
-998.920917510986 455.923855304718 2365.9999370575 175 174 172
-991.631388664246 455.529540777206 2364.00008201599 155 154 152
-986.438930034637 456.099718809128 2367.00010299683 169 168 166
-980.404615402222 456.285506486893 2368.00003051758 174 173 171
-972.310721874237 455.508947372437 2364.00008201599 186 185 183
-964.240849018097 454.733401536942 2359.99989509583 189 188 186
-955.383241176605 453.57346534729 2354.00009155273 179 178 176
-947.769939899445 452.992588281631 2351.0000705719 175 174 172
-940.575420856476 452.605366706848 2348.99997711182 201 200 198
-933.393537998199 452.219009399414 2346.99988365173 183 182 180
-927.014470100403 452.218890190125 2346.99988365173 190 189 187
-920.245110988617 452.02711224556 2345.99995613098 186 185 183
-914.261937141418 452.221482992172 2346.99988365173 188 187 185
-907.114505767822 451.838701963425 2345.00002861023 185 184 182
-901.131868362427 452.034801244736 2345.99995613098 185 185 183
-894.763946533203 452.039033174515 2345.99995613098 182 182 180
-888.776183128357 452.23668217659 2346.99988365173 180 180 178
-883.536219596863 452.820599079132 2349.99990463257 179 179 177
-878.281474113464 453.405320644379 2352.9999256134 179 179 177
-872.27076292038 453.605443239212 2354.00009155273 180 180 178
-866.255700588226 453.80625128746 2355.00001907349 179 179 177
-860.601365566254 454.200565814972 2357.00011253357 182 182 180
-855.299830436707 454.788237810135 2359.99989509583 182 182 180
-849.983036518097 455.376714468002 2362.99991607666 180 180 178
-844.650983810425 455.96581697464 2365.9999370575 184 184 182
-839.303553104401 456.555664539337 2368.99995803833 186 186 184
-833.589196205139 456.953495740891 2371.00005149841 189 189 187
-827.864825725555 457.351982593536 2372.99990653992 180 180 178
-823.168814182281 458.329319953918 2378.00002098084 167 167 165
-817.416071891785 458.729118108749 2380.00011444092 178 178 176
-812.334775924683 459.515005350113 2384.0000629425 175 175 173
-805.880129337311 459.530472755432 2384.0000629425 178 178 176
-799.761295318604 459.739327430725 2384.99999046326 181 181 179
-792.63973236084 459.370404481888 2382.99989700317 178 178 176
-786.189377307892 459.387540817261 2382.99989700317 173 173 171
-779.412150382996 459.212422370911 2381.99996948242 177 177 175
-772.640645503998 459.037840366364 2381.00004196167 176 176 174
-766.196727752686 459.056466817856 2381.00004196167 178 178 176
-760.391235351563 459.461212158203 2382.99989700317 180 180 178
-754.258811473846 459.673672914505 2384.0000629425 181 181 179
-748.121023178101 459.886521100998 2384.99999046326 182 182 180
-741.977989673615 460.099846124649 2385.99991798401 182 182 180
-735.829710960388 460.313677787781 2387.00008392334 183 183 181
-730.287194252014 460.913568735123 2390.00010490417 178 178 176
-724.728226661682 461.513876914978 2392.99988746643 176 176 174
-719.153165817261 462.114661931992 2395.99990844727 183 183 181
-712.669551372528 462.137222290039 2395.99990844727 187 187 185
-706.775307655334 462.545931339264 2398.00000190735 181 181 179
-701.454043388367 463.340818881989 2401.99995040894 172 172 170
-696.400344371796 464.32900428772 2407.00006484985 175 175 173
-691.892683506012 465.703427791595 2414.00003433228 196 196 194
-686.778903007507 466.692388057709 2418.99991035461 185 185 183
-681.356608867645 467.48885512352 2423.00009727478 189 189 187
-676.190972328186 468.478590250015 2427.99997329712 190 190 188
-671.273648738861 469.661682844162 2434.00001525879 161 161 159
-666.050374507904 470.652133226395 2438.99989128113 148 148 146
-660.79968214035 471.642941236496 2444.00000572205 175 175 173
-656.056761741638 473.020076751709 2450.99997520447 190 190 188
-651.540517807007 474.590599536896 2459.00011062622 193 193 191
-646.455943584442 475.775361061096 2464.99991416931 162 162 160
-640.819191932678 476.574450731277 2469.00010108948 197 196 194
-635.673999786377 477.759897708893 2474.99990463257 156 155 153
-630.241632461548 478.752583265305 2480.00001907349 161 161 159
-625.032901763916 479.938536882401 2486.00006103516 167 167 165
-619.04501914978 480.545580387115 2489.00008201599 185 184 182
-613.532185554504 481.538891792297 2493.99995803833 155 155 153
-607.261776924133 481.953263282776 2496.00005149841 166 166 164
-601.942181587219 483.140140771866 2502.00009346008 163 162 160
-595.637798309326 483.554720878601 2503.99994850159 142 141 139
-589.792251586914 484.355717897415 2507.99989700317 149 149 147
-582.994401454926 484.384298324585 2507.99989700317 155 155 153
-577.114939689636 485.185563564301 2512.00008392334 136 136 134
-570.985853672028 485.793739557266 2515.00010490417 143 145 142
-565.288305282593 486.788302659988 2519.99998092651 152 154 151
-559.341251850128 487.589865922928 2523.9999294281 165 167 164
-552.715122699738 487.811982631683 2525.00009536743 179 181 178
-546.731173992157 488.613605499268 2529.00004386902 176 178 175
-540.938138961792 489.608556032181 2533.99991989136 173 175 172
-535.538673400879 490.990042686462 2540.99988937378 169 171 168
-529.892325401306 492.178410291672 2546.99993133545 178 180 177
-523.185789585114 492.40055680275 2548.00009727478 169 171 168
-517.283499240875 493.395745754242 2552.99997329712 170 172 169
-511.153161525726 494.197607040405 2556.99992179871 127 129 126
-505.000293254852 494.999557733536 2561.00010871887 114 116 113
-498.630166053772 495.60809135437 2563.99989128113 142 144 141
-492.434680461884 496.409982442856 2568.00007820129 146 148 145
-486.027419567108 497.018426656723 2571.00009918213 149 151 148
-479.975610971451 498.013436794281 2575.99997520447 153 155 152
-472.794055938721 497.848451137543 2575.00004768372 146 148 145
-465.79784154892 497.876584529877 2575.00004768372 140 142 139
-458.978831768036 498.097896575928 2575.99997520447 129 131 128
-452.32892036438 498.512417078018 2578.00006866455 128 130 127
-446.530789136887 499.893665313721 2585.00003814697 116 118 115
-439.843595027924 500.30791759491 2586.99989318848 125 127 124
-433.311849832535 500.915348529816 2589.99991416931 118 120 117
-427.7503490448 502.683162689209 2598.99997711182 116 118 115
-422.786355018616 505.224645137787 2611.99998855591 113 115 112
-417.273223400116 507.185757160187 2621.99997901917 158 160 157
-410.766243934631 507.986128330231 2625.99992752075 130 132 129
-403.467953205109 507.81911611557 2625 99 101 98
-396.174222230911 507.651746273041 2624.00007247925 126 128 125
-388.588398694992 507.097184658051 2621.00005149841 142 144 141
-382.036715745926 507.896602153778 2625 173 175 172
-375.605165958405 508.889317512512 2630.00011444092 129 131 128
-369.845896959305 510.849297046661 2640.00010490417 122 124 121
-363.34428191185 511.841475963593 2644.99998092651 108 110 107
-356.679975986481 512.639999389648 2648.9999294281 103 105 102
-349.465221166611 512.664079666138 2648.9999294281 127 129 126
-342.895567417145 513.655543327332 2654.00004386902 156 158 155
-336.803674697876 515.420973300934 2663.00010681152 136 138 135
-330.909311771393 517.573177814484 2674.00002479553 112 114 111
-324.712038040161 519.338130950928 2683.00008773804 122 124 121
-317.755043506622 519.941389560699 2686.00010871887 109 111 108
-310.549646615982 520.157098770142 2687.00003623962 87 89 86
-303.56365442276 520.759582519531 2690.00005722046 92 94 91
-296.670615673065 521.555364131927 2694.00000572205 102 102 104
-289.647459983826 522.15713262558 2697.00002670288 122 122 124
-282.607167959213 522.758543491364 2700.00004768372 119 119 121
-276.569098234177 525.295734405518 2713.00005912781 100 100 102
-234.299585223198 530.248999595642 2737.99991607666 169 169 171
-1491.66560173035 458.624690771103 2388.99993896484 255 255 253
-1479.04217243195 456.752777099609 2380.00011444092 255 255 253
-1470.19636631012 456.036031246185 2377.00009346008 245 245 243
-1463.22822570801 455.897867679596 2377.00009346008 252 252 250
-1451.98476314545 454.420447349548 2369.99988555908 245 245 243
-1446.28262519836 454.671800136566 2371.99997901917 249 249 247
-1441.18821620941 455.117374658585 2375 249 249 247
-1436.69271469116 455.756902694702 2378.99994850159 249 249 247
-1423.77197742462 453.717440366745 2368.99995803833 246 248 245
-1415.70627689362 453.213512897491 2367.00010299683 226 228 225
-1408.85412693024 453.095227479935 2367.00010299683 217 219 216
-1406.15940093994 454.319149255753 2374.00007247925 213 215 212
-1395.77317237854 453.057676553726 2368.00003051758 215 217 216
-1388.36514949799 452.755808830261 2367.00010299683 209 211 210
-1380.97357749939 452.456444501877 2365.9999370575 191 191 191
-1374.17936325073 452.350854873657 2365.9999370575 189 189 189
-1367.97332763672 452.438831329346 2367.00010299683 195 195 195
-1363.4968996048 453.10240983963 2371.00005149841 197 197 197
-1355.57436943054 452.621668577194 2368.99995803833 192 192 192
-1349.95031356812 452.907532453537 2371.00005149841 189 189 189
-1339.79272842407 451.667696237564 2365.00000953674 191 189 190
-1333.62400531769 451.767146587372 2365.9999370575 191 189 190
-1324.09393787384 450.723379850388 2361.00006103516 195 193 194
-1319.06533241272 451.209127902985 2364.00008201599 198 197 195
-1312.36279010773 451.124310493469 2364.00008201599 178 176 177
-1306.77342414856 451.423197984695 2365.9999370575 172 170 171
-1299.53324794769 451.151877641678 2365.00000953674 167 165 166
-1291.21315479279 450.501173734665 2361.99998855591 181 179 180
-1284.0062379837 450.234144926071 2361.00006103516 183 181 182
-1277.35364437103 450.159877538681 2361.00006103516 173 171 172
-1270.70903778076 450.087666511536 2361.00006103516 147 145 146
-1260.85948944092 448.873698711395 2355.00001907349 179 178 176
-1251.05106830597 447.662055492401 2348.99997711182 179 178 176
-1244.99213695526 447.786539793015 2349.99990463257 181 180 178
-1239.46177959442 448.103368282318 2351.99999809265 170 169 167
-1234.97545719147 448.802947998047 2355.99994659424 172 171 169
-1228.90961170197 448.932766914368 2357.00011253357 179 178 176
-1223.88172149658 449.445128440857 2359.99989509583 177 176 174
-1216.26484394073 449.007153511047 2358.00004005432 179 178 176
-1209.69176292419 448.951840400696 2358.00004005432 188 187 185
-1204.14483547211 449.278891086578 2359.99989509583 196 195 193
-1199.10061359406 449.798047542572 2362.99991607666 205 204 202
-1194.04566287994 450.318723917007 2365.9999370575 177 176 172
-1188.47823143005 450.650662183762 2368.00003051758 147 146 142
-1181.90681934357 450.603544712067 2368.00003051758 147 146 142
-1175.83763599396 450.748354196548 2368.99995803833 155 154 150
-1169.27468776703 450.704514980316 2368.99995803833 170 169 165
-1163.20812702179 450.852513313293 2369.99988555908 175 174 170
-1156.65292739868 450.811773538589 2369.99988555908 164 163 159
-1149.13249015808 450.392246246338 2368.00003051758 160 159 155
-1142.5929069519 450.354546308517 2368.00003051758 167 166 162
-1136.0582113266 450.318455696106 2368.00003051758 168 167 163
-1129.52828407288 450.283765792847 2368.00003051758 171 170 166
-1123.47733974457 450.440734624863 2368.99995803833 163 162 160
-1118.83962154388 451.169401407242 2372.99990653992 161 160 158
-1113.71564865112 451.70933008194 2375.99992752075 158 157 155
-1107.64765739441 451.870411634445 2377.00009346008 155 154 152
-1102.04136371613 452.22282409668 2378.99994850159 156 155 153
-1095.04675865173 452.0063996315 2378.00002098084 156 155 153
-1088.97697925568 452.171385288239 2378.99994850159 153 152 150
-1082.45074748993 452.147632837296 2378.99994850159 159 158 156
-1076.83289051056 452.505379915237 2381.00004196167 160 159 157
-1069.85902786255 452.294170856476 2380.00011444092 155 154 152
-1063.78757953644 452.46422290802 2381.00004196167 156 155 153
-1057.27028846741 452.445566654205 2381.00004196167 159 158 156
-1052.52158641815 453.188121318817 2384.99999046326 154 153 151
-1045.99988460541 453.171849250793 2384.99999046326 160 159 157
-1039.04557228088 452.966719865799 2384.0000629425 149 148 146
-1031.66675567627 452.572792768478 2381.99996948242 149 148 146
-1024.73199367523 452.369958162308 2381.00004196167 180 179 177
-1016.5228843689 451.59837603569 2377.00009346008 162 161 159
-1007.488489151 450.447887182236 2371.00005149841 178 177 175
-998.911678791046 449.488580226898 2365.9999370575 173 172 170
-992.042541503906 449.290215969086 2365.00000953674 161 160 158
-986.431777477264 449.662864208221 2367.00010299683 178 177 175
-979.984521865845 449.656575918198 2367.00010299683 180 179 177
-971.894323825836 448.891341686249 2362.99991607666 183 182 180
-963.828206062317 448.127210140228 2358.99996757507 188 187 185
-955.786049365997 447.364032268524 2355.00001907349 180 179 177
-948.97723197937 447.171688079834 2354.00009155273 179 178 176
-941.375076770782 446.600407361984 2351.0000705719 191 190 188
-933.791041374207 446.029990911484 2348.00004959106 185 184 182
-927.015125751495 445.840328931808 2346.99988365173 184 183 181
-919.069886207581 445.081770420074 2342.99993515015 187 186 184
-913.095712661743 445.273876190186 2344.00010108948 184 183 181
-906.343996524811 445.086807012558 2342.99993515015 183 182 180
-900.751709938049 445.4705119133 2345.00002861023 183 184 179
-894.768714904785 445.665031671524 2345.99995613098 180 181 176
-888.781845569611 445.860415697098 2346.99988365173 179 180 175
-883.542716503143 446.436524391174 2349.99990463257 178 179 174
-877.915441989899 446.823388338089 2351.99999809265 178 179 174
-872.278690338135 447.211086750031 2354.00009155273 176 177 172
-866.264224052429 447.409421205521 2355.00001907349 176 177 172
-860.975921154022 447.988629341125 2358.00004005432 179 180 175
-856.034755706787 448.7584233284 2361.99998855591 180 181 176
-849.993824958801 448.958963155746 2362.99991607666 181 182 177
-844.305455684662 449.350208044052 2365.00000953674 183 184 179
-838.607251644135 449.742168188095 2367.00010299683 189 189 187
-832.898855209351 450.134724378586 2368.99995803833 188 188 186
-827.180504798889 450.527995824814 2371.00005149841 183 183 181
-822.836697101593 451.681971549988 2377.00009346008 163 163 161
-817.77423620224 452.456533908844 2381.00004196167 167 167 165
-812.350034713745 453.041702508926 2384.0000629425 178 178 176
-805.896043777466 453.057408332825 2384.0000629425 182 182 180
-799.777686595917 453.26367020607 2384.99999046326 182 182 180
-793.322026729584 453.280448913574 2384.99999046326 179 179 177
-786.206841468811 452.917635440826 2382.99989700317 179 179 177
-779.102921485901 452.555298805237 2381.00004196167 182 182 180
-772.334635257721 452.383518218994 2380.00011444092 184 185 180
-766.215741634369 452.592372894287 2381.00004196167 183 184 179
-760.410606861115 452.991724014282 2382.99989700317 186 187 182
-754.278719425201 453.201562166214 2384.0000629425 185 186 181
-748.454988002777 453.601956367493 2385.99991798401 186 187 182
-742.620766162872 454.002767801285 2388.00001144409 186 187 182
-736.159145832062 454.023778438568 2388.00001144409 184 185 180
-730.614304542542 454.615622758865 2391.00003242493 183 184 179
-724.750280380249 455.01771569252 2392.99988746643 174 175 170
-719.475865364075 455.800592899323 2397.0000743866 173 174 169
-712.989807128906 455.823183059692 2397.0000743866 181 182 177
-707.093179225922 456.226468086243 2398.9999294281 186 186 184
-701.769649982452 457.010567188263 2403.00011634827 174 174 172
-697.002768516541 458.175301551819 2408.99991989136 163 163 161
-692.490041255951 459.530800580978 2415.99988937378 173 173 171
-687.37131357193 460.506230592728 2421.0000038147 187 187 185
-682.506382465363 461.672335863113 2427.00004577637 186 186 184
-676.773190498352 462.268054485321 2430.0000667572 191 191 189
-672.126531600952 463.625073432922 2437.00003623962 168 168 166
-666.622400283813 464.411735534668 2440.99998474121 154 154 152
-661.36646270752 465.388983488083 2446.00009918213 161 161 159
-656.350791454315 466.556787490845 2451.99990272522 176 176 174
-651.567161083221 467.915266752243 2459.00011062622 186 186 184
-646.482765674591 469.083696603775 2464.99991416931 172 174 171
-641.105890274048 470.062255859375 2470.00002861023 176 176 174
-635.958194732666 471.231341362 2476.0000705719 177 177 175
-631.031572818756 472.591012716293 2483.00004005432 157 159 156
-625.814914703369 473.760694265366 2489.00008201599 153 153 151
-620.067775249481 474.549859762192 2493.00003051758 176 176 174
-613.806188106537 474.958509206772 2494.99988555908 185 187 184
-607.53321647644 475.367367267609 2496.99997901917 160 162 159
-601.970493793488 476.347506046295 2502.00009346008 171 171 169
-596.141993999481 477.137386798859 2506.00004196167 134 134 132
-590.291142463684 477.927416563034 2509.99999046326 150 150 148
-583.952903747559 478.336811065674 2512.00008392334 152 152 150
-577.832818031311 478.936672210693 2515.00010490417 139 138 136
-571.695625782013 479.536652565002 2517.99988746643 139 139 137
-565.765798091888 480.327159166336 2522.0000743866 141 141 139
-560.034990310669 481.308221817017 2526.99995040894 146 146 144
-553.619563579559 481.718003749847 2529.00004386902 183 183 181
-547.192335128784 482.127696275711 2530.99989891052 166 166 164
-541.180551052094 482.918560504913 2535.00008583069 165 165 163
-535.778343677521 484.280914068222 2542.00005531311 169 169 167
-530.129313468933 485.452890396118 2548.00009727478 181 181 179
-523.419916629791 485.672146081924 2549.00002479553 178 180 177
-518.122792243958 487.225294113159 2556.99992179871 179 179 177
-512.581288814545 488.587915897369 2563.99989128113 182 182 180
-506.60651922226 489.569455385208 2569.00000572205 167 167 165
-499.825686216354 489.788711071014 2569.9999332428 146 146 144
-493.422031402588 490.38901925087 2572.99995422363 126 126 126
-487.190127372742 491.17985367775 2576.99990272522 125 125 125
-480.562955141068 491.589426994324 2578.9999961853 115 115 115
-473.556637763977 491.617649793625 2578.9999961853 138 138 138
-466.730296611786 491.836309432983 2579.99992370605 99 99 99
-460.253894329071 492.436081171036 2582.99994468689 107 107 107
-453.58482003212 492.845118045807 2585.00003814697 111 111 111
-447.767555713654 494.207322597504 2592.00000762939 118 118 118
-441.571205854416 495.18808722496 2596.99988365173 99 99 99
-435.514032840729 496.359437704086 2602.9999256134 115 115 115
-429.75240945816 497.912108898163 2611.00006103516 97 95 96
-424.917548894882 500.608861446381 2625 107 107 107
-418.891429901123 501.970708370209 2631.99996948242 94 94 94
-412.044167518616 502.378761768341 2634.0000629425 109 107 108
-404.877573251724 502.405166625977 2634.0000629425 107 105 106
-398.011982440948 502.812623977661 2635.99991798401 113 113 113
-391.282767057419 503.410696983337 2638.99993896484 87 87 87
-384.681850671768 504.199266433716 2642.99988746643 93 91 92
-378.343820571899 505.369186401367 2648.9999294281 128 128 128
-372.252434492111 506.920516490936 2657.00006484985 168 172 171
-365.429550409317 507.517635822296 2660.00008583069 99 103 104
-358.58941078186 508.114457130432 2663.00010681152 231 235 236
-351.336121559143 508.138477802277 2663.00010681152 252 255 255
-344.986468553543 509.498059749603 2670.00007629395 240 244 243
-338.85058760643 511.238932609558 2678.99990081787 227 231 232
-332.912415266037 513.36133480072 2690.00005722046 208 212 211
-326.429188251495 514.72008228302 2697.00002670288 184 188 187
-319.670230150223 515.696883201599 2701.99990272522 206 210 211
-305.052310228348 515.931665897369 2703.00006866455 242 246 247
-297.682881355286 515.952944755554 2703.00006866455 233 237 238
-290.957033634186 517.119228839874 2709.00011062622 232 233 235
-1498.56221675873 452.163904905319 2388.99993896484 239 237 238
-1486.52613162994 450.505346059799 2381.00004196167 252 252 250
-1478.90090942383 450.17471909523 2380.00011444092 235 235 233
-1470.05808353424 449.468970298767 2377.00009346008 219 219 217
-1461.86184883118 448.955416679382 2375 206 206 204
-1451.24018192291 447.689056396484 2368.99995803833 197 199 196
-1444.9337720871 447.74854183197 2369.99988555908 209 211 208
-1441.66815280914 448.755115270615 2375.99992752075 202 204 201
-1435.36078929901 448.819637298584 2377.00009346008 192 194 191
-1427.25670337677 448.320388793945 2375 193 195 192
-1418.57802867889 447.635293006897 2371.99997901917 196 201 197
-1412.30916976929 447.707712650299 2372.99990653992 196 201 197
-1405.45344352722 447.594076395035 2372.99990653992 186 188 187
-1396.2516784668 446.728616952896 2368.99995803833 192 194 193
-1387.67039775848 446.054607629776 2365.9999370575 201 203 202
-1382.61866569519 446.514129638672 2368.99995803833 200 200 200
-1376.39904022217 446.59897685051 2369.99988555908 195 195 195
-1371.33967876434 447.062969207764 2372.99990653992 190 190 190
-1365.12315273285 447.152346372604 2374.00007247925 185 185 185
-1358.33883285522 447.055637836456 2374.00007247925 182 180 181
-1350.42548179626 446.584612131119 2371.99997901917 181 179 180
-1342.53334999084 446.116089820862 2369.99988555908 176 174 175
-1335.22534370422 445.838153362274 2368.99995803833 178 176 177
-1326.24983787537 444.998025894165 2365.00000953674 166 164 165
-1320.65403461456 445.289105176926 2367.00010299683 168 166 167
-1313.9454126358 445.206016302109 2367.00010299683 169 167 168
-1308.90190601349 445.689141750336 2369.99988555908 161 159 160
-1302.201628685 445.610076189041 2369.99988555908 171 169 170
-1294.96312141418 445.345193147659 2368.99995803833 167 165 166
-1286.6507768631 444.706410169601 2365.9999370575 157 155 156
-1279.4451713562 444.445729255676 2365.00000953674 152 150 151
-1271.7148065567 443.999111652374 2362.99991607666 149 147 148
-1261.86192035675 442.803144454956 2357.00011253357 180 179 177
-1252.58266925812 441.797256469727 2351.99999809265 190 189 187
-1247.04694747925 442.108243703842 2354.00009155273 171 170 168
-1242.56110191345 442.796498537064 2358.00004005432 155 154 152
-1237.53547668457 443.298637866974 2361.00006103516 157 156 154
-1230.41439056396 443.051487207413 2359.99989509583 170 169 167
-1224.34306144714 443.18163394928 2361.00006103516 173 172 170
-1216.72511100769 442.750424146652 2358.99996757507 179 178 176
-1209.63776111603 442.508697509766 2358.00004005432 185 184 182
-1203.07230949402 442.45633482933 2358.00004005432 194 193 191
-1198.03524017334 442.968606948853 2361.00006103516 177 176 174
-1193.49217414856 443.669945001602 2365.00000953674 152 151 149
-1187.92915344238 443.9976811409 2367.00010299683 149 148 146
-1181.86128139496 444.139361381531 2368.00003051758 148 147 145
-1175.29737949371 444.095104932785 2368.00003051758 156 155 153
-1169.23224925995 444.239884614944 2368.99995803833 170 169 167
-1163.16699981689 444.386214017868 2369.99988555908 164 163 161
-1156.61346912384 444.346576929092 2369.99988555908 157 156 154
-1149.57976341248 444.120973348618 2368.99995803833 158 157 155
-1144.00398731232 444.459319114685 2371.00005149841 172 171 169
-1137.94231414795 444.611549377441 2371.99997901917 174 173 171
-1131.87980651855 444.765269756317 2372.99990653992 168 167 165
-1125.81646442413 444.920390844345 2374.00007247925 153 152 150
-1120.69487571716 445.451676845551 2377.00009346008 156 155 153
-1115.56124687195 445.984274148941 2380.00011444092 156 155 153
-1109.94946956635 446.330815553665 2381.99996948242 153 152 150
-1103.86765003204 446.491301059723 2382.99989700317 153 152 150
-1097.32377529144 446.465700864792 2382.99989700317 155 154 152
-1091.24183654785 446.62880897522 2384.0000629425 154 153 151
-1084.7030878067 446.605861186981 2384.0000629425 153 152 150
-1079.07259464264 446.958780288696 2385.99991798401 155 154 152
-1072.08621501923 446.751028299332 2384.99999046326 156 155 153
-1066.00260734558 446.919173002243 2385.99991798401 156 155 153
-1059.47268009186 446.901142597198 2385.99991798401 153 152 150
-1054.27014827728 447.446227073669 2388.99993896484 155 154 152
-1047.30033874512 447.243362665176 2388.00001144409 161 160 158
-1040.77470302582 447.228878736496 2388.00001144409 148 147 145
-1033.38611125946 446.84100151062 2385.99991798401 154 153 151
-1026.44157409668 446.641534566879 2384.99999046326 174 173 171
-1017.36724376678 445.50684094429 2378.99994850159 160 159 157
-1007.90369510651 444.186061620712 2371.99997901917 177 176 174
-999.325335025787 443.240910768509 2367.00010299683 173 172 170
-992.874085903168 443.233132362366 2367.00010299683 163 162 160
-987.675368785858 443.788021802902 2369.99988555908 177 176 174
-979.978978633881 443.220525979996 2367.00010299683 178 177 175
-971.067190170288 442.09223985672 2361.00006103516 183 182 180
-963.007569313049 441.339492797852 2357.00011253357 186 185 183
-956.189274787903 441.149353981018 2355.99994659424 180 179 177
-950.184941291809 441.334694623947 2357.00011253357 180 179 177
-942.174971103668 440.584689378738 2352.9999256134 187 186 184
-933.791100978851 439.648389816284 2348.00004959106 184 183 181
-926.621198654175 439.274668693542 2345.99995613098 186 185 183
-919.463992118835 438.901871442795 2344.00010108948 187 186 184
-913.098454475403 438.904345035553 2344.00010108948 184 183 181
-905.960738658905 438.533157110214 2342.00000762939 184 183 181
-900.756061077118 439.098984003067 2345.00002861023 186 187 182
-894.773840904236 439.291179180145 2345.99995613098 182 183 178
-888.787686824799 439.484119415283 2346.99988365173 179 180 175
-882.797479629517 439.67792391777 2348.00004959106 179 180 175
-877.176344394684 440.059632062912 2349.99990463257 180 181 176
-871.9162940979 440.629422664642 2352.9999256134 177 178 173
-866.641104221344 441.19992852211 2355.99994659424 177 178 173
-860.985517501831 441.583871841431 2358.00004005432 179 180 175
-855.682730674744 442.155808210373 2361.00006103516 180 181 176
-849.64519739151 442.353904247284 2361.99998855591 181 182 177
-844.674229621887 443.114519119263 2365.9999370575 182 183 178
-838.619530200958 443.313956260681 2367.00010299683 186 186 184
-832.911849021912 443.701297044754 2368.99995803833 190 190 188
-827.194213867188 444.089323282242 2371.00005149841 186 186 184
-822.504818439484 445.039868354797 2375.99992752075 166 166 164
-817.789137363434 445.991069078445 2381.00004196167 169 169 167
-812.365472316742 446.56828045845 2384.0000629425 178 178 176
-806.250035762787 446.771442890167 2384.99999046326 183 183 181
-799.458920955658 446.600466966629 2384.0000629425 181 181 179
-793.006420135498 446.617364883423 2384.0000629425 176 176 174
-785.894453525543 446.260064840317 2381.99996948242 177 177 175
-779.121100902557 446.090698242188 2381.00004196167 181 181 179
-772.353231906891 445.921689271927 2380.00011444092 179 180 175
-765.91295003891 445.940554141998 2380.00011444092 179 180 175
-759.472906589508 445.959895849228 2380.00011444092 179 180 175
-753.349483013153 446.167021989822 2381.00004196167 179 180 175
-748.161673545837 446.936726570129 2384.99999046326 177 178 173
-742.641568183899 447.51963019371 2388.00001144409 176 177 172
-736.48864030838 447.728097438812 2388.99993896484 173 174 169
-730.63600063324 448.124468326569 2391.00003242493 174 175 170
-724.772334098816 448.521137237549 2392.99988746643 172 173 168
-719.498336315155 449.293226003647 2397.0000743866 170 171 166
-713.0126953125 449.315845966339 2397.0000743866 173 174 169
-707.411110401154 449.901193380356 2400.00009536743 186 186 184
-702.085137367249 450.674384832382 2404.00004386902 188 188 186
-697.60537147522 452.010363340378 2411.00001335144 165 165 163
-692.800939083099 453.159332275391 2417.00005531311 164 164 162
-687.395930290222 453.933715820313 2421.0000038147 184 184 182
-682.812452316284 455.270975828171 2427.99997329712 180 180 178
-677.076816558838 455.858528614044 2430.99999427795 177 177 175
-672.152101993561 457.009077072144 2437.00003623962 177 177 175
-667.194426059723 458.159923553467 2443.00007820129 164 164 162
-661.933302879334 459.123492240906 2447.99995422363 162 162 160
-656.644821166992 460.087478160858 2453.00006866455 170 170 168
-651.328682899475 461.05170249939 2457.99994468689 173 173 171
-646.509647369385 462.391465902328 2464.99991416931 173 175 172
-641.65198802948 463.731467723846 2471.99988365173 181 183 180
-636.756062507629 465.071886777878 2479.00009155273 173 175 172
-631.821572780609 466.412544250488 2486.00006103516 191 193 190
-626.345455646515 467.37813949585 2490.9999370575 188 190 187
-620.344340801239 467.968791723251 2493.99995803833 145 147 144
-614.080250263214 468.371987342834 2496.00005149841 168 170 167
-608.291268348694 469.150602817535 2500 166 168 165
-602.720558643341 470.117121934891 2505.00011444092 160 162 159
-596.646070480347 470.708340406418 2507.99989700317 137 139 136
-590.790033340454 471.487551927567 2512.00008392334 129 131 128
-584.446370601654 471.891343593597 2513.99993896484 156 155 153
-578.550696372986 472.67073392868 2517.99988746643 145 144 142
-572.632551193237 473.450213670731 2522.0000743866 137 136 134
-567.364871501923 474.793016910553 2529.00004386902 131 130 128
-561.39349937439 475.57270526886 2532.99999237061 127 127 125
-555.399656295776 476.352453231812 2536.99994087219 136 136 134
-548.518359661102 476.381182670593 2536.99994087219 146 146 144
-542.063236236572 476.78554058075 2539.00003433228 154 154 152
-536.650240421295 478.128790855408 2546.0000038147 166 166 164
-530.574202537537 478.908777236938 2549.99995231628 159 159 157
-524.270117282867 479.500889778137 2552.99997329712 175 177 174
-518.354177474976 480.468690395355 2558.00008773804 172 172 170
-513.00984621048 481.99999332428 2565.99998474121 180 180 178
-507.029592990875 482.967913150787 2571.00009918213 158 158 156
-500.632166862488 483.559966087341 2573.99988174438 134 134 132
-494.601130485535 484.527826309204 2578.9999961853 118 118 118
-488.541960716248 485.495626926422 2584.00011062622 115 115 115
-482.081919908524 486.087530851364 2586.99989318848 130 130 130
-475.421011447906 486.491531133652 2588.99998664856 126 126 126
-469.291001558304 487.459093332291 2594.00010108948 101 101 101
-463.489174842834 488.802462816238 2601.0000705719 120 120 120
-457.472890615463 489.957898855209 2607.00011253357 91 91 93
-452.11398601532 491.86497926712 2617.00010299683 82 80 81
-445.849508047104 492.832243442535 2621.99997901917 104 102 103
-439.724206924438 493.987441062927 2628.00002098084 93 91 92
-433.729857206345 495.330512523651 2634.99999046326 97 95 96
-428.18209528923 497.237384319305 2644.99998092651 72 70 71
-420.828104019165 497.076243162155 2644.00005340576 180 178 179
-413.947880268097 497.478753328323 2645.99990844727 98 96 97
-407.055824995041 497.881144285202 2648.00000190735 100 98 99
-1510.00440120697 445.104151964188 2384.99999046326 219 212 206
-1502.9491186142 444.956332445145 2384.99999046326 242 239 234
-1497.16293811798 445.18455862999 2387.00008392334 244 240 237
-1488.25752735138 444.48322057724 2384.0000629425 221 221 219
-1483.11150074005 444.903492927551 2387.00008392334 209 209 207
-1472.3961353302 443.649291992188 2381.00004196167 204 204 202
-1464.80655670166 443.329989910126 2380.00011444092 189 189 187
-1453.56059074402 441.896229982376 2372.99990653992 184 186 183
-1448.4646320343 442.32764840126 2375.99992752075 199 201 198
-1442.15035438538 442.389279603958 2377.00009346008 197 199 196
-1437.0504617691 442.825585603714 2380.00011444092 197 199 196
-1430.74309825897 442.892163991928 2381.00004196167 198 200 197
-1424.44181442261 442.9612159729 2381.99996948242 188 193 189
-1413.98060321808 441.731363534927 2375.99992752075 183 188 184
-1407.11891651154 441.619843244553 2375.99992752075 165 167 166
-1397.91119098663 440.767496824265 2371.99997901917 166 168 167
-1391.08300209045 440.661042928696 2371.99997901917 184 186 185
-1384.26566123962 440.557062625885 2371.99997901917 197 197 197
-1378.03971767426 440.641164779663 2372.99990653992 193 193 193
-1372.97403812408 441.098839044571 2375.99992752075 183 183 183
-1366.17624759674 441.001772880554 2375.99992752075 179 179 179
-1359.38858985901 440.906941890717 2375.99992752075 177 175 176
-1350.90255737305 440.257847309113 2372.99990653992 175 173 174
-1345.27552127838 440.538644790649 2375 171 169 170
-1339.08271789551 440.636038780212 2375.99992752075 168 166 167
-1330.65056800842 439.993858337402 2372.99990653992 158 156 157
-1321.68662548065 439.168691635132 2368.99995803833 161 159 160
-1314.97418880463 439.087301492691 2368.99995803833 162 160 161
-1310.47940254211 439.749211072922 2372.99990653992 155 153 154
-1303.22337150574 439.486503601074 2371.99997901917 155 153 154
-1298.71416091919 440.152168273926 2375.99992752075 160 158 159
-1289.8405790329 439.337849617004 2371.99997901917 151 149 150
-1283.1609249115 439.266473054886 2371.99997901917 141 139 140
-1274.33657646179 438.456445932388 2368.00003051758 139 138 136
-1265.00701904297 437.463372945786 2362.99991607666 140 139 137
-1255.18047809601 436.287462711334 2357.00011253357 163 162 160
-1249.63235855103 436.594247817993 2358.99996757507 155 154 152
-1244.08042430878 436.902791261673 2361.00006103516 149 148 146
-1240.09644985199 437.7681016922 2365.9999370575 146 145 143
-1232.96332359314 437.524974346161 2365.00000953674 153 152 150
-1227.39827632904 437.838613986969 2367.00010299683 167 166 164
-1219.24960613251 437.229096889496 2364.00008201599 180 179 177
-1211.12406253815 436.621427536011 2361.00006103516 161 160 158
-1204.5521736145 436.570346355438 2361.00006103516 146 145 143
-1199.50819015503 437.075555324554 2364.00008201599 129 128 126
-1194.95844841003 437.767118215561 2368.00003051758 139 137 138
-1189.38839435577 438.09050321579 2369.99988555908 152 150 151
-1183.31396579742 438.230574131012 2371.00005149841 152 150 151
-1176.74326896667 438.187420368195 2371.00005149841 151 149 150
-1170.6714630127 438.3305311203 2371.99997901917 153 151 152
-1164.10875320435 438.290387392044 2371.99997901917 154 152 153
-1158.52725505829 438.621371984482 2374.00007247925 158 156 157
-1151.96919441223 438.584178686142 2374.00007247925 162 160 161
-1146.38102054596 438.917994499207 2375.99992752075 159 157 158
-1139.82725143433 438.883721828461 2375.99992752075 155 153 154
-1133.75520706177 439.035624265671 2377.00009346008 152 150 151
-1127.6820898056 439.188897609711 2378.00002098084 150 149 147
-1122.07961082459 439.528256654739 2380.00011444092 144 143 141
-1116.93906784058 440.0534927845 2382.99989700317 144 143 141
-1111.32037639618 440.395444631577 2384.99999046326 149 148 146
-1105.69477081299 440.738648176193 2387.00008392334 147 146 144
-1099.14135932922 440.713912248611 2387.00008392334 149 148 146
-1092.59176254272 440.69042801857 2387.00008392334 152 151 149
-1085.59107780457 440.483599901199 2385.99991798401 147 146 144
-1080.40869235992 441.016465425491 2388.99993896484 149 148 146
-1074.31447505951 441.181361675262 2390.00010490417 154 153 151
-1068.66490840912 441.532015800476 2391.99995994568 144 143 141
-1061.23197078705 441.145539283752 2390.00010490417 143 142 140
-1054.69572544098 441.129446029663 2390.00010490417 160 159 157
-1047.72412776947 440.929889678955 2388.99993896484 161 160 158
-1041.63289070129 441.100656986237 2390.00010490417 149 148 146
-1034.67297554016 440.90336561203 2388.99993896484 160 159 157
-1027.29105949402 440.522730350494 2387.00008392334 172 171 169
-1018.2124376297 439.404904842377 2381.00004196167 164 163 161
-1008.74435901642 438.103705644608 2374.00007247925 180 179 177
-1000.16164779663 437.172710895538 2368.99995803833 177 176 174
-993.286430835724 436.980932950974 2368.00003051758 170 169 167
-988.086223602295 437.528282403946 2371.00005149841 176 175 173
-980.80188035965 437.153875827789 2368.99995803833 171 170 168
-971.885681152344 436.042368412018 2362.99991607666 181 180 178
-964.230000972748 435.485452413559 2359.99989509583 181 180 178
-957.404673099518 435.298591852188 2358.99996757507 183 182 180
-950.989902019501 435.297101736069 2358.99996757507 186 185 183
-942.174732685089 434.189349412918 2352.9999256134 183 182 180
-933.791697025299 433.267056941986 2348.00004959106 183 182 180
-926.622629165649 432.899177074432 2345.99995613098 188 187 185
-919.858574867249 432.71666765213 2345.00002861023 187 186 184
-913.880527019501 432.904034852982 2345.99995613098 183 182 180
-906.351387500763 432.354092597961 2342.99993515015 184 183 181
-900.760769844055 432.727664709091 2345.00002861023 182 183 178
-894.398033618927 432.732909917831 2345.00002861023 179 180 175
-888.794004917145 433.108001947403 2346.99988365173 177 178 173
-882.428407669067 433.114737272263 2346.99988365173 176 177 172
-876.810908317566 433.491349220276 2348.99997711182 175 176 171
-871.183693408966 433.868736028671 2351.0000705719 175 176 171
-865.914523601532 434.431314468384 2354.00009155273 176 177 172
-860.630393028259 434.994667768478 2357.00011253357 178 179 174
-855.33082485199 435.558676719666 2359.99989509583 180 181 176
-849.296748638153 435.754269361496 2361.00006103516 182 183 178
-843.972086906433 436.319649219513 2364.00008201599 184 185 180
-837.569177150726 436.331987380981 2364.00008201599 186 186 184
-832.221925258636 436.898648738861 2367.00010299683 188 188 186
-826.510190963745 437.281399965286 2368.99995803833 187 187 185
-821.826875209808 438.218533992767 2374.00007247925 168 168 166
-817.117273807526 439.156323671341 2378.99994850159 167 167 165
-811.699569225311 439.725488424301 2381.99996948242 173 173 171
-805.590093135834 439.92605805397 2382.99989700317 183 183 181
-798.804998397827 439.757943153381 2381.99996948242 180 180 178
-792.025744915009 439.590334892273 2381.00004196167 175 175 173
-785.582363605499 439.607858657837 2381.00004196167 175 175 173
-779.139220714569 439.625829458237 2381.00004196167 178 178 176
-773.020923137665 439.828962087631 2381.99996948242 176 177 172
-766.89749956131 440.032541751862 2382.99989700317 179 180 175
-760.130643844604 439.867287874222 2381.99996948242 180 181 176
-753.369450569153 439.702481031418 2381.00004196167 181 182 177
-747.554779052734 440.09205698967 2382.99989700317 180 181 176
-742.040455341339 440.666794776917 2385.99991798401 179 180 175
-736.50997877121 441.242009401321 2388.99993896484 176 177 172
-730.657756328583 441.632956266403 2391.00003242493 176 177 172
-725.097358226776 442.208975553513 2394.00005340576 174 175 170
-719.820976257324 442.970156669617 2398.00000190735 171 172 167
-713.630378246307 443.177491426468 2398.9999294281 173 174 169
-707.729041576386 443.570017814636 2401.00002288818 185 185 183
-702.692687511444 444.517105817795 2405.99989891052 183 183 181
-697.918593883514 445.649355649948 2411.99994087219 177 177 175
-692.825198173523 446.597278118134 2417.00005531311 170 170 168
-687.13653087616 447.175979614258 2420.00007629395 179 179 177
-682.55615234375 448.49419593811 2427.00004577637 192 192 190
-677.380621433258 449.443191289902 2431.99992179871 174 174 172
-672.453343868256 450.577348470688 2437.99996376038 173 173 171
-667.493224143982 451.711863279343 2444.00000572205 166 166 164
-662.770509719849 453.031539916992 2450.99997520447 177 177 175
-656.938791275024 453.612178564072 2453.9999961853 183 183 181
-651.885211467743 454.747706651688 2460.00003814697 181 181 179
-647.061049938202 456.068336963654 2467.00000762939 171 173 170
-642.457783222198 457.574188709259 2474.99990463257 190 192 189
-637.040138244629 458.525687456131 2480.00001907349 178 180 177
-632.103085517883 459.847271442413 2486.99998855591 182 184 181
-626.373052597046 460.614383220673 2490.9999370575 193 195 192
-620.620787143707 461.381703615189 2494.99988555908 141 143 140
-615.0923371315 462.334185838699 2500 145 147 144
-609.29262638092 463.101863861084 2503.99994850159 172 174 171
-603.951811790466 464.239716529846 2509.99999046326 162 164 161
-597.626030445099 464.637815952301 2512.00008392334 136 138 135
-591.759145259857 465.406000614166 2516.00003242493 139 141 138
-585.172235965729 465.619295835495 2516.99995994568 146 145 143
-579.498291015625 466.572761535645 2522.0000743866 146 145 143
-573.342323303223 467.156320810318 2525.00009536743 143 142 140
-568.066596984863 468.479961156845 2532.00006484985 120 119 117
-561.865508556366 469.06366944313 2535.00008583069 118 118 116
-556.085169315338 470.017522573471 2539.99996185303 125 125 123
-549.195647239685 470.046132802963 2539.99996185303 128 128 126
-542.945921421051 470.629990100861 2542.99998283386 135 135 133
-537.100493907928 471.584022045136 2548.00009727478 171 173 170
-531.435132026672 472.723096609116 2553.99990081787 169 171 168
-524.914860725403 473.121970891953 2555.99999427795 163 165 162
-519.193351268768 474.2611348629 2562.00003623962 161 161 159
-513.438284397125 475.400388240814 2568.00007820129 169 169 167
-507.847011089325 476.724803447723 2575.00004768372 170 170 168
-501.244127750397 477.123498916626 2576.99990272522 177 177 175
-495.588511228561 478.44797372818 2584.00011062622 155 155 155
-489.704638719559 479.587227106094 2589.99991416931 127 127 127
-484.160035848618 481.096863746643 2598.00004959106 115 115 115
-478.387296199799 482.421278953552 2605.00001907349 95 95 95
-472.937375307083 484.116107225418 2614.00008201599 98 98 98
-1531.67331218719 441.011965274811 2397.0000743866 214 198 185
-1520.73979377747 439.756721258163 2391.00003242493 214 200 187
-1509.85658168793 438.505232334137 2384.99999046326 220 210 201
-1502.17425823212 438.176512718201 2384.0000629425 223 216 210
-1497.64788150787 438.769459724426 2388.00001144409 212 207 203
-1489.99106884003 438.446521759033 2387.00008392334 197 196 192
-1485.46028137207 439.044624567032 2391.00003242493 189 189 187
-1474.73633289337 437.809467315674 2384.99999046326 200 200 198
-1467.75329113007 437.678813934326 2384.99999046326 190 190 188
-1457.72111415863 436.633676290512 2380.00011444092 192 192 190
-1451.38812065125 436.692118644714 2381.00004196167 189 191 188
-1443.84837150574 436.386466026306 2380.00011444092 185 187 184
-1437.53445148468 436.450123786926 2381.00004196167 178 180 177
-1432.42847919464 436.882823705673 2384.0000629425 180 182 179
-1426.12111568451 436.951339244843 2384.99999046326 179 181 178
-1415.65418243408 435.740172863007 2378.99994850159 166 168 165
-1408.78629684448 435.630768537521 2378.99994850159 162 164 161
-1400.16174316406 434.974551200867 2375.99992752075 158 160 157
-1395.08378505707 435.419201850891 2378.99994850159 156 156 154
-1387.66527175903 435.134053230286 2378.00002098084 152 152 150
-1380.26309013367 434.851378202438 2377.00009346008 153 153 151
-1373.45468997955 434.753984212875 2377.00009346008 159 159 157
-1367.23124980927 434.841722249985 2378.00002098084 164 163 161
-1361.0121011734 434.931635856628 2378.99994850159 161 160 158
-1350.81219673157 433.744221925735 2372.99990653992 158 157 155
-1345.75378894806 434.204190969467 2375.99992752075 158 157 155
-1338.99676799774 434.1179728508 2375.99992752075 151 150 148
-1333.37044715881 434.399247169495 2378.00002098084 155 154 152
-1324.95224475861 433.769285678864 2375 152 151 149
-1319.33510303497 434.054672718048 2377.00009346008 150 149 147
-1312.6106262207 433.976799249649 2377.00009346008 151 150 148
-1304.24666404724 433.353334665298 2374.00007247925 156 155 153
-1299.73375797272 434.009581804276 2378.00002098084 150 149 147
-1293.03133487701 433.937668800354 2378.00002098084 141 140 138
-1286.337018013 433.86772274971 2378.00002098084 132 131 129
-1276.95953845978 432.887554168701 2372.99990653992 139 138 136
-1269.75929737091 432.6391518116 2371.99997901917 124 123 121
-1259.37700271606 431.298524141312 2365.00000953674 142 141 139
-1251.68943405151 430.871725082397 2362.99991607666 150 149 147
-1244.02046203613 430.446863174438 2361.00006103516 150 149 147
-1240.03803730011 431.299895048141 2365.9999370575 147 146 144
-1233.4281206131 431.243121623993 2365.9999370575 146 145 143
-1228.8990020752 431.917071342468 2369.99988555908 162 161 159
-1221.25947475433 431.499242782593 2368.00003051758 173 172 170
-1215.17622470856 431.629717350006 2368.99995803833 152 151 149
-1208.07349681854 431.397527456284 2368.00003051758 133 132 130
-1202.5043964386 431.713432073593 2369.99988555908 132 131 129
-1197.43490219116 432.213097810745 2372.99990653992 137 135 136
-1191.35093688965 432.350009679794 2374.00007247925 150 148 149
-1185.26685237885 432.488411664963 2375 156 154 155
-1177.69396305084 432.082056999207 2372.99990653992 149 147 148
-1172.60527610779 432.587683200836 2375.99992752075 148 146 147
-1166.03302955627 432.548612356186 2375.99992752075 152 150 151
-1160.92967987061 433.05703997612 2378.99994850159 155 153 154
-1154.84476089478 433.202922344208 2380.00011444092 157 155 156
-1148.27656745911 433.168172836304 2380.00011444092 144 142 143
-1142.67253875732 433.49876999855 2381.99996948242 140 138 139
-1135.63132286072 433.284878730774 2381.00004196167 141 139 140
-1130.02288341522 433.61821770668 2382.99989700317 143 142 140
-1123.46494197845 433.589041233063 2382.99989700317 137 136 134
-1117.84887313843 433.925092220306 2384.99999046326 138 137 135
-1112.22589015961 434.26239490509 2387.00008392334 146 145 143
-1106.59611225128 434.600979089737 2388.99993896484 145 144 142
