ply
format ascii 1.0
comment KinectMotionCapture
element vertex 750
property float x
property float y
property float z
property uchar red
property uchar green
property uchar blue
end_header
-896.023685747918 267.462448413598 2356.34794152188 183 186 191
-886.830633184472 267.224753242951 2354.33689848034 181 184 189
-876.991262875034 266.774076553088 2350.41150467743 181 184 189
-865.187010400616 265.686329755886 2340.75211236309 185 189 192
-855.104115891355 265.125186560911 2335.84030893575 195 199 202
-845.390708247629 264.66791960737 2331.86865092001 197 201 204
-836.039117980524 264.314769078631 2328.83994305144 198 201 206
-826.718488786801 263.959991681269 2325.79986311234 203 206 211
-817.749466136117 263.709729763532 2323.70647340905 206 209 214
-809.442668082222 263.670787937016 2323.52203816397 204 207 212
-801.151414407571 263.630775889019 2323.33162000697 203 206 211
-794.127757527206 264.016143389951 2326.97921115196 199 202 207
-786.78888739903 264.294322517118 2329.66668733613 199 202 207
-780.066115776623 264.785757207922 2334.27976904885 197 200 205
-772.722862035421 265.0630357198 2336.9687700114 196 199 204
-765.682726489303 265.446784261158 2340.62222632141 194 197 202
-758.037577961948 265.615996582468 2342.34620699318 193 196 201
-750.695561612332 265.891678386795 2345.03463789075 204 207 212
-743.944107119556 266.381389249456 2349.65775679661 203 206 211
-737.475423378167 266.978351659206 2355.25303731238 198 201 206
-730.701967944816 267.46789627898 2359.88439174815 194 197 202
-723.631388514263 267.849678364705 2363.54876109246 202 205 210
-715.986641838702 268.015718732346 2365.27235642741 207 210 215
-708.62982819524 268.28882258861 2367.96596922725 203 206 211
-701.27360529919 268.561486494536 2370.65933419141 206 209 214
-695.303613750755 269.373388534273 2378.22275111855 222 225 230
-690.407046169937 270.618006792038 2389.6955354963 233 236 241
-686.009013598523 272.080131552833 2403.13670707078 213 216 221
-679.93871122375 272.894332299868 2410.73699843464 214 217 222
-673.576608744724 273.600502895202 2417.36835014462 191 194 199
-666.666028667113 274.090225541516 2422.04954054568 181 184 189
-660.007795754148 274.68816421854 2427.71376505482 217 220 225
-653.334831280197 275.286275455491 2433.38310080797 222 225 230
-647.417427841203 276.21061360902 2442.00270452705 213 216 221
-641.978337811807 277.353234865017 2452.59835561041 199 202 207
-637.253778575343 278.823535288482 2466.15878345164 198 201 206
-631.477783873603 279.859472284501 2475.80198461426 182 185 190
-624.681084083095 280.459785311609 2481.51669848856 191 194 199
-618.11381039901 281.169388814645 2488.2228556208 189 192 197
-612.250951880186 282.207231783494 2497.89776147899 172 173 177
-606.353263352043 283.245767200044 2507.58562893912 208 209 211
-597.113558450952 282.752730877936 2503.4389037661 200 202 201
-581.134377970826 279.080809479728 2470.56912019057 189 191 188
-958.73362338114 262.990056675236 2387.62379973187 190 193 184
-949.687139859707 262.879883537929 2386.63593493679 180 185 181
-940.309870371952 262.665989121638 2384.6938749322 173 177 178
-929.912017947744 262.142775950453 2379.89911511904 183 187 188
-916.093953473463 260.590996455437 2365.60336883137 188 192 195
-904.773026185336 259.75422321206 2357.92041515611 183 186 191
-895.554631549093 259.531737651733 2355.91998173597 184 187 192
-886.700340329376 259.410658892377 2354.86146341341 176 179 184
-877.530702339056 259.185090502597 2352.84282796311 181 184 189
-865.387030979744 258.029810034934 2342.23510751563 185 189 192
-854.968956365016 257.38734382643 2336.37214111418 181 185 188
-844.9254205374 256.845862897553 2331.44752074908 183 187 190
-836.225486391258 256.715966383995 2330.331999086 196 199 204
-826.900260238126 256.377642385782 2327.29508513539 199 202 207
-817.926410721987 256.141206485678 2325.20449240869 204 207 212
-809.614367000973 256.110731291948 2325.02234762719 206 209 214
-801.633410964823 256.182879960792 2325.79445993295 208 211 216
-794.288591250935 256.462006229116 2328.48416928836 208 211 216
-787.254333616728 256.844542447059 2332.13539846049 206 209 214
-779.907634928602 257.122580887226 2334.82570843943 202 205 210
-772.256211868342 257.295909297813 2336.55227945014 204 207 212
-765.517962068751 257.781382109704 2341.17028082738 208 211 216
-758.46989646148 258.162314097088 2344.82640591292 208 211 216
-751.714663745102 258.647394778199 2349.45080253997 201 204 209
-744.654679623173 259.027750401578 2353.1112145819 192 195 200
-737.005504147695 259.198311139356 2354.83676013532 192 195 200
-729.941402083179 259.577755764643 2358.49859964417 205 208 213
-722.872833349629 259.956825296081 2362.16228806546 206 209 214
-715.514955309024 260.23065559701 2364.85634241216 206 209 214
-708.157701217582 260.503895770371 2367.55012552863 210 213 218
-701.360026659131 260.986956618699 2372.18953616592 196 199 204
-695.660671671485 261.890922288311 2380.7283775575 204 207 212
-691.028873596992 263.216949169817 2393.17765987842 222 225 230
-686.346524704766 264.544415686996 2405.64541783265 215 218 223
-680.267265802058 265.34550774785 2413.24797436816 207 211 214
-674.42985646468 266.252665371405 2421.83721692757 213 217 220
-667.24153224769 266.631724222472 2425.54416190223 208 212 215
-660.57212332274 267.222179277287 2431.21188242499 214 217 222
-653.629007984117 267.706755540985 2435.90425150018 235 238 243
-647.446039607493 268.509280443042 2443.54459769247 247 250 255
-642.000005351392 269.630569455242 2454.14090801706 239 242 247
-636.513977999194 270.752931351972 2464.75208459149 244 247 252
-632.231966369935 272.40771750905 2480.29900479071 240 243 248
-626.160459224729 273.319736295015 2488.97367065759 221 224 229
-619.327917179454 273.913007418512 2494.70062174096 190 194 197
-612.722149533976 274.612965434303 2501.42029171283 175 176 178
-604.665177022215 274.673180891824 2502.21886897384 196 197 199
-593.78676382009 273.451479940531 2491.14642119021 201 203 202
-949.02853023116 249.94651381854 2340.03416497215 171 174 163
-958.615876045592 255.019088836813 2388.13197005137 192 195 186
-952.39614395285 255.716955996409 2394.71096674588 179 184 180
-943.347126781818 255.617184350111 2393.72480732996 174 178 179
-931.530274645069 254.717386025827 2385.15073019597 184 188 189
-917.007200521724 253.015139403849 2368.96642062492 186 190 193
-905.333863458806 252.108600807983 2360.33969051072 180 183 188
-896.448863372608 252.000096603254 2359.29327864283 175 178 183
-886.56958140357 251.589569328091 2355.38541558216 173 176 181
-877.061962092556 251.277384265715 2352.41648983468 185 188 193
-865.253137143258 250.260504228102 2342.76410588236 190 194 197
-854.5028618026 249.542063647452 2335.94955185512 191 195 198
-844.132006000471 248.921721680826 2330.07109839516 193 197 200
-835.434845249265 248.802660630159 2328.95564091178 197 200 205
-826.758387539346 248.682224730627 2327.83255750147 199 202 207
-817.14164546613 248.25771500777 2323.8282488391 205 208 213
-809.149887299658 248.336314269558 2324.60451836677 206 209 214
-801.168748004955 248.414038199533 2325.3771179196 206 209 214
-794.136063317834 248.794369077288 2329.02760918455 206 209 214
-786.788513465228 249.073066076803 2331.71827811286 203 206 211
-779.748839149225 249.452627962242 2335.37125095078 200 203 208
-772.399461016557 249.730384032052 2338.06251316725 201 204 209
-765.65534430752 250.210742548706 2342.68251463653 203 206 211
-758.601489757073 250.589280494812 2346.34056242829 203 206 211
-752.137573389968 251.171049519106 2351.93296441275 194 197 202
-744.77459178197 251.447223142206 2354.62904988454 194 197 202
-737.412108279243 251.722811555908 2357.32491022101 195 198 203
-729.760536634938 251.89575868628 2359.05150644969 199 202 207
-722.688688033021 252.272409361137 2362.71594975847 202 205 210
-715.612261832725 252.648673192774 2366.38202709272 197 200 205
-708.813283980551 253.127007135549 2371.02180891825 205 208 213
-701.725274849309 253.502681488063 2374.69205028916 203 206 211
-695.463140451483 254.18576947994 2381.2853382217 207 210 215
-689.181258092298 254.869109369923 2387.8860746416 224 227 232
-683.96623567555 255.963593859109 2398.39642724537 221 224 229
-678.980126063279 257.162015525976 2409.89825999929 203 207 210
-673.948647950434 258.361584967928 2421.41666343473 192 196 199
-667.023737825076 258.841162010275 2426.10204067301 191 195 198
-660.350866065798 259.423742672438 2431.77042523803 167 171 174
-653.66336842715 260.006418521196 2437.44413111626 171 175 178
-647.986626140734 261.002358378287 2447.04825230103 184 188 191
-641.767407071664 261.792364876507 2454.7008251977 222 226 229
-636.277011799708 262.893353395329 2465.31172184066 196 200 203
-631.741260292806 264.409606501339 2479.87382648914 159 163 166
-626.652769666606 265.720311231462 2492.48788628415 176 180 183
-619.565566174985 266.202240969324 2497.23240831187 215 219 222
-612.951118291603 266.891878438622 2503.95445343843 216 217 219
-604.647972448141 266.853998606712 2503.76851703208 199 200 202
-589.28464171576 263.6936978116 2473.9132434191 188 190 189
-911.754479749731 225.494022254484 2178.9376763604 143 147 132
-914.479495270838 228.380343538061 2206.96440628785 142 146 131
-925.012086977317 233.397234653276 2255.78112283433 133 137 123
-944.61760068462 240.938094442958 2329.22424017161 169 172 161
-957.785470840376 246.847526039505 2386.75031944305 189 192 183
-952.981180801148 247.922163251486 2397.11019434573 174 179 175
-945.679202030837 248.318646200383 2400.85974896385 173 177 178
-933.14653239379 247.258010557995 2390.40050730249 185 189 190
-918.610741437054 245.610631779234 2374.22495810097 182 186 189
-906.236890506173 244.542552363709 2363.70719568949 178 181 186
-897.00109050201 244.347962232488 2361.71519104783 176 179 184
-887.452810429602 244.054219431165 2358.76243038001 182 185 190
-877.599842947676 243.661214151091 2354.84632834046 188 191 196
-865.451926213362 242.582177102982 2344.2459030849 187 191 194
-854.697611174827 241.891109600832 2337.4348821741 193 197 200
-844.322575718496 241.295406796753 2331.55980640364 195 199 202
-835.620413188872 241.187439213923 2330.44700327406 195 198 203
-826.293446929589 240.881890885276 2327.41294024072 202 205 210
-816.997490677336 240.574594671882 2324.36747822656 212 215 220
-809.002990426504 240.658869197584 2325.14517226417 212 215 220
-801.964286922327 241.037337293368 2328.79796414677 208 211 216
-794.920683407005 241.415504389444 2332.45225937128 205 208 213
-787.872297795569 241.79326285845 2336.10826127932 205 208 213
-780.204454144397 241.97333707644 2337.84130748932 211 214 219
-772.846901406467 242.251501949984 2340.53557069177 214 217 222
-764.885246259135 242.331277038797 2341.3009913801 208 211 216
-758.432730642199 242.905067193966 2346.88864902546 203 206 211
-751.965264046352 243.478905689251 2352.48174257027 200 203 208
-745.777549314028 244.152044437011 2359.04749466244 202 205 210
-737.817757256688 244.229662398274 2359.8120756615 195 198 203
-730.447614735109 244.505133274985 2362.51070993879 190 193 198
-722.791189473239 244.680622390628 2364.23926146585 192 195 200
-715.993288991664 245.154133994501 2368.87803368375 193 196 201
-709.185846137407 245.627468870703 2373.52051397487 198 201 206
-702.647959224816 246.20042683491 2379.13912742788 205 208 213
-695.265380762646 246.473912324715 2381.84213034879 209 212 217
-689.253848304591 247.246525716759 2389.41767625724 227 230 235
-683.217451982805 248.019620720043 2397.00254678471 234 237 242
-678.500937382408 249.293813427207 2409.47869882976 210 214 217
-672.934713208644 250.268759547861 2419.04108062281 192 196 197
-666.541836859083 250.943557964025 2425.68124655463 194 198 199
-659.606772374448 251.417801184057 2430.37016511283 187 191 192
-653.179633228047 252.092896484568 2437.02280240586 185 189 190
-647.501365940744 253.070077552566 2446.62606230012 188 192 193
-642.041725336378 254.148828633845 2457.22436107246 219 223 224
-636.5419239586 255.228597207489 2467.83707422816 215 219 220
-632.244599742591 256.813740382235 2483.38430339098 161 165 166
-627.143839805286 258.097917846119 2496.00081956288 151 155 156
-620.045754878915 258.575018591773 2500.74918517457 173 177 178
-613.419965737404 259.254334098822 2507.47431789234 198 199 201
-604.153707836225 258.82020622685 2503.34193946333 194 195 197
-586.438306719822 254.736165339652 2463.60523839641 188 190 189
-947.020813066523 233.773864533091 2336.34346878477 168 171 160
-957.667212742953 238.86824090173 2387.258047788 191 194 185
-954.271796362479 240.298076718042 2401.39905123263 179 184 180
-946.605556448098 240.598072058827 2404.20711922247 177 181 182
-932.671499284564 239.198097488645 2389.96497135884 188 192 193
-918.484000888899 237.69952141071 2374.74065802879 180 184 187
-906.452438319865 236.764118671772 2365.1753506108 180 183 188
-897.892787649193 236.77276872805 2365.08612279544 185 188 193
-887.9967580133 236.40100916881 2361.18726987716 185 188 193
-876.459684056659 235.552687041504 2352.51542278468 183 186 191
-865.317127970554 234.796500103699 2344.7739948238 185 189 192
-854.891593592534 234.227752880042 2338.91930104963 196 200 203
-845.167810937435 233.847177333036 2334.95719915424 200 204 207
-834.504657054647 233.178690382484 2328.11475971073 205 208 213
-825.505919444895 232.984691327434 2326.03666599608 202 205 210
-816.532978993111 232.789161804938 2323.94882942367 203 206 211
-809.490682777005 233.165610357643 2327.60251999043 205 208 213
-801.813818773096 233.350414166532 2329.33920048852 200 203 208
-794.766997373818 233.726056964516 2332.99447442879 203 206 211
-787.405657136495 234.005471568716 2335.69020806618 202 205 210
-779.737481529875 234.188357697548 2337.42358705122 203 206 211
-772.379442897516 234.466601112443 2340.11803272344 202 205 210
-764.71975820999 234.648143021655 2341.84822521519 193 196 201
-758.563211284155 235.310281094337 2348.40156854902 188 191 196
-752.386597477038 235.972697220269 2354.96222391398 197 200 205
-746.189995436839 236.635298997968 2361.53015576239 200 203 208
-738.514277790553 236.81541296022 2363.26606588929 201 204 209
-731.422671471867 237.188071647568 2366.93738671673 197 200 205
-724.613297058888 237.657164502002 2371.58024874837 196 199 204
-717.225875429466 237.932417394456 2374.28514472718 193 196 201
-710.120644689681 238.304089972308 2377.96134141494 201 204 209
-702.731896412167 238.578471658313 2380.66665368091 182 185 190
-695.89672914746 239.04651799717 2385.31880826294 182 185 190
-689.325902170087 239.61177097776 2390.9488087252 214 217 222
-682.740374152344 240.177032754558 2396.58415129121 230 234 237
-677.215385707526 241.132055122935 2406.13004731643 233 237 240
-671.389030860633 241.990365056362 2414.71158772808 204 208 209
-665.53272514484 242.849369100161 2423.30406278692 205 209 210
-659.385318976645 243.611273191439 2430.92816868308 213 217 218
-653.471677334544 244.471446076459 2439.5415642281 214 218 219
-647.784164871728 245.430140295537 2449.14678837956 217 221 222
-642.315115594947 246.487595895424 2459.74664459258 215 219 220
-637.056845109203 247.644248382284 2471.34421206136 213 217 218
-631.753433343847 248.802099315953 2482.95827147701 218 222 223
-626.650586966531 250.059411103454 2495.57351867274 200 204 205
-620.281424460721 250.826319328367 2503.27857454416 172 176 177
-614.850282815086 251.987524462785 2514.93929610194 164 165 167
-606.27867083059 251.869005771763 2513.7782629586 166 167 169
-592.781845570529 249.678021907747 2491.85091283225 186 188 187
-982.385559330476 234.964200816301 2430.24744834317 137 141 127
-966.442032822846 233.166884487267 2411.37214628888 193 196 187
-954.501262130226 232.370874506552 2402.85092441618 177 182 178
-945.777508893355 232.39629996339 2402.82258695666 177 181 182
-930.456085746858 230.678248155094 2384.79378826062 186 190 191
-916.28391216221 229.230645072969 2369.56775284514 180 184 187
-905.638496529983 228.697781978888 2363.79591200828 181 184 189
-897.762040182404 228.89840957525 2365.60605152518 184 187 192
-888.201906931482 228.637840071044 2362.66035484574 186 189 194
-876.661113388338 227.822327507186 2353.99233475268 188 191 196
-864.8493151583 226.911625536344 2344.3490424096 185 189 192
-854.424720529755 226.367406728986 2338.49585789734 185 189 192
-844.046508902351 225.82079576981 2332.62589451245 187 191 194
-834.039511292617 225.364518746848 2327.69417290613 196 199 204
-824.718611558687 225.091427301525 2324.66035459998 202 205 210
-815.748605432147 224.909466338177 2322.57272995172 203 206 211
-808.390954945414 225.19037441755 2325.26723564924 206 209 214
-801.663002485114 225.656745509133 2329.8800543611 205 208 213
-794.925196535243 226.122892480101 2334.49669061076 202 205 210
-787.55823527638 226.40264586605 2337.19449213799 200 203 208
-779.577518847773 226.495254926585 2337.96780684931 195 198 203
-772.216437244421 226.773706593184 2340.66337386009 192 195 200
-764.855785582309 227.051605490269 2343.35874294972 183 186 191
-758.693053384896 227.703222490334 2349.91379409852 180 183 188
-752.213428109056 228.26145716245 2355.51012801501 187 190 195
-746.013135889432 228.913513598691 2362.07860498134 188 191 196
-738.626200233435 229.190355398846 2364.78344427338 188 191 196
-732.396201813155 229.84250086483 2371.36272133544 188 191 196
-725.28662413801 230.212705651283 2375.04038668085 191 194 199
-718.172548341322 230.582715228686 2378.71992593917 192 195 200
-709.928197619664 230.575350670504 2378.51492948318 195 198 203
-703.094135690866 231.038573577532 2383.16606421427 179 182 187
-696.526809263766 231.596156440761 2388.79421407256 173 176 181
-690.766088309561 232.437370648008 2397.35061732631 202 205 210
-683.348145930601 232.711493814904 2400.06651740003 232 235 240
-676.468200641889 233.174531010328 2404.73456357192 237 241 244
-669.844796682262 233.732280705053 2410.38310109144 214 218 219
-664.524310448144 234.764605657218 2420.92708262436 196 200 201
-658.380759362189 235.512959917069 2428.54876546794 212 216 217
-652.729281898128 236.451979496863 2438.13966657338 223 227 228
-646.786867593106 237.296645806885 2446.76209200629 215 219 220
-642.334372999202 238.713558177227 2461.28645087446 203 207 208
-637.069110035033 239.846186780972 2472.8847463329 207 211 212
-632.006827835545 241.075502008179 2485.48314265428 197 201 202
-626.894286704829 242.306215687762 2498.09990544829 179 183 184
-621.245375674395 243.347088243748 2508.76386097388 187 191 192
-615.075581346011 244.197441193177 2517.46958547969 199 200 202
-606.496564321378 244.090258772753 2516.31209820524 194 195 197
-591.819048685893 241.487841720309 2489.44965844897 190 192 191
-932.673400972114 212.466335209378 2278.08389602894 138 142 128
-965.607672600137 224.928569740918 2409.98689614579 194 197 188
-953.317855604431 224.076240782719 2400.52169030902 172 177 173
-942.496516362487 223.576336765065 2394.81625594124 178 182 183
-927.546454422069 222.006096772256 2377.73023664771 189 193 194
-914.430738347051 220.876637248063 2365.34427800134 183 187 190
-905.853022009626 220.902816738981 2365.26293674499 183 186 191
-897.630985587293 221.017200270071 2366.1258292965 186 189 194
-888.068657016678 220.773017687847 2363.18191237333 189 192 197
-875.186432385512 219.632318873685 2350.71026949439 190 193 198
-864.381453341865 219.025383191317 2343.92400459945 186 190 193
-853.627874511439 218.415902744096 2337.11887207018 184 188 191
-843.907902186121 218.073261699472 2333.15824795766 186 190 193
-833.574327013397 217.548978923694 2327.27349686433 201 204 209
-824.89845165447 217.472231331811 2326.15349821661 206 209 214
-815.284231819584 217.123879195527 2322.15401934186 207 210 215
-808.243193794127 217.495038012371 2325.80685364169 209 212 217
-800.882767733511 217.775697254198 2328.50234903425 208 211 216
-794.146705868718 218.236475947953 2333.11794654721 207 210 215
-786.781836765972 218.516177345207 2335.81498399293 205 208 213
-779.110390415249 218.704773090049 2337.54972785653 195 198 203
-771.748822917468 218.983303297999 2340.24547733707 191 194 199
-765.59478919525 219.624367204137 2346.79657175538 194 197 202
-759.420616111882 220.265636359628 2353.35474474105 197 200 205
-752.929793844431 220.816269125728 2358.95457336914 202 205 210
-745.541861955323 221.093804930664 2361.65982699386 199 202 207
-738.445926035709 221.461958004189 2365.33238097216 193 196 201
-732.501276908312 222.194694113448 2372.8808711554 181 184 189
-725.672320217154 222.65393595682 2377.52985058432 180 183 188
-718.549883600721 223.021635921115 2381.21199907318 185 188 193
-710.860454387196 223.205948191679 2382.95320789646 198 201 206
-704.291577273545 223.755998795663 2388.58135285641 200 203 208
-697.707962419288 224.306148957949 2394.21486010284 191 194 199
-691.109679737699 224.856395946219 2399.85370402745 186 189 194
-683.954630209968 225.222899070147 2403.54761170822 197 200 205
-676.526754887171 225.497082896274 2406.2671253703 226 230 233
-669.897317033996 226.04708845516 2411.91727092253 232 236 239
-663.779967901626 226.781571585464 2419.52864131875 228 232 235
-657.898524245742 227.608728897296 2428.12759274324 219 223 226
-652.503744414074 228.621313956764 2438.69733282903 220 224 227
-646.557444730255 229.450009643287 2447.32021926218 198 202 205
-641.340545834054 230.557119708094 2458.89876251868 178 182 185
-636.07852744393 231.665354125157 2470.49403852119 172 176 179
-631.763324908721 233.145848767549 2486.0398676499 199 203 206
-626.891647413876 234.4425583623 2499.64065137411 190 194 197
-621.964627366577 235.741000273418 2513.26192813728 177 181 184
-616.261282561189 236.761876666896 2523.94415275516 190 191 193
-608.378016669832 236.945754642618 2525.75575695468 191 192 194
-594.385217957038 234.705487504386 2501.87178163312 194 196 195
-954.957921539536 216.479590866589 2405.75245943099 184 189 185
-943.071132527709 215.74611474647 2397.21634226606 184 188 189
-928.116306246306 214.233276599552 2380.13663940272 187 191 192
-914.994944988987 213.147570108843 2367.75603309933 183 187 190
-906.066925502944 213.095773087954 2366.72953044254 185 188 193
-896.13932576237 212.782863762781 2362.84658847304 189 192 197
-886.247687639238 212.468072588297 2358.95043830886 191 194 199
-874.38253672243 211.630709524212 2349.33206453815 190 193 198
-863.581220677215 211.05087566325 2342.54651361402 187 191 194
-852.831313582971 210.468466920019 2335.7420896084 188 192 195
-842.787260530415 210.057706457802 2330.82726593324 190 194 197
-833.433765309854 209.819178384341 2327.80789865309 199 202 207
-824.433400661875 209.666214597555 2325.73349227905 203 206 211
-815.139326430847 209.424322104341 2322.69228127103 209 212 217
-807.144166540635 209.530597046876 2323.47187494699 213 216 221
-799.788391461944 209.811104297224 2326.16566899515 212 215 220
-793.056656974859 210.266354202919 2330.77927705339 208 211 216
-786.624281944423 210.809223991258 2336.35728387625 206 209 214
-778.950036517051 211.00077392636 2338.09352195314 195 198 203
-771.889586825779 211.367510368465 2341.75307556491 191 194 199
-765.12607316152 211.821917937306 2346.37816663601 195 198 203
-758.950779208704 212.452481786956 2352.93593914323 198 201 206
-752.45899525287 212.995112635905 2358.5355134314 198 201 206
-745.364499445123 213.361065560642 2362.20737815824 198 201 206
-737.682738199794 213.549931632173 2363.94614451225 190 193 198
-731.450526005927 214.180665393548 2370.52461037409 183 186 191
-724.912197189574 214.723030970886 2376.14107614288 177 180 185
-719.210062125276 215.53170320696 2384.67373759898 180 183 188
-711.791198741915 215.808036011069 2387.39013902883 188 191 196
-704.372966304688 216.083897517882 2390.10627565213 198 201 206
-697.231331311528 216.448298257158 2393.79515070045 188 191 196
-691.178997483262 217.168746981627 2401.38183967675 172 175 180
-684.559912635617 217.711274949074 2407.0274050918 192 195 200
-677.389694347441 218.075349830798 2410.7268952434 200 203 208
-669.683558542705 218.260328711494 2412.47397019021 218 221 226
-663.299273326115 218.892078996761 2419.10802089583 222 225 230
-657.416437634343 219.703211708685 2427.70626901757 218 221 226
-652.019917690105 220.694336776223 2438.27502216096 216 219 224
-645.050199650449 221.147959672483 2442.97497582073 191 194 199
-639.841689195973 222.230444744546 2454.5486132463 189 192 197
-634.337633823303 223.224194334965 2465.15663607371 174 177 182
-630.280505314805 224.759263173299 2481.67937116436 220 223 228
-626.397927075974 226.386591418672 2499.21220294392 218 221 226
-622.439609078708 228.016270478494 2516.77298550005 173 177 180
-616.724318572073 229.016115505819 2527.45796358964 194 195 197
-608.355493744089 229.022445344276 2527.29948082039 194 195 197
-595.301891580727 227.217831403289 2507.37361010582 189 191 190
-966.071292756876 208.963378186885 2412.88032558951 197 200 191
-955.185195520565 208.515462831123 2407.20234286059 184 189 185
-943.644788562253 207.898199880975 2399.61569679411 188 192 193
-929.380290887332 206.609770512524 2384.43547040394 190 194 195
-916.938126692005 205.735284152723 2373.95713567209 184 188 191
-906.964954916591 205.443837742051 2370.09237114545 188 191 196
-895.668210850109 204.814924295088 2362.41656845641 192 195 200
-886.114488404504 204.60309934479 2359.47196603982 191 194 199
-874.583085362149 203.885242151028 2350.80790227879 189 192 197
-864.774335522993 203.585255791236 2346.88275273513 191 195 198
-853.353525555932 202.86199082799 2338.17835263698 192 196 199
-843.956733846392 202.642067575665 2335.17612036072 192 196 199
-833.617398395434 202.167050878743 2329.29717939712 199 202 207
-824.934137734583 202.112447449035 2328.18153491933 204 207 212
-815.313520897201 201.802547836846 2324.18728162017 202 205 210
-807.629869799307 201.999272975955 2325.92707330254 201 204 209
-799.637477779818 202.110458186993 2326.70628609997 197 200 205
-793.525703145046 202.730381000486 2333.24017677034 201 204 209
-786.775581190568 203.180513433735 2337.86007956455 199 202 207
-779.095822416837 203.375031915684 2339.59829052357 195 198 203
-771.725641615056 203.654136952034 2342.29721291264 195 198 203
-765.561672195381 204.274031386167 2348.8503200725 196 199 204
-759.377580895696 204.894189938327 2355.4105038899 196 199 204
-753.173462913451 205.514595196778 2361.97798276755 203 206 211
-746.068095473194 205.878471823152 2365.65364090673 204 207 212
-738.375800176583 206.070518742932 2367.39647467726 206 209 214
-731.2663724736 206.433511892928 2371.07354140267 200 203 208
-725.010591979222 207.053851885337 2377.65978628671 190 193 198
-719.3019105159 207.846552082156 2386.19362117955 177 180 185
-712.158472498642 208.209401694791 2389.8832886045 177 180 185
-705.010505010587 208.571935826442 2393.5743236475 214 217 222
-697.306409967246 208.761615184725 2395.32126607285 215 218 223
-691.247640919264 209.468900153677 2402.90904567451 156 159 164
-685.164021990207 210.176666187406 2410.50614477356 156 159 164
-679.055495614754 210.884823814472 2418.11206892435 189 192 199
-671.59420873295 211.160194311147 2420.84381179675 219 222 229
-664.396700563934 211.521806078174 2424.55277723573 224 227 234
-658.236750232684 212.23064959899 2432.17769169789 220 223 230
-652.309893672877 213.026814500364 2440.79105921422 217 220 227
-646.097753964132 213.73660964283 2448.43475353329 233 236 243
-639.86095139655 214.446967868753 2456.08770558598 243 246 253
-634.600281785321 215.506704133651 2467.67883226343 245 248 255
-629.29444386106 216.567623817205 2479.28620527086 228 231 238
-624.678812450127 217.892115281876 2493.86286456625 229 232 237
-621.458018237515 219.743465871595 2514.37207121733 182 185 190
-617.426196719981 221.334896999385 2531.95667449521 174 175 179
-609.994421179468 221.700870364799 2535.7510871576 179 180 182
-594.337617111824 218.993956747522 2504.97009597769 184 186 185
-959.289653101738 201.426087960444 2419.04238293346 176 181 177
-946.317276379349 200.517072183215 2407.68753278741 190 194 195
-930.98990074666 199.03850261321 2389.67896617045 196 200 201
-916.809975215313 197.797982638878 2374.47162638475 189 193 196
-906.492515408813 197.444566210209 2369.66046834984 190 193 198
-896.216204721024 197.088962177766 2364.83444854183 191 194 199
-886.318124148947 196.81256575163 2360.94353610637 189 192 197
-875.117598781614 196.20884782861 2353.23442028775 189 192 197
-865.301790353897 195.928223700952 2349.31329630573 192 196 199
-854.204171100268 195.319457978399 2341.56666427214 191 195 198
-844.143774389568 194.95292821415 2336.66111613855 189 193 196
-833.151648975472 194.339057027026 2328.87576901584 204 207 212
-824.146818167113 194.213661641127 2326.80506544546 213 216 221
-814.529345768895 193.922739202585 2322.81084720626 211 214 219
-807.16463055999 194.204221141299 2325.50796308127 209 212 217
-799.4861662023 194.403022630174 2327.24628119529 209 212 217
-793.682268282652 195.094586403882 2334.74052466046 210 213 218
-785.999284915766 195.292536036158 2336.48016612104 207 210 215
-778.934677725617 195.654746447158 2340.14114311727 197 200 205
-771.561478419668 195.933999227148 2342.84117338976 194 197 202
-765.695024682538 196.625877601077 2350.3579151645 184 187 192
-759.20600331107 197.152827672101 2355.95530256228 181 184 189
-752.40597863322 197.596960205679 2360.59288418795 186 189 194
-745.302552908585 197.958110889004 2364.26763115217 187 190 195
-737.903555491895 198.235989823704 2366.9769311883 197 200 205
-731.370439722962 198.762638407177 2372.59031698891 197 200 205
-725.108452171315 199.37253142152 2379.17802888878 190 193 198
-719.393215574043 200.149349248253 2387.71304715777 179 182 187
-711.682503417114 200.34303898066 2389.46269641812 178 181 186
-704.533910083948 200.703036841213 2393.15376748845 197 200 205
-697.380844027955 201.062762863574 2396.84644315632 222 225 230
-691.588860036049 201.840495779421 2405.40941568093 187 190 195
-686.037342048954 202.702701227722 2414.95794770032 157 160 165
-680.18278388296 203.481897031232 2423.54376614951 156 159 166
-673.236579014488 203.92593620125 2428.23445348372 201 204 211
-666.018032073765 204.285839241164 2431.95093417237 230 233 240
-659.576052568372 204.897883360665 2438.60420621286 212 215 222
-653.114411678682 205.51018968598 2445.26464175648 203 206 213
-646.633167901907 206.122831567472 2451.93247938866 232 235 242
-640.132267171213 206.735778948836 2458.6072278756 232 235 242
-634.111899029517 207.5180604009 2467.25352413298 249 252 255
-627.814179526709 208.216341941584 2474.9274440855 221 224 231
-622.716509090451 209.338774909261 2487.53063384512 218 221 228
-619.99251400032 211.310586840614 2510.0017904987 178 181 186
-616.447680595751 213.031005259586 2529.55229747853 182 183 187
-607.122363673956 212.714448132648 2525.45024831009 187 189 188
-959.161274790245 193.329626875433 2419.54469291465 194 196 191
-945.488636381836 192.305318528499 2406.30246265372 196 200 199
-930.166842994296 190.886439969216 2388.29637157953 196 200 199
-915.991938430546 189.697368923618 2373.09083508632 192 196 197
-906.020009417126 189.443897807899 2369.22848431422 194 197 202
-896.084024544239 189.188575301825 2365.35293399565 198 201 206
-886.184015265806 188.931251296472 2361.46416137625 196 199 204
-875.31669275045 188.436208413897 2354.70899069628 191 194 199
-865.164471277759 188.096045887529 2349.83879539736 191 194 199
-854.394859505363 187.596171939642 2343.04775822341 195 199 202
-844.003506495917 187.172691849692 2337.19186001685 196 200 203
-832.685890758515 186.509842705936 2328.45426974447 195 198 203
-824.002973710935 186.477140932567 2327.34015293403 199 202 207
-814.064566140229 186.126210385026 2322.39145855046 204 207 212
-807.332397479886 186.566470189612 2327.00409333308 200 203 208
-799.334520468685 186.688840996329 2327.78588869979 189 192 197
-793.215465908954 187.287506630868 2334.32107485745 198 201 206
-785.532168067759 187.488327042659 2336.06104718325 200 203 208
-778.773157856586 187.927581316414 2340.68335864041 204 207 212
-771.70057084864 188.286931257415 2344.34676487184 203 206 211
-765.526640447333 188.88567089896 2350.90164076227 200 203 208
-758.735606390741 189.324687916488 2355.53556978374 199 202 207
-752.230756247907 189.843681131696 2361.13810801112 193 194 198
-745.12417206842 190.202364746211 2364.81381641632 184 185 189
-738.303908948103 190.641005507284 2369.45833706518 176 177 181
-732.050480045104 191.240350892335 2376.0421434511 187 188 192
-725.491417310542 191.759527382123 2381.66439297735 200 201 205
-718.917585371581 192.278745108004 2387.29201182153 194 195 199
-711.206581463568 192.475334507798 2389.04198587054 183 184 188
-704.89156936058 193.07512144602 2395.64820106164 170 171 175
-698.005714403618 193.513451061258 2400.31627590631 205 206 210
-691.383303133523 194.032602129442 2405.96154041643 209 210 214
-685.016610139226 194.632995675048 2412.58683329094 179 180 184
-679.165719091747 195.395893522723 2421.16983532622 153 156 161
-673.550209360538 196.240755403829 2430.74056365483 163 166 171
-666.586077640569 196.67973234297 2435.43712822876 177 180 185
-660.132815374258 197.281527850583 2442.09372644587 211 214 219
-653.917452233952 197.965172907157 2449.7368731982 213 216 221
-648.1873659734 198.812531316258 2459.34916554455 238 241 246
-641.917411937479 199.497281401306 2467.01197629029 237 240 245
-635.87263106256 200.264348609347 2475.66599467146 236 239 244
-628.561432122504 200.622618374422 2479.41627038302 242 245 250
-622.469815488877 201.39063640811 2488.08712339028 245 248 253
-619.255157612642 203.144395970589 2508.58699138631 189 193 196
-615.949407137672 204.901044414494 2529.11992040986 167 168 170
-606.862000762719 204.68604805654 2526.00590287005 190 192 191
-877.843373366849 162.59011696425 2138.51406375973 145 149 135
-961.145822505078 185.677516824453 2425.71267055092 197 199 194
-943.261536128338 183.796258177562 2401.1363398242 194 198 197
-928.302737691169 182.512075763511 2384.0753326344 188 192 193
-914.140636256875 181.374135816716 2368.8690022065 189 193 194
-904.179598889253 181.139355186747 2365.00410431745 194 197 202
-894.254510902839 180.902663409747 2361.12600046905 199 202 207
-885.039012787166 180.815618378506 2359.13447953316 195 198 203
-874.512270463816 180.423513223381 2353.33014063774 192 195 200
-865.026867796524 180.257046809601 2350.364137454 195 198 203
-854.255827589835 179.784503439944 2343.57568141964 199 203 206
-842.883064084577 179.156950165664 2334.86079153209 199 203 206
-832.220095767967 178.679170801391 2328.03267385733 202 205 210
-823.215937419181 178.581023887611 2325.96378189787 200 203 208
-813.918723692747 178.404820690837 2322.92866794876 198 201 206
-806.234153633108 178.609978556923 2324.66942978715 196 199 204
-798.555079551541 178.814491077563 2326.40840034323 191 194 199
-792.126230142004 179.325481936786 2331.9827208595 195 198 203
-785.06506863318 179.682747675788 2335.64181852166 197 200 205
-778.611324805441 180.193669288948 2341.22517889023 200 203 208
-771.839137414986 180.627632240246 2345.85187887275 200 203 208
-765.358050460874 181.138669634358 2351.44518276186 200 203 208
-758.563624539255 181.57241368292 2356.07969201609 201 204 209
-752.055257380717 182.083564398897 2361.68291637827 211 212 216
-744.945597710413 182.439793786902 2365.35981135473 208 209 213
-738.412614969415 182.950818498903 2370.97171566998 189 190 194
-732.441136930958 183.617309518384 2378.52495550634 181 182 186
-725.873477978557 184.128782459982 2384.14974711634 175 176 180
-719.857018626738 184.796062502786 2391.71913558091 194 195 199
-712.13297078657 184.996049944495 2393.47410536802 194 195 199
-705.526200532069 185.507592394327 2399.11311282738 174 175 179
-698.078754842009 185.784774254843 2401.83996334532 175 176 180
-691.450309678367 186.296181187189 2407.48683588815 222 223 227
-683.996576996287 186.572745250864 2410.21592409263 221 222 226
-678.417100629132 187.397840835394 2419.77181444298 199 202 207
-673.067644032289 188.302354520368 2430.31693273769 159 162 167
-667.15287940569 189.05059770785 2438.92203672549 158 161 166
-660.948360948293 189.720866407796 2446.56023392978 156 159 164
-654.976381820185 190.47046843128 2455.18648292623 158 161 166
-648.974505187203 191.220686843067 2463.82338701122 163 166 171
-642.186005642574 191.734626951377 2469.52860445359 178 181 186
-635.383020045124 192.248656781648 2475.23909199263 183 186 191
-629.059987992271 192.921234649573 2482.92052386727 165 168 173
-624.179824741605 194.070021519716 2496.51322977947 185 188 193
-619.486550007998 195.299763245274 2511.11095079072 231 235 238
-615.690722788296 196.849264183624 2529.67320101524 196 197 199
-605.416698928802 196.253018470901 2521.62801619477 215 217 214
-893.598782806819 158.443768393172 2180.47527416162 145 149 135
-975.146183614247 178.550560144135 2440.3541676644 201 204 195
-957.495045417006 176.825939118977 2416.77150024444 198 203 199
-942.084533463362 175.530779109782 2398.80723302452 194 198 197
-929.562165228753 174.812267099341 2388.3698079459 186 190 191
-916.422995953607 173.944934713669 2376.01240294435 191 195 196
-904.733022760253 173.365450039307 2367.41639410174 196 199 204
-893.104645758543 172.783051901762 2358.79778522405 190 193 198
-883.221303865103 172.563249253417 2354.90578776404 191 194 199
-873.039875534703 172.268401965665 2350.04987782575 192 195 200
-862.899534395166 171.971426652849 2345.17862449986 192 195 200
-852.4714897543 171.598987228521 2339.33990884065 196 200 203
-841.436853546822 171.077190845508 2331.57670037139 199 203 206
-831.106555540266 170.699962420384 2325.7018540461 206 210 213
-823.071741263699 170.836388094812 2326.49838487594 208 212 215
-814.728656861727 170.898061711331 2326.33447111443 199 203 206
-807.033619982946 171.10638410686 2328.07952901535 196 200 203
-799.030347941039 171.240072181827 2328.86413850528 197 201 204
-791.659759983312 171.521069014104 2331.56335156842 194 198 201
-784.906513639092 171.949914658794 2336.18278344857 202 206 209
-778.449272020387 172.45296324546 2341.76682066354 205 209 212
-772.280386615085 173.030513689527 2348.31826475867 201 204 209
-766.091443063429 173.608252517676 2354.87701094552 203 206 211
-758.68960026115 173.888029210215 2357.58748800596 204 207 212
-751.879580727582 174.316652010686 2362.22753090393 195 196 200
-744.473586780964 174.595667882362 2364.93945882584 189 190 194
-737.93968604879 175.09871874539 2370.55109504213 173 174 178
-731.966973406268 175.751858846085 2378.10377610837 169 170 174
-726.540022601341 176.555569568604 2387.60263467196 169 170 174
-720.794958699464 177.284958772023 2396.14491175549 170 171 175
-713.618378738753 177.638785065139 2399.84568576401 187 188 192
-706.437382803186 177.992383162857 2403.54830134958 204 205 209
-698.426344812934 178.119377399033 2404.33522743936 192 193 197
-690.971526754087 178.396549623563 2407.06475588869 213 214 218
-682.707305856217 178.44635723537 2406.87129274546 222 223 227
-676.331513545866 179.025234777952 2413.49801402117 218 221 226
-671.525531623842 180.059327111335 2425.98855694744 174 177 182
-667.193812046401 181.246711131762 2440.45171543596 169 172 177
-661.762292858272 182.131815930613 2451.0249314152 151 154 159
-655.518952649211 182.789696483536 2458.67629931432 158 161 166
-649.25081161855 183.448113342394 2466.3364644432 155 158 163
-642.705938231221 184.030726648602 2473.02515539851 175 178 183
-636.390953512989 184.689991623912 2480.70240459001 199 202 207
-630.792366772727 185.579229909689 2491.33688866851 148 151 156
-625.39813462487 186.546087998983 2502.96928151947 155 158 163
-619.717023960773 187.437628390686 2513.63392333621 214 218 221
-614.474595953426 188.483686013147 2526.28394631594 224 225 227
-605.630349378068 188.378409918681 2524.15616019047 206 208 205
-953.847134346215 168.021817651782 2407.83312356047 198 203 199
-941.257314853165 167.344620673021 2397.42332334225 192 196 195
-929.086103966642 166.734141566016 2387.93327140932 187 191 192
-916.293195905595 165.980287687245 2376.52517507703 194 198 199
-902.893931127353 165.082592303423 2363.19317106012 197 200 205
-892.633562235312 164.813592634853 2358.36763913132 192 195 200
-883.087362835886 164.68323837924 2355.42645040355 194 197 202
-873.572118333044 164.551243805132 2352.47414513996 197 200 205
-863.093540745744 164.205745206306 2346.65556842098 195 198 203
-852.332479744646 163.787301788051 2339.86756849419 198 202 205
-840.644119780379 163.154051489556 2330.20036056524 200 204 207
-830.964799594193 162.943009437499 2326.23489535805 195 199 202
-822.606112710745 163.014017170401 2326.07735483798 194 198 201
-814.90022370068 163.226068811987 2327.82663710332 186 190 193
-806.883705124832 163.366259543684 2328.61655019233 186 190 193
-798.877757413354 163.505560735113 2329.4025553721 194 198 201
-791.193302001606 163.715434802353 2331.14388570477 208 212 215
-783.82264760652 163.996017368068 2333.84309165003 212 216 219
-777.369610890338 164.490862119393 2339.42498207353 211 215 218
-772.417481149591 165.344040915936 2349.82160899546 208 212 215
-766.823581380132 166.054867625669 2358.30756190302 201 205 208
-759.709073955898 166.407042204361 2361.98565800344 199 203 206
-751.703525409437 166.543038752127 2362.77152311618 190 191 195
-744.00166492746 166.750198579701 2364.51897257079 196 197 201
-737.176487085452 167.173174535547 2369.16384268278 201 202 206
-731.492884974868 167.885065322129 2377.68246810588 193 194 198
-726.349578973582 168.742291344081 2388.14886191242 185 186 190
-720.317902537113 169.383234960616 2395.72204649514 160 161 165
-713.701018591257 169.879629632789 2401.36358571438 158 159 163
-705.959188561091 170.085612145115 2403.12546877656 170 171 175
-698.223053879187 170.290939126922 2404.88497873876 165 166 170
-690.765295975657 170.568404900617 2407.61559749282 200 201 205
-683.308214464709 170.845457152763 2410.3459392872 225 226 230
-676.921123661543 171.414056922352 2416.97599025527 224 228 231
-671.308645491822 172.202345160146 2426.54134853202 190 194 197
-666.709801866436 173.284248211127 2440.02679396858 158 162 165
-661.536276989504 174.221177244392 2451.57699168966 178 182 185
-655.032053397781 174.792449080974 2458.2498030104 170 174 177
-648.508227850866 175.364040352653 2464.92976055948 162 166 169
-642.468775597553 176.083079164807 2473.57821903314 158 162 165
-635.900654704705 176.655478511754 2480.27433171546 179 183 186
-630.794016297199 177.670830402024 2492.87270043754 163 167 170
-625.392907847989 178.613765480278 2504.50604098289 157 161 164
-620.430111261265 179.705872612899 2518.12449411261 160 164 165
-614.2162672259 180.429344845237 2526.83665017851 184 185 187
-605.606590448903 180.412212032623 2525.69709713021 199 201 198
-940.430417870068 159.162545053801 2396.03985916114 186 190 189
-929.649802804369 158.85627416908 2390.33398379458 185 189 190
-915.818983092688 157.9414536946 2376.09093153892 196 200 201
-903.104888050776 157.224879761677 2364.6567580032 194 197 202
-891.484630145988 156.707568346824 2356.0403643551 191 194 199
-882.280390006967 156.66102524204 2354.04780890853 193 196 201
-872.100604954429 156.409675919655 2349.19458389662 204 207 212
-861.630708268035 156.088492529013 2343.37468770162 211 214 219
-850.549859572122 155.628993200616 2335.6332246824 206 210 213
-840.177766262364 155.302945348467 2329.77742581633 206 210 213
-830.822626522345 155.179178431785 2326.76731496439 207 211 214
-823.103375494479 155.395057409589 2328.52174093123 199 203 206
-815.389430044145 155.61020676191 2330.27392982583 195 199 202
-807.680994554537 155.824710222323 2332.02432231646 201 205 208
-799.664737461381 155.969968727821 2332.81477707587 214 218 221
-791.969686008298 156.183009981317 2334.5599420123 212 216 219
-783.663892291158 156.257846203613 2334.38347228418 212 216 219
-777.207366518937 156.744728259277 2339.96602961466 209 213 216
-771.341945144481 157.36967585446 2347.47760056438 205 209 212
-766.352637973901 158.202213860353 2357.88617806214 198 202 205
-759.237555387446 158.55176085939 2361.56428488552 196 200 203
-752.117904766175 158.901115381693 2365.24429123008 202 203 207
-744.408008823554 159.111491203811 2366.99464861598 199 200 204
-737.284301438042 159.460021664872 2370.67606675859 196 197 201
-731.01888387017 160.016898692484 2377.26102477131 188 189 193
-725.588804403985 160.782946031294 2386.75817833258 180 181 185
-718.710894974051 161.201299317538 2391.42211332822 172 173 177
-712.383278991956 161.759118356721 2398.02974143693 163 164 168
-704.371446292601 161.897845592241 2398.81784154791 169 170 174
-697.744728624468 162.385751353699 2404.46231322588 176 177 181
-690.014289311707 162.593343238801 2406.22017904241 189 190 194
-683.368544703895 163.081099323914 2411.87155262879 184 185 189
-676.440952211145 163.498698380962 2416.55322813392 222 226 229
-670.56236101049 164.197723795598 2425.14172970329 233 237 240
-665.439852475539 165.10898716784 2436.67145475633 223 227 230
-660.01262566903 165.950838441669 2447.23984760459 202 206 209
-653.517676385366 166.511133901529 2453.90871534102 190 194 197
-647.511735505959 167.213274141887 2462.54346854455 161 165 168
-641.979641288213 168.057870184624 2473.15042506401 159 163 166
-635.908989455144 168.761632457744 2481.80906687741 163 167 170
-630.301865199123 169.608191873433 2492.44317846185 176 180 183
-625.142995030859 170.598101875557 2505.05860531305 166 170 173
-622.349538762203 172.301846137726 2527.53477368765 167 171 172
-617.064787945133 173.295574036593 2540.19622577236 166 167 169
-976.49218018875 152.586079243932 2422.97325046942 183 185 174
-939.952746261515 151.048900217626 2395.60122773578 190 194 193
-927.787314656867 150.50897263569 2386.11439919793 190 194 195
-914.656891222908 149.771879598315 2373.76338896538 200 204 205
-902.973927052903 149.29018922638 2365.17246652291 193 196 201
-891.691221951776 148.87042291326 2357.5070891305 195 198 203
-881.137525742244 148.577989040478 2351.72006395159 196 199 204
-871.297220838408 148.413271057358 2347.81633145774 203 206 211
-861.493042666967 148.246740408505 2343.89959030201 210 213 218
-850.410950933893 147.817244246535 2336.16084271169 211 215 218
-839.711384716973 147.450530161762 2329.35440248123 205 209 212
-831.003544456331 147.474036777394 2328.25358222278 191 195 198
-822.958019433244 147.627390601083 2329.0550276197 190 194 197
-814.604802273123 147.714174243907 2328.89669006134 193 197 200
-806.267268386902 147.799898321694 2328.73257423471 195 199 202
-799.511030787217 148.213764472121 2333.35196272354 193 197 200
-791.813229196775 148.429758003256 2335.09860394747 196 200 203
-783.812869784703 148.578994387983 2335.8833283144 203 207 210
-776.434035525343 148.85965842772 2338.58551245888 206 210 213
-770.267055474027 149.404827522463 2345.13382104284 209 213 216
-764.680601677007 150.082877691534 2353.61459550664 205 209 212
-758.170654726809 150.562438333434 2359.21601034492 202 206 209
-751.940985119113 151.108538858395 2365.78716667688 208 209 213
-745.691334275305 151.654943865395 2372.36560591596 208 209 213
-738.551665570979 152.001596940733 2376.05268175337 204 205 209
-731.694821733442 152.414704029301 2380.70831268893 205 206 210
-724.543507181867 152.760889188105 2384.39958459495 209 210 214
-717.38761946229 153.106730797746 2388.09223787806 214 215 219
-710.507013790294 153.519486169718 2392.75647584287 214 215 219
-703.062417119731 153.797688171622 2395.48236817633 203 204 208
-696.991876306525 154.411952860075 2403.06766067893 185 186 190
-690.080105796124 154.824572592908 2407.74346607098 181 182 186
-683.967383698978 155.439576427161 2415.3438860826 197 198 202
-677.829869400617 156.055088847906 2422.95360671091 207 211 214
-671.403114015612 156.603413011888 2429.59653948432 225 229 232
-665.218465075067 157.219798611304 2437.22319747572 233 237 240
-659.009125310376 157.836748387104 2444.85912344404 224 228 231
-653.801936622443 158.726071198288 2456.4179605264 220 224 227
-647.278676363022 159.276320811033 2463.09610242307 237 241 244
