ply
format ascii 1.0
comment KinectMotionCapture
element vertex 762
property float x
property float y
property float z
property uchar red
property uchar green
property uchar blue
end_header
-712.349039373635 138.351194852255 2401.60905226038 201 204 209
-705.98570222784 138.877910696489 2408.22756672888 207 210 215
-699.876808398754 139.466770528413 2415.82462318022 212 215 220
-694.014863068927 140.118129202079 2424.40348014788 222 225 230
-688.392119030313 140.83224362951 2433.96671756263 225 228 233
-683.534263818242 141.733686713327 2446.46609940554 221 225 228
-680.210547120843 143.010063319818 2464.83620648047 208 212 215
-674.71337952711 143.790391526178 2475.42536942963 208 212 215
-669.435147927578 144.634224017564 2487.00658675248 207 210 215
-665.906574775914 145.916998823925 2505.45160862492 205 206 210
-664.073963179649 147.640754949193 2530.78009899063 234 235 239
-663.883555067973 149.807444460446 2563.01173746217 200 201 203
-664.038023000826 152.105028862647 2597.26131252377 202 204 203
-661.321734606042 153.716207859897 2620.76901495218 178 180 177
-900.204942072536 128.191877144958 2408.31849881373 195 196 198
-889.877163493935 128.033584887421 2403.5260667118 205 209 210
-880.91280524388 128.101253522427 2402.52152686193 202 206 209
-871.96920329024 128.167650639729 2401.50960383728 193 196 201
-864.022680506663 128.404351889931 2403.34817724173 186 189 194
-854.789902498691 128.411210623194 2401.37001992864 180 183 188
-845.583101565057 128.416683130647 2399.38257388118 183 186 191
-835.448887426582 128.248100387571 2394.51878181012 195 198 203
-825.040928750489 128.019944309512 2388.68365457448 209 212 217
-815.929866174047 128.020319215572 2386.66078425903 196 199 204
-807.154919355997 128.076968786334 2385.58684702192 196 199 204
-798.708337601092 128.190328725689 2385.46443755111 205 208 213
-790.887457541131 128.418576332378 2387.25672239473 226 229 234
-781.862594453327 128.413855428014 2385.20214808085 229 232 237
-773.463490740329 128.524049712697 2385.0622492007 227 230 235
-765.377541523132 128.691505350754 2385.87970053512 226 229 234
-758.480981010175 129.091544644929 2390.54877604446 220 223 228
-750.698413322478 129.316151079112 2392.32686583215 217 220 225
-741.473748577156 129.247313279281 2389.27349300431 209 212 217
-732.854439014973 129.294128543313 2388.14226489312 202 205 210
-725.393928424419 129.574828368943 2390.87412781614 194 197 202
-719.061447968225 130.090496145156 2397.48034299087 185 188 193
-713.267779241534 130.724417604071 2406.03307683882 183 186 191
-706.337108718766 131.122858236515 2410.71467947937 176 179 184
-699.945177445635 131.639479747764 2417.34256732937 178 181 186
-692.990265384883 132.037958413596 2422.03272639548 190 193 198
-688.716393381788 133.029835870677 2436.4601154054 193 196 201
-684.115302036382 133.964078596001 2449.93523631569 215 219 222
-681.306269710107 135.316685150331 2470.25745768132 221 225 228
-674.48526842707 135.778001040515 2475.97051364455 221 225 228
-669.461387066808 136.657437111345 2488.52855855784 221 225 228
-666.437180019004 138.016829034381 2508.92921864222 204 205 209
-666.36597371132 140.098167185609 2541.11110672541 184 185 189
-668.65347577321 142.784727163886 2583.14823202661 180 181 183
-669.494235969526 145.17794879775 2620.35533602972 178 180 179
-663.760645700339 146.01245152163 2632.10129831215 185 187 184
-901.06694198152 120.289445509776 2411.67553004371 195 196 198
-891.395677610592 120.261733364147 2408.78752662794 201 205 206
-881.424943422702 120.178087239578 2404.93755529762 198 202 205
-872.801689635254 120.310113282014 2404.88074579834 188 191 196
-864.519366757356 120.495575747894 2405.77090570231 179 182 187
-855.602054417737 120.570979916078 2404.75011026998 178 181 186
-845.424821953691 120.426440118477 2399.90376245076 190 193 198
-835.606558023735 120.334631806664 2395.99777709974 196 199 204
-825.19443636005 120.131187482931 2390.1657726699 203 206 211
-815.453755150103 120.03551339498 2386.23130692414 222 225 230
-806.059214320466 119.993056051817 2383.24164690491 226 229 234
-797.31052917934 120.059309283906 2382.15889242592 224 227 232
-789.497089776335 120.290154363777 2383.94866978294 213 216 221
-780.782597428495 120.354207787775 2382.85332579902 206 209 214
-772.089017055697 120.41707054432 2381.75003956621 209 212 217
-763.713549649249 120.53429125998 2381.60208288368 213 216 221
-756.532098572083 120.873019179787 2385.30374186062 220 223 228
-748.762049926126 121.100038307465 2387.07721074662 218 221 226
-740.129616440609 121.158889759599 2385.95165919926 210 213 218
-732.091916308842 121.328419949236 2386.75173635721 207 210 215
-724.91782445942 121.665236274353 2390.4503229122 194 197 202
-718.302640653208 122.114101668376 2396.08765824692 208 211 216
-712.23099713536 122.675570865823 2403.66911359417 204 207 212
-705.581307590736 123.124891518372 2409.31902050948 188 191 196
-699.190961914831 123.630866915282 2415.94578329138 185 188 193
-692.509343870633 124.080585571169 2421.60706675438 192 195 200
-687.695381170939 124.926776145142 2434.08633190909 194 197 202
-683.629927594037 125.944648084811 2449.50651224039 199 203 206
-680.026235812052 127.07821683608 2466.9010134597 223 227 230
-674.779296863346 127.872738234657 2478.46714038663 227 231 234
-671.297652412546 129.067567003747 2496.88847563071 233 237 240
-669.783585807032 130.721839797927 2523.16254024764 214 215 219
-669.161624709458 132.608956204271 2553.39651710836 188 189 193
-672.412744947338 135.417597445407 2599.3592142193 191 192 194
-671.465043858568 137.316015018709 2629.7123973429 181 183 182
-665.458217602573 138.069797312887 2640.48498979781 174 176 173
-902.598421691697 112.466722480785 2416.92869504171 189 190 192
-892.579497212645 112.404552268341 2413.09785344581 185 189 190
-881.605859985867 112.185756783618 2406.40215420039 182 186 189
-872.649863447083 112.274553385324 2405.39642467087 179 182 187
-864.039699540428 112.413839373425 2405.33540690081 173 176 181
-855.122606200316 112.50022230134 2404.31536026268 168 171 176
-845.266222168883 112.429450482816 2400.42455830786 175 178 183
-834.81127713468 112.252796955736 2394.61038893038 196 199 204
-824.717619990765 112.125953163659 2389.73501025061 206 209 214
-815.28993582869 112.101733616845 2386.7587685196 220 223 228
-806.203192930555 112.128151151291 2384.72928121486 214 217 222
-797.449631860547 112.205612036551 2383.64914397927 211 214 219
-789.021574392 112.33438657341 2383.52116699556 204 207 212
-780.911373762048 112.514803384859 2384.34815341496 205 208 213
-772.212986441748 112.588887183337 2383.24771467749 217 220 225
-764.42635885245 112.820232765383 2385.02778805937 223 226 231
-755.762238669087 112.892157317512 2383.91448156033 218 222 225
-747.702837761951 113.068967207391 2384.72299268993 217 221 224
-739.365006752735 113.191773931373 2384.56178276412 205 209 212
-731.616448616699 113.420113129107 2386.32779724746 202 206 209
-724.157759281024 113.701039536652 2389.05901553615 209 213 216
-716.699664191246 113.981585408995 2391.789989201 212 215 220
-711.473996641162 114.689875237121 2402.27507057759 221 225 228
-705.102426618642 115.184798296283 2408.89392323773 232 236 239
-698.711059701114 115.680094269676 2415.52025129551 233 236 241
-691.757325185294 116.068105339397 2420.20919271848 225 228 233
-687.750071017278 117.049013798427 2435.60543806525 217 221 224
-683.677040669823 118.03198669923 2451.02573813362 218 222 225
-680.856156103575 119.287524198124 2471.34468754264 207 211 214
-676.638733821757 120.275068220646 2486.81779552176 198 202 205
-675.457374902959 121.916192297152 2514.0367933924 191 195 196
-674.404776625984 123.615961726587 2542.2799888093 197 198 202
-673.980109397765 125.483698306775 2573.50762970188 201 202 204
-671.903059860264 127.029091535618 2598.91147578601 209 211 210
-670.950394827608 128.851774483136 2629.26074819839 214 216 213
-908.821113782564 105.291198421254 2435.45900314675 198 200 197
-896.09031241331 104.860040710332 2424.05268906213 184 188 187
-883.436554639901 104.425528399229 2412.61787473061 180 184 187
-874.135316862474 104.477033015384 2410.66821433114 177 180 185
-864.859862263182 104.527067262306 2408.70882068781 175 178 183
-856.899947967314 104.772212270732 2410.55289682663 189 192 197
-846.066893566688 104.573589449062 2403.80764062061 199 202 207
-834.650858707549 104.273833281803 2395.13320565613 194 197 202
-823.611460956376 104.02066909035 2387.39225026759 183 186 191
-814.189487738171 104.012632889228 2384.41515459548 182 185 190
-805.417828412605 104.102264815157 2383.34251146026 189 192 197
-797.281057544969 104.290092080939 2384.17971097545 201 204 209
-788.241693738024 104.327610498838 2382.13384664698 203 206 211
-780.133987527891 104.513497923696 2382.9603395165 204 207 212
-771.438444453336 104.598517435174 2381.85969247474 221 224 229
-763.65407263724 104.832676814777 2383.63890424977 220 224 227
-754.404521965097 104.815119226844 2380.59869689285 218 224 224
-746.352695611807 104.997244658013 2381.40460266341 214 220 220
-738.31170929181 105.178529581247 2382.20650642512 194 200 200
-731.141117196192 105.510550394171 2385.90371386433 192 198 198
-723.398060535917 105.74112990353 2387.66764418475 206 210 211
-716.504939726978 106.123215070817 2392.33436955814 205 209 212
-710.159820903371 106.60680190496 2398.94275616808 211 215 216
-704.623643468705 107.243510213913 2408.4687002694 197 201 202
-697.683902683385 107.626196547233 2413.15240978994 215 216 220
-692.36132900525 108.315316370594 2423.67125439465 210 211 215
-687.804274393647 109.15918143568 2437.12381027224 210 211 215
-685.053569978853 110.363679627894 2457.41340959946 208 209 213
-681.42122213995 111.417109785338 2474.81227605554 195 196 198
-679.278061657121 112.781796419523 2498.09314134761 199 200 202
-677.028236214075 114.150085939032 2521.41303386893 193 195 194
-675.950546215714 115.780267034269 2549.66009549957 197 198 200
-672.46195205817 116.949197246716 2569.14881228833 208 210 209
-670.391029214441 118.432030011374 2594.5457120276 225 227 226
-666.218701740148 119.503242176867 2612.1418607395 222 224 221
-661.725107499043 120.524880768443 2628.78444109004 241 243 240
-893.279598228925 96.3745435942415 2416.96702619457 185 189 188
-882.295527286786 96.2107947084075 2410.27927126357 181 185 188
-872.67247296971 96.229511085789 2407.37750873619 181 184 189
-864.054750473273 96.3856181167551 2407.3205064602 179 182 187
-855.774864020171 96.5870780575175 2408.21073384931 192 195 200
-845.26779143567 96.4620523704633 2402.41914546619 201 204 209
-833.221695672402 96.1016978517676 2391.83595057252 185 188 193
-823.135024009074 96.0184273117303 2386.96157578202 176 179 184
-813.401660202128 95.9800241233532 2383.02877252978 190 193 198
-805.561003190195 96.2212962421855 2384.82897149775 189 192 197
-797.112213744485 96.3678532967842 2384.70986893927 186 189 194
-788.679233422207 96.5134649716806 2384.58495100214 208 211 216
-779.960381803983 96.6108293738374 2383.49370427136 220 223 228
-770.963405280506 96.659643762587 2381.43329135001 222 225 230
-762.585684353108 96.8019047794899 2381.28804278698 222 226 229
-753.635816291293 96.8481473912862 2379.21006524244 199 205 205
-745.586567321858 97.0357562781626 2380.0157025934 195 201 201
-737.836975694681 97.2703131752978 2381.78230741297 215 219 220
-730.379466183583 97.5519974236521 2384.51315420739 221 225 226
-723.206423489488 97.8811959684276 2388.21103909642 209 213 214
-716.309987725765 98.2581242647057 2392.87832551797 209 213 216
-711.075922360642 98.9235535008274 2403.36347854129 200 204 207
-704.973240667367 99.4455915712197 2410.95323608179 221 225 228
-699.119207466242 100.016394892701 2419.52314024599 212 213 217
-694.048058587718 100.73311988159 2431.01952617538 211 212 216
-690.541856070193 101.741972240127 2448.36894152751 197 198 202
-687.225499734149 102.80179860522 2466.72003524523 194 195 197
-683.301424390176 103.766996767837 2483.15142947197 196 197 199
-680.088644732137 104.880751819158 2502.53576944098 201 202 204
-677.822219180836 106.19275851581 2525.85744677617 219 220 222
-673.915678221065 107.214652509045 2543.35355843628 215 216 218
-669.680144390197 108.189968401274 2559.89888062682 219 220 222
-667.127226398866 109.51147442783 2583.32536816415 245 247 246
-663.724049441197 110.688904024502 2603.85024720595 251 253 252
-658.266896306638 111.474744755622 2616.55865410829 247 249 248
-894.791635534656 88.4888599113463 2422.22250486638 183 187 186
-883.133863820303 88.2661586342793 2413.64197019946 180 184 187
-873.501032096085 88.3017071327455 2410.74477587644 186 189 194
-864.548513531011 88.4227937989098 2409.74021900538 188 191 196
-856.260858229191 88.6301254571427 2410.63371213945 190 193 198
-844.469118539702 88.3547427835789 2401.03106763082 195 198 203
-833.061306841329 88.120261618897 2392.35856998639 186 189 194
-822.972967038241 88.0590011334818 2387.48646198749 186 189 194
-813.23778639464 88.0398446494369 2383.55577105481 207 210 215
-804.775883379987 88.1956385499514 2383.44213008318 214 217 222
-796.023099915948 88.3061798805409 2382.36420628656 211 214 219
-787.89944878472 88.5042732942229 2383.19741350607 219 222 227
-778.278784260374 88.4790632226461 2379.22465781383 225 228 233
-769.292434391643 88.5412324770775 2377.16113717042 215 218 223
-761.221572041252 88.736177200552 2377.97518097494 209 212 217
-753.455329808218 88.9750335768023 2379.74841429275 200 206 206
-745.694699027519 89.213237701313 2381.51930524049 204 210 210
-738.228569238022 89.4958543618097 2384.25335445776 208 212 213
-729.90449308694 89.6428077719814 2384.08896878147 206 210 211
-722.44728069879 89.924301752735 2386.81969326396 201 205 206
-716.114913880513 90.3864738243363 2393.42208511869 195 199 202
-710.598118131955 90.9850856501166 2402.93811268509 200 204 207
-705.322017302031 91.6301669740099 2413.43674918367 214 218 221
-699.732293229235 92.2307654470297 2422.97942424476 209 210 214
-696.003024252916 93.1519343183922 2439.33671592195 200 201 205
-691.398130409116 93.9380873749811 2452.80229912597 180 181 185
-686.737617972796 94.7259811426146 2466.28796768756 193 194 196
-681.232345635609 95.3777421736787 2476.87062910096 215 216 218
-677.771171527116 96.3989353422501 2495.27117131233 218 219 221
-673.713067917398 97.3305300268722 2511.74898191055 230 231 233
-669.328703426111 98.2181494499327 2527.2752067932 233 234 236
-664.120071551928 98.9689382768853 2539.89067186643 241 243 242
-661.864825122483 100.278231902836 2564.27463893874 247 249 248
-658.507005594436 101.405294543037 2584.77923765568 241 243 242
-654.567639349099 102.442125347505 2603.35495921847 235 237 236
-894.640853932154 80.3664325756768 2422.73124991472 187 191 190
-883.641226378135 80.2579007233471 2416.05331349839 182 186 189
-872.693098670805 80.1469690919936 2409.35648418655 181 184 189
-863.094408103341 80.1971729773867 2406.44799087148 181 184 189
-853.84862312856 80.2867216123354 2404.48079856302 189 192 197
-842.393403881871 80.0873392300914 2395.8284284257 191 194 199
-830.999957420048 79.8851097262689 2387.15314479068 210 213 218
-821.86794575715 79.9690804426874 2385.14419350246 218 221 226
-812.450376735702 80.0102864731924 2382.16946733053 210 213 218
-804.300204306083 80.2157884285865 2383.01286972003 216 219 224
-794.934623687139 80.2541128629431 2380.01878248279 233 236 241
-786.816138480125 80.4576183441906 2380.85077538242 231 234 239
-777.502728861189 80.4932190105257 2377.83752694898 226 229 234
-769.714692269159 80.736543722229 2379.61876181367 211 214 219
-761.339794878724 80.8953391365025 2379.47373490032 202 205 210
-753.861893488367 81.1793984546947 2382.21217003308 197 202 205
-745.511225323508 81.3365186405591 2382.05846763876 197 201 204
-737.753567724665 81.5771375227656 2383.8284605152 192 196 199
-729.429635293595 81.7324821287027 2383.66465574915 194 198 201
-722.538967712661 82.0991070396976 2388.32932327166 203 207 210
-715.919580228456 82.5082369721856 2393.96518785643 225 229 232
-709.84206606096 83.0028504308084 2401.54373185891 232 236 239
-704.291224200747 83.5835736633276 2411.07103423859 214 215 219
-699.251501734517 84.2508471434249 2422.55201627163 206 207 211
-694.978361603448 85.0483187198333 2436.96447113082 199 200 204
-689.840289414876 85.7185884385249 2448.4816676877 236 237 241
-684.125889797251 86.303960666981 2458.06849321188 246 250 253
-679.691170471337 87.1063612252808 2472.53977345488 252 255 255
-675.716641166132 87.9973209061582 2488.98415239376 252 255 255
-670.639932659557 88.7169595805035 2501.54933442447 241 245 246
-664.236622457394 89.2204943218632 2509.24692548646 229 233 234
-659.830261568805 90.0734804875752 2524.77852935174 220 224 225
-657.609520577941 91.3218898113083 2549.14561978981 221 225 226
-653.791617884549 92.3113047271915 2567.67363147817 219 223 222
-651.362945209852 93.5666927656582 2592.11654355565 234 238 237
-898.473899176675 72.6916698734772 2434.62573583555 182 186 185
-889.08935628705 72.8015591191218 2432.71049422009 176 180 183
-875.808066689548 72.453234284264 2419.37707627472 178 181 186
-863.91149020696 72.2537981128413 2409.81825319497 180 183 188
-852.403604299093 72.0896283259431 2401.18742137482 186 189 194
-839.680826329997 71.7691886136423 2388.71973539472 189 192 197
-828.623594182256 71.6375223697277 2380.99442712637 214 217 222
-819.821514220191 71.7731857323393 2379.93631009623 226 229 234
-811.663244366397 71.9849295576027 2380.78312554308 219 222 227
-802.588888113988 72.0796156280281 2378.75428867484 236 239 244
-793.540521289514 72.1729423723919 2376.71565200283 230 233 238
-784.518304573319 72.2648463525864 2374.66766096986 219 222 227
-776.124590457002 72.4334885878807 2374.53021383804 203 206 211
-768.344052201788 72.679438294482 2376.30892233543 179 182 187
-760.569207431053 72.9247647127198 2378.08576945325 177 180 185
-753.093539778246 73.2089153886556 2380.82339987836 178 181 186
-745.327474331553 73.4531542993514 2382.59697508387 179 182 187
-737.855519034066 73.7363261647552 2385.33318281806 187 190 195
-730.098306323175 73.9795342507285 2387.10346371482 191 194 199
-722.346818675098 74.2221154208238 2388.8713628742 193 196 201
-716.285472151568 74.7031010262432 2396.44325862643 213 214 218
-709.364679585241 75.0648128926457 2401.11824668514 209 210 214
-704.36349125491 75.7067757402205 2412.58357239709 180 181 185
-698.224831078729 76.189532291044 2420.18369272346 177 178 182
-694.224996881689 76.9946514286727 2435.5639785311 220 221 225
-688.283901031936 77.519681143324 2444.16180782816 247 248 252
-683.639683381357 78.2475511882586 2457.63728130167 250 255 255
-678.939927535701 78.9770992503221 2471.13280619097 251 255 255
-674.184606347008 79.7083722510872 2484.64865020551 234 239 242
-668.343296526399 80.2786812053213 2494.28070472964 199 205 205
-663.232255806302 80.9722082260663 2506.85639077688 208 214 214
-659.081115907373 81.8308391302571 2523.3622454139 173 179 179
-655.859083525518 82.8557178149409 2543.80954331335 169 175 175
-650.813995251895 83.5961280175169 2557.43161431361 183 189 187
-648.162126121489 84.7499620654073 2580.88140339728 212 218 216
-897.324841217709 64.4178470484018 2432.28559181967 151 155 154
-889.263079733803 64.6821878997903 2434.16812122372 157 161 164
-876.305716891525 64.415758671411 2421.78974391501 177 180 185
-862.782341087918 64.0748375107706 2407.47803305608 192 195 200
-849.994785316671 63.8010275668871 2395.03740157468 201 204 209
-837.60869571201 63.5593209689327 2383.52013514953 211 214 219
-825.932753168361 63.3856830657052 2373.8830939945 216 219 224
-818.090606647354 63.6391780613392 2375.68501069788 216 219 224
-809.319864997756 63.7842305980223 2374.61596140485 216 219 224
-801.187665119999 64.0002122177085 2375.45387870397 210 213 218
-792.147452581342 64.1069469844683 2373.4132909304 194 197 202
-783.740589939446 64.2848274318366 2373.28131818956 188 191 196
-775.34960108653 64.461670644482 2373.14349964404 194 197 202
-767.273020642903 64.6739897759855 2373.96093197341 207 210 215
-758.615298008404 64.8124678002688 2372.85057687562 201 204 209
-751.152123863198 65.096249314751 2375.58364008641 207 210 215
-743.689474050615 65.3796530263484 2378.31648428164 218 221 226
-736.515657554557 65.6994863095307 2382.01368939279 229 232 237
-729.051663624026 65.9821981530143 2384.74696975399 227 230 235
-721.87138710765 66.3015692812181 2388.44648716279 200 201 205
-715.52828451746 66.7320463846785 2395.05013398541 180 181 185
-709.443432496869 67.2001345884679 2402.62959703791 185 186 190
-704.435332085557 67.8180108590114 2414.09561679777 218 219 223
-698.836065669206 68.3624675440879 2423.63752296307 249 249 251
-692.931461122221 68.870335740545 2432.22105304072 251 251 253
-687.532253874488 69.4542447862423 2442.759803178 253 254 255
-683.153690147342 70.1900018926853 2457.20590593346 151 157 157
-680.290044987054 71.1544238101014 2477.51842673665 146 152 152
-676.814996490025 72.0461735803855 2495.91449762857 136 141 144
-670.941453192253 72.5988482427164 2505.55667894473 213 219 219
-665.287926638453 73.1905389133306 2516.18867427801 235 241 241
-660.351442959383 73.8978952740493 2529.76853688007 233 239 239
-655.359587945199 74.6069392154154 2543.36864529828 218 224 224
-650.065142397669 75.2794063916278 2556.0093802081 246 252 250
-649.614281319234 76.7225065295582 2588.28105504993 200 206 204
-649.25307668388 78.209479146097 2621.59027513024 199 205 203
-883.840860905478 55.9978506790095 2419.48335475352 182 186 189
-875.496078802082 56.2302530782005 2420.39949582741 187 190 195
-861.329846537651 55.8728851507822 2404.18700545314 198 201 206
-848.230812975051 55.6095939810084 2390.79378297159 212 215 220
-835.538131569719 55.3754299590086 2378.32167141821 206 209 214
-824.509388437549 55.3028572538839 2370.59047072249 201 204 209
-816.047258066468 55.4926343771792 2370.47947644641 206 209 214
-806.978571357295 55.6150584725499 2368.45067249847 213 216 221
-799.787460083565 55.9359547489119 2372.15424165637 209 212 217
-791.367499598981 56.1229820997969 2372.02771800214 203 206 211
-783.266809047545 56.3425696794474 2372.85420454988 214 217 222
-774.274170430995 56.4605329037562 2370.7974328941 211 214 219
-765.307619120961 56.5771329767602 2368.73082558297 213 216 221
-756.663047697949 56.7261736781599 2367.61648912702 222 225 230
-748.919174766894 56.9757684413638 2369.38240506579 227 230 235
-742.634146949207 57.3947751321569 2375.96408568164 228 231 236
-735.464977818095 57.7118958351457 2379.65939756207 219 222 227
-728.576819395786 58.0630583039949 2384.32198674706 215 218 223
-721.962006620919 58.4484864643781 2389.95440083158 197 198 202
-716.453986675441 58.9716901962772 2399.46155015805 196 197 201
-710.355186319195 59.4268648012834 2407.04510681307 212 213 217
-705.057177569848 59.9864521197161 2417.54525262227 248 249 251
-698.082744328623 60.3390509034895 2422.23929706124 231 231 233
-692.179295270037 60.8308086302085 2430.82093744063 178 178 180
-686.513521174907 61.3582421974142 2440.38572392188 147 148 150
-682.932794509894 62.1663557885376 2457.7473249402 162 168 168
-680.588295101763 63.1523433424194 2480.00621453723 93 99 99
-678.142195952895 64.1417953770456 2502.30228053619 51 57 57
-674.050555691793 64.9231847028114 2518.78068871987 26 32 30
-670.142919717747 65.7422580724996 2536.26189509986 35 41 39
-663.385129328187 66.1738751813975 2543.0162995886 35 41 39
-657.10710134191 66.6770127515311 2551.73515149214 27 33 31
-652.52896549306 67.4303525167869 2567.32164917136 25 31 29
-651.553208185017 68.7218879177804 2597.63949024929 17 23 19
-651.644912716994 70.1975058022351 2632.91640716256 242 248 244
-651.568788658689 71.6790573873441 2668.25475021259 222 228 224
-869.46438561972 47.5706844969706 2403.80493063705 227 230 235
-857.611501242544 47.4761088292586 2394.23814446702 217 220 225
-846.146891886946 47.4087030419934 2385.59914395375 217 220 225
-835.381506876337 47.3989246108822 2378.84354952788 214 217 222
-824.983862541554 47.4170727129258 2373.02300444314 211 214 219
-816.514167949269 47.615482718128 2372.91540989742 202 205 210
-807.74923096259 47.7823884493818 2371.84615471604 180 183 188
-800.855779192209 48.1316871663797 2376.51027224487 181 184 189
-792.729043547421 48.3582341226212 2377.34700135447 180 183 188
-784.309661971816 48.5531890224625 2377.22086550709 181 184 189
-774.703180418513 48.6236604681298 2373.25017593211 220 223 228
-766.32579221955 48.816319132799 2373.10860905935 229 232 237
-757.96430927336 49.0079988849548 2372.96118935044 224 227 232
-749.325710700972 49.1675552694313 2371.84547615863 231 234 239
-741.870127388016 49.4510103467744 2374.57575670479 226 227 232
-734.703020579975 49.765549272848 2378.2701244666 227 228 232
-727.531400850387 50.0798477076881 2381.96611379685 221 222 226
-720.920876879614 50.4571878574551 2387.59635934445 189 190 194
-715.136355664502 50.9296640307051 2396.1335882533 186 187 189
-709.599380225566 51.4347641356243 2405.64989225039 150 151 153
-704.027257617915 51.9408507579652 2415.17904096812 137 137 137
-697.60241742144 52.352027771507 2421.81118421537 136 136 136
-690.887767212098 52.7315453638886 2427.47917272212 142 142 142
-684.693431411655 53.1755954489816 2435.096601629 184 186 185
-680.328256499652 53.8459773224093 2449.53290705938 111 115 114
-681.148088566696 55.165218599673 2483.46665848732 56 60 59
-683.363184454104 56.6849307419092 2523.30868435821 55 59 58
-683.327233566053 57.9512041897285 2555.41626489 64 69 65
-667.583726749577 59.8458403618007 2594.34495758764 58 63 59
-660.575391058483 61.6232419709303 2635.42427883357 18 23 17
-656.692825493913 62.483458172315 2655.03284726476 95 100 94
-868.984264559031 39.4645793718579 2403.36775807287 207 210 215
-858.427892908036 39.514613714787 2397.60754475607 212 215 220
-846.95453639269 39.4803467711356 2388.97396848786 182 185 190
-836.180154841584 39.4983137950193 2382.22373628189 179 182 187
-825.773346044668 39.5414745290311 2376.40840823343 180 183 188
-816.353305197575 39.6655083899993 2373.44057535541 178 181 186
-807.586121021093 39.843519039325 2372.37297454628 179 182 187
-800.072925802139 40.1319055109085 2375.12455974304 171 174 179
-791.337323166645 40.30799705942 2374.04533937482 154 157 162
-782.319465591785 40.4548596174546 2371.9996569093 161 164 169
-773.928911386103 40.656697625525 2371.86356633735 159 162 167
-765.852316011824 40.885900293456 2372.68227798137 156 159 164
-758.081927013177 41.1426354105648 2374.4583669544 159 162 167
-749.145595244375 41.2850016757959 2372.38272384941 166 167 171
-741.687128017355 41.56874811645 2375.11407421369 169 170 174
-734.229260283958 41.8522031446067 2377.84518477188 149 150 154
-727.912730244997 42.2503174730824 2384.43673496567 142 143 145
-721.293748133688 42.6199189024581 2390.06946977456 147 149 148
-714.940052164724 43.0187711093588 2396.67457942057 161 161 161
-708.289095186786 43.388967094412 2402.31897675949 140 140 140
-703.273117338393 43.9342299719304 2413.78237989161 159 159 157
-696.577471762233 44.3054578326633 2419.44309213318 169 169 167
-690.137036070835 44.706181386656 2426.07985877394 249 249 247
-682.340674116196 44.9602393507258 2427.86518270181 180 181 176
-681.696709906049 46.0110024481409 2455.91093745205 49 51 46
-666.254928089745 46.5512436832346 2460.49546821476 90 92 87
-700.044548724724 51.6361246483313 2620.33010766061 80 82 77
-644.388503793277 48.7102366278827 2504.86897023913 38 41 34
-651.770098038909 50.8386554172533 2567.41206041255 72 75 68
-659.573096842593 53.069314276619 2633.00992998377 60 63 56
-871.112843479351 31.5530332087663 2410.53063943691 161 164 169
-860.213474053283 31.6039040990249 2403.82830266904 175 178 183
-847.760905644243 31.5291426481503 2392.34753246277 182 185 190
-837.295893482908 31.5995600638616 2386.55540844256 188 191 196
-825.61413215721 31.5684487420096 2376.93123532774 201 204 209
-817.131998096768 31.7838866268469 2376.82969959392 198 201 206
-807.422734614646 31.8981692809641 2372.89940587398 166 169 174
-798.67421079867 32.0861699903553 2371.82577882108 170 173 178
-789.029955210905 32.197273051789 2367.8718796917 175 178 183
-780.331029586474 32.3826505424057 2366.78003382713 175 178 183
-772.554338078327 32.6432646347108 2368.55870541342 172 175 180
-764.783219573036 32.9032875298021 2370.33505320646 180 183 188
-757.313061142599 33.1884139342357 2373.07075554446 189 192 197
-749.258048227168 33.4216563797191 2373.88193027833 198 199 203
-741.794127776107 33.7058541480671 2376.61529605709 196 197 201
-734.618388185412 34.0156387721344 2380.31244171336 199 200 202
-728.293214608783 34.4033417920231 2386.90634687913 197 198 200
-721.665767371254 34.765323877743 2392.54158249463 186 188 187
-715.303429613865 35.1537944836248 2399.14904871854 179 179 179
-708.366673679604 35.4900625916397 2403.82817140138 225 225 223
-703.34381346478 36.0112675067682 2415.292259944 212 213 208
-696.914449801388 36.401285652938 2421.92419596107 225 226 221
-690.19574818192 36.7651070939559 2427.59272650284 39 40 35
-683.729527956171 37.1558808039263 2434.23811090163 10 11 6
-675.127470439194 37.3326488415246 2433.11041961882 52 54 49
-671.523961172319 38.0194363054372 2450.4708898567 35 37 32
-669.660252146737 38.8978019202007 2474.68033678488 32 34 29
-660.257673751367 40.095141463738 2502.71956140293 33 35 30
-653.329884135851 40.4646629776805 2508.46449154545 12 15 8
-654.360601444618 41.7106840195509 2545.51627318452 26 29 22
-641.897070722747 41.4791708035372 2529.7611795722 37 40 33
-649.054384033886 43.449758496809 2592.37385082363 52 55 48
-872.261012636919 23.5317049008037 2414.84127992556 190 194 197
-861.026759945244 23.5885602911295 2407.19451412709 198 202 205
-847.60364441936 23.4893126865997 2392.86460959978 196 200 203
-836.818993454728 23.5624389919326 2386.12227051328 204 208 211
-824.192127010174 23.5004142939272 2373.63948840515 223 227 230
-814.465373901668 23.6349432558138 2369.71707693954 219 223 226
-803.532900032083 23.6784265488812 2361.95965461577 215 219 222
-794.81293281457 23.8763283176978 2360.87639892897 217 221 224
-785.808468450414 24.0505972721372 2358.8279180634 216 220 223
-778.04141813502 24.3140503725991 2360.60330084999 215 219 222
-770.580217383648 24.5996901993843 2363.33578726533 192 196 199
-762.821850262957 24.8620893251153 2365.10793559712 186 190 193
-755.954419377839 25.1927437553598 2369.76119201993 190 194 197
-749.369888090032 25.5464383641425 2375.38020935584 186 188 187
-742.770543911904 25.9003843478469 2381.00462773774 181 183 182
-735.868976891189 26.2313765729152 2385.67056689299 170 172 171
-729.527485048714 26.608998000136 2392.2696404253 168 170 169
-723.448478127713 27.0104574423108 2399.84195248715 177 179 176
-717.064704452865 27.389046461092 2406.45646160336 179 180 175
-709.2752442144 27.6500839381746 2408.2395501887 18 19 14
-702.864778435258 28.0290473630163 2414.86404010359 18 19 13
-695.618326596174 28.337039811274 2418.58674295274 24 25 19
-688.906556502533 28.6926699601123 2424.25213696479 49 50 44
-681.112517699942 28.95262209403 2426.0370615288 39 40 34
-678.875898197152 29.7178629672849 2448.24009861528 46 49 42
-675.228692953879 30.3656544382916 2465.61350293243 58 61 54
-672.542386011164 31.1131687257062 2486.91203461696 46 49 42
-661.032835646831 31.035229281042 2475.08839075582 53 56 49
-647.302875863219 31.7541176341727 2486.53108807564 27 30 21
-647.387958484395 32.8045524397923 2519.64521776066 20 23 14
-647.808128361712 33.9100520047589 2554.77486486039 36 39 30
-644.890084993314 34.6984699455661 2577.22723757451 39 42 33
-858.930022474082 15.3783578697741 2402.00357491107 186 187 189
-845.843002279935 15.3469387895042 2388.62348264102 186 190 191
-836.024099989003 15.5049159355963 2384.7365759422 178 182 183
-823.401983664071 15.4865196816026 2372.25510546773 224 228 229
-814.304571114299 15.6791168104265 2370.2420333639 229 233 234
-802.750259784349 15.7135637306269 2360.57649935336 224 228 229
-794.033189250356 15.9224587149572 2359.49302064831 209 213 214
-785.031792984199 16.1103940195694 2357.44445617547 226 230 231
-778.175167806884 16.4363247210592 2362.0936843712 230 234 235
-770.408392952885 16.7022819255555 2363.86890170572 206 210 211
-763.242399909292 17.0079201812298 2367.56244753054 191 195 196
-756.366633364469 17.3336300418672 2372.21835953589 184 188 187
-751.235639744855 17.7811505653872 2382.64962116292 193 196 189
-744.325124520047 18.1074740587311 2387.31820496824 181 184 177
-736.830459709824 18.3929329150087 2390.06283647837 190 193 186
-729.621122106961 18.6986274654241 2393.77213525688 200 203 196
-724.100123549552 19.1282762548709 2403.27694133067 92 93 87
-717.984721805008 19.5173557210671 2410.86128860448 34 33 28
-709.905400490175 19.7609573697912 2411.68207711117 42 41 36
-701.288102179472 19.961857717481 2410.56148989716 38 38 30
-694.051531534019 20.2670384520536 2414.28064469454 35 35 27
-687.887830145292 20.6567549523096 2421.88258910819 39 39 31
-682.766358403853 21.1322070539242 2433.3790547989 40 40 32
-683.940231220021 22.1217814639862 2468.22610657799 32 35 28
-689.131967337855 23.4608085651494 2518.70585581974 29 32 25
-669.202862238007 22.7393863454771 2475.76071223763 27 30 23
-659.262780155665 22.8314216420239 2469.77949250989 28 31 24
-648.35387990714 22.8344515270938 2459.87708594994 30 33 26
-642.037480830742 23.2278727132306 2467.53479069247 29 32 25
-644.405328560025 24.389921239328 2509.42769657183 23 26 19
-645.584193399543 25.4711655526589 2547.47977421951 40 43 36
-639.999772467361 25.961389196011 2559.14530696818 53 56 49
-856.834996443991 7.19439679450318 2396.81424812095 206 208 207
-845.686032043522 7.30779838675685 2389.14076038456 169 174 170
-836.501126395959 7.51824012011512 2387.16056990756 194 199 195
-824.504294001764 7.57717063530491 2376.59111150721 104 109 105
-813.83068710742 7.70011958898972 2369.81218513815 1 6 2
-803.208777568994 7.8207503724845 2363.01430026859 55 60 56
-794.484274961446 8.0409665992606 2361.93412181554 11 16 12
-785.78081005829 8.26004919013881 2360.84646834504 0 5 1
-779.518258133614 8.61543960227187 2367.41518267508 1 6 2
-772.935737887876 8.95401877129931 2373.03232883982 4 9 5
-764.554104435273 9.18858920225932 2372.89546673684 2 7 3
-759.13646041837 9.5970043364052 2382.36137241669 0 5 0
-753.098878579848 9.97125121424208 2389.91632565369 8 11 2
-746.45694073021 10.3108721480836 2395.55513906814 4 7 0
-737.790477322621 10.5263052456385 2394.45376620463 6 9 0
-730.283305022141 10.812133809833 2397.20297005074 0 2 0
-723.340741259387 11.1335164148624 2401.88282549554 25 26 18
-716.668036265294 11.4730594102191 2407.53281188844 24 25 17
-707.765912913552 11.6675526396833 2405.4489269488 42 42 34
-699.98728332369 11.9338105742634 2407.22872854988 45 45 37
-693.029590272144 12.2545934175444 2411.91403578049 45 45 37
-687.946644852285 12.7045702277181 2423.39458126032 42 42 34
-682.818306476313 13.1559935280476 2434.89172884579 41 41 33
-682.925249031872 13.9816532493111 2465.84733527127 38 41 34
-688.636763303963 15.2249338792355 2518.26437214557 42 45 38
-675.96441434161 15.1591260472458 2502.59765277791 45 48 41
-658.519912401302 14.7296728478585 2468.37155814153 46 49 42
-658.781844124543 15.6055415464577 2501.4080063095 44 47 40
-646.073774980442 15.5117242962615 2484.68559583256 47 50 43
-635.241553626285 16.4319562818135 2507.89006542155 34 37 30
-639.012375195435 17.6318960176676 2556.74247944182 52 55 48
-642.061531631666 18.8015836025737 2603.72119784813 53 56 49
-857.647365552332 -0.840325091157224 2400.17933057401 103 105 104
-846.48960923888 -0.696416879472334 2392.51133904294 27 32 28
-838.883649680557 -0.40255892944227 2395.2970418397 3 8 4
-830.332481403938 -0.150926357240844 2395.22306547086 1 6 2
-821.484487104155 0.0857448094659929 2394.18925204402 12 17 13
-808.31684948563 0.123025210634536 2379.77682405468 0 2 0
-798.009214100147 0.284793390138482 2373.93441170261 11 16 12
-788.35802763538 0.473123214573906 2369.98885770372 4 9 5
-784.487598996727 0.934437422404844 2384.22962874384 7 12 8
-778.457603030522 1.29589682979267 2391.78086091347 11 16 12
-770.024931476794 1.54080036434895 2391.66357682376 9 14 10
-761.01881818631 1.75525682843694 2389.61872728683 7 12 6
-754.083484081531 2.07235322145949 2394.2958868291 20 23 14
-746.84888666148 2.37459715332297 2398.01384878788 14 17 8
-737.888149664164 2.58637207732917 2395.95231001308 23 26 17
-728.669357869628 2.7817757701275 2392.9169950695 26 29 20
-721.454660345914 3.08233381803918 2396.62759944598 12 13 5
-713.956259520456 3.36741760465054 2399.37356009114 28 29 21
-707.011971189956 3.68310716242762 2404.05386689192 33 33 25
-699.235739823707 3.95221799128367 2405.83275807847 32 32 24
-693.366346253451 4.3302269469466 2414.39369659885 32 32 24
-686.66000467442 4.66189863619546 2420.05531052364 39 39 31
-677.008370972801 4.81979836478799 2415.04106678593 42 43 35
-670.301048018779 5.15095635623866 2420.70274421654 46 49 42
-667.498814480007 5.72266161887808 2440.96357507788 45 48 41
-662.535290671188 6.16859823139801 2453.46698159966 44 47 40
-652.653983543555 6.308181422404 2447.46799428818 45 48 41
-651.442748483558 7.00015937573054 2474.62623269223 46 49 42
-644.079038514236 7.30298283168668 2478.39114981493 41 44 37
-627.371719093837 7.77546061647363 2478.09734956281 38 41 34
-625.613796655643 8.46108086274991 2504.38718408532 39 42 35
-622.529826992912 9.06708206575779 2525.81926987658 48 51 44
-874.886218113184 -8.90121116858866 2426.37338772917 18 20 19
-860.072040113843 -8.84309205043846 2408.29430275459 39 41 38
-850.813434082788 -8.60200393887592 2406.34320271286 28 33 27
-841.263223805252 -8.37335681004783 2403.43055851548 15 20 14
-834.579195800737 -8.04510301115427 2409.08380719539 21 26 20
-818.506962587803 -8.05667744266012 2386.12352694344 17 22 16
-803.81316173028 -8.02823164854333 2366.93190929542 15 20 14
-793.232785009801 -7.85464474876041 2360.12292961689 10 15 9
-789.713158138649 -7.41577795546061 2375.30110374487 13 18 12
-784.314194131097 -7.04503110352173 2384.75712583851 14 19 13
-779.778619789397 -6.63777915275976 2397.10212342798 10 15 9
-768.360302635857 -6.50322540676807 2387.39473084583 13 18 12
-760.542934490534 -6.22723535386063 2389.18934192278 17 22 15
-753.606984900675 -5.91535547061786 2393.8663314999 20 23 14
-747.240023398826 -5.57899069676152 2400.47154623558 17 20 11
-739.132465908067 -5.31607875041046 2401.30379669292 30 33 24
-729.330566992815 -5.12839635729434 2396.34639710004 28 31 22
-719.007062867866 -4.96763247670776 2389.44311844357 32 33 25
-711.805404039865 -4.67032338640824 2393.1487402332 35 36 28
-705.705506208999 -4.32232901820664 2400.72460872193 36 37 29
-702.320202453117 -3.84556308130621 2417.98995024348 38 39 31
-695.602032061722 -3.5210368545627 2423.65532288347 39 39 31
-688.331645805666 -3.22227749354015 2427.38602535397 37 37 29
-675.73165851357 -3.18565421606018 2411.70099717004 39 40 32
-666.65800479644 -2.98146772105778 2408.61335648355 28 31 24
-660.227364389218 -2.64574075200522 2415.24166003359 27 30 23
-656.104285195222 -2.18905177166084 2430.64043576525 29 32 25
-652.171543461178 -1.71663410781253 2447.03779774142 33 36 29
-649.181809774068 -1.18746085228949 2467.36354534026 37 40 33
-633.556193846652 -1.33922208135215 2438.8971251406 43 46 39
-628.028675095747 -0.946298494245518 2449.46808550782 39 42 35
-630.080121543621 -0.122052358467212 2490.38365358252 30 33 26
-627.068683549502 0.430034784149186 2511.785572298 31 34 27
-616.982062009547 0.577536072219192 2504.79522461862 44 47 40
-616.947616560361 1.31765921388111 2538.99592606726 41 44 37
-861.203600919154 -16.928697696561 2412.60612785352 16 18 15
-848.092985942975 -16.7731695277116 2399.24871392236 24 27 20
-825.282894647909 -16.3880456250363 2381.96640508856 34 37 30
-813.658481921799 -16.208157886582 2372.33731528986 17 20 13
-799.623509519018 -16.1008378046451 2355.04563849338 21 24 17
-791.225275529208 -15.8393711163413 2354.91683735455 17 20 13
-789.848144965203 -15.3738874188967 2376.78497267435 20 23 16
-783.234625794762 -15.0578877339181 2382.41167825446 22 25 18
-775.108930515569 -14.7871653757959 2383.25110815952 20 23 16
-766.103424115433 -14.5447569459705 2381.20840144224 25 28 21
-756.829765191632 -14.312952950755 2378.19551394292 22 25 18
-753.422368558569 -13.8945793786344 2394.39792060183 26 29 22
-748.208635509394 -13.5308019643754 2404.85267171428 28 31 24
-741.808097578781 -13.2041110947581 2411.4696104212 23 26 19
-730.558737090694 -13.0418138943715 2401.70292282536 33 36 29
-720.502679840146 -12.843189109066 2395.77188357875 35 36 30
-709.37780865337 -12.6862037778735 2385.9595635556 36 37 31
-703.847448601534 -12.3322368550077 2395.46206069419 30 31 25
-702.388891967061 -11.8259295599436 2419.49622814905 31 32 26
-697.292176369992 -11.4479946190813 2430.97608687205 31 32 26
-689.732212505975 -11.1611748142368 2433.74454666643 36 37 31
-678.979880403423 -10.9992278695226 2424.86405410783 42 43 37
-670.134597644088 -10.7665066507386 2422.76214690394 38 41 34
-660.532960995109 -10.5668498157943 2417.73288799975 40 43 36
-655.107747996174 -10.1982465652007 2428.26484183702 43 46 39
-651.433501951473 -9.75307935853811 2445.63303707376 44 47 40
-646.163543727913 -9.37044206425985 2457.17645045432 45 48 41
-637.338235128724 -9.13981160683908 2455.06712813665 44 47 40
-632.262019875088 -8.7445414266798 2467.60765682918 45 48 41
-627.381179200152 -8.33653835875803 2481.14471555422 41 44 37
-631.680817503447 -7.49920900322845 2531.91074353817 25 28 21
-625.389711486258 -7.14058399612449 2540.62344347784 46 49 42
-613.834602889657 -7.0327889390355 2527.76381036071 44 47 40
-611.777171881115 -6.46684974055417 2554.15343746853 47 50 43
-867.491809687453 -24.9545596745963 2432.11528247805 26 28 23
-838.338832067444 -25.0301238918921 2371.23734431216 18 21 12
-827.613435146689 -24.7949204088141 2364.48570498815 23 26 17
-825.43610950779 -24.4056612401759 2383.43890694956 26 29 20
-810.06305195915 -24.2606746853491 2362.36976947817 21 24 15
-799.461879526961 -24.0311151453899 2355.57256888776 18 21 12
-794.745110096232 -23.6881861841473 2366.91199194804 15 18 9
-790.591341914592 -23.3314065724085 2380.1810130399 18 21 12
-781.551990364197 -23.0733097328613 2378.15153294706 18 21 12
-773.436692271312 -22.7973499768793 2378.98783463916 18 21 12
-764.738708879087 -22.535038528314 2377.90145121623 20 23 14
-757.826642110057 -22.2343510267856 2382.56866447932 20 23 16
-752.362794110153 -21.9001790957229 2392.04550172788 21 24 17
-747.73071148026 -21.544613126669 2404.42166461291 20 23 16
-739.324034004035 -21.2767123882736 2404.29641676914 20 23 16
-731.501182259916 -20.9957885429553 2406.09339250598 24 27 20
-721.996208922253 -20.7577748289742 2402.09846251586 24 25 19
-713.921557487613 -20.4855933335148 2402.91945636952 24 25 19
-703.648382145027 -20.2722022082708 2396.00186218599 23 24 18
-704.098835629747 -19.7738938583462 2426.80821331209 27 28 22
-698.437820727175 -19.4343537570333 2436.3570937379 28 29 23
-692.204787484274 -19.1088776473397 2443.97963628309 29 30 24
-677.96868916785 -19.0123759026681 2422.49348626315 33 34 28
-670.446074712447 -18.7272242007335 2425.24824975372 32 35 28
-660.577010278315 -18.51297871397 2419.25070190662 32 35 28
-651.01313314021 -18.2928241374002 2414.20901583617 36 39 32
-646.860681783254 -17.905585981052 2429.61322340212 39 42 35
-646.186326601841 -17.4021507876379 2458.6952798066 44 47 40
-644.121736891187 -16.9349413537783 2482.94669184122 46 49 42
-635.001375622655 -16.6971287626261 2479.87855890489 49 52 45
-627.630808543687 -16.4017492865976 2483.64540581286 42 45 38
-629.971504193474 -15.7653443757848 2526.57507264966 26 29 22
-622.730670854355 -15.4576293738483 2531.36226939043 48 51 44
-615.480759205307 -15.1498263645126 2536.15302556769 37 40 33
-606.810476907836 -14.8947611343686 2535.05603055798 46 49 42
-848.639771442474 -33.3116293139414 2377.5360986725 30 33 26
-846.494874597851 -32.9693721450696 2396.47422596442 21 24 15
-828.408478001364 -32.7723152527213 2367.86166244194 21 24 15
-819.29838280083 -32.4963125833549 2365.85923719739 21 24 15
-823.316387756008 -32.0886406934162 2403.89548274117 19 22 13
-800.537541758336 -31.9546394408463 2359.91693333457 20 23 14
-784.147097495444 -31.7633491060148 2334.95446510302 18 21 12
-785.856837495031 -31.3738653071726 2366.36161539773 21 24 15
-774.138765392998 -31.1354132834395 2355.70416379378 22 25 16
-765.484307048001 -30.8634284538987 2354.60269595867 22 25 16
-761.00261012634 -30.5398830533096 2366.92180206522 23 26 17
-754.118254924105 -30.2455179289099 2371.5787239472 25 28 21
-748.098396410827 -29.9391977577859 2379.12211245605 26 29 22
-742.920140493143 -29.6200402987138 2389.56086105269 27 30 23
-734.265925907914 -29.349390024606 2388.45920395617 30 33 26
-728.470041467761 -29.0373205356484 2396.98820430568 30 33 26
-719.832547491099 -28.7678448070128 2395.8803833628 29 32 25
-714.002162514276 -28.4549617549546 2404.42223474281 24 27 20
-703.725276080305 -28.213912634339 2397.50807577808 28 31 24
-699.790137200685 -27.8683526535395 2412.83018087506 30 33 26
-696.601823916628 -27.5063269927683 2431.08210156595 31 34 27
-687.965499178805 -27.2381773247913 2429.9737557413 34 37 30
-674.566503487222 -27.0598663344686 2411.3895505566 35 38 31
-664.176500000032 -26.8307599874257 2403.44903392657 37 40 33
-656.189561950064 -26.5579569371107 2404.23820511086 36 39 32
-648.471905238177 -26.2806083060365 2405.99668978632 33 36 29
-642.293365267935 -25.9717639510008 2413.59792368139 32 35 28
-642.161321091264 -25.5322320984682 2444.61148330267 29 32 25
-644.886408733182 -25.0211708295298 2487.3917744099 40 43 36
-633.27564283886 -24.8222586982546 2474.55949291322 38 41 34
-623.709975164805 -24.5811016652907 2469.5200420806 41 44 37
-621.467989884212 -24.1676129157698 2493.83185527635 23 26 19
-619.354474543968 -23.744210651423 2519.16429474611 31 34 27
-605.140880951235 -23.1347583019812 2529.70764672747 26 29 22
-853.31674507958 -41.355791119867 2392.29600498032 23 26 19
-845.376814400988 -41.0606889148981 2394.13658967077 15 18 9
-837.44231247397 -40.7660966330642 2395.97516341738 17 20 11
-829.513172941008 -40.4719831017748 2397.8114983771 27 30 21
-820.030676709271 -40.18056342305 2394.87924171829 21 24 15
-804.703990423613 -39.9008379041516 2373.80316779035 20 23 14
-784.90619415635 -39.6358987304538 2338.35113959292 17 20 11
-775.349200292985 -39.3548802944808 2334.37835538834 21 24 15
-776.381914157602 -39.0462840882779 2363.89202482507 23 26 17
-765.612054216782 -38.7688344539128 2356.09317188818 23 26 17
-754.602740665749 -38.4949075821033 2347.31424509967 24 27 18
-751.295000015283 -38.1941727732233 2363.47156696504 26 27 21
-744.129685130466 -37.907007210316 2367.16347259514 27 28 22
-742.444959800996 -37.5946395577928 2389.13181579468 28 29 23
-734.363361311763 -37.3100082051236 2389.95627313578 27 30 23
-728.277686583137 -37.015362423057 2397.52294860131 27 30 23
-720.480953891457 -36.7297882316464 2399.3105308763 25 28 21
-714.917622631895 -36.4309122728854 2408.82110529691 22 25 18
-704.077542809447 -36.1654751948705 2399.98004897083 25 30 23
-699.859113855619 -35.8566954156417 2414.3357526282 26 31 24
-696.662783889941 -35.5377858429789 2432.58707859763 28 33 26
-686.680887061412 -35.2687795961099 2426.63465878358 31 36 29
-671.699266910474 -35.043785700067 2402.22915676422 32 37 30
-662.123109818165 -34.7784265591535 2397.19559752413 32 35 28
-656.49607093828 -34.4788038988706 2406.72912135028 33 36 29
-650.318158692196 -34.1831003738798 2414.32913567297 34 37 30
-644.881697013583 -33.8788785131074 2424.86057320459 32 35 28
-638.646732015338 -33.5814812470094 2432.4814447302 29 32 25
-630.635521119894 -33.3029195676121 2433.28012395382 30 33 26
-631.551773681923 -32.9210067491796 2469.241486046 33 36 29
-626.657260747035 -32.6014398306837 2482.77683976785 40 43 36
-616.856440069701 -32.3416392928147 2476.7579336024 11 14 7
-616.222413958198 -31.9630492050435 2507.94902965353 22 25 18
-616.628317843807 -31.5627532279467 2544.09746192966 14 17 10
