ply
format ascii 1.0
comment KinectMotionCapture
element vertex 789
property float x
property float y
property float z
property uchar red
property uchar green
property uchar blue
end_header
-913.213908672333 -167.512521147728 2359.99989509583 21 24 13
-902.220189571381 -166.666969656944 2348.00004959106 20 23 12
-896.252334117889 -166.744381189346 2348.99997711182 17 20 11
-892.932116985321 -167.319014668465 2357.00011253357 17 20 11
-886.18403673172 -167.255043983459 2355.99994659424 17 20 11
-879.069030284882 -167.120352387428 2354.00009155273 15 18 9
-870.111763477325 -166.630879044533 2346.99988365173 15 18 9
-860.457181930542 -165.9996509552 2338.00005912781 12 15 8
-855.966329574585 -166.362643241882 2342.99993515015 12 15 8
-850.361287593842 -166.512876749039 2345.00002861023 12 15 8
-847.625374794006 -167.23145544529 2355.00001907349 12 15 8
-841.978073120117 -167.382210493088 2357.00011253357 12 15 8
-833.484292030334 -166.965067386627 2351.0000705719 12 15 8
-826.078772544861 -166.761144995689 2348.00004959106 11 14 7
-826.719522476196 -168.191015720367 2368.00003051758 11 14 7
-819.284737110138 -167.987555265427 2365.00000953674 10 13 6
-809.804201126099 -167.358040809631 2355.99994659424 9 12 5
-799.34948682785 -166.515573859215 2344.00010108948 13 16 9
-797.41758108139 -167.449250817299 2357.00011253357 12 15 8
-793.401718139648 -167.956933379173 2364.00008201599 11 14 7
-787.683606147766 -168.109580874443 2365.9999370575 9 12 5
-777.661919593811 -167.338684201241 2355.00001907349 7 10 3
-773.922324180603 -167.918041348457 2362.99991607666 6 9 2
-773.062825202942 -169.137209653854 2380.00011444092 7 9 4
-774.366080760956 -170.854181051254 2404.00004386902 9 11 6
-766.595900058746 -170.581415295601 2400.00009536743 10 12 7
-766.448318958282 -172.014698386192 2420.00007629395 9 11 8
-756.771862506866 -171.315774321556 2410.00008583069 8 10 7
-749.32849407196 -171.114504337311 2407.00006484985 8 10 7
-742.518067359924 -171.055510640144 2405.99989891052 7 9 6
-735.100984573364 -170.854464173317 2403.00011634827 9 11 6
-727.396190166473 -170.582339167595 2398.9999294281 11 14 7
-718.510746955872 -170.025900006294 2391.00003242493 12 15 6
-713.53942155838 -170.393973588943 2395.99990844727 11 14 5
-705.294549465179 -169.979885220528 2390.00010490417 13 16 7
-707.022905349731 -171.984106302261 2417.99998283386 14 17 8
-698.749721050262 -171.570226550102 2411.99994087219 15 18 9
-693.378210067749 -171.867772936821 2415.99988937378 14 17 8
-684.004485607147 -171.169430017471 2405.99989891052 13 16 7
-674.683928489685 -170.471042394638 2395.99990844727 14 17 8
-667.926847934723 -170.413017272949 2394.99998092651 14 17 8
-666.421890258789 -171.707078814507 2413.00010681152 14 17 8
-663.177788257599 -172.574400901794 2424.99995231628 17 20 11
-653.640270233154 -171.805024147034 2414.00003433228 18 21 12
-643.893361091614 -170.964360237122 2401.99995040894 17 20 11
-638.721704483032 -171.333715319633 2407.00006484985 18 19 11
-638.249814510345 -172.984510660172 2430.0000667572 18 19 11
-635.832846164703 -174.137264490128 2446.00009918213 19 20 12
-627.669155597687 -173.723891377449 2440.00005722046 20 21 13
-623.609483242035 -174.44971203804 2450.00004768372 20 21 13
-617.228209972382 -174.534767866135 2450.99997520447 21 22 14
-609.345853328705 -174.19259250164 2446.00009918213 23 24 16
-603.707194328308 -174.491345882416 2450.00004768372 24 25 17
-597.07111120224 -174.505263566971 2450.00004768372 23 24 16
-595.253825187683 -175.943806767464 2470.00002861023 22 23 15
-590.229272842407 -176.456481218338 2476.99999809265 22 23 15
-954.092800617218 -177.963420748711 2414.99996185303 10 16 6
-936.178803443909 -175.831913948059 2385.99991798401 24 30 20
-930.112838745117 -175.911471247673 2387.00008392334 23 29 19
-916.690289974213 -174.591034650803 2368.99995803833 18 21 10
-899.524092674255 -172.533839941025 2341.00008010864 17 20 9
-891.28565788269 -172.171905636787 2335.99996566772 16 19 10
-888.757824897766 -172.915861010551 2345.99995613098 17 20 11
-886.553049087524 -173.733875155449 2357.00011253357 18 21 12
-879.434943199158 -173.593938350677 2355.00001907349 17 20 11
-868.250489234924 -172.643393278122 2342.00000762939 12 15 6
-858.241081237793 -171.914175152779 2332.00001716614 11 14 7
-851.574301719666 -171.848639845848 2331.00008964539 12 15 8
-851.803302764893 -173.184156417847 2348.99997711182 16 19 12
-844.737231731415 -173.045441508293 2346.99988365173 15 18 11
-838.396906852722 -173.054382205009 2346.99988365173 13 16 9
-832.765996456146 -173.211067914963 2348.99997711182 14 17 10
-829.235732555389 -173.810452222824 2357.00011253357 13 16 9
-823.218703269959 -173.893883824348 2358.00004005432 10 13 6
-819.967746734619 -174.5675355196 2367.00010299683 9 12 5
-809.450447559357 -173.692613840103 2355.00001907349 9 12 5
-804.454445838928 -173.997953534126 2358.99996757507 10 13 6
-796.73045873642 -173.713386058807 2355.00001907349 11 14 7
-792.384326457977 -174.166679382324 2361.00006103516 11 14 7
-789.004445075989 -174.841523170471 2369.99988555908 11 14 7
-785.906314849854 -175.59041082859 2380.00011444092 8 11 4
-781.443953514099 -176.044419407845 2385.99991798401 7 10 3
-778.897941112518 -176.941394805908 2398.00000190735 7 9 4
-771.133303642273 -176.657974720001 2394.00005340576 8 10 7
-767.54242181778 -177.334025502205 2403.00011634827 9 11 8
-764.219403266907 -178.084149956703 2413.00010681152 9 11 8
-757.701814174652 -178.096413612366 2413.00010681152 9 11 10
-749.627470970154 -177.739769220352 2407.99999237061 8 10 7
-744.357347488403 -178.047552704811 2411.99994087219 7 9 6
-738.759219646454 -178.28169465065 2414.99996185303 8 10 5
-731.325209140778 -178.073018789291 2411.99994087219 10 13 6
-725.409626960754 -178.233608603477 2414.00003433228 12 15 8
-712.63325214386 -176.696047186852 2392.99988746643 11 14 5
-709.117949008942 -177.44754254818 2403.00011634827 13 16 7
-706.132590770721 -178.346902132034 2414.99996185303 15 18 9
-700.764358043671 -178.655669093132 2418.99991035461 16 19 10
-691.643178462982 -178.004413843155 2410.00008583069 16 19 10
-682.854056358337 -177.426978945732 2401.99995040894 16 19 10
-674.6706366539 -176.997274160385 2395.99990844727 17 20 11
-668.471217155457 -177.084729075432 2397.0000743866 16 19 10
-666.960656642914 -178.428277373314 2414.99996185303 16 19 10
-662.343621253967 -178.95932495594 2421.99993133545 18 21 12
-656.875729560852 -179.268822073936 2426.00011825562 18 21 12
-648.436665534973 -178.765520453453 2418.99991035461 16 19 10
-644.54573392868 -179.518580436707 2428.99990081787 18 19 11
-637.185335159302 -179.310947656631 2426.00011825562 18 19 11
-633.999288082123 -180.28599023819 2438.99989128113 19 20 12
-628.426849842072 -180.595934391022 2443.00007820129 20 21 13
-620.286524295807 -180.166617035866 2437.00003623962 21 22 14
-614.444017410278 -180.40269613266 2440.00005722046 21 22 14
-604.84766960144 -179.52972650528 2427.99997329712 23 24 16
-596.300959587097 -178.952395915985 2420.00007629395 24 25 17
-598.03169965744 -181.481003761292 2453.9999961853 23 24 16
-588.732898235321 -180.681884288788 2443.00007820129 20 21 13
-589.976727962494 -183.137059211731 2476.0000705719 21 22 14
-938.134908676147 -182.699456810951 2391.00003242493 19 25 15
-926.210224628448 -181.635662913322 2377.00009346008 25 31 21
-915.910184383392 -180.877774953842 2367.00010299683 17 20 9
-906.049609184265 -180.196553468704 2358.00004005432 16 19 8
-897.001922130585 -179.668456315994 2351.0000705719 14 17 8
-894.054353237152 -180.363386869431 2359.99989509583 15 18 9
-886.545598506927 -180.141553282738 2357.00011253357 15 18 9
-882.788002490997 -180.684268474579 2364.00008201599 14 17 8
-873.803377151489 -180.157229304314 2357.00011253357 13 16 7
-859.704911708832 -178.560271859169 2335.99996566772 12 15 8
-851.20040178299 -178.110063076019 2329.99992370605 14 17 10
-846.717894077301 -178.50099503994 2335.00003814697 16 19 12
-844.008505344391 -179.274424910545 2345.00002861023 16 19 12
-840.53099155426 -179.895266890526 2352.9999256134 14 17 10
-835.947215557098 -180.287048220634 2358.00004005432 15 18 11
-831.336796283722 -180.679112672806 2362.99991607666 14 17 10
-829.841911792755 -181.759655475616 2377.00009346008 10 13 6
-825.500130653381 -182.228729128838 2382.99989700317 8 11 4
-820.438921451569 -182.545185089111 2387.00008392334 10 13 6
-805.466949939728 -180.643945932388 2361.99998855591 9 12 5
-799.426138401031 -180.731251835823 2362.99991607666 10 13 6
-792.037665843964 -180.512845516205 2359.99989509583 10 13 6
-791.323661804199 -181.824460625649 2377.00009346008 10 13 6
-791.838586330414 -183.442398905754 2398.00000190735 10 13 6
-785.689890384674 -183.530658483505 2398.9999294281 9 12 5
-777.586936950684 -183.160096406937 2394.00005340576 8 10 5
-778.529822826386 -184.931993484497 2417.00005531311 7 9 6
-769.127190113068 -184.255704283714 2407.99999237061 6 8 5
-767.057240009308 -185.339510440826 2421.99993133545 7 9 6
-766.481280326843 -186.806261539459 2440.99998474121 9 11 10
-746.813118457794 -183.604806661606 2398.9999294281 8 10 7
-742.492973804474 -184.153452515602 2405.99989891052 7 9 6
-738.134503364563 -184.702336788177 2413.00010681152 7 9 4
-734.344244003296 -185.404509305954 2421.99993133545 9 12 5
-722.69195318222 -184.116438031197 2404.99997138977 12 15 6
-715.002477169037 -183.823615312576 2401.00002288818 12 15 6
-708.809435367584 -183.913677930832 2401.99995040894 9 12 3
-708.165764808655 -185.4587495327 2421.99993133545 10 13 4
-698.722958564758 -184.706777334213 2411.99994087219 11 14 5
-689.333558082581 -183.954805135727 2401.99995040894 12 15 6
-679.713189601898 -183.126211166382 2391.00003242493 12 15 6
-674.093842506409 -183.369934558868 2394.00005340576 16 19 10
-668.17843914032 -183.537110686302 2395.99990844727 16 19 10
-665.565729141235 -184.62373316288 2410.00008583069 16 19 10
-661.509156227112 -185.327470302582 2418.99991035461 17 20 11
-657.67377614975 -186.108022928238 2428.99990081787 17 20 11
-652.175307273865 -186.429023742676 2433.00008773804 15 18 9
-647.980928421021 -187.133222818375 2441.99991226196 17 18 10
-642.161190509796 -187.377780675888 2444.9999332428 17 18 10
-632.685124874115 -186.549425125122 2434.00001525879 19 20 12
-626.09726190567 -186.564102768898 2434.00001525879 20 21 13
-618.4903383255 -186.272174119949 2430.0000667572 21 22 14
-609.896838665009 -185.673579573631 2421.99993133545 22 23 15
-603.83677482605 -185.841590166092 2424.00002479553 20 21 13
-600.968062877655 -187.006384134293 2438.99989128113 21 22 14
-593.143284320831 -186.637789011002 2434.00001525879 21 22 14
-592.091977596283 -188.416332006454 2457.00001716614 21 22 14
-582.813799381256 -187.587633728981 2446.00009918213 20 21 13
-929.104804992676 -187.378436326981 2368.00003051758 11 14 5
-917.241990566254 -186.276659369469 2354.00009155273 17 23 13
-909.325480461121 -185.966476798058 2349.99990463257 17 20 11
-907.579779624939 -186.922818422318 2361.99998855591 15 18 9
-903.48094701767 -187.404662370682 2368.00003051758 13 16 7
-897.077679634094 -187.412023544312 2368.00003051758 13 16 7
-893.308162689209 -187.973693013191 2375 13 16 7
-886.887788772583 -187.98166513443 2375 12 15 6
-873.795211315155 -186.565175652504 2357.00011253357 14 17 8
-861.536681652069 -185.307130217552 2341.00008010864 13 16 9
-853.018403053284 -184.840857982636 2335.00003814697 14 17 10
-848.884701728821 -185.324788093567 2341.00008010864 16 19 12
-848.318219184875 -186.60070002079 2357.00011253357 15 18 11
-847.665667533875 -187.876984477043 2372.99990653992 15 18 11
-842.673063278198 -188.203543424606 2377.00009346008 16 19 12
-836.252212524414 -188.213676214218 2377.00009346008 15 18 11
-831.926047801971 -188.69911134243 2382.99989700317 9 12 5
-830.339312553406 -189.818397164345 2397.0000743866 8 11 4
-828.333377838135 -190.858826041222 2410.00008583069 11 14 7
-821.824371814728 -190.870001912117 2410.00008583069 10 13 6
-800.429999828339 -187.396392226219 2365.9999370575 10 13 6
-796.053647994995 -187.883019447327 2371.99997901917 10 13 6
-791.977941989899 -188.449144363403 2378.99994850159 10 13 6
-794.138193130493 -190.52067399025 2404.99997138977 9 12 5
-786.987960338593 -190.374374389648 2403.00011634827 9 12 5
-779.848277568817 -190.228253602982 2401.00002288818 8 10 5
-776.262581348419 -190.953850746155 2410.00008583069 7 9 6
-773.266851902008 -191.838204860687 2421.0000038147 6 8 5
-768.311202526093 -192.247346043587 2426.00011825562 7 9 6
-756.734371185303 -190.99248945713 2410.00008583069 8 10 9
-754.582583904266 -192.115247249603 2424.00002479553 8 10 7
-744.94856595993 -191.336050629616 2414.00003433228 7 9 6
-746.686100959778 -193.489715456963 2440.99998474121 6 8 5
-733.421087265015 -191.759526729584 2418.99991035461 9 11 6
-724.481403827667 -191.139072179794 2411.00001335144 12 15 8
-717.073261737823 -190.91509282589 2407.99999237061 12 15 6
-712.041676044464 -191.325530409813 2413.00010681152 12 15 6
-704.058468341827 -190.943136811256 2407.99999237061 12 15 6
-692.046284675598 -189.450576901436 2388.99993896484 13 16 7
-683.292925357819 -188.830271363258 2381.00004196167 13 16 7
-680.267691612244 -189.796224236488 2392.99988746643 13 16 7
-676.895260810852 -190.683111548424 2404.00004386902 14 17 8
-670.952916145325 -190.856263041496 2405.99989891052 14 17 8
-666.932106018066 -191.584840416908 2414.99996185303 14 17 8
-661.494672298431 -191.916912794113 2418.99991035461 16 19 10
-657.929956912994 -192.804500460625 2430.0000667572 17 20 11
-652.69660949707 -193.216159939766 2434.99994277954 15 18 9
-649.823486804962 -194.34218108654 2448.99988174438 17 18 10
-643.722057342529 -194.516032934189 2450.99997520447 17 18 10
-632.15035200119 -193.023264408112 2431.99992179871 19 20 12
-624.796271324158 -192.800253629684 2428.99990081787 20 21 13
-615.421295166016 -191.94221496582 2417.99998283386 21 22 14
-609.126508235931 -192.036688327789 2418.99991035461 22 23 15
-604.070961475372 -192.528158426285 2424.99995231628 19 20 12
-605.141758918762 -195.004716515541 2456.00008964539 19 20 12
-606.043577194214 -197.481662034988 2486.99998855591 20 21 13
-591.835856437683 -195.035457611084 2456.00008964539 21 22 14
-583.990037441254 -194.653749465942 2450.99997520447 19 20 12
-590.774655342102 -199.196264147758 2507.99989700317 21 22 16
-918.505311012268 -191.604897379875 2341.00008010864 23 26 17
-910.611629486084 -191.283598542213 2336.99989318848 10 16 6
-912.414491176605 -193.008974194527 2358.00004005432 17 20 13
-905.267357826233 -192.852109670639 2355.99994659424 16 19 12
-904.999792575836 -194.169014692307 2371.99997901917 14 17 10
-899.72198009491 -194.422155618668 2375 13 16 9
-897.061467170715 -195.248633623123 2384.99999046326 13 16 9
-884.639024734497 -193.946972489357 2368.99995803833 13 16 9
-874.898791313171 -193.218544125557 2359.99989509583 12 15 8
-862.632095813751 -191.917255520821 2344.00010108948 13 16 9
-855.566620826721 -191.762387752533 2342.00000762939 14 17 10
-851.413726806641 -192.262917757034 2348.00004959106 13 16 9
-854.427099227905 -194.401472806931 2374.00007247925 14 17 10
-854.442834854126 -195.885390043259 2391.99995994568 14 17 10
-850.816667079926 -196.550741791725 2400.00009536743 12 15 8
-849.962115287781 -197.871640324593 2415.99988937378 12 15 8
-832.613706588745 -195.343375205994 2384.99999046326 9 12 5
-835.524320602417 -197.565838694572 2411.99994087219 8 11 4
-831.071674823761 -198.068588972092 2417.99998283386 8 11 4
-815.674901008606 -195.950224995613 2391.99995994568 8 11 4
-803.801536560059 -194.651037454605 2375.99992752075 8 11 4
-800.404667854309 -195.400163531303 2384.99999046326 9 12 5
-797.958195209503 -196.395382285118 2397.0000743866 9 12 5
-799.07888174057 -198.29224050045 2420.00007629395 9 12 5
-791.232943534851 -197.977051138878 2415.99988937378 8 11 4
-779.510974884033 -196.678623557091 2400.00009536743 9 10 5
-772.706687450409 -196.609511971474 2398.9999294281 8 8 6
-771.337330341339 -197.933867573738 2414.99996185303 8 8 6
-762.280821800232 -197.291448712349 2407.00006484985 8 10 7
-762.686789035797 -199.108183383942 2428.99990081787 8 10 9
-754.880309104919 -198.793977499008 2424.99995231628 7 9 8
-754.80979681015 -200.529411435127 2446.00009918213 6 8 7
-746.060490608215 -199.969559907913 2438.99989128113 6 8 5
-738.258183002472 -199.655756354332 2434.99994277954 7 9 6
-723.265469074249 -197.374045848846 2407.00006484985 10 12 7
-714.974761009216 -196.896240115166 2401.00002288818 10 12 7
-708.486437797546 -196.910589933395 2401.00002288818 11 14 7
-700.243234634399 -196.432918310165 2394.99998092651 12 15 8
-685.948848724365 -194.232776761055 2368.00003051758 13 16 9
-681.556761264801 -194.821447134018 2375 13 16 9
-678.547561168671 -195.820480585098 2387.00008392334 13 16 9
-676.599085330963 -197.147905826569 2403.00011634827 12 15 8
-670.659244060516 -197.326928377151 2404.99997138977 11 14 7
-665.260314941406 -197.670176625252 2408.99991989136 11 14 7
-660.38578748703 -198.177650570869 2414.99996185303 11 14 7
-654.124319553375 -198.274955153465 2415.99988937378 12 15 8
-648.392677307129 -198.536455631256 2418.99991035461 14 17 10
-647.685408592224 -200.357586145401 2440.99998474121 13 16 7
-639.767229557037 -199.962735176086 2436.00010871887 16 19 10
-633.434653282166 -200.060397386551 2437.00003623962 16 19 10
-625.038087368011 -199.501290917397 2430.0000667572 15 18 9
-618.460059165955 -199.516922235489 2430.0000667572 15 18 9
-606.341302394867 -197.726055979729 2407.99999237061 15 18 9
-605.550169944763 -199.630305171013 2430.99999427795 16 19 10
-604.879677295685 -201.616942882538 2454.99992370605 18 21 12
-605.053067207336 -203.932493925095 2483.00004005432 19 22 13
-597.844481468201 -203.784227371216 2480.99994659424 18 21 12
-591.837048530579 -204.046651721001 2483.99996757507 17 20 11
-919.676244258881 -198.221415281296 2344.00010108948 16 19 10
-919.1774725914 -199.496194720268 2358.99996757507 16 22 12
-915.890276432037 -200.179412961006 2367.00010299683 16 19 12
-913.713574409485 -201.116740703583 2378.00002098084 15 18 11
-903.4663438797 -200.278371572495 2368.00003051758 14 17 10
-894.031643867493 -199.609383940697 2359.99989509583 13 16 9
-892.163753509521 -200.632393360138 2371.99997901917 13 16 9
-889.111638069153 -201.402023434639 2381.00004196167 13 16 9
-871.924459934235 -198.957562446594 2351.99999809265 13 16 9
-865.567266941071 -198.966458439827 2351.99999809265 11 14 7
-860.306560993195 -199.229419231415 2355.00001907349 11 14 7
-861.194670200348 -200.930953025818 2375 14 17 10
-857.656419277191 -201.617628335953 2382.99989700317 14 17 10
-853.003859519959 -202.05083489418 2388.00001144409 14 17 10
-851.515173912048 -203.245893120766 2401.99995040894 10 13 6
-855.932056903839 -205.879852175713 2433.00008773804 8 11 4
-838.886618614197 -203.352272510529 2403.00011634827 8 11 4
-834.820330142975 -203.955963253975 2410.00008583069 9 12 5
-824.186265468597 -202.951893210411 2398.00000190735 8 11 4
-817.36820936203 -202.87898182869 2397.0000743866 7 10 3
-806.496202945709 -201.790571212769 2384.0000629425 8 11 4
-804.755389690399 -202.987760305405 2398.00000190735 9 12 5
-801.940560340881 -203.931331634521 2408.99991989136 9 12 5
-802.368223667145 -205.721855163574 2430.0000667572 9 12 5
-787.945210933685 -203.702867031097 2405.99989891052 9 12 5
-778.523683547974 -202.953889966011 2397.0000743866 10 11 6
-768.828511238098 -202.120304107666 2387.00008392334 8 9 4
-766.533255577087 -203.234493732452 2400.00009536743 8 10 7
-761.950552463531 -203.756123781204 2405.99989891052 8 10 7
-759.533166885376 -204.870894551277 2418.99991035461 7 9 8
-761.092066764832 -207.087054848671 2444.9999332428 7 9 8
-756.33841753006 -207.609564065933 2450.99997520447 6 8 7
-750.328600406647 -207.793518900871 2453.00006866455 6 8 5
-742.488265037537 -207.469284534454 2448.99988174438 7 9 4
-732.565879821777 -206.552118062973 2437.99996376038 8 10 5
-717.640221118927 -204.194560647011 2410.00008583069 10 12 7
-707.586646080017 -203.192546963692 2398.00000190735 10 13 6
-702.275156974792 -203.546330332756 2401.99995040894 11 14 7
-693.175852298737 -202.798590064049 2392.99988746643 12 15 8
-686.707317829132 -202.813595533371 2392.99988746643 12 15 8
-681.090950965881 -203.082978725433 2395.99990844727 12 15 8
-677.991688251495 -204.11542057991 2407.99999237061 11 14 7
-672.596096992493 -204.46988940239 2411.99994087219 11 14 7
-665.244996547699 -204.231068491936 2408.99991989136 11 14 7
-660.370409488678 -204.755321145058 2414.99996185303 11 14 7
-653.567373752594 -204.686209559441 2414.00003433228 11 14 7
-646.232903003693 -204.447537660599 2411.00001335144 11 14 7
-641.56711101532 -205.056920647621 2417.99998283386 10 13 4
-645.266473293304 -208.380401134491 2457.00001716614 12 15 6
-634.718358516693 -207.124263048172 2441.99991226196 14 17 8
-629.652082920074 -207.64933526516 2447.99995422363 13 16 7
-620.989263057709 -206.986859440804 2440.00005722046 14 17 8
-611.109793186188 -205.900132656097 2427.00004577637 15 18 9
-604.039669036865 -205.746501684189 2424.99995231628 14 17 8
-603.631794452667 -207.883894443512 2450.00004768372 16 19 10
-600.650668144226 -209.172978997231 2464.99991416931 17 20 11
-602.647483348846 -212.244436144829 2500.99992752075 17 20 11
-597.062349319458 -212.685406208038 2506.00004196167 16 19 10
-595.688760280609 -214.654192328453 2529.00004386902 19 20 14
-938.110589981079 -208.694636821747 2391.00003242493 19 22 13
-934.756755828857 -209.399402141571 2398.9999294281 14 20 10
-923.235058784485 -208.271518349648 2385.99991798401 15 18 11
-912.553489208221 -207.318544387817 2375 15 18 11
-902.695536613464 -206.540390849113 2365.9999370575 14 17 10
-890.993177890778 -205.326065421104 2351.99999809265 13 16 9
-885.385394096375 -205.508813261986 2354.00009155273 14 17 10
-883.128345012665 -206.477612257004 2365.00000953674 14 17 10
-878.217816352844 -206.835702061653 2368.99995803833 12 15 8
-870.710253715515 -206.582903862 2365.9999370575 11 14 7
-866.14203453064 -207.028925418854 2371.00005149841 12 15 8
-864.810824394226 -208.261147141457 2384.99999046326 14 17 10
-858.366131782532 -208.271279931068 2384.99999046326 11 14 7
-847.992658615112 -207.321047782898 2374.00007247925 9 12 5
-847.604930400848 -208.816349506378 2391.00003242493 8 11 4
-848.181307315826 -210.574090480804 2411.00001335144 6 9 2
-843.064427375793 -210.934787988663 2414.99996185303 10 13 6
-829.959213733673 -209.286764264107 2395.99990844727 12 15 8
-823.143422603607 -209.211185574532 2394.99998092651 11 14 7
-814.969301223755 -208.78641307354 2390.00010490417 12 15 8
-809.190332889557 -208.973333239555 2391.99995994568 13 16 9
-803.400635719299 -209.160521626472 2394.00005340576 14 17 10
-798.598945140839 -209.61007475853 2398.9999294281 14 17 10
-799.713611602783 -211.63272857666 2421.99993133545 14 17 10
-789.569556713104 -210.684761404991 2411.00001335144 14 17 10
-780.783951282501 -210.086449980736 2404.00004386902 10 13 6
-769.781410694122 -208.876460790634 2390.00010490417 9 11 6
-770.032703876495 -210.72556078434 2411.00001335144 8 10 5
-765.103459358215 -211.176559329033 2415.99988937378 8 10 7
-761.717081069946 -212.064921855927 2426.00011825562 7 9 8
-756.408512592316 -212.429001927376 2430.0000667572 7 7 7
-759.101033210754 -215.066328644753 2460.00003814697 8 8 8
-760.101795196533 -217.267066240311 2484.99989509583 8 8 6
-751.568555831909 -216.757670044899 2479.00009155273 6 7 2
-731.949925422668 -213.012933731079 2436.00010871887 7 8 3
-715.540945529938 -210.142329335213 2403.00011634827 11 12 6
-708.751857280731 -210.069999098778 2401.99995040894 9 12 5
-704.014182090759 -210.610017180443 2407.99999237061 10 13 6
-701.271235942841 -211.762547492981 2421.0000038147 11 14 7
-691.283404827118 -210.72843670845 2408.99991989136 11 14 7
-681.928336620331 -209.869265556335 2398.9999294281 11 14 7
-675.723791122437 -209.97242629528 2400.00009536743 12 15 8
-672.301530838013 -210.950627923012 2411.00001335144 13 16 9
-666.609942913055 -211.229041218758 2414.00003433228 13 16 9
-663.362443447113 -212.295174598694 2426.00011825562 13 16 9
-658.966183662415 -213.011473417282 2434.00001525879 12 15 8
-649.165213108063 -211.977481842041 2421.99993133545 11 14 7
-642.347037792206 -211.906209588051 2421.0000038147 10 13 4
-642.361462116241 -214.110925793648 2446.00009918213 11 14 5
-636.001706123352 -214.214980602264 2447.00002670288 13 16 7
-626.549303531647 -213.268548250198 2436.00010871887 13 16 7
-620.718419551849 -213.547721505165 2438.99989128113 14 17 8
-615.877449512482 -214.177265763283 2446.00009918213 16 19 10
-607.510507106781 -213.580921292305 2438.99989128113 14 17 8
-600.658774375916 -213.5099619627 2437.99996376038 14 17 8
-597.710132598877 -214.840352535248 2453.00006866455 18 21 12
-589.378118515015 -214.243963360786 2446.00009918213 19 22 13
-596.092462539673 -219.166055321693 2502.00009346008 18 21 12
-590.018928050995 -219.445958733559 2505.00011444092 13 14 8
-597.664654254913 -224.894836544991 2566.99991226196 21 22 16
-976.946651935577 -224.103271961212 2490.00000953674 115 118 109
-948.777079582214 -219.159930944443 2434.99994277954 12 18 8
-922.84107208252 -214.666679501534 2384.99999046326 16 19 12
-906.398415565491 -212.333753705025 2358.99996757507 16 19 12
-901.543259620667 -212.701424956322 2362.99991607666 14 17 10
-897.803843021393 -213.339522480965 2369.99988555908 14 17 10
-891.770958900452 -213.437885046005 2371.00005149841 14 17 10
-881.999433040619 -212.636381387711 2361.99998855591 14 17 10
-879.691421985626 -213.63565325737 2372.99990653992 11 14 7
-869.228720664978 -212.654665112495 2361.99998855591 12 15 8
-865.40162563324 -213.29453587532 2368.99995803833 13 16 9
-865.526020526886 -214.925214648247 2387.00008392334 12 15 8
-857.635915279388 -214.575380086899 2382.99989700317 9 12 5
-847.624838352203 -213.685497641563 2372.99990653992 9 12 5
-846.885025501251 -215.137213468552 2388.99993896484 9 12 5
-845.707416534424 -216.499283909798 2404.00004386902 9 12 5
-841.307401657104 -217.051222920418 2410.00008583069 12 15 8
-830.640256404877 -215.982258319855 2398.00000190735 13 16 9
-822.787761688232 -215.634033083916 2394.00005340576 13 16 9
-817.684888839722 -216.006606817245 2398.00000190735 14 17 10
-809.854388237 -215.658813714981 2394.00005340576 15 18 11
-800.367593765259 -214.860796928406 2384.99999046326 15 18 11
-795.922994613647 -215.414315462112 2391.00003242493 15 18 11
-798.37954044342 -217.860177159309 2417.99998283386 14 17 10
-792.830884456635 -218.144074082375 2421.0000038147 14 17 10
-785.64190864563 -217.977628111839 2418.99991035461 10 13 6
-779.107868671417 -217.991605401039 2418.99991035461 9 11 6
-775.128722190857 -218.72678399086 2427.00004577637 8 10 5
-768.25612783432 -218.651086091995 2426.00011825562 8 10 7
-765.470206737518 -219.747290015221 2437.99996376038 7 9 8
-757.950186729431 -219.491705298424 2434.99994277954 7 7 7
-751.988887786865 -219.687014818192 2437.00003623962 8 8 8
-765.286266803741 -225.562110543251 2502.00009346008 9 9 7
-757.616460323334 -225.307360291481 2499.00007247925 6 7 2
-730.73273897171 -219.282135367393 2431.99992179871 6 7 2
-713.143467903137 -215.961366891861 2394.99998092651 10 11 5
-705.785870552063 -215.706333518028 2391.99995994568 10 13 6
-708.384037017822 -218.517646193504 2423.00009727478 10 13 6
-703.283131122589 -218.984514474869 2427.99997329712 11 14 7
-692.70247220993 -217.737808823586 2414.00003433228 12 15 8
-685.60779094696 -217.573463916779 2411.99994087219 11 14 7
-681.901812553406 -218.491733074188 2421.99993133545 13 16 9
-675.35263299942 -218.508049845696 2421.99993133545 13 16 9
-667.974412441254 -218.253776431084 2418.99991035461 13 16 9
-661.432027816772 -218.270257115364 2418.99991035461 13 16 9
-657.866775989532 -219.279438257217 2430.0000667572 13 16 9
-649.41680431366 -218.664422631264 2423.00009727478 13 16 9
-646.044909954071 -219.764113426209 2434.99994277954 12 15 6
-641.031622886658 -220.322534441948 2440.99998474121 13 16 7
-631.566524505615 -219.346538186073 2430.0000667572 13 16 7
-622.931718826294 -218.641236424446 2421.99993133545 13 16 7
-617.138743400574 -218.928948044777 2424.99995231628 15 18 9
-614.098072052002 -220.209926366806 2438.99989128113 16 19 10
-607.991814613342 -220.407575368881 2440.99998474121 15 18 9
-603.598356246948 -221.237376332283 2450.00004768372 14 17 8
-598.180413246155 -221.706062555313 2454.99992370605 18 21 12
-596.830546855927 -223.71019423008 2476.99999809265 19 22 13
-593.931019306183 -225.172698497772 2493.00003051758 18 21 12
-588.823914527893 -225.822478532791 2500 17 18 12
-580.651104450226 -225.29798746109 2493.99995803833 16 17 11
-942.146360874176 -224.201753735542 2417.99998283386 14 20 10
-922.833859920502 -221.148982644081 2384.99999046326 19 22 15
-905.622482299805 -218.560054898262 2357.00011253357 18 21 14
-901.153922080994 -219.031438231468 2361.99998855591 16 19 12
-898.553252220154 -219.966903328896 2371.99997901917 15 18 11
-893.642902374268 -220.346376299858 2375.99992752075 14 17 10
-886.471390724182 -220.169767737389 2374.00007247925 14 17 10
-875.97519159317 -219.15876865387 2362.99991607666 13 16 9
-871.427237987518 -219.631999731064 2368.00003051758 14 17 10
-864.661157131195 -219.549089670181 2367.00010299683 11 14 7
-863.340139389038 -220.857858657837 2381.00004196167 7 10 3
-870.581388473511 -224.393367767334 2418.99991035461 8 11 4
-847.25683927536 -220.044314861298 2371.99997901917 9 12 5
-842.265486717224 -220.426470041275 2375.99992752075 12 15 8
-839.011967182159 -221.272870898247 2384.99999046326 16 19 12
-832.917451858521 -221.377342939377 2385.99991798401 16 19 12
-825.085997581482 -221.018195152283 2381.99996948242 15 18 11
-821.744382381439 -221.865564584732 2391.00003242493 17 20 13
-817.672312259674 -222.527682781219 2398.00000190735 14 17 10
-811.533033847809 -222.633332014084 2398.9999294281 14 17 10
-803.039252758026 -222.089529037476 2392.99988746643 13 16 9
-801.235675811768 -223.402246832848 2407.00006484985 12 15 8
-801.6676902771 -225.365027785301 2427.99997329712 11 14 7
-797.729134559631 -226.121589541435 2436.00010871887 10 13 6
-789.525151252747 -225.671634078026 2430.99999427795 10 13 6
-777.483344078064 -224.107801914215 2414.00003433228 8 10 5
-771.920561790466 -224.400818347931 2417.00005531311 8 10 5
-769.508063793182 -225.622534751892 2430.0000667572 9 11 8
-767.966985702515 -227.123215794563 2446.00009918213 9 9 7
-761.047720909119 -227.045565843582 2444.9999332428 6 6 4
-758.144915103912 -228.175416588783 2457.00001716614 8 8 6
-757.623791694641 -230.048567056656 2476.99999809265 9 9 7
-746.989786624908 -228.857085108757 2463.99998664856 5 6 1
-737.928152084351 -228.130042552948 2456.00008964539 5 6 1
-723.251640796661 -225.638017058373 2428.99990081787 10 11 5
-713.441610336304 -224.63221848011 2417.99998283386 10 13 6
-709.245085716248 -225.391626358032 2426.00011825562 11 14 7
-698.922157287598 -224.200069904327 2413.00010681152 12 15 8
-694.981753826141 -225.052699446678 2421.99993133545 12 15 8
-686.15996837616 -224.325805902481 2414.00003433228 12 15 8
-681.603789329529 -224.992915987968 2421.0000038147 12 15 8
-675.057291984558 -225.009635090828 2421.0000038147 11 14 7
-667.129456996918 -224.561721086502 2415.99988937378 11 14 7
-661.141872406006 -224.764510989189 2417.99998283386 11 14 7
-657.037675380707 -225.618094205856 2427.00004577637 12 15 8
-650.471985340118 -225.635185837746 2427.00004577637 14 17 10
-645.231962203979 -226.117238402367 2431.99992179871 13 16 7
-640.751957893372 -226.878359913826 2440.00005722046 14 17 8
-633.628666400909 -226.709723472595 2437.99996376038 14 17 8
-627.029716968536 -226.727113127708 2437.99996376038 13 16 7
-621.447801589966 -227.116525173187 2441.99991226196 15 18 9
-616.598606109619 -227.785110473633 2448.99988174438 16 19 10
-609.718024730682 -227.709665894508 2447.99995422363 15 18 9
-603.08825969696 -227.727234363556 2447.99995422363 14 17 8
-597.919344902039 -228.303015232086 2453.9999961853 18 21 12
-600.427210330963 -231.856226921082 2492.00010299683 19 22 13
-598.201453685761 -233.641996979713 2510.99991798401 17 20 11
-586.450934410095 -231.705918908119 2490.00000953674 18 19 13
-578.072488307953 -231.07236623764 2483.00004005432 13 14 8
-932.39837884903 -228.387504816055 2392.99988746643 12 18 8
-925.921976566315 -228.394687175751 2392.99988746643 12 15 8
-916.75728559494 -227.734163403511 2385.99991798401 14 17 10
-907.250165939331 -226.978540420532 2378.00002098084 17 20 13
-901.196599006653 -227.082282304764 2378.99994850159 16 19 12
-892.129778862 -226.422771811485 2371.99997901917 14 17 10
-883.101582527161 -225.763544440269 2365.00000953674 14 17 10
-874.482989311218 -225.200116634369 2358.99996757507 12 15 8
-869.945466518402 -225.687101483345 2364.00008201599 10 13 6
-865.746974945068 -226.269960403442 2369.99988555908 9 12 5
-862.967133522034 -227.235093712807 2380.00011444092 10 13 6
-856.175005435944 -227.150321006775 2378.99994850159 11 14 7
-848.317384719849 -226.779416203499 2375 16 19 12
-841.19063615799 -226.599738001823 2372.99990653992 16 19 12
-836.186051368713 -226.993337273598 2377.00009346008 15 18 11
-832.556486129761 -227.769255638123 2384.99999046326 15 18 11
-822.995543479919 -226.921945810318 2375.99992752075 15 18 11
-820.700764656067 -228.080525994301 2388.00001144409 15 18 11
-815.954506397247 -228.570893406868 2392.99988746643 12 15 8
-811.519861221313 -229.157119989395 2398.9999294281 12 15 8
-804.703831672668 -229.074969887733 2398.00000190735 12 15 8
-802.886366844177 -230.426013469696 2411.99994087219 11 14 7
-799.342572689056 -231.299802660942 2421.0000038147 11 14 7
-788.545787334442 -230.071932077408 2407.99999237061 11 14 7
-782.365739345551 -230.181828141212 2408.99991989136 11 14 7
-769.739091396332 -228.380843997002 2390.00010490417 10 13 6
-766.795873641968 -229.446694254875 2401.00002288818 9 10 5
-767.909646034241 -231.755286455154 2424.99995231628 9 10 5
-765.439867973328 -233.013033866882 2437.99996376038 8 8 6
-762.89975643158 -234.271168708801 2450.99997520447 10 10 8
-763.683140277863 -236.581102013588 2474.99990463257 3 3 1
-742.92653799057 -232.199892401695 2428.99990081787 5 4 0
-737.878978252411 -232.693910598755 2434.00001525879 19 18 14
-737.010538578033 -234.526693820953 2453.00006866455 8 7 2
-733.656704425812 -235.594913363457 2463.99998664856 10 11 5
-725.522339344025 -235.133528709412 2459.00011062622 8 11 4
-703.089416027069 -229.986399412155 2404.99997138977 9 12 5
-700.064241886139 -231.150597333908 2417.00005531311 10 13 6
-692.66951084137 -230.880424380302 2414.00003433228 11 14 7
-686.427414417267 -230.992928147316 2414.99996185303 12 15 8
-681.586921215057 -231.583878397942 2421.0000038147 10 13 6
-672.809779644012 -230.83570599556 2413.00010681152 11 14 7
-667.664647102356 -231.331199407578 2417.99998283386 11 14 7
-665.77285528183 -232.975006103516 2434.99994277954 12 15 8
-663.517534732819 -234.523445367813 2450.99997520447 12 15 8
-655.01081943512 -233.871281147003 2444.00000572205 11 14 7
-645.745158195496 -232.93200135231 2434.00001525879 14 17 8
-643.360376358032 -234.480991959572 2450.00004768372 13 16 7
-642.187416553497 -236.508816480637 2470.99995613098 12 15 6
-633.184492588043 -235.665380954742 2461.99989318848 12 15 6
-625.501751899719 -235.300481319427 2457.99994468689 12 15 6
-618.846714496613 -235.318541526794 2457.99994468689 13 16 7
-609.451174736023 -234.283417463303 2447.00002670288 15 18 9
-600.853264331818 -233.535408973694 2438.99989128113 15 18 9
-594.734132289886 -233.744874596596 2440.99998474121 16 19 10
-592.699110507965 -235.582426190376 2460.00003814697 17 20 11
-595.562756061554 -239.431440830231 2500 16 19 10
-582.429111003876 -236.863791942596 2473.00004959106 10 11 5
-578.054428100586 -237.839877605438 2483.00004005432 22 23 17
-577.536165714264 -240.444585680962 2509.99999046326 4 5 0
-929.783880710602 -235.880106687546 2403.00011634827 10 13 6
-920.975923538208 -235.298827290535 2397.0000743866 10 13 6
-918.305993080139 -236.288622021675 2407.00006484985 10 13 6
-892.475426197052 -231.29041492939 2355.99994659424 12 15 8
-887.607514858246 -231.691837310791 2359.99989509583 12 15 8
-876.371145248413 -230.424642562866 2346.99988365173 11 14 7
-877.068221569061 -232.299506664276 2365.9999370575 11 14 7
-874.351501464844 -233.291238546371 2375.99992752075 10 13 6
-860.257267951965 -231.239467859268 2355.00001907349 11 14 7
-864.044070243835 -233.999401330948 2382.99989700317 13 16 9
-860.122740268707 -234.697744250298 2390.00010490417 14 17 10
-853.663802146912 -234.709054231644 2390.00010490417 15 18 11
-843.660473823547 -233.73855650425 2380.00011444092 14 17 10
-839.691936969757 -234.437927603722 2387.00008392334 14 17 10
-833.242475986481 -234.450131654739 2387.00008392334 14 17 10
-824.022173881531 -233.676806092262 2378.99994850159 14 17 10
-814.845561981201 -232.903674244881 2371.00005149841 15 18 11
-815.259575843811 -234.881371259689 2391.00003242493 14 17 10
-811.506509780884 -235.680639743805 2398.9999294281 13 16 9
-807.710349559784 -236.480250954628 2407.00006484985 13 16 9
-802.539587020874 -236.887186765671 2411.00001335144 12 15 8
-796.356797218323 -236.999645829201 2411.99994087219 11 14 7
-787.549018859863 -236.326262354851 2404.99997138977 11 14 7
-774.232089519501 -234.277233481407 2384.0000629425 11 14 7
-768.436074256897 -234.488517045975 2385.99991798401 11 14 7
-761.351823806763 -234.306916594505 2384.0000629425 10 11 6
-774.860799312592 -240.514293313026 2447.00002670288 9 10 5
-769.819676876068 -241.021528840065 2451.99990272522 9 9 7
-757.903754711151 -239.366367459297 2434.99994277954 6 6 4
-745.153844356537 -237.416252493858 2414.99996185303 14 14 12
-748.721659183502 -240.676775574684 2447.99995422363 10 9 5
-729.980885982513 -236.760392785072 2407.99999237061 1 0 0
-752.016127109528 -246.118023991585 2503.00002098084 2 1 0
-736.61732673645 -243.28351020813 2473.99997711182 9 8 3
-718.719482421875 -239.563629031181 2436.00010871887 8 9 3
-713.889122009277 -240.170732140541 2441.99991226196 8 11 4
-699.468076229095 -237.532287836075 2414.99996185303 9 12 5
-695.521831512451 -238.434731960297 2424.00002479553 10 13 6
-684.420824050903 -236.878111958504 2407.99999237061 11 14 7
-680.72509765625 -237.87921667099 2417.99998283386 10 13 6
-669.725358486176 -236.322537064552 2401.99995040894 11 14 7
-667.094945907593 -237.717509269714 2415.99988937378 11 14 7
-669.036149978638 -240.785598754883 2447.00002670288 12 15 8
-668.643176555634 -243.066966533661 2470.00002861023 12 15 8
-660.352885723114 -242.49467253685 2463.99998664856 11 14 7
-655.012726783752 -243.005082011223 2469.00010108948 12 15 6
-650.169610977173 -243.712425231934 2476.0000705719 12 15 6
-641.129612922668 -242.844954133034 2467.00000762939 12 15 6
-636.509478092194 -243.650957942009 2474.99990463257 12 15 6
-627.519249916077 -242.783457040787 2466.00008010864 13 16 7
-618.073225021362 -241.718903183937 2454.99992370605 14 17 8
-608.436822891235 -240.55577814579 2443.00007820129 15 18 9
-600.342452526093 -239.983305335045 2437.00003623962 15 18 9
-591.305017471313 -239.016845822334 2427.00004577637 16 19 10
-585.93475818634 -239.527598023415 2431.99992179871 18 21 12
-588.873982429504 -243.485853075981 2471.99988365173 17 20 11
-586.414277553558 -245.277568697929 2490.00000953674 16 17 11
-583.855867385864 -247.06956744194 2507.99989700317 18 19 13
-581.889092922211 -249.15736913681 2529.00004386902 15 16 10
-929.002404212952 -242.209166288376 2401.00002288818 11 14 7
-925.578534603119 -243.024036288261 2408.99991989136 10 13 6
-902.655482292175 -238.694205880165 2365.9999370575 10 13 6
-884.511888027191 -235.575169324875 2335.00003814697 11 14 7
-880.828678607941 -236.2901866436 2342.00000762939 10 13 6
-887.937188148499 -239.931643009186 2378.00002098084 9 12 5
-881.877481937408 -240.042209625244 2378.99994850159 8 11 4
-870.293498039246 -238.639622926712 2365.00000953674 7 10 3
-863.534569740295 -238.549083471298 2364.00008201599 8 11 4
-863.670706748962 -240.376204252243 2381.99996948242 9 12 5
-866.589307785034 -243.011191487312 2407.99999237061 10 13 6
-857.938349246979 -242.417231202126 2401.99995040894 11 14 7
-854.282915592194 -243.236526846886 2410.00008583069 11 14 7
-845.659852027893 -242.643147706985 2404.00004386902 11 14 7
-839.513182640076 -242.756605148315 2404.99997138977 11 14 7
-830.244183540344 -241.961896419525 2397.0000743866 10 13 6
-818.956553936005 -240.5616492033 2382.99989700317 10 13 6
-811.495780944824 -240.272089838982 2380.00011444092 13 16 9
-808.110296726227 -241.194233298302 2388.99993896484 13 16 9
-804.340779781342 -242.015823721886 2397.0000743866 13 16 9
-799.862444400787 -242.635816335678 2403.00011634827 13 16 9
-798.983693122864 -244.366899132729 2420.00007629395 13 16 9
-791.791200637817 -244.179680943489 2417.99998283386 13 16 9
-782.01150894165 -243.184804916382 2407.99999237061 12 15 6
-766.810894012451 -240.473106503487 2381.00004196167 11 14 7
-768.681704998016 -243.114396929741 2407.00006484985 10 11 6
-763.762176036835 -243.635073304176 2411.99994087219 10 11 6
-761.327028274536 -244.964137673378 2424.99995231628 9 9 7
-751.973927021027 -244.071036577225 2415.99988937378 14 13 11
-758.405029773712 -248.330563306808 2457.99994468689 1 0 0
-744.729101657867 -246.02347612381 2434.99994277954 12 11 7
-742.384731769562 -249.694958329201 2470.99995613098 11 8 3
-724.988341331482 -246.074259281158 2434.99994277954 11 11 3
-714.571714401245 -244.777649641037 2421.99993133545 8 9 3
-718.84149312973 -248.534604907036 2459.00011062622 7 10 3
-706.112265586853 -246.429651975632 2437.99996376038 8 11 4
-689.765989780426 -243.010401725769 2404.00004386902 10 13 6
-697.193264961243 -247.981548309326 2453.00006866455 10 13 6
-679.018259048462 -243.854448199272 2411.99994087219 11 14 7
-673.332333564758 -244.175612926483 2414.99996185303 11 14 7
-670.390427112579 -245.508059859276 2427.99997329712 11 14 7
-670.111656188965 -247.852057218552 2450.99997520447 12 15 8
-662.398636341095 -247.465938329697 2447.00002670288 12 15 8
-663.282454013824 -250.316262245178 2474.99990463257 12 15 8
-654.728770256042 -249.626994132996 2467.99993515015 11 14 5
-644.374191761017 -248.22960793972 2453.9999961853 11 14 5
-636.433184146881 -247.742503881454 2448.99988174438 11 14 5
-633.404850959778 -249.177619814873 2463.00005912781 12 15 6
-623.938083648682 -248.083546757698 2451.99990272522 13 16 7
-615.53692817688 -247.39408493042 2444.9999332428 14 17 8
-612.40291595459 -248.829573392868 2459.00011062622 13 16 7
-605.250597000122 -248.646110296249 2457.00001716614 14 17 8
-597.133696079254 -248.057827353477 2450.99997520447 16 19 10
-590.734601020813 -248.177915811539 2451.99990272522 19 22 13
-590.522646903992 -250.929862260818 2479.00009155273 18 21 12
-592.753767967224 -254.795700311661 2516.99995994568 17 18 12
-589.656472206116 -256.434917449951 2532.99999237061 9 10 4
-588.772237300873 -259.086817502975 2559.00001525879 17 18 12
-932.864010334015 -249.770417809486 2411.00001335144 12 15 8
-919.423043727875 -247.913524508476 2392.99988746643 11 14 7
-906.462252140045 -246.160566806793 2375.99992752075 11 14 7
-894.352197647095 -244.615122675896 2361.00006103516 11 14 7
-894.359230995178 -246.385484933853 2378.00002098084 10 13 6
-884.940445423126 -245.566010475159 2369.99988555908 8 11 4
-882.608950138092 -246.715605258942 2381.00004196167 8 11 4
-878.746867179871 -247.451186180115 2388.00001144409 7 10 3
-860.966980457306 -244.24934387207 2357.00011253357 7 10 3
-854.232728481293 -244.156539440155 2355.99994659424 8 11 4
-856.141448020935 -246.551364660263 2378.99994850159 8 11 4
-852.211654186249 -247.288435697556 2385.99991798401 9 12 5
-853.207349777222 -249.477043747902 2407.00006484985 10 13 6
-854.441583156586 -251.769781112671 2428.99990081787 10 13 6
-841.245710849762 -249.813169240952 2410.00008583069 10 13 6
-832.655608654022 -249.204277992249 2404.00004386902 9 12 5
-824.098229408264 -248.595595359802 2398.00000190735 8 11 4
-816.255629062653 -248.194515705109 2394.00005340576 10 13 6
-808.434724807739 -247.793659567833 2390.00010490417 11 14 7
-796.944379806519 -246.252477169037 2375 12 15 8
-800.846636295319 -249.481186270714 2405.99989891052 12 15 8
-796.987891197205 -250.325530767441 2414.00003433228 14 17 10
-795.378148555756 -251.89608335495 2428.99990081787 14 17 10
-783.94478559494 -250.355839729309 2414.00003433228 11 14 5
-778.711259365082 -250.786185264587 2417.99998283386 10 13 6
-769.304752349854 -249.868482351303 2408.99991989136 10 11 6
-768.179357051849 -251.64783000946 2426.00011825562 9 10 5
-756.915628910065 -250.108063220978 2411.00001335144 8 8 6
-754.758834838867 -251.576811075211 2424.99995231628 13 12 10
-758.079767227173 -254.913449287415 2457.00001716614 5 4 2
-753.275752067566 -255.553066730499 2463.00005912781 20 16 13
-746.619939804077 -255.570352077484 2463.00005912781 63 58 54
-729.436993598938 -254.256367683411 2450.00004768372 17 14 7
-720.750033855438 -253.547579050064 2443.00007820129 8 9 3
-707.715332508087 -251.281946897507 2421.0000038147 8 11 4
-702.329397201538 -251.714944839478 2424.99995231628 9 12 5
-709.258556365967 -256.611824035645 2471.99988365173 10 13 6
-682.680130004883 -249.363198876381 2401.99995040894 11 14 7
-681.815445423126 -251.457720994949 2421.99993133545 11 14 7
-675.544738769531 -251.579821109772 2423.00009727478 11 14 7
-675.61811208725 -254.090309143066 2447.00002670288 11 14 7
-670.639932155609 -254.732072353363 2453.00006866455 11 14 7
-666.711091995239 -255.789428949356 2463.00005912781 12 15 8
-662.191569805145 -256.639271974564 2470.99995613098 12 15 8
-655.50571680069 -256.658405065537 2470.99995613098 13 16 7
-644.880473613739 -255.119472742081 2456.00008964539 12 15 6
-636.414289474487 -254.411369562149 2448.99988174438 11 14 5
-630.042672157288 -254.534423351288 2450.00004768372 11 14 5
-623.410224914551 -254.553616046906 2450.00004768372 12 15 6
-615.014553070068 -253.845483064651 2443.00007820129 12 15 6
-610.391438007355 -254.696011543274 2450.99997520447 13 16 7
-609.172701835632 -257.001578807831 2473.00004959106 14 17 8
-603.20508480072 -257.332891225815 2476.0000705719 14 17 8
-594.329178333282 -256.416946649551 2467.00000762939 19 22 13
-598.363995552063 -261.114001274109 2512.00008392334 18 21 12
-588.495314121246 -259.782373905182 2499.00007247925 19 20 14
-590.10237455368 -263.544708490372 2535.00008583069 12 13 7
-582.080185413361 -263.044804334641 2529.99997138977 17 18 12
-930.147886276245 -255.578547716141 2404.00004386902 6 9 2
-922.488629817963 -255.267530679703 2401.00002288818 10 13 6
-912.557899951935 -254.319071769714 2391.99995994568 15 18 11
-906.086027622223 -254.327833652496 2391.99995994568 12 15 8
-899.239182472229 -254.23076748848 2391.00003242493 9 12 5
-889.038026332855 -253.177016973495 2381.00004196167 11 14 7
-875.555813312531 -251.166582107544 2361.99998855591 11 14 7
-872.848629951477 -252.240270376205 2371.99997901917 12 15 8
-869.722783565521 -253.208070993423 2381.00004196167 13 16 9
-848.057806491852 -248.752474784851 2338.99998664856 13 16 9
-841.375291347504 -248.657375574112 2338.00005912781 13 16 9
-841.484785079956 -250.583410263062 2355.99994659424 13 16 9
-848.586916923523 -254.637330770493 2394.00005340576 14 17 10
-846.338152885437 -255.926311016083 2405.99989891052 15 18 11
-839.836478233337 -255.939275026321 2405.99989891052 15 18 11
-827.10063457489 -254.03767824173 2388.00001144409 14 17 10
-819.61715221405 -253.731995820999 2384.99999046326 12 15 8
-811.468362808228 -253.213793039322 2380.00011444092 10 13 6
-806.05274438858 -253.546983003616 2382.99989700317 11 14 7
-798.6079454422 -253.24210524559 2380.00011444092 11 14 7
-797.170460224152 -254.852801561356 2394.99998092651 11 14 7
-795.322060585022 -256.357580423355 2408.99991989136 12 15 8
-793.725550174713 -257.969200611115 2424.00002479553 12 15 8
-788.475632667542 -258.410543203354 2427.99997329712 11 14 5
-779.983699321747 -257.787823677063 2421.99993133545 11 14 7
-779.826819896698 -259.93275642395 2441.99991226196 10 13 6
