ply
format ascii 1.0
comment KinectMotionCapture
element vertex 777
property float x
property float y
property float z
property uchar red
property uchar green
property uchar blue
end_header
-671.048249714593 -177.379880828053 2368.51575725349 22 25 18
-664.882984292207 -176.702456830037 2378.52993228669 23 26 19
-662.455511829089 -176.273940234357 2386.88403644341 24 27 20
-656.24292200211 -175.596488890226 2396.81118149732 24 27 20
-661.327258078833 -175.665060315608 2401.91198246094 24 27 20
-673.030915559037 -176.168042580964 2404.25117718436 23 26 19
-680.026361209836 -176.359662986682 2408.59975058931 24 27 20
-689.874514818827 -176.737011848031 2411.79371483778 23 26 19
-686.457008425887 -176.244678977597 2420.46146065823 23 26 19
-676.370655958372 -175.317930347805 2431.79872081641 22 25 18
-669.10185977978 -174.577537458364 2441.91703709961 21 24 17
-674.18862373828 -174.643243715984 2447.02316499699 20 23 16
-691.681879095735 -175.514261589292 2447.21000471853 20 23 16
-713.034489648678 -176.632089322181 2445.96097944108 18 21 14
-703.82629309904 -175.76679805917 2456.78004750438 16 19 12
-706.078161219802 -175.64472823073 2463.07315157121 15 18 11
-694.89905363388 -174.656036509091 2474.53456710496 19 22 15
-695.205928979503 -174.410080320443 2481.51783316787 18 21 14
-720.50923954587 -175.771562071993 2479.00189168361 15 18 11
-720.833343201058 -175.524632575248 2486.01713644134 14 17 10
-741.399665318597 -176.574945531389 2485.45708588968 12 15 8
-772.633249323582 -178.303410039598 2481.04833825161 11 14 7
-766.233068425871 -177.62257911218 2490.63148545861 11 14 7
-779.170090100827 -178.176111891449 2493.10906075185 10 13 6
-759.170810970228 -176.631811421819 2507.5498592442 9 12 5
-759.494842715701 -176.383110121088 2514.56550456595 11 14 7
-757.866766063862 -176.011107559915 2522.25754476218 13 16 9
-766.931964180746 -176.316856268446 2526.1483464298 11 14 7
-765.291160999171 -175.944623065892 2533.81755382174 12 15 8
-767.540835431556 -175.818679507335 2540.10778820885 12 15 8
-783.468372679569 -176.553967608736 2541.68590670839 13 16 9
-796.493500904655 -177.103851310402 2544.32662335603 13 16 9
-813.463095507925 -177.899058655333 2545.68845691427 12 15 8
-809.865784687456 -177.402749337189 2554.02620118926 15 18 11
-815.091154482571 -177.459537164529 2559.38993243643 17 20 13
-816.386896338135 -177.270497777187 2566.05948455593 17 20 13
-795.023133272967 -175.669853518903 2580.12299579083 16 19 12
-795.291678179058 -175.419981208411 2587.03694285239 17 20 13
-804.439807839296 -175.722024286146 2591.08138510077 18 21 14
-824.47986481095 -176.697857677975 2591.69113818578 16 19 12
-826.74162716099 -176.569938427112 2598.00419858858 17 20 13
-823.052056955471 -176.074550470888 2606.17198397112 17 20 13
-823.314662877761 -175.824217083934 2613.07514681484 17 20 13
-833.508821283373 -176.185954847718 2616.91067576115 17 20 13
-820.829823271721 -175.140550404892 2627.74537353012 19 22 15
-812.095591863907 -174.340493687512 2637.30122889336 19 22 15
-816.301576269084 -174.335437809841 2642.92352168347 18 21 14
-846.486763860575 -175.91843550952 2640.85992557128 19 22 15
-861.735189039657 -176.584164421503 2643.3247504611 20 23 16
-860.987159391273 -176.272828555206 2650.50231438524 18 21 14
-668.669788700329 -184.115182002402 2362.11588597687 20 23 16
-668.14687443211 -183.800751833637 2369.70840862507 22 25 18
-678.893932542251 -184.264927815146 2372.41521622421 23 26 19
-657.655059230667 -182.522220845691 2388.86594304401 24 27 20
-656.144465890877 -182.142378623459 2396.77641400989 24 27 20
-665.947851382358 -182.540500343784 2399.88229893736 24 27 20
-673.878375115601 -182.808086074982 2403.81300762838 23 26 19
-672.35630130671 -182.427257877725 2411.70266042339 23 26 19
-669.872934954524 -181.98144391082 2419.95916722077 23 26 19
-677.81398905402 -182.247781561203 2423.90961849843 22 25 18
-679.11487732251 -182.060453550486 2430.58812116172 21 24 17
-682.313476390189 -182.002156194852 2436.48845890534 21 24 17
-690.276622679427 -182.266930819797 2440.48001178022 20 23 16
-702.069644869955 -182.789707229818 2442.97761196909 21 24 17
-699.551550150553 -182.342297794518 2451.17072676265 17 20 13
-700.845229929882 -182.153164785099 2457.83651450238 12 15 8
-702.133128367693 -181.963895696786 2464.49221446747 20 23 16
-713.969745965347 -182.484498488254 2467.07064820667 16 19 12
-734.4759273241 -183.58507534475 2466.38537666328 15 18 11
-734.825107828459 -183.329811172043 2473.44924872986 17 20 13
-764.066762062783 -185.008923495994 2469.62091490332 18 21 14
-773.119915121716 -185.332750937801 2473.48463109964 17 20 13
-749.346772581593 -183.465284507188 2489.54149146379 14 17 10
-770.960265665296 -184.626094809374 2488.75935092346 13 16 9
-775.189058334924 -184.62679437508 2494.42186148366 10 13 6
-770.69165376087 -184.047930257246 2503.24429886655 8 11 4
-744.80924074257 -182.053983862923 2519.68996455011 10 13 6
-765.523564659087 -183.148032689256 2519.38896396867 12 15 8
-773.62588218096 -183.405182102045 2523.63877116149 16 19 12
-769.066287779018 -182.826613490701 2532.34623701044 14 17 10
-773.271779789993 -182.826349659255 2537.96618312783 13 16 9
-777.479644303141 -182.825730701194 2543.59009525913 13 16 9
-792.456554870824 -183.530827431164 2545.54422081194 12 15 8
-793.742526399812 -183.33711820643 2552.19720783994 13 16 9
-798.948256561372 -183.399694238777 2557.52307758636 14 17 10
-804.159005090928 -183.46211999215 2562.857717974 17 20 13
-802.486295315586 -183.075730920054 2570.47250029702 17 20 13
-793.903523533591 -182.241135489553 2580.31730403358 16 19 12
-799.101155142058 -182.303394339016 2585.62837444889 17 20 13
-812.206507371068 -182.877258151857 2588.40942632838 18 21 14
-820.391666270597 -183.130789753502 2592.81217761758 14 17 10
-828.589031516809 -183.383911989563 2597.23800595133 15 18 11
-817.956263869067 -182.422248928569 2607.58080854366 15 18 11
-823.175290300915 -182.483512512223 2612.93102299101 15 18 11
-841.324786681518 -183.374814397354 2614.31921393631 15 18 11
-838.605254078704 -182.924781153855 2622.14263679385 16 19 12
-817.926188604644 -181.326414316073 2635.34944324426 18 21 14
-834.117014677952 -182.089234188023 2637.40351847834 17 20 13
-854.338687410319 -183.106394158832 2638.3348682589 18 21 14
-871.601557652683 -183.931494269404 2640.22709976467 19 22 15
-690.155397394612 -192.282429316825 2352.64716044359 24 27 18
-673.694463331746 -190.807473688862 2367.22986461973 23 26 17
-665.6423003017 -189.941183051584 2378.06059019723 24 27 18
-666.975992901508 -189.75068723797 2384.80037862858 28 31 24
-671.132933326834 -189.762405675007 2390.32742621095 27 30 23
-674.347884187429 -189.706218060032 2396.25720343732 24 27 20
-675.671439067234 -189.514661193213 2402.97866583566 24 27 20
-676.989174059278 -189.322614174453 2409.69007604308 24 27 20
-671.664188334554 -188.658291327953 2419.13093945202 23 26 19
-678.658643022614 -188.870486393434 2423.47150305879 22 25 18
-692.318577823113 -189.553945771471 2425.1242720797 20 23 16
-700.29395669962 -189.832106037212 2429.13429756496 19 22 15
-703.515266196232 -189.773065535594 2435.07662740516 19 22 15
-699.099149108038 -189.175002699876 2444.05383650385 20 23 16
-705.177092516388 -189.317215656757 2448.8446132774 17 20 13
-710.305043491876 -189.391767468806 2454.02383155748 14 17 10
-708.728323977835 -188.994986076461 2461.81777840848 14 17 10
-732.09323700263 -190.346307722046 2459.96992885668 13 16 9
-768.006557193578 -192.569912087287 2453.44366044966 13 16 9
-759.736878909303 -191.701070914345 2463.87510284219 13 16 9
-772.63695518923 -192.309996109595 2466.26807114643 14 17 10
-750.823149356787 -190.501338207313 2481.68122515009 19 22 15
-753.098612445181 -190.371364969942 2488.02010138445 20 23 16
-758.273538400307 -190.442462057171 2493.28675412035 14 17 10
-784.768306956789 -191.988443231484 2490.79133453444 10 13 6
-753.115765411032 -189.511065557453 2509.45986483075 9 12 5
-747.598549070978 -188.844422883021 2518.54787873397 12 15 8
-742.057650712439 -188.177944037532 2527.59228782333 12 15 8
-767.661697015359 -189.654317413466 2525.59490380317 12 15 8
-769.917359756485 -189.52292547638 2531.89779022429 12 15 8
-759.474270873922 -188.521718759356 2542.60133824362 12 15 8
-767.574272735062 -188.791599812512 2546.84305783978 13 16 9
-777.645241498103 -189.194807556662 2550.43954768367 14 17 10
-788.714446594623 -189.664333802815 2553.73672910581 15 18 11
-795.876635384921 -189.865963626744 2558.38896348134 16 19 12
-801.082824644103 -189.933879830285 2563.71356744506 17 20 13
-795.465862164959 -189.267065896773 2572.61818152535 17 20 13
-798.696013613919 -189.201302173138 2578.57879514262 17 20 13
-797.978088395221 -188.868513164821 2585.81817801358 16 19 12
-811.084236991076 -189.469193753529 2588.59263018279 16 19 12
-815.310289896714 -189.469512323706 2594.25021639125 18 19 13
-807.649343409223 -188.67026884671 2603.66499442558 17 20 13
-817.816715272112 -189.070024161037 2607.43982535431 17 20 13
-837.935297717085 -190.135150877491 2608.16714869356 16 19 12
-853.124169175596 -190.866527412468 2610.50270180579 15 18 11
-847.428920966601 -190.200586619459 2619.26307159282 17 19 14
-832.735102343627 -188.936699116525 2630.68795248068 19 21 16
-830.975385903921 -188.537665207181 2638.14601202187 17 22 16
-845.198893675098 -189.201740904784 2640.84162775081 18 23 17
-854.445135450739 -189.53334177172 2645.05762740114 17 22 16
-864.708722451877 -189.930946845356 2649.01006212317 14 19 13
-756.534294682279 -204.545554415071 2308.19061725623 24 27 20
-723.356987227052 -201.746771838667 2330.49638064107 18 21 12
-710.717991542501 -200.495908869938 2343.58123501844 21 24 15
-681.124293376282 -197.980368492301 2363.93303046149 23 26 17
-655.202773989601 -195.746866016125 2382.49361130755 23 26 17
-670.650575752795 -196.604685137277 2383.1525611598 24 27 20
-688.018261540729 -197.602025013058 2383.07097209856 25 28 21
-681.808664813396 -196.843468363139 2393.02801209596 28 31 24
-668.951353948704 -195.593786970897 2405.71098975348 25 28 21
-677.835782257443 -195.957822535021 2409.25179471119 25 28 21
-683.889785210558 -196.110779271373 2413.9953097428 24 27 20
-683.302541530405 -195.772534250139 2421.47668051311 23 26 19
-690.313286815642 -195.994698578945 2425.84420752715 21 24 17
-701.143513478887 -196.496469092056 2428.69267177524 21 24 17
-701.503542400074 -196.227189897101 2435.78071067185 18 21 14
-683.710917672769 -194.627634745325 2450.06646209457 19 22 15
-686.89891805937 -194.56840000298 2455.94758882463 17 20 13
-701.577179189061 -195.348195827028 2457.32998004116 15 18 11
-723.957048200511 -196.686603873992 2455.78913775896 14 17 10
-730.065674008198 -196.835246661573 2460.63441146878 12 15 8
-740.027376177682 -197.263036494552 2464.02254778188 12 15 8
-766.373412370345 -198.877618071869 2461.23295268087 10 13 6
-765.788161613358 -198.535508554879 2468.71915093595 10 13 6
-758.434715050729 -197.704567668305 2478.70951368876 11 14 7
-749.119300033373 -196.734252637892 2489.36297033128 12 15 8
-763.967577387535 -197.508388062209 2491.05925032108 13 16 9
-748.801273982332 -196.11989192309 2503.76741736599 9 12 5
-774.345904858878 -197.65978408286 2501.64165610361 9 12 5
-739.699347031532 -194.878024681302 2521.24008111708 12 15 8
-730.251430957307 -193.908992034677 2531.64945853344 13 16 9
-757.795240604459 -195.586483854281 2528.92906931324 13 16 9
-757.109316768717 -195.243859584184 2536.2302662304 13 16 9
-773.020523003618 -196.084106378896 2537.74678571313 14 17 10
-775.269498029394 -195.949634722233 2544.03880258825 15 18 11
-778.495185605436 -195.884692307343 2549.99095934489 16 19 12
-788.586040355913 -196.306098915465 2553.61855035814 16 19 12
-801.640827888561 -196.935280968694 2556.28996917813 17 20 13
-806.854047125949 -197.008254173847 2561.6259818049 18 21 14
-807.148526402003 -196.733846678706 2568.59500514932 18 21 14
-816.308558250265 -197.084023473294 2572.64686285926 17 20 13
-815.611151436666 -196.740117814663 2579.92732582861 16 19 12
-821.822752277268 -196.881625504362 2584.96413506213 16 19 12
-808.245183696728 -195.636562024606 2596.32103884028 19 20 14
-807.507690846589 -195.293106054605 2603.52814529758 18 21 14
-807.752105369679 -195.019058377569 2610.40498223423 18 21 14
-849.723593290051 -197.653144542356 2604.32284678949 18 21 14
-851.995908071457 -197.516531774715 2610.65792936142 18 21 14
-843.306145414499 -196.61895334686 2620.32540195337 18 20 15
-834.585421150742 -195.72206671155 2629.93521822831 20 22 17
-836.820366832903 -195.586107633861 2636.20187988337 17 22 16
-831.051644959667 -194.897433954556 2644.83345023219 18 23 17
-851.296114936821 -196.005259927778 2645.77946310733 17 22 16
-872.586657482936 -197.18128883458 2646.51408466924 13 18 12
-662.783795603076 -203.493268914849 2364.49777635397 21 24 15
-666.943343690439 -203.5115742315 2370.02763908738 21 24 15
-658.871126859286 -202.581202484392 2380.84024837733 22 25 16
-663.018322305428 -202.598768566578 2386.3476146563 24 27 20
-676.604595306418 -203.344825121303 2387.84658614984 25 28 21
-675.099525760244 -202.924086846237 2395.77951469025 27 30 23
-662.225851178105 -201.629042944298 2408.44603795984 25 28 21
-673.944258391046 -202.227722833647 2410.78408606539 25 28 21
-682.839216416936 -202.607173331396 2414.33962149361 25 28 21
-684.148227717819 -202.403794648733 2421.03789067146 24 27 20
-687.354411616978 -202.345584238693 2426.9521521558 22 25 18
-694.371128924937 -202.577958882118 2431.32759234932 22 25 18
-684.225337699746 -201.50106466057 2442.60068577008 19 22 15
-674.042728722295 -200.424463031458 2453.80648089124 19 22 15
-677.216330028357 -200.365399753861 2459.6610735255 18 21 14
-698.58988232496 -201.686006803435 2458.38958388341 16 19 12
-723.848851526266 -203.295775393128 2455.71742542442 16 19 12
-717.47059304226 -202.508855593635 2465.37279512147 15 18 11
-723.569291428428 -202.66529812521 2470.19746494561 14 17 10
-740.269154255156 -203.619238841431 2471.01547812416 12 15 8
-758.933556543132 -204.717159659885 2471.17323660895 11 14 7
-764.119686522517 -204.799200568949 2476.45670030328 10 13 6
-761.574827814364 -204.301234489878 2484.61579470141 10 13 6
-772.569368064815 -204.817356825761 2487.76214567747 12 15 8
-776.797674333576 -204.825889546094 2493.42090181791 9 12 5
-765.49469474539 -203.676119948101 2504.70293370745 9 12 5
-752.208466392077 -202.38202980943 2516.61040860504 13 16 9
-768.080105591567 -203.258555507593 2518.04324726357 13 16 9
-747.92114745077 -201.458884404624 2532.26716233437 14 17 10
-773.571159165908 -203.057319426116 2530.31761055342 14 17 10
-782.666190099536 -203.426146465477 2534.24481545708 16 19 12
-781.990860080681 -203.072169195348 2541.56891042197 16 19 12
-777.385385370071 -202.429267561754 2550.21134032962 16 19 12
-788.457049119235 -202.941576163209 2553.50068234314 16 19 12
-805.443599129069 -203.886135042232 2554.84878680536 17 20 13
-826.400870342997 -205.118335514019 2554.9530654367 17 20 13
-822.778755990463 -204.547042583615 2563.26774066149 17 20 13
-824.069556292779 -204.336230661633 2569.93525607173 16 19 12
-817.454128033713 -203.549121565536 2579.1544842641 15 18 11
-814.768022628697 -203.05041482129 2587.05402298439 15 18 11
-807.115374041905 -202.192102033679 2596.50182576619 18 19 13
-806.374152739063 -201.83796398042 2603.70478300492 16 19 12
-823.491541482927 -202.778837634925 2605.29463196394 17 20 13
-829.710343127132 -202.927941105122 2610.34240057481 18 21 14
-842.903679509776 -203.579995114508 2613.26175789149 20 23 16
-846.156351584325 -203.512899618311 2619.26419153491 20 22 17
-833.442309112219 -202.296437147573 2630.08587693753 21 23 18
-839.671293793328 -202.445242091785 2635.15246378178 18 23 17
-866.917378299324 -204.101076240497 2634.00632024326 18 23 17
-852.151355764408 -202.742175279924 2645.32647330155 16 21 15
-845.362868886404 -201.958013301992 2654.22652890028 12 17 11
-618.569206167684 -206.513856917621 2383.78866520986 19 22 13
-645.230266818507 -208.351000361737 2379.39672910887 20 23 14
-656.892725147029 -208.976786787913 2381.62322126646 21 24 15
-664.807041639471 -209.299458895757 2385.50755624525 24 27 20
-665.181870468785 -209.016944865527 2392.62679486558 24 27 20
-660.822100443683 -208.356463380321 2401.72640709357 23 26 19
-653.601415465528 -207.469371284605 2411.97732420732 24 27 20
-661.518190694465 -207.790300542118 2415.86670536263 25 28 21
-667.549260323603 -207.959602489232 2420.56312648086 25 28 21
-683.092643515151 -208.882935450271 2421.37816659243 24 27 20
-691.055129208199 -209.201989003721 2425.35167744004 23 26 19
-685.686862206533 -208.464675238875 2434.73488861381 22 25 18
-667.888084085239 -206.747520150178 2449.04519186628 21 24 17
-660.544521794744 -205.860000444107 2459.07024380511 20 23 16
-668.483213205253 -206.177891555187 2463.00084644676 20 23 16
-688.891924168619 -207.474117583433 2462.07696898159 20 23 16
-716.063285293544 -209.296175215777 2458.62860930046 19 22 15
-720.239148931457 -209.310473139609 2464.18918016826 17 20 13
-708.06091240883 -208.04555913558 2476.01088074428 16 19 12
-707.401976312085 -207.683586940791 2483.36753136264 14 17 10
-758.215836403735 -211.017777627024 2478.53298960524 10 13 6
-775.005575171556 -212.00651492393 2479.50583694464 10 13 6
-780.207954466936 -212.093002683724 2484.81835307336 9 12 5
-766.017842250682 -210.677491097727 2497.21473415953 9 12 5
-756.63654590078 -209.637881414436 2507.76786140123 10 13 6
-767.642752516177 -210.17436859751 2510.92954480607 14 17 10
-767.958310205699 -209.885142854131 2517.94128711142 14 17 10
-773.140545419353 -209.970747805497 2523.2170200827 15 18 11
-789.067246906951 -210.880475631536 2524.74114373679 15 18 11
-785.47477318375 -210.290866781903 2533.11584146553 16 19 12
-777.948240808296 -209.401744214651 2542.8048600942 17 20 13
-778.234394586381 -209.11201371532 2549.76317928367 17 20 13
-790.290110708152 -209.720503668763 2552.7186498378 16 19 12
-796.472148177169 -209.879380938881 2557.69586324262 17 20 13
-812.502171531249 -210.785987566919 2559.4109532456 17 20 13
-822.653128292918 -211.243136191476 2563.13833442501 17 20 13
-815.062272219905 -210.35430688363 2572.70896186435 16 19 12
-815.346009148768 -210.063718834078 2579.6630939113 16 19 12
-814.63249968765 -209.698496648166 2586.92035151032 15 18 11
-804.993627691244 -208.661304209144 2596.99902328947 17 18 12
-800.280025985679 -207.998063700028 2605.44870428378 16 19 12
-808.455281127406 -208.305042653363 2609.81767224814 17 20 13
-822.609335535982 -209.059228393867 2612.35845258484 18 21 14
-838.782791489201 -209.961999829207 2614.33849459587 21 24 17
-847.013848659902 -210.267751060567 2618.80995761708 20 22 17
-834.294375022094 -209.008513974036 2629.63451735175 21 23 18
-844.522352606646 -209.463150037711 2633.50430943855 18 23 17
-837.754325334277 -208.651740901028 2642.45018777919 18 23 17
-839.979179081437 -208.510729852217 2648.69930351799 16 21 15
-662.201974378144 -216.928693391912 2357.27258434365 23 26 17
-669.179911160934 -217.187674687368 2361.56819465602 25 28 19
-650.774658778327 -215.331788925949 2376.91959979607 20 23 14
-649.261410243371 -214.885534992457 2384.84566303019 20 23 14
-651.507325738478 -214.752191022244 2391.13120950769 21 24 17
-642.417875663798 -213.679620773948 2402.23100716766 22 25 18
-652.207571061164 -214.171442890936 2405.28353581845 24 27 20
-662.961941046052 -214.740827823515 2407.97215272161 24 27 20
-666.150722469219 -214.684006416286 2413.85399017911 24 27 20
-671.238347321564 -214.783115181729 2418.95115232966 24 27 20
-690.593156814134 -216.053629515517 2418.21199362677 24 27 20
-698.566166368578 -216.385734525272 2422.20093492292 23 26 19
-693.203692081276 -215.624125423308 2431.6021060777 22 25 18
-671.587519549707 -213.535810939068 2447.46284240497 21 24 17
-664.24389116943 -212.618747681857 2457.4966571659 19 22 15
-664.529705138465 -212.325830440464 2464.45530970562 20 23 16
-678.22759862833 -213.124446687312 2466.14376580055 21 24 17
-711.151380477298 -215.481404004112 2460.42399174339 19 22 15
-723.008746352536 -216.121918434644 2463.00502961309 16 19 12
-711.79007680583 -214.892052789504 2474.46570536913 16 19 12
-688.966843883553 -212.72797057475 2490.2445262115 15 18 11
-696.955345342745 -213.056345785791 2494.26308157288 14 17 10
-737.811859274208 -216.03041039055 2486.02806707012 11 14 7
-776.833371356798 -218.846720998718 2478.69569263541 11 14 7
-779.130990085569 -218.705079816693 2485.07882592808 9 12 5
-759.110721501247 -216.774943879402 2499.59704990972 8 11 4
-763.315574973003 -216.789046200039 2505.21150143012 10 13 6
-786.005768142818 -218.279162114802 2504.19578004053 14 17 10
-783.420905102164 -217.748405483961 2512.29115999744 15 18 11
-782.770988795741 -217.373030929035 2519.66843002799 15 18 11
-800.666818203911 -218.472568461963 2520.52746030965 15 18 11
-782.416817144242 -216.699834694986 2534.02409180763 17 20 13
-783.694345297371 -216.479608452659 2540.6700284033 17 20 13
-780.063737023716 -215.871486245487 2548.98015710517 17 20 13
-800.960192607451 -217.201702304454 2548.94361358697 15 18 11
-796.341879076591 -216.515877910969 2557.57533835031 15 18 11
-798.593382784582 -216.372658675861 2563.87413227139 16 19 12
-813.655624126703 -217.236042355264 2565.93759641898 17 20 13
-836.644435709517 -218.718111572238 2565.47350851401 17 20 13
-830.036283433155 -217.877145138073 2574.72231460962 17 20 13
-811.527475519976 -216.108320493529 2587.74177759159 17 20 13
-805.842346854506 -215.345885565636 2596.54977689862 18 19 13
-798.149555859056 -214.429316650996 2605.94126933127 17 20 13
-810.296246336081 -215.058822443597 2609.05773839167 19 22 15
-828.434362041403 -216.151543538887 2610.36392292348 19 22 15
-846.610703580081 -217.243395818896 2611.74067299902 19 22 15
-848.868479249345 -217.099010643604 2618.05185706664 19 21 16
-835.146342016286 -215.719823825599 2629.18320648766 21 23 18
-831.378720148945 -215.113096826335 2637.24092265733 18 23 17
-837.604230875531 -215.278015258465 2642.29627459822 19 24 18
-856.86884037684 -216.445131358411 2643.53711501929 18 23 17
-670.137718244232 -224.526507933238 2346.31822981431 16 19 12
-675.249391048824 -224.634402333701 2351.4574827477 20 23 14
-721.705367622512 -228.30576697669 2338.50660379709 25 28 19
-653.87135268247 -221.797590996156 2382.78588366882 22 25 16
-652.3483019231 -221.337713783598 2390.69751139156 22 25 18
-665.92705892805 -222.172138321424 2392.15608546974 23 26 19
-665.344082664316 -221.7923622329 2399.65779407033 22 25 18
-678.012479318475 -222.544559149339 2401.58157648005 23 26 19
-676.47742302702 -222.083142758857 2409.47209094928 23 26 19
-685.377935053093 -222.51062530187 2413.02339693974 23 26 19
-702.854246136825 -223.664643352842 2413.09396889106 23 26 19
-713.701477713794 -224.252126306161 2415.94793272285 24 27 20
-698.817555832817 -222.658597905946 2429.23710839771 24 27 20
-678.154000378076 -220.581247271636 2444.73128049758 19 22 15
-667.945158170369 -219.392539935059 2455.92203625146 20 23 16
-665.360730908659 -218.849487670282 2464.0219152435 19 22 15
-678.103328099594 -219.596842062851 2466.08362220993 17 20 13
-698.55307102661 -220.988452745375 2465.20703005497 22 25 18
-726.741209033331 -223.023679813488 2461.44930020421 17 20 13
-696.26504608651 -220.141985202991 2480.28768823482 17 20 13
-695.584783368729 -219.758908296927 2487.61196619013 16 19 12
-695.859326393623 -219.456198372713 2494.55283427763 15 18 11
-757.026824458759 -224.225158639449 2478.71934217597 13 16 9
-782.533736828075 -226.01314059479 2476.44960383603 13 16 9
-775.144494767941 -225.0641531663 2486.40963124887 8 11 4
-763.844544406709 -223.79383425384 2497.73298193369 8 11 4
-777.773211097636 -224.614460600788 2499.8392530892 10 13 6
-783.944903340634 -224.791364931127 2504.79201861856 14 17 10
-804.740153205756 -226.173011526129 2504.55387308908 15 18 11
-796.310218057237 -225.143789761013 2514.73829951452 14 17 10
-787.848690415017 -224.114975631802 2524.8650032469 15 18 11
-783.269159642511 -223.407653843133 2533.5745212926 17 20 13
-792.382749370938 -223.824031191436 2537.5210555697 17 20 13
-786.798140490267 -223.036527445252 2546.52146780237 16 19 12
-796.904626538714 -223.532554179505 2550.15536776408 15 18 11
-794.243829377831 -222.98580241338 2558.11590111507 11 14 7
-796.491053325752 -222.839975151371 2564.40760806665 13 16 9
-808.595579856346 -223.495241555755 2567.43827894 14 17 10
-834.545344840198 -225.271154809071 2565.98665656377 15 18 11
-834.850130193736 -224.964066728173 2572.98446240869 15 18 11
-818.318581508479 -223.296321948211 2585.38046992196 15 18 11
-813.629224352089 -222.589689431879 2593.88829420179 16 17 11
-815.866444027923 -222.443449503001 2600.16172557185 16 19 12
-825.056993708043 -222.856842305867 2604.25070073891 18 21 14
-846.203135137579 -224.228992491116 2604.66076450317 17 20 13
-841.490645440267 -223.522604006484 2613.12546619584 16 19 12
-831.768985128634 -222.417263662339 2623.07236870105 19 21 16
-829.005879076343 -221.871552928002 2630.84442429904 20 22 17
-838.229465368748 -222.284020531659 2634.99443804263 18 23 17
-850.472499025155 -222.935660004802 2638.28144369647 19 24 18
-870.760932580463 -224.225101415783 2639.25319373919 19 24 18
-850.930087620295 -222.323616751914 2651.99638693534 15 20 14
-670.054472188698 -231.123536947008 2346.29656196697 20 23 16
-686.428537269231 -232.241160711997 2346.46564651494 19 22 13
-670.735832418475 -229.817029085813 2375.43701008946 23 26 17
-664.513988161913 -228.925314226212 2385.41156815055 23 26 19
-676.221875879022 -229.621761532572 2387.70036400398 23 26 19
-683.220911159849 -229.899608660217 2392.02960918613 23 26 19
-682.648940927547 -229.508474662998 2399.55497544824 22 25 18
-679.219461458548 -228.866581319959 2408.24517236658 22 25 18
-690.024724102882 -229.477017737765 2411.01504509002 22 25 18
-703.705101192501 -230.337086096416 2412.65230113422 23 26 19
-703.121341873254 -229.944615267145 2420.15638713118 23 26 19
-692.985626094058 -228.717665437841 2431.49364028491 23 26 19
-682.81355747636 -227.490998890646 2442.76344451197 20 23 16
-690.782030611009 -227.848861494425 2446.73629665002 19 22 15
-687.266975513659 -227.205832339303 2455.2699502022 18 21 14
-694.285857593766 -227.479511846545 2459.63644631241 16 19 12
-697.472186879866 -227.419351584901 2465.51477790747 22 25 18
-707.391122027529 -227.941838039043 2468.79578058996 19 22 15
-703.843742923354 -227.298098771743 2477.26969370577 18 21 14
-681.953538857975 -225.07312547906 2492.66753231798 16 19 12
-703.453670691255 -226.593244891831 2491.56884790279 16 19 12
-740.474649249835 -229.443033690439 2484.7771630448 13 16 9
-779.522312609125 -232.457039042508 2477.43343456494 11 14 7
-774.063569745302 -231.645078641649 2486.67218772764 10 13 6
-761.784730310529 -230.251485710117 2498.34755770398 10 13 6
-765.01920675383 -230.187797676646 2504.31550156976 12 15 8
-787.722739999341 -231.784882507419 2503.29214718529 16 19 12
-800.72984684509 -232.550359033328 2505.83488589193 15 18 11
-801.073622670051 -232.236188720805 2512.90653209557 15 18 11
-784.794394792346 -230.511373157144 2525.78376594506 15 18 11
-780.206900561296 -229.782815185478 2534.48502391072 14 17 10
-788.337169349781 -230.132400975374 2538.75844099408 14 17 10
-798.442487423816 -230.647409082993 2542.38448473595 14 17 10
-798.740401913037 -230.333075824726 2549.37183258817 14 17 10
-795.095060227266 -229.68743048807 2557.66614786255 14 17 10
-808.177655343456 -230.449880904697 2560.3486332683 15 18 11
-814.381108849566 -230.632197711093 2565.35818590114 16 19 12
-819.604288659876 -230.731405855019 2570.70462843316 17 20 13
-813.953675087501 -229.920343560361 2579.59073056714 17 20 13
-819.172269282514 -230.019429043924 2584.92877620368 17 20 13
-832.327716838348 -230.779830157654 2587.74586678902 19 20 14
-838.558945660697 -230.961048061831 2592.8068337525 19 22 15
-849.767895431536 -231.555095978819 2596.3240890262 20 23 16
-849.052618509802 -231.157514245289 2603.58782714628 20 23 16
-838.35966307623 -229.934245611251 2613.89910802938 19 22 15
-837.610160139845 -229.537307796992 2621.09970463213 21 23 18
-838.848676531179 -229.305578764069 2627.67684637909 21 23 18
-846.084721115273 -229.56890401883 2632.44636189014 20 25 19
-855.334526111297 -229.997013351852 2636.63989280669 18 23 17
-869.614963262605 -230.837145363176 2639.38726816615 22 27 21
-842.742992525237 -228.297421907042 2654.17708365372 12 17 11
-699.9746279096 -240.478621184834 2332.94808679617 20 23 16
-683.9567317226 -238.296200772629 2354.90327017378 21 24 15
-674.017469579125 -237.032344691012 2366.61293585255 24 27 18
-674.412642204111 -236.718153230379 2373.77911649595 25 28 19
-676.687953185223 -236.576127714347 2380.12133735345 24 27 20
-691.250421363129 -237.555099861653 2381.23036343914 24 27 20
-683.123062438419 -236.463454118221 2391.99055913145 24 27 20
-685.392180166309 -236.320320578136 2398.32172267419 22 25 18
-672.47003883246 -234.797830618195 2410.96750461635 22 25 18
-687.069680429213 -235.774382519547 2412.14613145588 22 25 18
-696.94084319799 -236.319418836406 2415.33249080656 22 25 18
-702.064095194427 -236.433052787683 2420.49080973474 22 25 18
-693.829852045926 -235.341025342349 2431.05454065038 22 25 18
-688.431617988168 -234.507249743103 2440.41114082597 21 24 17
-694.49370812411 -234.706230775895 2445.15619342098 20 23 16
-698.646908421045 -234.732675399507 2450.67142950473 17 20 13
-691.286672735854 -233.726676521551 2460.70194947984 15 18 11
-687.741378345468 -233.064772205789 2469.18515938 19 22 15
-700.534932089485 -233.864049639172 2471.3249703711 20 23 16
-680.595441692494 -231.741090860556 2486.04974608091 17 20 13
-686.642578274125 -231.938386780429 2490.76729887015 16 19 12
-694.62903780257 -232.306879860765 2494.77053869755 16 19 12
-743.257520899968 -236.280702122396 2483.60903611734 15 18 11
-768.759118523712 -238.191947255951 2481.29245513649 14 17 10
-771.040912248421 -238.042608067398 2487.64930256131 11 14 7
-785.946036223613 -239.008163846765 2489.39256967905 11 14 7
-775.596068050994 -237.743376345078 2500.34664799076 12 15 8
-777.869179151484 -237.593400054002 2506.68721383388 14 17 10
-806.466860107932 -239.757085755583 2503.64458209385 13 16 9
-793.146456974486 -238.235320280942 2515.55767015257 12 15 8
-778.804197477466 -236.628577764627 2527.73173186912 12 15 8
-776.162648608061 -236.050043436048 2535.73722402679 12 15 8
-797.031546944134 -237.525886702642 2535.60620451502 12 15 8
-807.149696839003 -238.059382598801 2539.24978439881 13 16 9
-810.405400991456 -237.99361003607 2545.25739675177 13 16 9
-814.644751476303 -238.013033166681 2550.93369448426 13 16 9
-817.900992761448 -237.946899675698 2556.9424032609 15 18 11
-812.276371419717 -237.111419684736 2565.88365276283 16 19 12
-797.736343842046 -235.507327640949 2577.69318589106 17 20 13
-806.892375902405 -235.953984784835 2581.70867357227 17 20 13
-828.940851158758 -237.510267960824 2581.60812165619 17 20 13
-846.078932596675 -238.638647587829 2583.17913697794 19 20 14
-857.293530903027 -239.254195608703 2586.70031539981 18 21 14
-852.617498563012 -238.504415520945 2595.24511759188 20 23 16
-834.975791543751 -236.646298838971 2607.77189406692 20 23 16
-842.205226911866 -236.920634201615 2612.52594305228 20 23 16
-840.459995061525 -236.427713168703 2620.03887624443 20 22 17
-855.694627284378 -237.38343628483 2622.39112595879 21 23 18
-840.933243202898 -235.783311544222 2633.79285533562 17 22 16
-861.201121689179 -237.164262073247 2634.69978636995 15 20 14
-876.495343830333 -238.118861969831 2637.1619705777 19 24 18
-709.747860002173 -247.716789959312 2336.05636601596 14 17 8
-711.147623132453 -247.483290403393 2342.9311065739 21 24 15
-665.449489112794 -242.799558043176 2370.27004081407 24 27 18
-671.489363795623 -243.011358075003 2374.96987595376 26 29 20
-688.869988658541 -244.290069982901 2374.82696541946 25 28 21
-698.723112926834 -244.856179405573 2377.97381155058 24 27 20
-694.388540150162 -244.087887911232 2387.15269111283 26 29 22
-681.498258598914 -242.519638460516 2399.87082985091 24 27 20
-681.85811579676 -242.195822462243 2406.97495329196 24 27 20
-683.160943005383 -241.960609534775 2413.67142203084 24 27 20
-687.314612744184 -241.991452561698 2419.18670305442 23 26 19
-694.330996678211 -242.288356009448 2423.54212493068 23 26 19
-687.035750272805 -241.253130152213 2433.70045696215 23 26 19
-689.272453800898 -241.105537330086 2439.97334588621 21 24 17
-691.505976199903 -240.957659288294 2446.24097414985 21 24 17
-688.94334023052 -240.365894817506 2454.39558009383 21 24 17
-689.244969539951 -240.040199954466 2461.39267260913 17 20 13
-690.499373272576 -239.802936096389 2468.00120275497 13 16 9
-699.448649078258 -240.274390820542 2471.6289708525 16 19 12
-692.027804608117 -239.239096626544 2481.55682995245 18 21 14
-693.26453467337 -239.001243642921 2488.1325279223 19 22 15
-703.193239014667 -239.560071478431 2491.42056930674 20 23 16
-737.332265107734 -242.33142679596 2485.69643326227 15 18 11
-755.080461701093 -243.596397978844 2486.23419048599 13 16 9
-768.986120457585 -244.506431686178 2488.27075492188 8 11 4
-793.606821967181 -246.388605020625 2486.45809153169 10 13 6
-789.09824820923 -245.616740680344 2495.31752177194 11 14 7
-806.973936571966 -246.878125583159 2496.09083805995 12 15 8
-808.30564989548 -246.636187101797 2502.84245614423 13 16 9
-800.840899222133 -245.599111286011 2512.69009950801 12 15 8
-773.787134982253 -242.795945474524 2529.33958562961 12 15 8
-771.135677810654 -242.201516103079 2537.33163459115 12 15 8
-799.847829041069 -244.431759235001 2534.47901506539 11 14 7
-810.952703023508 -245.072217896033 2537.7903950606 11 14 7
-820.111085676826 -245.535541487085 2541.80569819993 11 14 7
-837.16072339471 -246.704031919987 2543.20198723437 12 15 8
-846.359597556136 -247.166282449996 2547.29208432717 13 16 9
-817.078822434291 -244.190767790578 2564.12762346016 14 17 10
-821.316297608061 -244.212663545465 2569.79922433927 15 18 11
-839.410469207749 -245.467546889702 2570.97632626581 15 18 11
-851.597646762875 -246.193208203771 2574.1378381885 15 18 11
-859.838862970003 -246.566140463255 2578.60778276686 15 16 10
-835.307121815582 -244.034600682419 2593.4696472611 16 19 12
-835.572528861908 -243.703991517197 2600.40210251364 18 21 14
-818.896784997324 -241.878306215115 2612.58040488802 18 21 14
-839.071265338195 -243.306871720717 2613.30124088055 18 21 14
-854.296129619759 -244.295032659751 2615.62577082887 18 20 15
-838.553556796543 -242.558453078394 2627.37874949739 18 20 15
-860.808200140761 -244.161116101546 2627.64292661103 14 19 13
-853.036012501203 -243.128173965199 2636.92389429177 12 17 11
-857.281137556912 -243.149446826941 2642.60975201481 17 22 16
-720.468880499995 -255.829731833737 2323.72533508446 18 21 14
-672.089902171007 -250.730228915135 2352.60364134773 15 18 9
-718.598773229134 -254.893467805552 2339.6021279596 19 22 13
-683.255970902637 -251.079026979984 2362.46018031041 24 27 18
-657.241349049615 -248.182389703875 2381.0494517183 26 29 20
-679.329939920343 -249.959631667833 2378.84092918422 25 28 21
-705.254419800886 -252.101990671331 2375.11730133451 24 27 20
-696.187968665207 -250.854244069091 2386.31207748371 26 29 22
-696.574127148573 -250.522315168932 2393.46701350298 25 28 21
-690.302542044425 -249.549413897096 2403.37450356057 25 28 21
-690.663450922879 -249.217194783343 2410.48308822916 25 28 21
-690.063765117603 -248.793182988057 2417.96736755472 24 27 20
-691.360881129339 -248.551865190106 2424.65567247011 23 26 19
-687.876991529425 -247.853126482769 2433.26289385209 23 26 19
-689.156604726864 -247.611426222174 2439.9191229175 21 24 17
-691.388534589462 -247.460817633854 2446.18413910585 21 24 17
-679.232414703169 -245.939431763812 2458.12364274267 23 26 19
-677.597946380458 -245.423269856081 2465.84727926859 18 21 14
-690.373836502848 -246.276882855953 2467.93826378233 13 16 9
-707.989413024709 -247.586036218833 2468.21882201052 14 17 10
-707.324381845798 -247.160025390732 2475.58352043924 15 18 11
-711.475849956804 -247.190244659276 2481.09493984555 19 22 15
-748.826767420369 -249.985395773348 2481.27090135726 14 17 10
-760.778314228834 -250.743111881258 2483.98940584615 10 13 6
-763.046254110376 -250.58867877256 2490.32230537909 6 9 2
-789.609420449923 -252.712028161089 2487.77905489519 10 13 6
-807.47501311629 -254.014127204408 2488.52155975137 11 14 7
-820.506577256861 -254.859850357772 2491.08514801439 12 15 8
-832.587817043378 -255.613717618838 2494.0433389508 13 16 9
-798.769449228623 -252.089191377483 2513.27301851969 13 16 9
-767.787546863902 -248.839341973996 2531.29247582056 13 16 9
-775.901110308979 -249.229720612302 2535.52290145773 12 15 8
-796.779713162712 -250.801908694129 2535.38025314615 12 15 8
-811.81091482783 -251.827533536685 2537.33733606484 12 15 8
-831.79020269174 -253.30675793825 2537.68394332106 11 14 7
-849.843188337645 -254.603139267587 2538.77281744884 13 16 9
-845.254395428022 -253.809540128048 2547.49124616844 15 18 11
-836.694888331901 -252.652961249925 2557.47616940594 16 19 12
-838.979699042357 -252.495459554954 2563.8405160123 16 19 12
-854.131109156069 -253.517762113505 2566.01968325206 17 20 13
-870.304068306521 -254.630040253592 2567.93631268087 17 20 13
-856.734115897225 -253.020486213597 2579.41683403779 17 18 12
-844.113788331034 -251.502441863643 2590.50157030361 16 19 12
-810.554440929129 -248.081489817732 2608.06168934862 17 20 13
-812.770192994006 -247.924987741531 2614.29872391623 17 20 13
-832.941486293456 -249.399266745296 2614.99995133917 16 19 12
-863.146036958493 -251.778371959027 2612.73256101092 15 17 12
-872.414169003748 -252.254538501432 2616.94534688687 18 20 15
-854.655443476559 -250.286401693718 2629.28948614862 15 20 14
-869.936011724176 -251.305661358556 2631.70761803683 16 21 15
-844.078111870504 -248.615271492788 2646.29249969669 21 26 20
-641.923455382705 -254.278546562032 2365.84841399009 21 24 15
-633.813262029795 -253.092331794361 2376.66861921057 19 22 13
-685.051391356715 -257.849834859414 2361.61136064364 23 26 17
-677.903966024322 -256.756714501263 2372.05897266826 26 29 20
-683.959359641745 -256.983870054942 2376.78273222479 24 27 20
-675.82589765366 -255.796277888047 2387.56055639869 23 26 19
-683.772037302768 -256.211163000369 2391.4756895522 26 29 22
-685.088020330952 -255.965807426655 2398.19940434946 25 28 21
-690.199392823462 -256.096927253022 2403.3311205754 24 27 20
-690.558010150341 -255.756667935774 2410.43740427906 24 27 20
-679.473675134231 -254.286279454924 2422.21798028214 23 26 19
-680.754428981535 -254.039956694681 2428.87769729429 22 25 18
-684.896285864114 -254.075695140887 2434.36927592237 22 25 18
-698.607706306094 -255.05182995789 2436.02922694294 22 25 18
-691.270308258964 -253.957781012879 2446.12772377669 19 22 15
-681.025819919172 -252.581745769861 2457.30975752245 21 24 17
-676.508884513283 -251.770214321238 2466.16573791048 20 23 16
-682.551961940123 -251.992553087733 2470.86829425865 20 23 16
-704.977055389453 -253.811877134841 2469.26600630344 16 19 12
-714.914874901568 -254.408708622782 2472.55938364249 15 18 11
-714.246673503877 -253.971804140644 2479.92152741436 15 18 11
-748.383043149444 -256.914961873182 2474.14084104415 15 18 11
-758.392013984229 -257.509468871803 2477.56577765312 12 15 8
-757.752380892774 -257.071101512437 2484.98090366373 10 13 6
-765.840502273489 -257.477027994205 2489.15986114212 6 9 2
-777.830384728141 -258.25768671572 2491.9419725382 10 13 6
-804.446157191557 -260.444079604454 2489.47702002589 11 14 7
-817.475823588374 -261.31659252657 2492.02906173997 10 13 6
-810.032372015453 -260.220379327389 2501.93315765336 12 15 8
-790.831130056501 -258.000295448597 2515.93011503646 10 13 6
-766.676559012013 -255.31287912442 2531.53253947261 10 13 6
-772.829261589425 -255.529421731432 2536.43845947533 12 15 8
-804.502797314735 -258.179599001392 2532.56118036712 12 15 8
-811.686324230257 -258.488397943662 2537.22043141305 12 15 8
-829.702416357841 -259.826017446202 2538.22854619995 13 16 9
-843.816033686248 -260.788558676003 2540.63229845786 14 17 10
-829.351035505673 -259.038687745325 2552.62366312538 15 18 11
-830.642753833628 -258.785321044542 2559.30566407777 16 19 12
-833.907117082944 -258.7189135709 2565.32939301879 17 20 13
-846.083888995804 -259.493151510266 2568.45715904653 17 20 13
-849.359144993257 -259.426318882021 2574.50104958913 17 20 13
-843.698004199593 -258.518949226191 2583.39675191382 18 19 13
-838.013369183784 -257.612095695077 2592.24908887353 17 20 13
-836.28724230127 -257.07888503703 2599.80927552847 17 20 13
-803.648573805749 -253.653709182748 2616.94916172667 16 19 12
-826.806856366312 -255.45360733815 2616.70118391696 15 18 11
-851.015587604081 -257.34570540753 2616.24264685282 14 16 11
-861.269592136587 -257.931503846128 2620.12086392755 18 20 15
-866.531996234392 -258.051162297284 2625.5332972295 16 21 15
-862.770507367381 -257.332152869788 2633.63605881496 17 22 16
-847.94137251879 -255.589072158274 2644.95617208285 21 26 20
-688.40642888589 -265.953877569327 2337.85042036935 19 22 13
-668.151352686442 -263.472963793787 2354.21772449826 19 22 13
-679.845083445799 -264.291834152909 2356.44366791503 15 18 9
-687.790365375204 -264.721883837394 2360.35215901284 24 27 18
-691.971404166023 -264.763214180458 2365.91462295122 27 30 21
-684.809362907961 -263.640546265088 2376.34423920337 23 26 19
-673.831327274792 -262.13012979587 2388.33235640629 21 24 17
-664.710351945408 -260.813780541017 2399.44748290316 23 25 20
-683.086318649982 -262.307780314244 2398.95564644204 22 25 18
-688.194518989567 -262.444342641539 2404.07938758117 23 26 19
-666.653523193961 -259.868537700975 2420.22498635659 24 27 20
-663.155909094014 -259.133240700211 2428.81846398153 24 27 20
-675.866983741046 -260.043728336073 2430.77263337141 24 27 20
-689.559071774543 -261.050110411614 2432.38793257728 24 27 20
-693.70828818317 -261.088038021425 2437.89289263072 22 25 18
-684.442329804421 -259.771228948716 2448.74150715996 22 25 18
-682.82001734785 -259.228450561538 2456.49550467921 20 23 16
-683.106210102289 -258.878862769005 2463.47189591255 20 23 16
-697.818126046426 -259.979109342549 2464.81981811919 19 22 15
-703.888879466642 -260.208740981597 2469.57108254027 17 18 12
-706.107645546378 -260.051434861611 2475.81390222342 17 18 12
-714.120326301311 -260.473354962691 2479.84879678025 17 18 12
-735.689307410167 -262.246708166623 2478.80109019269 17 18 12
-776.681615715145 -265.949609943437 2470.5966494695 13 14 8
-789.643820266861 -266.851288768151 2473.01584575215 10 11 5
-779.320256891931 -265.436574308884 2484.06357351808 8 9 3
-793.274910450416 -266.433861788766 2486.16451350358 10 11 5
-794.597274846742 -266.176612490244 2492.90354149521 10 11 5
-794.9387813543 -265.822879787725 2499.98291126151 9 10 4
-806.013188358688 -266.529321112652 2503.21891878849 10 11 5
-790.708563708709 -264.633364072888 2515.825292131 11 14 7
-757.731849388637 -261.004158892004 2534.51960571333 11 14 7
-777.597228854479 -262.577390763119 2534.62844462813 12 15 8
-805.359246026851 -264.91980893588 2532.1094213302 13 16 9
-810.578348123546 -265.046896403888 2537.43998029906 14 17 10
-815.802023490666 -265.173665401249 2542.7795503604 16 19 12
-816.103165580526 -264.819231586086 2549.78489344736 15 18 11
-831.198002377164 -265.907441720265 2551.84019224134 13 16 9
-814.705160841308 -263.918029969981 2564.40412134425 14 17 10
-822.894224546076 -264.332740413353 2568.76608862511 16 19 12
-829.114641355427 -264.554858253987 2573.79487084718 15 18 11
-826.415008703596 -263.912077133869 2581.71285672036 14 17 10
-836.611734972667 -264.518261830489 2585.47909380745 17 18 12
-834.891683796007 -263.971656213284 2593.05498718516 15 18 11
-842.120740697299 -264.289308082436 2597.79531390766 15 18 11
-824.432711084886 -262.207470053631 2610.30366820978 17 20 13
-840.634966283154 -263.388738009921 2612.25292746159 19 22 15
-852.871750641628 -264.185660434815 2615.48424560492 18 20 15
-876.141843157919 -266.036993341313 2615.42643915432 19 21 16
-872.402781248308 -265.298926653776 2623.57617892359 19 24 18
-873.662854034514 -265.040382453629 2630.20153494269 14 19 13
-844.773201906428 -261.907646884719 2645.68890089457 20 25 19
-696.779103428372 -273.463580809947 2334.07156428717 20 23 14
-700.98214625621 -273.508694815443 2339.67285558727 21 24 15
-693.884131863861 -272.356815155372 2350.22951774756 18 21 12
-695.658784134411 -271.747291133769 2364.25122417849 24 27 18
-683.767545975477 -270.097010339834 2376.71665501603 29 32 25
-668.046265912527 -268.048480877385 2390.71740420259 28 31 24
-672.18896858526 -268.091922211205 2396.20872621497 24 26 21
-688.679797533891 -269.42935589472 2396.5269635249 26 29 22
-689.040207933628 -269.073416726284 2403.6412602805 25 28 21
-672.251374318505 -266.925772736867 2417.82369335478 25 28 21
-668.757910321931 -266.171781952104 2426.42992114986 23 26 19
-676.704304573152 -266.611449845256 2430.33756561055 23 26 19
-681.794591257537 -266.752156773007 2435.4276181484 23 26 19
-671.570915201981 -265.301508710434 2446.6698628924 23 26 19
-668.980440293541 -264.646437242343 2454.79230571356 22 25 18
-671.174307108219 -264.488245850141 2460.98959733163 21 24 17
-693.552765341104 -266.416316597286 2459.26883627399 20 23 16
-700.580780629973 -266.75373454774 2463.63346675975 19 22 15
-708.582842403798 -267.189903293644 2467.64454620538 18 19 13
-708.875846219587 -266.831312004639 2474.63617176415 17 18 12
-720.75829637258 -267.663565928628 2477.20568405351 17 18 12
-730.728497148283 -268.296792633286 2480.54716737779 17 18 12
-754.282924143398 -270.31816849865 2478.84636901425 13 14 8
-795.357694962748 -274.123670758505 2470.76273773602 10 11 5
-782.120771192586 -272.373951603134 2482.89791006714 8 9 3
-787.325135696674 -272.508395728131 2488.19965585892 10 11 5
-770.127399933813 -270.362989626482 2501.62886615455 10 11 5
-773.360809301508 -270.299196122431 2507.59487919112 9 10 4
-805.897917812914 -273.206942466149 2503.11361199645 10 11 5
-788.629379644613 -271.06226130464 2516.41238576293 11 14 7
-770.326795449895 -268.819425646942 2529.95418116064 11 14 7
-775.503134547594 -268.953139903275 2535.20460261067 12 15 8
-797.37788004296 -270.768791613063 2534.70602813914 13 16 9
-801.602803841183 -270.802536388067 2540.35098149969 14 17 10
-803.860553064982 -270.638297732459 2546.66808729243 16 19 12
-809.073124702731 -270.770603680235 2551.98506624972 15 18 11
-822.187383856681 -271.693575505911 2554.67751539361 13 16 9
-829.396523367262 -272.022809577886 2559.37772739115 14 17 10
-823.749588450064 -271.067408930203 2568.31400085035 16 19 12
-825.016208638479 -270.80379188316 2574.95242000389 15 18 11
-811.393149957708 -269.059084456395 2586.37591274492 14 17 10
-803.687094936603 -267.907413812688 2595.81421454437 17 18 12
-827.787940200331 -269.914510862418 2595.12216863683 15 18 11
-824.050597027735 -269.157869863749 2603.28065516646 15 18 11
-852.212322362199 -271.557898282759 2601.47994762748 17 20 13
-869.452413607639 -272.871992087912 2603.18323361872 18 21 14
-866.72848290744 -272.213574024479 2611.06072907064 17 19 14
-868.994858785503 -272.048228134877 2617.39403382118 18 20 15
-868.25086163844 -271.587349898431 2624.62398481653 18 23 17
-861.473125131837 -270.535742733222 2633.62423875459 21 26 20
-844.617807398339 -268.499890189115 2645.53547381752 4 9 3
-728.649036068365 -283.575542858593 2319.85187630468 20 23 14
-702.783895076922 -280.345902097277 2338.81570722939 21 24 15
-687.20300469084 -278.243230125164 2353.0909404141 19 22 13
-690.441142495731 -278.188007261456 2359.06307253465 19 22 13
-680.451152413876 -276.699773227896 2370.74641126306 22 25 16
-677.047586369776 -275.927930751142 2379.52334615562 29 32 25
-669.835682496652 -274.74674026796 2389.87935919636 29 32 25
-682.51845933889 -275.713316928187 2391.76512085038 26 28 23
-693.326836818335 -276.474420036217 2394.49490940569 27 30 23
-697.496199239034 -276.519316565125 2400.03482594409 26 29 22
-681.663122596407 -274.417579532009 2413.84596149704 25 28 21
-676.270833569239 -273.440356353202 2423.25713764467 24 27 20
