ply
format ascii 1.0
comment KinectMotionCapture
element vertex 777
property float x
property float y
property float z
property uchar red
property uchar green
property uchar blue
end_header
-909.558902319172 6.36078851381408 2291.3978684292 31 34 27
-906.604923190987 6.34711229946908 2300.76545342529 25 28 21
-887.7260883651 6.15835779983984 2316.74629095604 25 26 18
-886.586773269946 6.16504457483427 2325.2273944954 29 28 23
-869.483680937234 5.99610095248695 2340.25000073405 10 9 4
-871.114067609407 6.03372208326988 2347.48949096032 10 9 4
-878.383574385653 6.13383612450488 2352.42984345441 23 22 17
-858.341142669008 5.93285397024443 2368.38173647094 16 15 10
-840.120368627949 5.75187492078891 2383.45990238876 20 19 14
-827.507836362929 5.63293433563114 2396.18149879733 28 27 22
-830.932975504613 5.69144761389931 2402.49854994662 13 12 7
-848.567332659502 5.90765760192277 2403.27185409062 18 17 12
-832.090006306023 5.74633932973348 2417.33285179026 11 10 5
-825.056972296578 5.68977444981464 2427.64511553369 18 19 13
-806.580546346753 5.50625334233409 2442.25232655904 9 12 5
-819.476112765344 5.67109974803878 2444.86968995953 11 14 7
-819.0441452539 5.68821509872405 2452.54007138466 18 21 14
-816.691022804867 5.68423116078118 2460.90085666887 12 15 8
-829.623768591338 5.85055435151963 2463.58704380184 13 16 9
-840.666363617923 5.99623608546493 2467.02079480561 22 25 18
-832.550325761705 5.92863961037585 2477.45269900776 51 54 47
-826.323011496427 5.88216796399252 2487.13506411956 36 39 32
-832.569330515553 5.9750353132885 2492.3062079609 22 25 18
-835.934305686214 6.03599340108937 2498.51334181137 27 30 23
-839.298724492376 6.09718121838762 2504.71952149069 27 30 23
-841.697012884454 6.14772277883971 2511.26091328994 21 26 19
-844.092322598501 6.1984966551927 2517.79639237589 22 27 20
-829.060480594904 6.05385423202012 2530.29081111318 21 26 19
-822.702634244765 6.00650772483194 2539.73284084792 22 27 20
-832.818195450769 6.14425602227622 2543.57402128942 26 29 22
-836.148268297349 6.20595072118199 2549.71718492108 30 33 26
-837.531551155607 6.24594731206587 2556.50292056096 27 30 23
-834.036759245476 6.23103088391766 2564.87547935286 29 32 25
-845.15932702555 6.38106253506401 2568.45762293433 27 30 23
-854.348015201348 6.50952027115012 2572.70612042009 13 14 8
-834.202077602669 6.30686072845385 2586.35183929168 29 30 24
-840.442879496122 6.40223084998595 2591.51409301441 18 21 14
-832.958598442604 6.34239015266416 2600.99544611582 21 24 17
-872.590264671643 6.8161348691694 2595.77464583738 24 27 20
-892.647500929025 7.06878424972288 2596.78492137393 29 31 26
-880.82488105255 -1.34557535582128 2295.45221906494 39 42 35
-890.909098307622 -1.23523337262635 2299.22751060888 27 30 23
-881.382410780298 -1.28340132370022 2311.30091844646 10 11 3
-873.691053790344 -1.31669178958518 2322.52420468677 11 12 4
-841.598285094897 -1.54838986295894 2343.79850327302 14 14 6
-832.871271307577 -1.59014098577712 2355.22978720255 21 21 13
-842.907704073554 -1.47874308333365 2358.91751190175 22 22 14
-862.373547464888 -1.28980395709641 2358.82145341958 22 22 14
-843.241626260838 -1.41601144468254 2374.35512395777 21 21 13
-842.922391724394 -1.38827674365546 2382.23603532876 23 23 15
-836.921845179876 -1.40693534475719 2392.34383157096 14 14 6
-830.894879863391 -1.4257312754806 2402.4029975799 20 20 12
-841.899166265159 -1.30422982549058 2405.75902051765 16 16 8
-853.872682845059 -1.17426103191723 2408.78487712086 14 14 6
-830.709909125323 -1.3339513195956 2425.35521212694 16 17 9
-823.650380638226 -1.36081464912149 2435.62767958548 15 18 11
-824.184428927345 -1.32475433445331 2442.96563793699 12 15 8
-832.343229463883 -1.2252199839142 2447.42608582387 37 40 33
-837.647970093234 -1.14902901347128 2452.97578404564 19 22 15
-841.044027537588 -1.08843940533357 2459.23997305115 15 18 11
-846.355634183685 -1.01163298898069 2464.80197996241 21 24 17
-834.40438949357 -1.07859280077757 2476.6406371364 29 32 25
-828.174793759841 -1.09788127954005 2486.32698076781 33 36 29
-818.071354949898 -1.14966732764363 2497.33854987026 29 32 25
-820.45218132882 -1.09685198104451 2503.84850962141 28 31 24
-818.972303166249 -1.07631677392564 2511.70742014466 27 30 23
-819.410271391248 -1.0394802020057 2518.86890318889 20 25 18
-812.103682615662 -1.0678378614247 2528.68653238419 19 24 17
-806.704635867486 -1.08013503807233 2537.78771006629 18 23 16
-807.099642682426 -1.04354415306626 2544.8701053663 19 24 17
-820.108366577975 -0.90006986024041 2547.68915893672 23 26 19
-832.170147818392 -0.764145647905307 2550.8791412539 27 30 23
-842.307545965096 -0.644159361680635 2554.7551423942 27 30 23
-846.613663310846 -0.573504440345679 2560.58132493244 29 32 25
-855.802298369194 -0.460971735040921 2564.82493573058 21 24 17
-865.005846020133 -0.348054639700807 2569.09608909791 24 25 19
-854.651095259701 -0.402035622074665 2579.64478966941 19 20 14
-834.459998758474 -0.540532705078672 2593.22725234921 14 17 10
-847.568757213978 -0.393946815273355 2596.23122342562 20 23 16
-868.563150641819 -0.179184894824463 2596.8389088927 14 17 10
-891.570885683962 0.053429171622793 2596.92526635541 30 32 27
-839.806923192375 -8.92493777689726 2312.90596916991 21 24 17
-850.768667745188 -8.82923287016327 2316.17599232764 26 29 22
-867.360952578108 -8.70342729634541 2317.12085261414 28 29 21
-834.363460997715 -8.83734749694967 2338.87489990564 18 19 11
-816.266270236087 -8.89347775636976 2354.21790267457 26 27 21
-824.398950342846 -8.8113920519913 2358.62556739731 27 28 22
-844.767268416997 -8.66397183191989 2358.06153513457 19 20 14
-860.47379170353 -8.54046939515665 2359.49192948572 18 19 13
-841.329561553962 -8.60203272455276 2375.02240150155 17 18 12
-833.452065659011 -8.60374101612635 2385.91284181039 16 17 11
-853.904945813117 -8.45354305465193 2385.50567419026 19 20 14
-849.78985034443 -8.43465771286897 2394.86234592289 15 16 10
-862.717365837872 -8.32370380563721 2397.52226287456 13 14 8
-852.88707722112 -8.3353086361759 2409.04879254144 12 13 7
-829.712135192271 -8.41953797614345 2425.61893627547 7 8 2
-832.16486057761 -8.36480097045714 2432.26120503959 24 27 20
-831.754726436195 -8.32544652672937 2439.97893402194 20 23 16
-844.696372107339 -8.21278805126954 2442.66535154487 23 26 19
-844.282770190418 -8.17294121678733 2450.37634648458 18 21 14
-846.72945207438 -8.11715349247519 2457.00781612191 20 23 16
-830.964344888525 -8.1618895726677 2470.29846984057 22 25 18
-823.783578704019 -8.15935420292965 2480.35730414049 27 30 23
-820.417712869546 -8.13577540789692 2488.97855780782 30 33 26
-811.259820159804 -8.14445662261473 2499.62732171379 26 29 22
-804.958349770737 -8.13739065183319 2509.18940010069 24 27 20
-811.173018883164 -8.06017461353906 2514.29762731519 23 26 19
-809.66615448936 -8.02610446480798 2522.11097548652 18 23 16
-805.243415263556 -8.00852089553458 2530.90194706849 18 23 16
-797.893638826437 -8.00755305360049 2540.64896508621 19 24 17
-814.764064577415 -7.86912890159483 2542.10917187451 20 25 18
-820.986282858654 -7.79072982702614 2547.2316391501 23 26 19
-828.188165145742 -7.70648867299836 2552.04284457274 27 30 23
-848.05979559015 -7.54923422243572 2552.68357416331 27 30 23
-856.273315152237 -7.4583842866994 2557.24204872036 26 29 22
-858.640534066973 -7.40085427540302 2563.72789542132 19 22 15
-865.893106910812 -7.31503453331331 2568.63280472892 25 26 20
-853.575404565553 -7.34254388208419 2579.80934309621 22 23 17
-871.605062178072 -7.19371482759609 2581.28941393039 14 17 10
-864.15150503071 -7.19306882252593 2590.84596777327 22 25 18
-879.275309610959 -7.06051648748454 2593.32165279922 20 23 16
-893.445161909459 -6.9330292334506 2596.1566261275 25 27 22
-830.472379181932 -16.1875056526108 2316.81884278109 14 17 10
-824.608904991282 -16.1526816779468 2327.19482340386 16 19 12
-849.58673375775 -16.0450472114272 2324.52205603106 25 26 18
-834.346456482533 -16.0319491844975 2338.795359527 25 26 18
-822.805702839814 -16.0103217447538 2351.41562459911 29 30 24
-839.40142562179 -15.9209015135865 2352.3553618111 30 31 25
-853.210990831497 -15.837353072452 2354.5144882023 27 28 22
-843.502053002847 -15.810905531595 2366.2751429916 22 23 17
-830.926865790728 -15.7917838835191 2379.10694200251 21 22 16
-817.36253324675 -15.7753987730616 2392.23400312665 2 3 0
-833.069455170358 -15.6856884250869 2393.65446440128 7 8 2
-855.438807898322 -15.5782036144377 2392.52909144628 14 15 9
-850.357528927 -15.5398594811174 2402.22993088671 18 19 13
-844.302849182423 -15.5041511446231 2412.25451560331 13 14 8
-832.516181591573 -15.483413497349 2424.42223253822 13 14 8
-827.353299870242 -15.4456255846061 2433.97231814151 27 30 23
-834.562113022233 -15.3752763695391 2438.79209308649 26 29 22
-848.464335528642 -15.2866065321232 2441.1231732417 29 32 25
-853.789717051313 -15.2202425014555 2446.70737441371 17 20 13
-849.545568582154 -15.1794671541809 2455.8337811977 19 22 15
-833.776028395053 -15.1700717065583 2469.13256031936 17 20 13
-826.594179015402 -15.1377371113046 2479.19785944201 20 23 16
-818.421867182434 -15.108302459688 2489.55594911187 19 22 15
-803.480295436007 -15.0979715970902 2502.26249081412 16 19 12
-788.488848811938 -15.0883547106719 2514.87759306505 16 19 12
-800.472065488644 -15.0029119029384 2517.90790000417 17 20 13
-814.410730391874 -14.911355928135 2520.30687228998 16 21 14
-807.087266585442 -14.8801758842877 2530.11136948059 19 24 17
-802.6417333742 -14.8409418476822 2538.86692952546 23 28 21
-820.492482566259 -14.7369052651267 2540.00448512859 22 27 20
-818.949078000153 -14.6889431210926 2547.7553111272 23 26 19
-830.040098537083 -14.6037214500318 2551.25943959904 21 24 17
-850.892855277651 -14.488942044202 2551.57706676964 25 28 21
-870.816070746977 -14.3760102556878 2552.29934185439 22 25 18
-866.363611672605 -14.3358522979447 2561.04193757374 14 17 10
-882.429021735976 -14.233512013107 2563.12552194647 12 15 8
-866.20900772291 -14.2293035573585 2575.59423778435 22 23 17
-880.336474827859 -14.1322494422105 2578.34210512766 15 18 11
-903.329147987429 -14.0071493136414 2578.36842931956 25 28 21
-898.842968592003 -13.9669201892376 2587.04902862575 19 22 15
-910.087481716254 -13.8774795188064 2590.83723091972 17 19 14
-921.352299177204 -13.7875292775297 2594.66242558323 30 32 27
-838.167429327696 -23.4580579487178 2305.52022335134 6 8 3
-831.394689215038 -23.3955635997719 2316.34752288074 6 9 2
-849.822814235137 -23.3466982747738 2316.41558736627 14 17 10
-851.448971209881 -23.2880919426191 2323.65360910401 7 8 0
-830.580707191231 -23.2182629097177 2340.28288401852 10 11 3
-831.225965462572 -23.1592223028782 2347.8322884524 31 34 27
-843.138474671332 -23.1049339730497 2350.72318266148 35 38 31
-840.960009541259 -23.0439677340365 2359.4247264765 36 39 32
-829.343447333616 -22.9792810501554 2371.91851461407 34 37 30
-814.854419320124 -22.9138991357777 2385.47442596194 24 27 20
-806.929221961317 -22.8512684342 2396.29698693283 17 20 13
-810.325661228924 -22.7925355726006 2402.56131981777 17 20 13
-850.669724120794 -22.7444373471453 2394.29264302596 43 46 39
-849.372315440299 -22.6828784824688 2402.4994848589 39 42 35
-842.361329362824 -22.6198531201657 2412.88876633606 3 6 0
-825.808850562158 -22.5548980072856 2426.87908596032 8 11 4
-817.774451757333 -22.4922972737648 2437.50079656276 24 27 20
-819.24724982394 -22.431646836497 2444.45737803127 25 28 21
-830.265593275613 -22.3722279151295 2447.82058491028 31 34 27
-836.522033956194 -22.3115910870012 2453.00065192907 13 16 9
-839.912437496583 -22.2502120199413 2459.25467978209 11 14 7
-839.46619367938 -22.1883001893512 2466.91227573253 11 14 7
-827.485122854914 -22.1257678056662 2478.73501826414 13 16 9
-827.001603345534 -22.0640339562647 2486.32400390208 16 19 12
-805.323167336721 -22.0021979965125 2501.46082122131 15 18 11
-799.00422843466 -21.9410375478883 2511.00703918822 16 19 12
-798.451905927442 -21.8798571079218 2518.46931715483 18 21 14
-816.257398347518 -21.8173097842922 2519.51166485093 18 23 16
-807.963336704713 -21.7564106538773 2529.6547922299 21 26 19
-809.331169841486 -21.694737115647 2536.41913597934 23 28 21
-817.487860507272 -21.6319238445491 2540.86516486504 22 27 20
-829.544926324617 -21.5680553356801 2544.02480597973 22 25 18
-821.186694540548 -21.5075362691314 2554.04979848343 19 22 15
-841.058109286613 -21.4412218599043 2554.66278376373 24 27 20
-860.972881226423 -21.3739775309803 2555.35579046988 22 25 18
-873.114166111226 -21.3077766433262 2558.67102719072 15 18 11
-891.148292991239 -21.2392863997814 2560.13566247954 14 17 10
-888.647232722003 -21.1765186662602 2568.2444368024 19 20 14
-885.149247771413 -21.1142442173489 2576.63433594714 21 24 17
-909.136233434201 -21.0420370976982 2576.35817240939 20 23 16
-904.653488509559 -20.9799652410095 2585.0521611506 10 13 6
-924.770689770882 -20.9077991079804 2586.11895235396 29 31 26
-921.264126785627 -20.845242730207 2594.49315971197 8 10 5
-862.188132503461 -30.7050905251191 2303.10552589239 12 15 8
-854.489218862111 -30.6091277505558 2314.35428751225 15 18 11
-864.544360166253 -30.5733750394754 2318.05316826245 16 17 9
-834.310138966694 -30.4017361005051 2338.63686349793 21 22 14
-834.019226894124 -30.3312108077512 2346.58323732418 20 25 19
-830.897808360997 -30.2512163294279 2355.67103951262 22 27 21
-826.81658380847 -30.1681118812232 2365.10931808069 20 25 19
-816.116076303879 -30.0635668936714 2377.18508466847 17 22 16
-792.162444512474 -29.9168717574575 2394.50782348313 5 10 4
-794.597258540518 -29.8554937543852 2401.11914708657 6 11 5
-843.640264077828 -29.7993007503906 2404.62174225444 22 27 21
-847.069899700291 -29.7387840015566 2410.94766573732 5 10 4
-844.789311279002 -29.6605390945529 2419.46658227469 20 25 19
-816.764210337317 -29.5046147133029 2437.76362434067 28 31 24
-802.966110430984 -29.3927783883707 2450.48944889881 22 25 18
-819.696981807116 -29.3719461504875 2451.65712313421 29 32 25
-828.808894609731 -29.3278082118264 2455.73956420993 18 21 14
-822.606705956158 -29.238608504203 2465.50893915711 14 17 10
-826.931360523912 -29.1799032212418 2471.3651172702 15 18 11
-837.021871740315 -29.1373496340432 2475.13159914553 14 17 10
-834.624475218335 -29.0589889206981 2483.43571912797 22 25 18
-826.431463991963 -28.9645373152249 2493.77529082059 23 26 19
-813.38433578748 -28.8571141058676 2505.76565851061 23 26 19
-832.165211856675 -28.837344678257 2506.47374669467 26 29 22
-819.071782886379 -28.7303250983299 2518.37883746012 25 30 23
-812.712763695732 -28.6420770596848 2527.85948628702 24 29 22
-803.418224329835 -28.5463803822679 2538.28832074326 24 29 22
-808.654457849733 -28.4892635978243 2543.70628589549 24 29 22
-814.867749247257 -28.4343699407019 2548.80526642718 26 29 22
-825.956270167384 -28.3916923377466 2552.29200374349 26 29 22
-824.391337768233 -28.3163330473949 2560.01147503835 30 33 26
-847.217025494636 -28.3020922731831 2559.69734483067 26 29 22
-873.026175995772 -28.2940497158327 2558.52358019796 23 26 19
-891.064290253423 -28.2655426815769 2559.98302095664 28 31 24
-879.739451413878 -28.1650346542731 2570.90931446259 30 31 25
-892.908469909282 -28.1238544484239 2573.99241700447 28 31 24
-894.3115838894 -28.0541660027301 2580.82355466212 16 19 12
-888.821533931338 -27.9683960499543 2589.78685172833 24 27 20
-916.804161022778 -27.9601213742231 2588.38047352925 10 12 7
-934.985802059279 -27.9281639892281 2590.10542802346 30 32 27
-854.220540666596 -38.0996014551803 2290.45808912462 19 21 18
-874.522692435225 -38.1489662849789 2289.71318752649 3 5 0
-855.650428553271 -37.9495757690646 2305.82232942561 16 19 12
-875.990355466445 -37.9974881506971 2305.14784422717 10 13 6
-859.856471876642 -37.8160480594285 2319.94306622173 15 16 10
-841.792142722284 -37.6234077509568 2335.42131806693 22 23 17
-833.996765569858 -37.4953267424758 2346.50232434868 20 25 19
-832.752144443854 -37.4079379613417 2354.81401971699 23 28 22
-827.727512529124 -37.2973037972627 2364.64078256342 24 29 23
-821.736254280621 -37.1810114337473 2374.80624429539 24 29 23
-853.486133940553 -37.2936062836669 2369.71768121945 20 25 19
-849.295373455122 -36.9445165117837 2402.29929993965 21 26 20
-846.076690658704 -36.8444083362122 2411.21426404165 14 19 13
-838.079507308567 -36.7163668958634 2421.92410005645 27 32 26
-826.237796421054 -36.5663191625961 2434.02946862856 30 33 26
-814.354385319283 -36.4167070211878 2446.0575076729 20 23 16
-831.103898107051 -36.4329987311966 2447.24880714534 22 25 18
-817.260880594921 -36.2726832296951 2459.90659876009 20 23 16
-805.287956267924 -36.1238711158261 2471.76976608808 13 16 9
-806.708824933313 -36.0517573084242 2478.63479144872 20 23 16
-816.773134795321 -36.0282468382402 2482.34735758957 19 22 15
-825.892775604427 -35.9987871562215 2486.43909356984 27 30 23
-825.391484354033 -35.9150475910462 2494.002011324 28 31 24
-828.738798930532 -35.852704411952 2500.17708065029 25 28 21
-830.153115180882 -35.7794573130713 2507.0303957306 28 31 24
-837.366533171498 -35.7378589931124 2511.8499938081 26 31 24
-821.339615727852 -35.5692708977043 2524.72328186914 25 30 23
-803.32060266014 -35.3909829818673 2538.16525864318 24 29 22
-806.61353773392 -35.3285487473191 2544.24034153799 25 30 23
-816.714345052483 -35.3023582944613 2548.02083907922 29 32 25
-820.989101121959 -35.2445149906458 2553.7854897907 31 34 27
-823.315628678278 -35.1762426849601 2560.19972810536 33 36 29
-836.380465791343 -35.1641929298191 2563.08246195743 27 30 23
-871.959802322496 -35.2689529283232 2558.69442178711 27 30 23
-896.853640866051 -35.3160065955432 2557.93596662602 34 37 30
-892.392820196521 -35.210241599943 2566.68291327791 37 38 32
-871.222446003279 -35.0192479242885 2580.67819001806 23 26 19
-861.782545698653 -34.8894744721339 2590.84992683213 26 29 22
-871.993595960178 -34.8597535300786 2594.83373868153 5 8 1
-898.975788421336 -34.9138225779963 2593.68393437217 22 24 19
-920.098433355737 -34.937021726185 2594.45644202514 15 17 12
-854.426928480825 -45.4678445058949 2282.27698461728 18 20 19
-859.810820922613 -45.4281417822951 2287.96078040937 23 25 22
-859.602195096682 -45.3363377747095 2296.06438835373 17 19 16
-879.732530421228 -45.3402603882012 2303.47735612885 13 15 10
-848.606913397679 -44.9655384649801 2324.59748269034 26 27 22
-845.526567776961 -44.8474744908822 2333.7722737543 24 25 20
-844.306158793354 -44.7463566039241 2342.13313254176 10 13 6
-856.241573754606 -44.7637064306333 2345.0446114882 8 11 4
-867.257711813316 -44.7718521281475 2348.38344413195 13 16 9
-868.861952957428 -44.6949824704489 2355.58665083379 16 19 12
-921.236002804116 -44.9763979538178 2350.31001805144 8 11 4
-785.557878082348 -43.6852229235911 2412.059192576 14 17 10
-852.459509347189 -44.1848077079889 2393.25160876972 18 21 14
-833.110548861939 -43.9242644188462 2408.50240869581 23 26 19
-828.914836294444 -43.7972041702374 2417.74384563056 22 25 18
-832.316428701334 -43.7363713855455 2424.01828756904 16 19 12
-828.088877629599 -43.6092747631539 2433.20067438769 13 16 9
-841.027926507907 -43.6302467074581 2435.84213043032 13 16 9
-833.912420816543 -43.4782671039942 2446.06593172282 15 18 11
-815.278418817128 -43.2284469873969 2460.51364659055 13 16 9
-808.089649568357 -43.0772197444978 2470.6019723571 16 19 12
-811.432475647796 -43.0157277117117 2476.7685305617 16 19 12
-788.818381359937 -42.7351160049162 2492.36509163422 24 27 20
-797.901166445154 -42.7222264107564 2496.38406024559 28 31 24
-815.674149328634 -42.7812570868598 2497.33005589398 28 31 24
-810.320227995717 -42.6466228259636 2506.55790859653 26 29 22
-824.272622583994 -42.6723421016987 2508.94686511638 26 29 22
-829.542788575826 -42.6254553228769 2514.42365764328 26 29 22
-825.126354388813 -42.4986894322357 2523.25905878315 26 29 22
-810.014471306167 -42.2847599365314 2535.71409758306 25 28 21
-810.399991524942 -42.198233909433 2542.79406186191 25 28 21
-811.750345041675 -42.1194831942528 2549.53088863098 25 28 21
-814.069198422437 -42.0485546494683 2555.93181152601 24 27 20
-825.164749980591 -42.0480140716915 2559.41931221234 28 31 24
-834.326875994495 -42.0312843378707 2563.58535805953 25 28 21
-861.110221087087 -42.1542551166212 2562.0491169944 22 25 18
-894.810853439304 -42.3302183498833 2558.41448804247 24 27 20
-889.362701907584 -42.1950221581802 2567.46920322461 26 29 22
-870.142623717704 -41.9522401458094 2580.83690068382 26 29 22
-858.72893482131 -41.7720159275839 2591.62375509771 21 24 17
-858.10658274848 -41.676600272736 2598.96753118949 18 21 14
-879.162362068097 -41.7493733612464 2599.60215285687 24 27 20
-890.392658208839 -41.7449809835619 2603.33812745594 21 24 17
-838.60916050682 -52.5563172164353 2289.12248151878 7 9 8
-843.969934187529 -52.5221801154277 2294.76258823993 26 28 25
-845.602894558485 -52.4423685664261 2302.01949952196 26 28 25
-833.599822308075 -51.9990696955687 2330.83568486446 31 32 27
-845.509004890275 -52.0416101181268 2333.69184658296 22 23 18
-857.441269198535 -52.0834306305619 2336.5901720496 13 16 9
-844.930655289938 -51.8343646104086 2349.60988228736 16 19 12
-882.316572623727 -52.1758380868933 2342.12838647543 26 29 22
-879.221345406511 -52.0375361857071 2351.28189354638 44 47 40
-880.831752902218 -51.9545974852967 2358.49877062638 46 49 42
-836.074348087703 -51.3290130631701 2384.23220247183 45 48 41
-855.611825212457 -51.4565271115714 2384.17272728742 47 50 43
-830.601190727076 -51.0648181569686 2401.73992571186 43 46 39
-834.963994538739 -51.015232844107 2407.66402891083 37 40 33
-830.766854799719 -50.8664135260389 2416.9088801874 19 22 15
-827.500882116831 -50.7286695379162 2425.74869170374 10 13 6
-834.709928541014 -50.7111409345699 2430.5525071551 14 17 10
-826.644896981929 -50.5186439900911 2441.1569410902 14 17 10
-841.505001756167 -50.587622032066 2443.08702966083 15 18 11
-831.492166750182 -50.3734069739029 2454.34573209306 14 17 10
-813.770062565271 -50.0728152174994 2468.37055776349 16 19 12
-772.940806415427 -49.5135658985188 2490.73412162826 17 20 13
-748.340849486518 -49.1396601918565 2506.93647779426 22 25 18
-776.629637425837 -49.3589572912331 2503.90995021506 25 28 21
-792.449475273898 -49.4371027610465 2505.48760663961 27 30 23
-795.749976366472 -49.3750511394951 2511.57648976171 25 28 21
-799.049978955229 -49.3128872767919 2517.66448979775 23 26 19
-802.349417570589 -49.2504346865219 2523.75153941047 24 27 20
-807.587071451735 -49.2090776649337 2529.16737757046 23 26 19
-810.888030787067 -49.1461638008056 2535.25736277914 21 24 17
-817.104528706661 -49.1148083421425 2540.35516225301 21 24 17
-811.648662924005 -48.9563344405383 2549.4026896238 22 25 18
-814.940314487691 -48.8929996155905 2555.47568273635 21 24 17
-827.014314021645 -48.9242118369956 2558.63837949049 24 27 20
-835.202543019342 -48.9127827997114 2563.12645654071 24 27 20
-833.618151577796 -48.7962636105768 2570.82251676672 22 25 18
-860.433788416159 -48.9827523744379 2569.32606065477 25 28 21
-892.215700327391 -49.2199957504657 2566.37422980862 25 28 21
-877.902104227604 -48.9671652810462 2578.19385862984 27 30 23
-875.344991607022 -48.8395652232094 2586.21903892223 22 25 18
-887.545773921084 -48.867227264493 2589.6154756802 19 22 15
-876.100074175688 -48.6467607676234 2600.35555801801 21 24 17
-899.177702394502 -48.787198009961 2600.45827731657 20 23 16
-848.626496813825 -59.8261460651066 2292.67019200959 30 32 29
-852.130702010615 -59.7686707361745 2299.13234790716 27 29 26
-853.939471230153 -59.354182980678 2330.07805719338 27 28 23
-838.623840332234 -59.017644523203 2344.31003705361 12 15 8
-865.615791400883 -59.3046466633249 2340.99333337577 12 15 8
-857.795055799616 -59.0787489901113 2352.05661215406 16 19 12
-870.708892516165 -59.1565690249082 2354.63460300931 14 17 10
-859.698794283391 -58.7734316997403 2374.68445590741 16 19 12
-870.742657289058 -58.8222547889641 2378.06204722473 12 15 8
-873.264972242513 -58.7470125790927 2384.83847023464 11 14 7
-847.27232647581 -58.2609297160805 2402.74275052058 13 16 9
-838.3292834589 -58.0218935753454 2413.86115602821 10 13 6
-811.245321078205 -57.5239872325476 2431.87716532971 8 11 4
-809.843501620826 -57.3948352742086 2439.91280764237 16 19 12
-823.717610104095 -57.483143930228 2442.13845555102 16 19 12
-828.050806962506 -57.4349156854866 2448.00769806919 17 20 13
-837.176962951502 -57.4540970340718 2452.09678926149 18 21 14
-823.291178550103 -57.1482826830836 2464.71967936847 19 22 15
-769.967980631213 -56.289644417849 2491.68904830949 23 26 19
-761.707575027162 -56.0668256135538 2501.9427679607 21 24 17
-761.12210664339 -55.9518555596848 2509.36026030016 23 26 19
-788.4995588232 -56.2261719905894 2506.75637826868 27 30 23
-792.75953133746 -56.1774547772582 2512.49059067525 23 26 19
-786.381974100063 -55.9813266441228 2521.97009073587 20 23 16
-781.915355260673 -55.812169455007 2530.72543687578 20 23 16
-797.792913260392 -55.9230422376932 2532.3994093782 21 24 17
-815.645788068268 -56.0596780660504 2533.468499071 19 22 15
-805.337980606446 -55.8103611001476 2544.19524930019 19 22 15
-811.545834195493 -55.7868196507259 2549.2748004366 20 23 16
-827.510400065378 -55.8952382124536 2551.10953430201 19 22 15
-843.507939084975 -56.0027914193636 2553.00517202823 21 24 17
-826.302708847573 -55.6615700263033 2565.87804196235 24 27 20
-813.936723360751 -55.387002132497 2577.05661987685 24 27 20
-833.872453962384 -55.5462905666588 2577.72005016817 26 29 22
-866.609616494938 -55.8748565763546 2574.38233306994 27 30 23
-868.960515952846 -55.7964262402833 2580.84445048779 25 28 21
-872.292270011611 -55.7309889348392 2586.99183165625 22 25 18
-877.593843028968 -55.6915002080602 2592.52466691829 20 23 16
-884.873495957573 -55.6777988254429 2597.45718966968 20 23 16
-892.162751215982 -55.6638077189799 2602.4079642253 20 23 16
-869.139567543281 -67.4339083245678 2283.69584029225 22 24 21
-855.860666634893 -67.075987447259 2297.450065016 19 21 18
-872.705035272116 -66.8907464236627 2322.14073186323 31 32 27
-880.916353498329 -66.9137293790806 2326.66143003867 17 20 13
-856.181621877058 -66.357600143417 2344.78550877178 17 20 13
-872.859355126087 -66.5286430640228 2345.79825561832 19 22 15
-889.572864541831 -66.6986986183729 2346.87709827609 13 16 9
-884.574479467387 -66.4892491955975 2356.78134544698 10 13 6
-863.455547657526 -66.0003051644315 2373.07563340089 14 17 10
-865.972663729707 -65.9226135942763 2379.84323129553 11 14 7
-863.739330718279 -65.7626181270109 2388.47364327148 15 18 11
-848.179708877285 -65.3734417664248 2402.27270866602 20 23 16
-833.519760459045 -65.0011795785569 2415.60655166221 15 18 11
-820.279383751868 -64.5354880153276 2435.80944472768 16 19 12
-818.875400748227 -64.3924445502501 2443.84478111165 17 20 13
-822.243897843907 -64.3306468261145 2450.05864492043 17 20 13
-824.653398450063 -64.2522572739962 2456.62852826281 20 23 16
-828.979288201792 -64.2060955131893 2462.48371024478 21 24 17
-826.579636694203 -64.0463374563794 2470.80816080763 27 30 23
-805.878773168719 -63.5796289478457 2485.74986651923 22 25 18
-788.967654514948 -63.1784164893512 2499.18170183207 23 26 19
-796.125594624505 -63.1806430799403 2503.88608689657 24 27 20
-815.854618586082 -63.3914956739097 2504.15383957563 19 22 15
-793.05524576584 -62.8947871557772 2519.47462456857 16 19 12
-781.811703349712 -62.5915804199786 2530.61088857227 17 20 13
-804.483134442715 -62.8491527010087 2529.93131235102 17 20 13
-816.52019979011 -62.929787361561 2533.01071378541 19 22 15
-801.344048430614 -62.5628153503685 2545.39357464867 21 24 17
-815.338265506793 -62.6747196905711 2547.8335326649 24 27 20
-835.212090234691 -62.8813071789261 2548.36888294468 27 30 23
-847.316729710442 -62.9598076692041 2551.57320730388 26 29 22
-825.218661427477 -62.4826414063836 2566.06314305375 25 28 21
-823.615426785162 -62.3391343802508 2573.73215877193 24 27 20
-845.529172660802 -62.5751195970077 2573.78085661163 21 24 17
-851.783838863172 -62.5574613670815 2578.94473546446 22 25 18
-856.079824588765 -62.5080494081407 2584.74539165327 20 23 16
-862.34615319017 -62.4899587456406 2589.93135406854 20 23 16
-868.619944014756 -62.4715705253032 2595.13062610987 21 24 17
-892.665102078636 -62.7351806980923 2594.86046482553 19 22 15
-902.929201920054 -62.7784544175059 2598.92039771742 23 26 19
-898.830552784508 -75.2105571827861 2278.86075357332 22 24 21
-873.3804632619 -74.0253912199074 2329.69763347575 18 21 14
-871.231961854685 -73.8498202162618 2338.48875012328 19 22 15
-887.933936593947 -74.0579461690507 2339.534425588 21 24 17
-908.449831490791 -74.3417132172189 2339.11265106696 16 19 12
-880.770922239627 -73.6479774491975 2358.20813403565 17 20 13
-851.111806544266 -72.9170717712034 2377.9024329247 21 24 17
-836.537278159056 -72.4930647700424 2391.40893968997 19 22 15
-828.561514137373 -72.203042560616 2402.20688080978 19 22 15
-817.701198090309 -71.8561556482614 2414.06110348922 16 19 12
-814.420227126898 -71.6618355866167 2422.89034406172 12 15 8
-829.240615814204 -71.8286351632971 2424.71797049904 16 19 12
-814.487603922689 -71.4061331188024 2437.89576100294 16 19 12
-810.203874719341 -71.1926973917258 2447.0007900039 17 20 13
-816.431912002071 -71.1876762488999 2452.11189318108 18 21 14
-819.790654077573 -71.1255219784719 2458.30792295136 22 25 18
-818.348112471782 -70.9686105536238 2466.27701767437 23 26 19
-822.660927845648 -70.9248479656007 2472.10692776701 27 30 23
-824.087390136675 -70.8242458958214 2478.99080784989 25 28 21
-809.120070911745 -70.4036458550276 2491.77387614657 23 26 19
-813.409159689217 -70.359576804431 2497.5607451091 24 27 20
-810.934378392762 -70.1837826029336 2505.75133646638 21 24 17
-810.379047912458 -70.0456177795446 2513.2317373054 19 22 15
-796.244632941974 -69.6453545600707 2525.42524903032 20 23 16
-793.708687607374 -69.4700542344089 2533.503704302 21 24 17
-805.733174210376 -69.5747991413153 2536.55272067041 24 27 20
-809.022933265861 -69.5112504977155 2542.62229741536 25 28 21
-808.414837829001 -69.3729439614043 2550.00519225726 26 29 22
-816.576417150867 -69.4020144563096 2554.43258087245 27 30 23
-837.450518001865 -69.6719712673068 2554.67326115614 24 27 20
-845.653651099493 -69.699926507312 2559.17741011716 23 26 19
-848.97176804774 -69.6348288590805 2565.29960801247 22 25 18
-851.308630674095 -69.5510999715292 2571.73750252646 19 22 15
-851.678198525338 -69.4304038405194 2578.79840317071 22 25 18
-854.006335372187 -69.3465720494853 2585.22028033155 20 23 16
-842.546058806914 -69.0049109928156 2595.96999901955 21 24 17
-873.442389631249 -69.4545118270321 2593.43985785267 21 24 17
-892.563263807046 -69.682295160858 2594.69932437597 18 21 14
-886.023568862857 -69.4324048046928 2603.8962868495 22 25 18
-834.78318776677 -80.3641758322033 2345.63162546875 20 23 16
-889.119640870097 -81.4869737613751 2331.02138399121 16 19 12
-901.131123645829 -81.6226882629857 2334.03717073707 16 19 12
-876.312299437342 -80.9055097100666 2352.05501882998 15 18 11
-837.221534308004 -79.8618930959177 2375.64684467969 21 24 17
-816.017075338846 -79.2342228057252 2391.82555053627 13 16 9
-788.103043571319 -78.4549493137263 2410.5143233667 20 23 16
-767.704029381638 -77.8509286984421 2426.05247767233 19 22 15
-810.985295396616 -78.7039752998657 2416.56995707576 16 19 12
-823.887734097477 -78.8599872039913 2419.1034709477 12 15 8
-822.505565865421 -78.6898281644907 2427.18708290049 13 16 9
-824.930875342055 -78.6062887980471 2433.78809453869 17 20 13
-803.438330244556 -77.9814581606738 2449.43610357021 17 20 13
-817.320113297066 -78.1574221119304 2451.64950660124 19 22 15
-833.148078878358 -78.3757473138998 2453.19995638567 23 26 19
-777.933887945208 -76.9970696027686 2481.0779343681 22 25 18
-786.038315255807 -77.0429795317047 2485.3946418017 26 29 22
-806.674748676892 -77.3681504932581 2485.18210855358 26 29 22
-814.820806436621 -77.412766988236 2489.57577093151 25 28 21
-820.082098338924 -77.3924299520724 2495.02876256339 25 28 21
-817.612681570168 -77.2002652819995 2503.2346474561 24 27 20
-805.445213115143 -76.793868263727 2514.81747393654 24 27 20
-810.686873863393 -76.7732036536004 2520.23445880764 26 29 22
-808.166826570832 -76.5813169058367 2528.34714136472 26 29 22
-817.29603818517 -76.6456056166062 2532.42828766703 25 28 21
-813.786136458998 -76.4322060617986 2540.84171621895 24 27 20
-818.05501393202 -76.3893821956112 2546.59103845658 22 25 18
-807.686525773291 -76.027217494681 2557.23961729421 21 24 17
-828.553794371889 -76.3455311128954 2557.45318990197 19 22 15
-833.809944459658 -76.3231872019674 2562.89732830991 17 20 13
-849.84908650174 -76.533768359486 2564.83849888207 18 21 14
-851.204478073553 -76.4259746552571 2571.59332539599 21 24 17
-855.501244367611 -76.3816073701604 2577.39440439587 21 24 17
-852.914176046824 -76.1891892159031 2585.3839828756 22 25 18
-855.236214497823 -76.1024460666257 2591.79551948256 21 24 17
-845.719703701929 -75.7627860422287 2601.8894729939 21 24 17
-861.846101862585 -75.9708509339619 2603.9918801613 22 25 18
-901.738106778574 -76.6825452743652 2598.89340346398 21 24 17
-882.316060150296 -76.1327800001526 2611.98196055126 23 25 20
-815.640200880079 -87.7279072949891 2314.5546563133 14 17 10
-871.196555846133 -88.2855096963975 2338.31211222159 19 22 15
-899.232976888778 -88.8632008329853 2334.71365923834 16 19 12
-828.663415773029 -86.7292792528393 2378.99124220314 21 24 17
-868.101339339605 -87.5991876853135 2370.89524953212 13 16 9
-827.511674560922 -86.2528775886346 2402.39585291067 18 21 14
-820.443855203869 -85.9228258640536 2412.76040388527 15 18 11
-831.454967655152 -86.0564766664136 2416.05225147089 12 15 8
-857.756182328018 -86.5793082545977 2413.5085338354 12 15 8
-821.046186705008 -85.4938188372792 2435.14671850152 17 20 13
-790.925643078949 -84.5802714008348 2454.0477958504 19 22 15
-792.335885772292 -84.4699336899124 2460.90426860789 20 23 16
-779.347295181828 -83.9953473294033 2473.11321563699 23 26 19
-775.922639821502 -83.7637378531253 2481.68890389824 24 27 20
-787.873136481863 -83.9198846530461 2484.58638163985 24 27 20
-795.992850236528 -83.978464337568 2488.92739356479 23 26 19
-794.477830160065 -83.794821577034 2496.77122585452 23 26 19
-811.30313324898 -84.0700532274483 2498.02404876107 23 26 19
-808.818599934713 -83.8617896354076 2506.20697285998 22 25 18
-806.318285670834 -83.6535938990495 2514.36034826753 22 25 18
-815.439856022895 -83.7343430526222 2518.42299513549 25 28 21
-822.634508818575 -83.7665907928377 2523.18536927781 25 28 21
-822.059072442416 -83.6060935168138 2530.63550755372 24 27 20
-816.604548636893 -83.3256741513994 2539.7221746557 23 26 19
-825.75140271763 -83.4051158309011 2543.83121184878 21 24 17
-828.07888548074 -83.3164188999845 2550.25385332532 22 25 18
-844.089880961898 -83.5626407118004 2552.13253934181 20 23 16
-827.830509182874 -83.0192440492413 2564.69101442136 18 21 14
-830.142514094953 -82.9303159213176 2571.08475459156 19 22 15
-834.414226652758 -82.8890536891021 2576.83882145017 22 25 18
-838.688034313778 -82.8475892422962 2582.59680239555 22 25 18
-844.932107759004 -82.8535449001092 2587.7340980404 20 23 16
-844.286110923258 -82.6927928329092 2595.05403515168 19 22 15
-819.950372248118 -81.9621853833702 2609.73430107586 22 25 18
-845.925501017939 -82.4428091745309 2608.71884837278 22 25 18
-889.764853530665 -83.3486515992294 2602.36217724935 20 23 16
-913.899573879593 -83.7789499002425 2602.20711490991 32 34 29
-820.293757646803 -94.9743880992496 2312.47452300754 16 19 12
-804.588638755633 -93.7261260842008 2357.98884880883 27 30 23
-804.221086653808 -93.5579811688138 2365.82311970666 25 28 21
-868.057794518514 -95.2418519144525 2347.36734551801 16 19 12
-881.94131082742 -95.4800451464911 2349.56522265707 22 25 18
-840.930762366651 -94.1401147761496 2373.94492359899 19 22 15
-815.91763222534 -93.263880737143 2391.65374328417 17 20 13
-862.990037676045 -94.4518530329768 2380.58339817422 18 21 14
-802.739181968983 -92.5723515522546 2412.03794030104 16 19 12
-817.530899870287 -92.8365161480953 2413.7835562099 14 17 10
-852.374506866387 -93.6684373655447 2407.82370254875 12 15 8
-877.756084442492 -94.2279514708692 2405.69287705873 13 16 9
-832.453465242336 -92.7858447400246 2430.66961015011 20 23 16
-787.018680664072 -91.3458712944405 2455.40212126159 23 26 19
-758.705769613973 -90.3937566541826 2473.40925941691 21 24 17
-778.300219332626 -90.7907161545709 2473.37353924383 22 25 18
-790.248999980258 -90.9711983791191 2476.26054274637 25 28 21
-797.408118380453 -91.0163388618987 2480.9541897833 23 26 19
-802.649554347615 -91.0072878533617 2486.36726878439 23 26 19
-799.210496287981 -90.7561733557246 2494.9223334315 23 26 19
-799.618105118568 -90.6124228127404 2502.06013131936 23 26 19
-808.726058249161 -90.7099066072948 2506.09219692997 23 26 19
-819.78695726139 -90.8604824550227 2509.47001710803 23 26 19
-819.225236454621 -90.6892154361321 2516.9486195055 22 25 18
-813.795580946957 -90.3842735808925 2526.08839837188 22 25 18
-820.015451055126 -90.4001489071137 2531.17819661492 21 24 17
-812.605364893736 -90.042030554642 2540.92220104818 21 24 17
-821.747713981834 -90.1375389110233 2545.01812114802 20 23 16
-831.881651945657 -90.2591778817396 2548.81509653538 23 26 19
-831.275835898601 -90.087547733293 2556.21220470831 22 25 18
-830.659227397414 -89.9160165574255 2563.58943382848 21 24 17
-803.557562244856 -89.0274825294036 2579.57555524954 22 25 18
-822.520649010688 -89.387344812286 2580.50459878711 24 27 20
-823.828859102858 -89.2691519972993 2587.17577719665 24 27 20
-833.006190017029 -89.3627980033753 2591.33709954083 18 21 14
-841.213158314324 -89.4295564912844 2595.83612892814 16 19 12
-855.354096563917 -89.6545229686871 2598.51193373005 17 20 13
-829.99282296052 -88.8227643273702 2613.45177591576 22 25 18
-873.824440739725 -89.8387496300526 2607.04725266156 20 23 16
-911.816149015519 -90.6944337920624 2602.64008199568 26 28 23
-816.820879925892 -102.148274713358 2306.04472733983 4 6 1
-831.499135597834 -102.451609061228 2307.57039060306 19 21 16
-773.04491990821 -99.5807509879743 2378.58151235016 25 28 21
-824.57843182268 -101.047989984714 2365.05747270691 16 19 12
-862.999885550324 -102.09391100439 2357.15387536996 22 25 18
-847.522196632937 -101.434875962312 2371.18478257622 17 20 13
-828.19800975274 -100.65698220645 2386.63672394821 19 22 15
-797.41285003312 -99.5219041526521 2406.49686946313 17 20 13
-814.091738957557 -99.8784126662725 2407.45596836476 15 18 11
-812.71002553517 -99.6680679110134 2415.55250149356 13 16 9
-830.389494422787 -100.052756709473 2416.22857555132 13 16 9
-856.702881450798 -100.704079397088 2413.66860509247 14 17 10
-785.023232476066 -98.1429888772666 2456.03299299141 23 26 19
-807.517379612982 -98.6743029066296 2454.94503931547 19 22 15
-797.415814119577 -98.1967502851146 2466.11923716786 19 22 15
-796.892321560349 -98.0156920320779 2473.67109271005 22 25 18
-796.358196427141 -97.8345516946744 2481.20291345187 23 26 19
-789.064677409574 -97.446326272892 2491.16985569305 23 26 19
-794.291906195146 -97.4424669814484 2496.55524383897 23 26 19
-797.590630875702 -97.3792251956091 2502.64121772337 23 26 19
-811.536508793297 -97.6401044835984 2504.94696704468 24 27 20
-823.571519094677 -97.8413359467141 2507.98682709936 24 27 20
-824.953589374491 -97.7179796730277 2514.79540061347 22 25 18
-812.724188779361 -97.1827110204644 2526.30358128508 22 25 18
-806.291744031321 -96.8243862108229 2535.73040495398 21 24 17
-817.372314929343 -96.9949084750619 2539.13891124729 21 24 17
-825.546133000535 -97.0768338860799 2543.57241031273 21 24 17
-829.824207674254 -97.0410797734763 2549.33652185319 23 26 19
-825.299966520283 -96.7414909802145 2558.02511361076 22 25 18
-818.795387821494 -96.38361152342 2567.3191358739 21 24 17
-826.977296489741 -96.4646743255953 2571.76827867027 23 26 19
-830.260980395192 -96.3992776431133 2577.82723785191 25 28 21
-843.378566998183 -96.6255838964287 2580.73530891355 25 28 21
-849.628384751195 -96.6471591943776 2585.87847222956 18 21 14
-851.941423369439 -96.5518962686834 2592.27601858196 16 19 12
-869.06090336863 -96.8932608552677 2594.04999884905 17 20 13
-861.501237065729 -96.5066684189824 2603.52695666534 21 24 17
-876.679799354213 -96.7888593085518 2605.97913324239 20 23 16
-915.67705137905 -97.7671769841737 2601.26966294748 34 36 31
-896.211555737156 -97.0321838484377 2614.33401133367 25 27 22
-824.27681312928 -109.520312506256 2302.73601512075 5 7 2
-829.60845528943 -109.528032099488 2308.30995647078 16 19 12
-776.763283058362 -106.627181622355 2376.95634621792 23 26 19
-799.967156582162 -107.252832516536 2375.03054028736 20 23 16
-840.258842547944 -108.463651358674 2366.28694968725 19 22 15
-844.641566840947 -108.435071211153 2372.24137358175 18 21 14
-835.741737915286 -107.950597912351 2383.51306584284 21 24 17
-822.056866743587 -107.303811077541 2396.60750541004 15 18 11
-833.063688645117 -107.50221507244 2399.87198923273 12 15 8
-823.129491285653 -106.985650369708 2411.36573934032 10 13 6
-815.066597416079 -106.53431956745 2422.05194171381 12 15 8
-834.678183914457 -107.023312426143 2422.02006281573 12 15 8
-816.554021070008 -106.055748320819 2443.96620778388 17 20 13
-830.463093241215 -106.348707879057 2446.1946174128 15 18 11
-813.662270619283 -105.606571731749 2459.93233446224 19 22 15
-807.387054042228 -105.220464259061 2469.65668422235 21 24 17
-807.827384243951 -105.060429214938 2476.8595597691 20 23 16
-807.295107331935 -104.868010476022 2484.39817138131 21 24 17
-801.923576066933 -104.514485103166 2493.65946141607 21 24 17
-807.165042272068 -104.515271999155 2499.06963756348 21 24 17
-800.791762863713 -104.129682286615 2508.61347620768 22 25 18
-814.753439156802 -104.419328785437 2510.94013495286 22 25 18
-822.917946965502 -104.515605434366 2515.35219502718 22 25 18
-811.651182940884 -103.969409029105 2526.5193266597 21 24 17
-805.212641691517 -103.584123747416 2535.94304533834 20 23 16
-819.217752364122 -103.872128456236 2538.3495772986 21 24 17
-837.154615412601 -104.287432741602 2539.48983938996 22 25 18
-825.809985200038 -103.741954872176 2550.51304059217 21 24 17
-821.276241711223 -103.420884208925 2559.19112012308 21 24 17
-838.279758040347 -103.802803600218 2560.73912213657 21 24 17
-845.506656573122 -103.864627203013 2565.5524122188 23 26 19
-855.690832621554 -104.021800662424 2569.43109862206 24 27 20
-850.152122675349 -103.668672551886 2578.38530137983 24 27 20
-844.589678661432 -103.315856611786 2587.2957589863 18 21 14
-867.608008697192 -103.885983768719 2587.16020123909 16 19 12
-871.912276858748 -103.851008996609 2592.97174876807 15 18 11
-869.295969154385 -103.593586949979 2600.92709874472 19 22 15
-880.526705652728 -103.780579438025 2604.60683399209 20 23 16
-897.726974991825 -104.157496897236 2606.51820482778 27 29 24
-915.955356120905 -104.565223112213 2608.19690067254 38 40 35
-846.697468955085 -117.496058734491 2292.92929653533 6 8 3
-841.760105595852 -117.118634051873 2302.99679173095 19 21 16
-818.34407758609 -115.667810465334 2336.50506455053 19 20 12
-771.042490885769 -113.335375759797 2379.22257842749 23 26 19
-816.93328886143 -114.864175499339 2367.99134712213 22 25 18
-837.380282703428 -115.438502460723 2367.35496922651 19 22 15
-825.642730970646 -114.813530023254 2379.79472540716 20 23 16
-826.203592072309 -114.646712167802 2387.22131897582 20 23 16
-860.975829328474 -115.746504986685 2381.04964867956 17 20 13
-866.325863490281 -115.754271466369 2386.65740217203 10 13 6
-842.13379784142 -114.672026453744 2403.82245315074 9 12 5
-826.45590049604 -113.906977323919 2417.51702126627 11 14 7
-844.175810735505 -114.370895169661 2418.24364848166 11 14 7
-837.051902047375 -113.921856789312 2428.54082277088 16 19 12
-843.315287076375 -113.963744753999 2433.70283032921 14 17 10
-849.58593920486 -114.005132561081 2438.87835381561 15 18 11
-827.997994577451 -113.031130727294 2454.45590892332 20 23 16
-811.153156697605 -112.232941307664 2468.12953030298 22 25 18
-824.121345279112 -112.51893350054 2470.74488235226 20 23 16
-819.749242639838 -112.175609620763 2479.72643662829 21 24 17
-826.94848744543 -112.251175654613 2484.48473382668 21 24 17
-804.169861748031 -111.245082499872 2499.9968593368 22 25 18
-801.662349151313 -110.972006369001 2508.15701085516 22 25 18
-802.048687263523 -110.803514608402 2515.26312822583 22 25 18
-803.398171343411 -110.669674055876 2522.01492262616 21 24 17
-814.466841583496 -110.883472767245 2525.38852729445 20 23 16
-814.843927777735 -110.714441203365 2532.47779103252 20 23 16
-819.113118231041 -110.684199498245 2538.22390517488 20 23 16
-825.337254118427 -110.723216332859 2543.31458982012 21 24 17
-810.059978423525 -109.999014716388 2555.61838688985 19 22 15
-803.543706229402 -109.587444722051 2564.9070485693 18 21 14
-834.250649620422 -110.491892391387 2561.89231154605 20 23 16
-852.269472433225 -110.944980981624 2563.17144579071 22 25 18
-857.549397965748 -110.947702994001 2568.65177371813 23 26 19
-853.977139310955 -110.639351876424 2576.97907046789 23 26 19
-853.342597472498 -110.434737782274 2584.33326564937 18 21 14
-827.043087725499 -109.333417829615 2599.74338272345 15 18 11
-854.017003583611 -110.094788257644 2598.36565568711 12 15 8
-868.191663595744 -110.407040770729 2601.07723219004 13 16 9
-868.526455823094 -110.236917450611 2608.08903793106 19 22 15
-872.820619672419 -110.204397003713 2613.88126372106 32 34 29
-920.814625314074 -111.683661304353 2606.53361513384 25 27 22
-852.297256194678 -124.907241430303 2290.42512482375 12 15 8
-878.272352433597 -125.763495882742 2287.18185287518 15 18 11
-814.267153713789 -122.960665102427 2322.58363959992 15 18 11
-824.274427487659 -123.168693278172 2326.12167739433 12 15 8
-812.667217359951 -122.50074756629 2338.81407851202 18 19 14
-837.426457619507 -123.104265572726 2343.98512983194 25 28 21
-786.094115151694 -120.840548616677 2372.92378239794 25 28 21
-814.996644882011 -121.806187337965 2368.68679772621 23 26 19
-832.604660632745 -122.314836372817 2369.19367472641 19 22 15
-818.956970292728 -121.571087321734 2382.38615945926 15 18 11
-836.599049679855 -122.078385306806 2382.95609198277 15 18 11
-855.230278113472 -122.622478921513 2383.21938530668 14 17 10
-842.480470356539 -121.916433151183 2395.93659799045 12 15 8
-804.895685442814 -120.227427736729 2418.26267937803 13 16 9
-828.304586972036 -120.95938797196 2416.68148358632 13 16 9
-830.73395449562 -120.858869489341 2423.29456044909 13 16 9
-836.989391182113 -120.909096860565 2428.43994596465 12 15 8
-831.748736724531 -120.506151174374 2437.9568040326 13 16 9
-780.406941903055 -118.293514319368 2464.74791182865 20 23 16
-837.536547851107 -120.341149859894 2450.76656621219 20 23 16
-815.883755658238 -119.298045986402 2466.24513103824 22 25 18
-843.317470949485 -120.175076452045 2463.56347821013 18 21 14
-831.246035288394 -119.508788445576 2475.40158547984 18 21 14
-810.435328457588 -118.504763239249 2490.30234763682 20 23 16
-807.945503106597 -118.215286190744 2498.49996132704 21 24 17
-792.842934107155 -117.437982975993 2511.14154886472 24 27 20
-777.690790455726 -116.661417819603 2523.69173763475 22 25 18
-776.091183591586 -116.410267114259 2531.39979623836 22 25 18
-772.532354874324 -116.084295368681 2539.75709198731 21 24 17
-781.618638417927 -116.24499807706 2543.73079625314 18 21 14
-808.278112221227 -117.078506147689 2541.75255541953 18 21 14
-819.371184834316 -117.312518045424 2545.16496196363 18 21 14
-806.034169720054 -116.612135265402 2556.80049034287 18 21 14
-795.590790270496 -116.024493653732 2567.3791361465 19 22 15
-806.683691098985 -116.257946254659 2570.79139493985 22 25 18
-829.579439151239 -116.938167653429 2570.39727891316 26 29 22
-835.812368427615 -116.983993151187 2575.50208869336 26 29 22
-846.97500488878 -117.215638487572 2579.04264326031 24 27 20
-830.556704809551 -116.405251327305 2591.38910995077 18 19 13
-820.995588721738 -115.855944042745 2601.4640715863 15 18 11
-840.06182668266 -116.384430284649 2602.5326244049 12 15 8
-849.272913999338 -116.540808681861 2606.73666171767 13 16 9
-867.417200793088 -117.030663160563 2608.23549080018 15 18 11
-894.529230672976 -117.853259273603 2607.09336875141 18 20 15
-837.315153999732 -131.445843783144 2296.85812175262 12 15 8
-793.23851906756 -128.905253262781 2339.22460427386 10 13 6
