ply
format ascii 1.0
comment KinectMotionCapture
element vertex 751
property float x
property float y
property float z
property uchar red
property uchar green
property uchar blue
end_header
-771.328661638729 323.238914298893 2432.5284361262 227 229 226
-1014.28130239347 306.378026630672 2347.24917044774 126 129 120
-1009.33800506239 307.504156941564 2356.59662661374 202 204 201
-998.022682086233 306.627118927623 2349.97540918294 194 198 197
-985.277738356353 305.275544861968 2339.57108859745 191 195 198
-975.177412586864 304.747108605896 2335.73464262977 189 193 196
-965.112763532586 304.216682531199 2331.88508383665 194 197 202
-955.446238461064 303.802531788776 2328.96620104619 195 200 203
-945.090575967101 303.149798232014 2324.14659383229 187 193 193
-936.205100532803 302.96883798839 2323.09488775237 185 191 191
-926.27570733225 302.430743835824 2319.19560685941 191 192 196
-917.08647540064 302.127928267516 2317.17826220085 191 192 196
-908.272533070332 301.942445397967 2316.10022421852 193 194 198
-900.867391643139 302.230956249836 2318.81255879954 190 191 195
-893.117762771852 302.400023638838 2320.57449016858 183 184 186
-886.399109848958 302.925553376634 2325.18839362359 169 170 172
-878.991511765125 303.212492786221 2327.90150223238 182 183 185
-873.268238300479 304.09525313633 2335.38087789225 165 166 168
-865.848020814369 304.381494694007 2338.09851894977 159 160 162
-858.427929141117 304.667076264243 2340.81606449764 181 183 182
-849.691304932372 304.473761675974 2339.70908871717 186 188 187
-842.281784095277 304.757858188422 2342.42268143331 194 196 195
-835.844581036878 305.400695808404 2348.00998519258 192 193 195
-831.321101407424 306.762759702958 2359.35607416733 192 193 195
-827.070656929116 308.245928038703 2371.67865297889 192 193 195
-821.503869498503 309.250238667334 2380.1768987859 200 201 203
-813.710109282653 309.413884552589 2381.95445566863 199 200 202
-807.477922638844 310.178102814403 2388.54298386589 197 198 200
-800.916934462106 310.822145480488 2394.17535432998 233 234 238
-797.708133025772 312.79127454783 2410.42261087428 231 232 236
-792.30320454043 313.91853337376 2419.9378801232 213 214 218
-787.163876749778 315.167292603138 2430.4326246074 232 233 235
-779.894943578061 315.571655066818 2434.17076704051 229 230 232
-770.84611841871 315.250667642802 2432.10103623316 227 229 226
-1011.49662987423 300.288756187528 2362.73430591713 202 204 201
-999.791891995947 299.324282889712 2355.1814241753 194 198 197
-984.813314721309 297.319522244845 2339.13953653392 190 193 198
-975.448410390831 297.040828568396 2337.18809459567 190 193 198
-964.649435840251 296.298611171019 2331.45599705892 195 198 203
-956.432547918332 296.362978358248 2332.31324515386 193 198 201
-944.628347710316 295.269618440409 2323.71996656769 185 191 191
-935.385712022855 294.98365883348 2321.72329730839 185 191 191
-925.104853338028 294.34860677499 2316.87784515868 187 188 192
-916.273095896687 294.1751945526 2315.80719082483 190 191 195
-908.16072288693 294.232572788975 2316.62568309443 192 193 197
-900.405560966539 294.4050126666 2318.38987928766 185 186 190
-892.999882061308 294.693127660888 2321.10237928654 178 179 181
-886.277787395151 295.213253584039 2325.71712552968 175 176 178
-880.224114427872 295.966372491551 2332.24020984552 165 166 168
-873.476548554774 296.486362382622 2336.86420047086 170 171 173
-865.382466488571 296.539498530114 2337.67598118664 175 176 178
-857.630213293064 296.708384413638 2339.43859807109 197 199 198
-849.225296692234 296.642800346234 2339.28754847403 200 202 201
-841.815230531606 296.926918170752 2342.00134093471 194 196 195
-836.348631631886 297.912842177527 2350.46179718594 190 191 193
-832.779409670398 299.60243319796 2364.68580397552 186 187 189
-828.830174009991 301.176424492931 2377.97235128655 197 198 200
-822.295378544902 301.813190562694 2383.59465592404 198 199 201
-814.490998632599 301.979990867411 2385.3763093473 211 212 214
-807.314148255864 302.381231011053 2389.08075905885 229 230 232
-801.675118582164 303.370261209746 2397.60410025294 231 232 236
-799.065188270569 305.53747831751 2415.78207726645 218 219 223
-794.250043087232 306.882236945606 2427.23283358027 206 207 211
-787.885020591971 307.638307016336 2433.86901123691 225 226 228
-780.008685775037 307.804465419579 2435.67676014676 229 230 232
-771.250727691724 307.615379047544 2434.57785478977 226 228 225
-1024.29799096399 293.628340856796 2373.57991249504 136 139 130
-1013.27801915024 292.92166411721 2367.93104746807 199 201 198
-1000.81427366469 291.762621769314 2358.50589436842 190 194 193
-987.677218823561 290.375289704324 2347.17478823958 189 192 197
-977.554928100725 289.885646408039 2343.3492499551 191 194 199
-965.280105670794 288.717374553592 2333.85475763343 196 199 204
-955.606678203943 288.336008883945 2330.94085642851 192 197 200
-943.087284233582 287.049093299068 2320.45971803588 184 190 190
-934.923631162308 287.115681413144 2321.2975371776 185 191 191
-925.706849085091 286.841680022688 2319.29263090256 189 190 194
-917.571225718055 286.905981656275 2320.12009328148 192 193 197
-908.747203029907 286.742569620178 2319.04738315135 191 192 196
-899.943655942197 286.577702296156 2317.96712366283 182 183 187
-893.914233738329 287.320120633029 2324.4803350852 177 178 180
-888.206044580174 288.176326853731 2331.95222649856 180 181 183
-881.794109325685 288.805492423075 2337.5293179377 168 169 171
-873.684233318617 288.865214699155 2338.34707981398 184 185 187
-864.916849173115 288.69607558326 2337.25335865696 188 189 191
-857.495670354104 288.981818744522 2339.97131139802 204 206 205
-849.088121905047 288.924496138841 2339.82184139073 204 206 205
-842.001208002729 289.323055155073 2343.49341150827 195 197 196
-836.204289966785 290.178619956064 2350.99749305896 190 191 193
-832.308823228173 291.721448571505 2364.26215282751 187 188 190
-827.401496474385 292.922088519094 2374.66871764043 187 188 190
-820.557342256136 293.435775272843 2379.32758116237 191 192 194
-813.703256832007 293.949314186384 2383.99004190958 224 225 227
-807.46099116571 294.69230902569 2390.5806308531 221 222 224
-803.665345572468 296.35509115005 2404.88462877205 206 207 211
-799.808694440341 298.019588701405 2419.21117603125 196 197 201
-794.374813079785 299.110223168907 2428.73420158072 217 218 222
-787.402228008999 299.625356082941 2433.43983796963 227 228 230
-781.016003780353 300.370999447544 2440.0829323006 227 228 230
-1027.22391148044 286.530839754202 2381.58106695067 151 157 147
-1012.80864076333 284.862572210344 2367.49351890947 197 202 198
-1000.3463861007 283.738726301217 2358.07047976537 186 190 189
-986.841502980609 282.282112358483 2345.80123579812 187 190 195
-977.089409927973 281.921329306406 2342.91746974613 197 200 205
-965.180601626217 280.898279301819 2334.36750420414 193 196 201
-954.781110120186 280.313003904952 2329.56891154218 185 189 192
-943.703599105699 279.504982538484 2322.86649551107 187 191 192
-934.461445355676 279.246100193982 2320.87169416848 186 190 191
-925.95353700625 279.206680801365 2320.76029381323 195 199 202
-916.757351726089 278.944870454138 2318.74856947674 198 202 205
-908.634268079361 279.013505717318 2319.57180268363 179 183 186
-899.481670444237 278.748846722328 2317.54428068902 174 178 181
-893.795081315808 279.591359270242 2325.00703648568 174 178 181
-887.399984312096 280.212244136919 2330.57738516371 156 160 163
-880.989579768957 280.833131726774 2336.15329585116 161 165 168
-872.882123840879 280.898343606274 2336.97084692646 190 191 193
-864.784954802599 280.962452527486 2337.78432286316 191 192 194
-856.698160868702 281.025620007162 2338.59395810154 210 211 213
-848.621854714954 281.087827950493 2339.39996464224 201 203 202
-842.512584724474 281.818359790406 2345.94129090895 189 190 192
-837.030162916202 282.772505967384 2354.40509852906 187 188 190
-831.83819476463 283.838917238892 2363.83840024596 192 193 195
-825.018530940355 284.346882722024 2368.48793380904 196 197 199
-817.872966555983 284.742731531405 2372.18060935986 208 209 211
-812.602440272923 285.810485969535 2381.6425555402 228 229 231
-806.985645006445 286.766786967715 2390.15534866871 205 206 208
-804.420308292382 288.846149297578 2408.31049437025 203 204 208
-799.633967779228 290.141677982254 2419.74681608256 215 216 220
-794.802048093789 291.438378760043 2431.20004116141 216 217 221
-787.520365889647 291.835914596155 2434.94230071684 225 226 228
-782.617596036506 293.13419326844 2446.42138737701 226 228 227
-781.21377042069 295.786276470939 2469.53101497874 224 226 223
-1027.88371488325 278.7421173504 2383.95358707037 164 170 160
-1013.46303169375 277.12283430924 2369.8717015426 199 204 200
-999.506245560989 275.606312237758 2356.69532020416 191 195 194
-987.483994903148 274.621507498488 2348.189712502 188 191 196
-976.623779823451 273.955527782683 2342.48561820415 196 199 204
-966.173920351928 273.394433686682 2337.70715063336 191 194 199
-955.041215867811 272.616260980398 2331.0270405916 183 187 190
-944.678088184497 272.050599928932 2326.21646121565 186 190 191
-934.355925225046 271.482788256053 2321.39108985455 187 191 192
-926.199411658164 271.559340267784 2322.22706673819 196 200 203
-916.998434953174 271.311281309982 2320.21837517583 194 198 201
-909.568056397487 271.601493089357 2322.94000769109 180 184 187
-900.75180584628 271.458872356859 2321.86578808353 176 180 183
-895.051142470452 272.288283879952 2329.33292339482 174 178 181
-887.276936075979 272.468614267891 2331.10463451229 166 170 173
-879.507837751219 272.648163197389 2332.87417640866 182 186 189
-871.744022160582 272.826896459752 2334.6419916512 208 212 215
-864.652679080295 273.22199591137 2338.31491002575 208 212 215
-857.225284971277 273.507981975567 2341.03513934249 205 209 212
-848.484021400887 273.358426972379 2339.93340525216 205 209 212
-843.022943370169 274.296017310637 2348.38820871187 177 181 184
-837.207894729858 275.125327380801 2355.89664252539 185 189 192
-831.68833768799 276.064071681904 2364.37278067434 197 201 204
-824.547017755098 276.457656605252 2368.06399754797 219 223 226
-818.032135114685 277.0692418795 2373.67691287195 218 222 225
-813.694322636107 278.446295123132 2386.02348351117 190 194 197
-808.063148128675 279.387092772298 2394.54007710023 193 197 200
-803.325760578402 280.656933416862 2405.95692846432 203 207 210
-797.320807127737 281.489423380827 2413.53485606053 207 211 214
-791.593473813772 282.432073402038 2422.08652751962 210 214 217
-785.83588981554 283.375356007722 2430.64949222311 213 217 218
-781.239121078455 284.758851129517 2443.09038314075 227 229 228
-780.134237290503 287.463851800601 2467.16194289476 225 227 224
-1030.80466406951 271.56054464999 2391.95020446064 199 204 197
-1014.86523610153 269.57388845081 2374.12568349485 195 199 198
-1001.26975651206 268.208237288771 2361.89621991429 194 198 199
-987.756019493661 266.83879598477 2349.6367702156 198 201 206
-976.158023804505 265.988242383332 2342.05370045083 200 203 208
-965.708899454943 265.448915539194 2337.27660815653 189 192 197
-955.662226070867 265.011997994008 2333.42757349523 182 186 189
-946.010376128254 264.678085602262 2330.50941279102 187 191 192
-935.319530490117 264.027461309579 2324.74493880566 190 194 195
-926.090603841885 263.794622160441 2322.74729656094 193 197 200
-916.887325669963 263.560290523877 2320.74047695625 189 193 196
-909.453843620374 263.850623592489 2323.46324623886 181 185 188
-901.674082359933 264.03498239217 2325.23727959784 178 182 185
-895.274344994616 264.640386471458 2330.80814624339 173 177 180
-886.471059448738 264.507025552328 2329.7299146302 165 169 172
-878.026987827395 264.477928665434 2329.59584453857 182 186 189
-869.934469380834 264.553335652604 2330.40873750302 203 207 210
-863.519664723973 265.157065613679 2335.98495234654 205 209 212
-856.758646462161 265.654891984979 2340.61215845694 200 204 207
-849.330888781551 265.940415843208 2343.33248499872 191 195 198
-843.206531297072 266.649906307984 2349.8779598185 190 194 197
-837.385022027044 267.465891044765 2357.38773560374 188 192 195
-831.217471254117 268.175951774491 2363.94869288946 197 201 204
-825.029719009802 268.886146937796 2370.51700027162 205 209 212
-819.452839251247 269.809742353644 2379.01282290868 188 192 195
-815.410481214695 271.267005007308 2392.32465201899 191 195 198
-810.070364929573 272.298949073197 2401.80918091073 192 196 199
-804.078990708342 273.118058829384 2409.38091079962 197 201 204
-797.451845152772 273.723655792909 2415.0344179343 202 206 209
-790.809762600945 274.329300550085 2420.69335584677 206 210 213
-785.053251001249 275.256283586449 2429.25470107907 209 213 214
-778.96879763343 276.076708493876 2436.86034934772 225 227 226
-779.645518996266 279.365496875217 2466.72847879335 224 226 223
-946.909505895311 234.481427604374 2124.17734805907 153 159 145
-1025.43129279202 262.097106495006 2379.32227221129 205 210 203
-1012.5226727831 260.98101146831 2368.99544293952 193 197 196
-1001.91596770235 260.471201138772 2364.27757840564 194 198 199
-987.65820798436 258.942024818525 2350.14329535815 201 204 209
-975.692159349453 258.019472425275 2341.62171008409 199 202 207
-964.879620410494 257.399747358368 2335.90378324098 187 190 195
-956.282095029473 257.389987293672 2335.82692765722 184 188 191
-945.90512738927 256.868266744882 2331.02494654371 191 195 196
-935.212617226941 256.24218331966 2325.26292899015 195 199 200
-925.627598970084 255.920725665649 2322.32142555452 189 193 196
-918.180807537 256.212174403724 2325.04911481502 188 192 195
-910.733973032523 256.502969754612 2327.77677042587 177 181 184
-903.28712878034 256.793229519695 2330.50438916762 172 176 179
-895.840298048462 257.082952789626 2333.23196251753 170 174 177
-887.370567734382 257.06353956386 2333.10820014552 182 186 189
-877.90086864228 256.734240158151 2330.1242052539 204 208 211
-869.469638696914 256.712144933762 2329.98599758574 216 220 223
-862.387163861444 257.101538133364 2333.65526324808 206 210 213
-857.61502525508 258.21321066606 2344.00625070186 198 202 205
-850.832826482138 258.705850065703 2348.64076112208 191 195 198
-845.017532704428 259.508655446285 2356.14753848732 184 188 191
-838.207546847364 260.001249321833 2360.79214156387 203 207 210
-831.708101164107 260.597270087773 2366.39852799984 207 211 214
-824.87564244905 261.089656611817 2371.0515349699 172 176 179
-818.979283300616 261.893202214652 2378.58756797439 191 195 198
-814.3089578093 263.112959138376 2389.97627427727 199 203 206
-810.213313118032 264.541946556705 2403.30507671348 197 201 204
-803.907900524074 265.243624963534 2409.91574622171 197 201 204
-798.192538348794 266.153946888292 2418.46062891004 203 207 210
-790.631476761746 266.439023037949 2421.22935598686 208 212 215
-784.870926905941 267.350025340834 2429.7909626974 213 217 218
-776.700521438892 267.425558229351 2430.63216444086 226 228 227
-1026.93845900643 252.200919898226 2362.0283639552 148 154 144
-1021.94543656232 253.196252441064 2371.3840182217 203 208 201
-1013.54891166152 253.303133023023 2372.30974288077 195 199 198
-1005.1622611622 253.40892676736 2373.23154349005 194 198 199
-991.988281593586 252.226512798223 2361.92956920421 201 204 209
-977.791456256932 250.743146217908 2347.77634852041 195 198 203
-965.506263555386 249.751612713145 2338.29895929858 184 187 192
-956.53966091652 249.650942704872 2337.28278780525 185 189 192
-945.081952448419 248.852790876597 2329.65270022212 191 195 196
-934.392905900504 248.25104790342 2323.89126073334 192 196 197
-924.810871964211 247.945761051941 2320.94989309485 191 195 198
-918.419396236484 248.53625204771 2326.51663276123 190 194 197
-911.31541315968 248.927140892405 2330.19382602419 171 175 178
-904.206374722232 249.31767765021 2333.87308382926 165 169 172
-896.748760741846 249.607822345806 2336.60460693554 170 174 177
-888.268649626483 249.596987113844 2336.48500921656 186 190 193
-879.127386611055 249.384512906238 2334.45705204923 199 203 206
-869.6761436173 249.070154348025 2331.46747867478 205 209 212
-863.587404256894 249.758392256606 2337.99840855317 202 206 209
-858.469998625615 250.748402514146 2347.39885432778 193 197 200
-852.660794610872 251.537971506975 2354.90216604159 185 189 192
-845.52438403996 251.925081843574 2358.59111064174 192 196 199
-839.028742215187 252.513434329683 2364.19528210386 188 192 195
-831.557022992081 252.799068371221 2366.93158983848 177 181 184
-824.085555428546 253.084097058902 2369.66776046082 187 191 194
-817.244853656425 253.570850547873 2374.32333742159 196 200 203
-812.582804739955 254.765867747056 2385.70716988228 196 200 203
-809.115334162428 256.367322185328 2400.95411276442 196 200 203
-804.351438213959 257.56514237463 2412.37490726148 198 202 205
-799.236936497101 258.662622463459 2422.84921724801 203 207 210
-792.267401902156 259.151492892806 2427.55176373809 208 212 215
-786.187533592423 259.945297582439 2435.153737545 215 219 220
-778.001529921925 260.026992086796 2436.00081730006 223 225 224
-1044.78669254833 246.506787552101 2384.97966244589 153 159 147
-1030.2604068609 245.088106900775 2370.95102773686 167 172 165
-1020.72144755361 244.913404195141 2369.07067279303 197 202 196
-1011.20773658226 244.737132918993 2367.18077152416 200 204 205
-1002.83376243068 244.847836780665 2368.09859112171 186 190 193
-989.674352154232 243.70557081059 2356.79409819027 202 205 210
-977.690531156044 242.84886272536 2348.28393834141 192 195 200
-966.131843177779 242.085773177073 2340.69318591157 184 187 192
-956.435252828269 241.803007577755 2337.79514018454 191 195 198
-943.900322693609 240.744663697932 2327.336892764 193 197 198
-933.573409742177 240.263804725055 2322.51980797344 189 193 194
-924.347840863648 240.07162737476 2320.52401372254 191 195 198
-917.955362479908 240.654058502593 2326.09050956159 185 189 192
-911.199122586721 241.139416753146 2330.71529307686 165 169 172
-904.432534247958 241.624567833328 2335.34356663444 166 170 173
-896.626045067258 241.817593838922 2337.12796520513 183 187 190
-888.483984342253 241.912458952024 2337.96007258129 200 204 207
-879.67605014683 241.811275143775 2336.88621211672 199 203 206
-871.224236766024 241.806450441062 2336.7567862721 198 202 205
-864.452934334225 242.28900290227 2341.38683087202 196 200 203
-859.323633808728 243.260510762181 2350.79020247296 185 189 192
-853.175019336543 243.939072895833 2357.34190287011 182 186 189
-845.704871469271 244.22580678772 2360.07772265762 177 181 184
-838.557665319245 244.610077370739 2363.77012112788 185 189 192
-830.765274788467 244.797579799276 2365.54898036688 201 205 208
-823.613456060855 245.180988491218 2369.24298972875 201 205 208
-817.08694962413 245.760737240461 2374.85798060306 202 206 209
-812.107886456703 246.83309341579 2385.28118503887 195 199 202
-808.017903662897 248.202218368673 2398.60341357648 198 202 205
-802.335123876655 249.079452538723 2407.13421564059 206 210 213
-797.841196018789 250.352509305741 2419.52940785445 209 213 216
-791.180744355353 250.934664123631 2425.19324760158 213 217 220
-786.603156468854 252.20976963796 2437.61899122691 222 226 227
-778.706455097156 252.396346335547 2439.43568066387 224 226 225
-901.189427298875 199.656432260857 1996.29916200123 156 162 148
-1033.20014672634 237.826506527763 2378.93477955201 188 193 186
-1021.3799287266 237.106391492544 2371.44229329623 200 205 199
-1011.85877962057 236.943869630794 2369.5561319963 202 206 207
-1001.24922423285 236.499336517398 2364.84448266143 191 195 198
-988.468122637589 235.491019329133 2354.47945317112 192 195 202
-976.124672830321 234.572956851376 2345.02877444993 194 197 204
-966.39278756033 234.308364256068 2342.14492387517 186 189 194
-955.247403742459 233.666405771133 2335.47969829204 194 198 201
-943.794610443455 232.927776283677 2327.85206159381 189 193 194
-933.110020501861 232.374737527122 2322.09293196876 198 202 203
-925.65145230968 232.667122933657 2324.82497084124 190 194 197
-918.54357319502 233.053310564642 2328.50322496698 175 179 182
-911.77879903486 233.533523575943 2333.13072108542 167 171 174
-903.966728370572 233.730116309912 2334.91716242881 180 184 187
-896.159876643134 233.925866094107 2336.70189823979 193 197 200
-887.336619751929 233.836804405313 2335.6345197193 199 203 206
-879.209800353284 233.935986892949 2336.46141510202 200 204 207
-871.764151950647 234.223996503524 2339.18842956897 205 209 212
-866.315635312346 235.08150485982 2347.63262668966 197 201 204
-860.836501876984 235.939644024174 2356.08799563799 179 183 186
-853.360533760736 236.227260450679 2358.82599672917 182 186 189
-844.909309679976 236.228338127511 2358.69680211367 193 197 200
-837.118883870173 236.41909867606 2360.47519332611 195 199 202
-829.973809922637 236.800070128825 2364.1665681625 198 202 205
-824.093700221525 237.563021379183 2371.69363422381 194 198 201
-818.503215757607 238.42217740591 2380.18953790643 196 200 203
-813.194591841696 239.377736252353 2389.65686105097 206 210 213
-808.160275159132 240.429979422206 2400.09862360546 206 210 213
-802.778062224444 241.38725297752 2409.59281378164 201 205 208
-797.360384007183 242.345346827041 2419.09995171936 207 211 214
-790.698958421952 242.919529981811 2424.76354385415 219 223 226
-785.819742446732 244.071343381858 2436.22302146724 229 233 234
-780.597854490155 245.128012770892 2446.73301536977 222 224 223
-1038.11932970472 228.851178972754 2370.07040680705 148 153 146
-1031.9699264596 229.519201477317 2376.62159856318 194 199 193
-1021.28479415745 229.100460163201 2371.93935519201 201 206 202
-1011.38769421564 228.860904588197 2369.11742239524 191 195 196
-998.923228007959 227.984047130005 2359.71382246155 195 199 202
-985.788092795603 226.922226157966 2348.40683349651 198 201 208
-973.461561927101 226.038846492664 2338.95262436307 188 191 198
-964.835787901708 226.063152383417 2338.88860290341 192 195 200
-954.060005228496 225.539209240972 2333.16454802775 190 194 197
-944.046856239325 225.195460540992 2329.31036243293 195 199 200
-934.425195178169 224.941120647142 2326.38723684639 200 204 205
-926.953292776917 225.23402717474 2329.12415985721 172 176 179
-919.48133136377 225.526459593715 2331.861068537 162 166 169
-912.009327971625 225.818238582809 2334.59794316702 184 188 191
-903.84638990586 225.92593539885 2335.43885854285 193 197 200
-894.664855339698 225.757048903107 2333.42882230475 196 200 203
-886.189747678596 225.770493943921 2333.30923862829 192 196 199
-878.067943883574 225.874945494223 2334.1349635183 193 197 200
-871.297330544149 226.347212019713 2338.76372734955 187 191 194
-865.847341461232 227.18852026301 2347.20723714027 186 190 193
-860.366733834833 228.030489158548 2355.66192164496 185 189 192
-852.890250106782 228.318095960011 2358.40010935105 182 186 189
-844.763962178794 228.419997062628 2359.22701675436 192 196 199
-836.648224952902 228.520936169814 2360.05027241254 198 202 205
-829.822317050364 228.992088338065 2364.6990427551 200 204 207
-824.255686250515 229.83459043591 2373.18502294022 194 198 201
-819.917501737314 231.049750397347 2385.51925934168 193 197 200
-814.279728883257 231.893871572985 2394.0312102688 195 199 202
-808.301898934048 232.645485929561 2401.59292637934 208 212 215
-802.605916237764 233.490810100377 2410.12611789609 222 226 229
-796.575110269372 234.243409215137 2417.70741079072 221 225 228
-789.009499094395 234.529050256677 2420.47783352568 220 224 227
-783.839171178226 235.562623242134 2430.96735106869 218 222 223
-778.925158187531 236.690903883816 2442.43769616009 229 231 230
-1033.01219986472 221.747960437852 2379.92328250713 199 204 200
-1021.9414142098 221.263386953774 2374.30938379699 200 204 203
-1012.03704580418 221.040343323764 2371.4913377587 188 192 195
-997.711670577945 219.758686776968 2357.40029772679 202 205 210
-985.320265385793 218.913692719383 2347.97255612685 196 199 206
-973.726891641755 218.242044626048 2340.40105143686 186 189 196
-965.095946167066 218.274681454045 2340.33953754146 189 192 197
-953.955266589843 217.686850418536 2333.67668673354 187 191 194
-944.656478590129 217.539385850073 2331.71112369511 200 204 205
-935.027570043384 217.301646409149 2328.79188392295 193 197 198
-928.253534315075 217.772454871155 2333.42203552864 167 171 174
-920.067298239152 217.887626604787 2334.27172563572 164 168 171
-912.239220493989 218.09069708684 2336.06472601442 191 195 198
-903.034889188886 217.936815313468 2334.06410481796 193 197 200
-894.541765290543 217.959688803891 2333.95177850865 189 193 196
-885.723889258317 217.892212804529 2332.88407359476 195 199 202
-877.939513109225 218.091491046919 2334.66090941187 206 210 213
-870.830454888563 218.469030187279 2338.33893940868 204 208 211
-865.378996856694 219.29413818096 2346.78176058901 194 198 201
-859.896915036437 220.11987725593 2355.23575615782 191 195 198
-852.419920944312 220.407563555056 2357.97413529657 190 194 197
-843.968655694262 220.425079154795 2357.84619590695 198 202 205
-836.499778482397 220.711376300443 2360.58152106443 204 208 211
-829.350818852186 221.087169719904 2364.27391702437 205 209 212
-824.417011015065 222.09385810039 2374.67572375915 202 206 209
-819.127870162331 223.011376053553 2384.13309772902 200 204 207
-814.739192968353 224.200758177588 2396.48373503862 199 203 206
-808.133533020088 224.758290824402 2402.12580911584 195 199 202
-802.433450071999 225.587501496241 2410.65902031357 196 200 203
-795.181521088464 225.964119397909 2414.38914542028 206 210 213
-788.528375965901 226.521840385033 2420.04848685517 215 219 222
-783.35626074147 227.533865895247 2430.53702800298 212 216 217
-779.033525296154 228.819781787561 2443.93754606329 230 232 231
-769.655785641236 228.559528048457 2440.92560276572 0 1 0
-1034.4314485532 214.038630368903 2384.15897038732 199 204 200
-1024.10064534897 213.749220587151 2380.42430045632 192 196 195
-1013.05865460704 213.287402051027 2374.80165637007 193 197 200
-998.354575891793 211.969552842529 2359.77892650616 205 208 213
-986.693459376737 211.331013016651 2352.23453338058 187 190 197
-975.454236631506 210.775290555811 2345.60990964956 187 190 197
-966.444797227116 210.731022834442 2344.61355800447 186 189 194
-954.571235583288 209.999233187669 2336.07276208709 193 197 200
-944.549039870096 209.693861911323 2332.22475914476 197 201 202
-935.273495154579 209.558501042027 2330.25166419173 176 180 179
-927.434834311944 209.765869689851 2332.0485798054 170 174 177
-918.900696911292 209.800142331313 2331.95201532587 180 184 187
-910.729697294394 209.919588162498 2332.79674624793 195 199 202
-902.914087162222 210.124493913997 2334.58535514862 191 195 198
-894.760956729764 210.242153372244 2335.42320443496 187 191 194
-886.27810345241 210.272248109615 2335.30769127796 196 200 203
-878.14816320196 210.387929326948 2336.13696543884 203 207 210
-871.368286657685 210.849765294178 2340.76856224327 190 194 197
-865.242933826937 211.485196057439 2347.30855648173 181 185 188
-859.756818987014 212.294805314625 2355.76280037753 191 195 198
-852.276773183325 212.582670431118 2358.50230180975 196 200 203
-844.147565148867 212.695672974478 2359.33110781884 210 214 217
-836.67305642565 212.98224975997 2362.06850021515 210 214 217
-830.15741303326 213.530368789248 2367.67715762462 202 206 209
-824.894620686786 214.428412010323 2377.12374309827 198 202 205
-818.967321077919 215.152176280657 2384.66499830505 195 199 202
-813.638437096711 216.051654892764 2394.13545134893 200 204 207
-808.274038893639 216.9519557117 2403.61887008015 197 201 204
-801.953965103466 217.589547469252 2410.22977680628 209 213 216
-795.005536090042 218.051509344928 2414.92262455264 220 224 227
-787.444074276306 218.33716687874 2417.69154091321 221 225 228
-782.574371787945 219.415627670282 2429.1420273478 216 220 221
-777.066049990446 220.318813855363 2438.67795663133 220 222 221
-1036.60566982053 206.465338684916 2390.26397947053 200 205 201
-1025.13019229341 205.948297814194 2383.72811456193 192 196 195
-1012.21286669916 205.098501631235 2373.42454102927 201 205 208
-998.255089066161 203.997408632128 2360.28011903225 202 205 210
-986.224571996517 203.305965585642 2351.79939513088 182 185 192
-975.717508282544 202.943092296262 2347.05666808604 185 188 195
-966.703063601251 202.909858627594 2346.06296758291 190 193 198
-954.825784117341 202.210848700086 2337.52599577863 199 203 206
-944.441260812936 201.841489118045 2332.73825579991 182 186 187
-935.16336159525 201.719782006163 2330.76679221849 171 175 174
-927.32187894992 201.930016404622 2332.56520362976 178 182 185
-918.785151647593 201.972519092541 2332.47020112892 186 190 193
-909.916227141459 201.930382474724 2331.4229559395 192 196 199
-902.447822076946 202.221574196765 2334.15847885171 192 196 199
-894.979432717527 202.512229338267 2336.89395557182 196 200 203
-886.831292574894 202.634547245203 2337.73034318585 202 206 209
-878.356187801422 202.672051125466 2337.61257373806 200 204 207
-871.570359634421 203.128730247593 2342.24594389834 204 208 211
-865.106582896418 203.669432806029 2347.83519661987 207 211 214
-859.61636780187 204.462869012486 2356.2894557044 204 208 211
-852.460375538784 204.835290923016 2359.98440680349 204 208 211
-843.676840973581 204.785096455359 2358.90527395886 202 206 209
-836.201839364607 205.071752055434 2361.64285138577 202 206 209
-830.004650819525 205.69645830311 2368.20839136042 196 200 203
-826.004824696097 206.914668938139 2381.48647586764 199 203 206
-819.434963125698 207.455735909068 2387.11430068824 203 207 210
-813.473382623812 208.166755913168 2394.66704985561 200 204 207
-806.868328410036 208.708156108255 2400.30768662749 202 206 209
-800.861418651837 209.419832247545 2407.8772094277 212 216 219
-793.309295536042 209.705809657328 2410.64275682375 212 216 219
-786.963316570212 210.332592783701 2417.26226034457 211 215 218
-781.792827344907 211.301336180158 2427.74719930648 214 218 219
-775.396543978831 211.928983569147 2434.38504551506 235 237 236
-898.421135894851 162.677543339785 1974.24877566707 163 169 155
-1049.17867333138 199.100803204245 2400.07312801082 194 199 195
-1035.37399687478 198.13601275117 2387.94991908898 197 201 200
-1023.9047271836 197.64585514203 2381.41382702547 203 207 206
-1011.36725201707 196.913614192212 2372.04766553483 202 206 209
-998.525594513051 196.098213494645 2361.71893983236 199 202 207
-987.59523212707 195.679749479722 2356.05926244536 183 186 193
-976.345362416889 195.178784192576 2349.44263867274 187 190 195
-966.234962474468 194.915955868439 2345.62989357303 198 201 206
-954.359084548512 194.249495810444 2337.09486846974 206 210 213
-944.332978987651 193.982271424901 2333.25116436573 172 176 177
-934.697736868188 193.793701364324 2330.33793572664 173 177 178
-926.503313649745 193.925956913063 2331.1918895312 186 190 193
-918.669120110932 194.138050309249 2332.98779280068 191 195 198
-910.145159005737 194.187676713224 2332.88868935675 190 194 197
-902.671134664693 194.479147596954 2335.62627502635 193 197 200
-893.828000538239 194.445829109335 2334.57032456545 198 202 205
-886.703982287755 194.816836462767 2338.25329726916 200 204 207
-877.889169980399 194.781398733954 2337.18689652763 200 204 207
-871.102535807595 195.232719912485 2341.82015527469 206 210 213
-864.637778150828 195.765331977528 2347.4091539602 202 206 209
-859.475626969544 196.62414142664 2356.81595816302 196 200 203
-851.989462010832 196.912335016761 2359.55770769792 202 206 209
-844.503503270884 197.199984580782 2362.29934125816 201 205 208
-836.69594330984 197.405333808964 2364.08480438513 201 205 208
-831.447572299904 198.265414852969 2373.52328573876 196 200 203
-826.796765326 199.290372912012 2384.8899480406 200 204 207
-820.843892721807 199.988056601078 2392.4387813607 204 208 211
-813.308059477713 200.275064830171 2395.19848781157 212 216 219
-806.39048366669 200.726157429698 2399.87905102132 208 212 215
-799.46309282686 201.177203061091 2404.56343116107 218 222 225
-792.829686596995 201.710510533159 2410.21375867627 224 228 231
-785.880029260692 202.161338354743 2414.90595833104 217 221 224
-781.011577661357 203.191066612354 2426.35231332317 214 218 219
-773.728372526376 203.559438087258 2430.0931800242 233 235 234
-1044.89561695557 190.123193593827 2390.28562296856 198 203 199
-1034.52070737515 189.892988794215 2386.57119134561 199 203 202
-1021.92870505225 189.198788621026 2377.22771185597 198 202 203
-1010.52172584749 188.732697184091 2370.67080315058 198 202 203
-997.314145694062 187.87802990893 2359.40576623049 187 191 194
-987.49304877638 187.715720379057 2356.56204701826 184 187 192
-975.876520988128 187.164454300899 2349.0082923826 189 192 197
-965.404042838065 186.843090611437 2344.2558767639 202 206 209
-953.17209895734 186.131454129404 2334.78025892307 194 198 201
-943.866792367239 186.03849606372 2332.82117693601 178 182 183
-934.941935506681 186.021859920956 2331.79617812302 182 186 187
-927.094572597265 186.237757039758 2333.5968990111 189 193 196
-918.55268690535 186.296778535571 2333.50501711736 190 194 197
-909.678926742749 186.276597108135 2332.4611854577 194 198 201
-901.170334360519 186.333334845312 2332.357034541 198 202 205
-893.01932563705 186.467244678846 2333.1955933528 196 200 203
-885.897224635364 186.835586597291 2336.87766833669 196 200 203
-878.096129246051 187.046475795515 2338.66145494682 200 204 207
-871.637967548327 187.571266994009 2344.24746697583 207 211 214
-864.168938383711 187.859862824892 2346.98302078292 208 212 215
-857.687898448372 188.384460121347 2352.57707639937 205 209 212
-850.211509114525 188.672301441191 2355.31524750329 203 207 210
-843.059555812914 189.038699644576 2359.00827659767 211 215 218
-836.545874111394 189.563010590946 2364.6144248933 209 213 216
-831.612274610008 190.483473424259 2375.0093957714 203 207 210
-826.638031819083 191.405034552644 2385.41947105631 200 204 207
-820.367325828326 192.009908629185 2392.00997200565 200 204 207
-812.831038153598 192.297053721839 2394.7698538948 199 203 206
-804.986258120674 192.504006446393 2396.56896145803 210 214 217
-798.065779700426 192.949392486449 2401.25040303095 218 222 225
-791.742729545942 193.554287488785 2407.85992415962 215 219 222
-786.001904081203 194.319242164949 2416.40334473148 223 227 230
-780.827866455441 195.244859810424 2426.88631905376 229 233 234
-774.429355333124 195.851096041266 2433.52335918377 228 230 229
-1036.44601282289 178.596675616229 2348.75387557916 162 168 156
-1042.89803196256 181.64302522066 2386.10484480887 200 205 201
-1035.93486493205 182.099250582955 2390.80261460122 201 205 204
-1022.20569715235 181.217829560718 2378.65826089807 195 199 200
-1011.16739196834 180.853472489452 2373.04163133337 194 198 199
-997.953995211081 180.039736233737 2361.78179611468 185 189 192
-988.493239882089 179.968558946884 2359.88058358154 184 187 192
-975.042470148397 179.074054288937 2347.63409023197 195 198 203
-964.210963895207 178.69942786836 2341.94180231594 201 205 208
-953.065473728795 178.247622635482 2335.29096273975 188 192 195
-944.472566448071 178.318404637563 2335.21850625429 179 183 184
-935.185321755488 178.237796234679 2333.25353919808 184 188 189
-926.275912723595 178.230918391413 2332.22366388808 189 193 196
-918.086216459645 178.373321451699 2333.0766658585 191 195 198
-909.906830358078 178.514891020934 2333.92611317675 194 198 201
-901.393102792653 178.57992850209 2333.82445429389 197 201 204
-893.236723300898 178.719540695962 2334.66514045445 192 196 199
-886.108937289823 179.085411268107 2338.34934885397 195 199 202
-878.97601181041 179.4509008711 2342.03514156537 193 197 200
-872.840872588545 180.043896312457 2348.57548975444 188 192 195
-864.695104960444 180.1810392394 2349.41213391628 193 197 200
-857.547253742565 180.545639450938 2353.10353690824 209 213 216
-848.76152279654 180.528806620827 2352.02797358533 210 214 217
-842.588597098071 181.121164723748 2358.5820029322 207 211 214
-837.681184360929 182.01949300357 2368.96578908802 204 208 211
-833.051933674171 182.995357910699 2380.32116932975 201 205 208
-826.478895169045 183.512817623983 2385.94836724476 202 206 209
-819.576948016067 183.953711582106 2390.62248247234 203 207 210
-812.976346154936 184.471236131386 2396.2597000817 207 211 214
-805.126215210884 184.681242775752 2398.06123656027 214 218 221
-798.199814882462 185.121500585346 2402.74444285164 219 223 226
-791.870554172225 185.715889194481 2409.35542778431 217 221 224
-786.123154343154 186.464872924318 2417.90003203622 221 225 228
-781.538965120382 187.523616530341 2430.31184932344 224 228 229
-779.270512646643 189.202982300151 2450.46205792681 219 221 220
-1017.00855070463 165.306287466991 2281.21573372755 163 169 155
-1037.12549697025 170.736734206251 2351.11387135752 161 167 155
-1040.90163202971 173.183133803196 2381.92542030627 202 207 203
-1033.57015311759 173.56195127383 2385.68436054523 202 206 205
-1020.98125828444 172.938139060008 2376.3450628718 195 199 200
-1010.69420953202 172.741438765499 2372.60149038414 192 196 197
-997.852689336907 172.0401501542 2362.28157903657 187 191 194
-988.389773399128 171.982651216431 2360.38243789227 192 195 200
-974.208680737754 170.98759056749 2346.26034439899 201 204 209
-964.105287061698 170.781568887719 2342.44933981163 192 196 199
-953.318067691179 170.429165208619 2336.74238324403 182 186 189
-944.720025664217 170.508246937601 2336.67241863235 185 189 190
-935.428054547123 170.441446935693 2334.71046503482 186 190 191
-926.513676071701 170.445661296569 2333.6832322348 194 198 201
-917.270195063228 170.375937761543 2331.70318546929 197 201 204
-909.440117044946 170.595463179382 2333.49815417352 199 203 206
-900.92639598768 170.668748339095 2333.39711522651 198 202 205
-893.453500720611 170.959639130148 2336.13424689222 192 196 199
-886.659080165214 171.395973474993 2340.76894963869 194 198 201
-881.201239714623 172.124648455079 2349.20681376657 183 187 190
-874.37630278477 172.561208904938 2353.85287562315 199 203 206
-865.551948817926 172.557855445199 2352.79236253419 212 216 219
-856.748179974518 172.553175212209 2351.7240156844 214 218 221
-848.291670906422 172.620667413762 2351.60200669048 220 224 227
-841.469886154747 173.055093599689 2356.24650790347 202 206 209
-837.208438270113 174.078981365453 2368.53843121336 195 199 202
-831.939792394874 174.88293689294 2377.97979012186 200 204 207
-825.370934319804 175.392134175443 2383.60484571604 207 211 214
-817.532611908192 175.605490643673 2385.40234446087 212 216 219
-811.25488558091 176.188604896597 2391.99375434868 225 229 232
-804.031610787517 176.54937755456 2395.71201845783 223 227 230
-797.721393035805 177.132795100438 2402.31551088953 224 228 231
-790.177673518044 177.418920499794 2405.07801610886 227 231 234
-785.040610179558 178.300289036583 2415.54396331286 227 231 234
-781.652326485694 179.630205510127 2431.80820289072 221 225 226
-785.288542482716 182.754416061474 2471.25494442358 219 221 220
-1049.66669365151 164.984850642051 2382.38864995076 161 167 155
-1043.84777119454 165.636417003363 2389.88533452594 205 210 206
-1033.47224639332 165.463154136439 2386.17567710082 200 204 203
-1020.88237270094 164.874724208092 2376.83940473364 193 197 198
-1009.10364263755 164.421103936158 2369.35169750272 190 194 195
-997.011297591407 163.895682270471 2360.90621891067 187 191 194
-985.714765942636 163.50569916577 2354.3149229556 201 204 209
-972.280926331512 162.697478571737 2342.06878852712 203 206 211
-962.550549390838 162.579354385419 2339.19544119502 188 192 195
-952.491212438622 162.390071979491 2335.3696921503 181 185 188
-943.538730916709 162.407626285632 2334.35731013818 184 188 189
-934.961091691886 162.493533280594 2334.28044739949 184 188 189
-926.398752090462 162.57836592823 2334.19794467182 197 201 204
-918.201052913006 162.732009521185 2335.0547025174 200 204 207
-909.32008449297 162.744803775666 2334.01597795623 199 203 206
-901.14798816089 162.896374837172 2334.86327695078 198 202 205
-894.011192717864 163.257684482921 2338.55041468609 192 196 199
-888.22553204891 163.899835785328 2346.03404931807 187 191 194
-881.74132302702 164.401705104078 2351.62779582572 178 182 185
-873.572118333044 164.551243805132 2352.47414513996 200 204 207
-864.750422518777 164.558668366882 2351.41322515802 210 214 217
-856.607153854855 164.706210842918 2352.25000032016 201 205 208
-849.126788213458 164.994415994394 2354.98964361762 203 207 210
-842.941378475895 165.565644666495 2361.54661463543 200 204 207
-837.699089030134 166.350109067582 2370.97692662669 199 203 206
-831.465467048442 166.922150013602 2377.55147625074 206 210 213
-824.579675435797 167.352185753139 2382.21915659913 210 214 217
-816.743628833835 167.568252216806 2384.01603293033 211 215 218
-810.156507239315 168.069200710028 2389.64710196268 214 218 221
-802.629467330131 168.355716402634 2392.40357630208 220 224 227
-796.019977867712 168.856510599658 2398.0425064737 226 230 233
-788.18290519395 169.070622176381 2399.83960811598 225 229 232
-783.357576756333 170.001804011832 2411.26285935908 219 223 226
-784.447664852964 172.371349979574 2441.97799507596 214 218 219
-1053.01665231873 157.466377364251 2391.27052863626 161 167 155
-1043.7512152475 157.511616154936 2390.37394396665 202 207 203
-1032.99640966213 157.291404300831 2385.73199488061 189 193 192
-1020.78291268399 156.804377929309 2377.33317801625 184 188 189
-1009.74744770546 156.513247976735 2371.72104160128 188 192 193
-996.909412796969 155.88793043497 2361.40559605671 197 201 204
-984.51003164826 155.325732347868 2352.00208982888 203 206 211
-971.08339866232 154.560762519241 2339.75660030215 191 195 198
-961.358629536384 154.458676829401 2336.88242557053 185 189 192
-951.664560123584 154.354960794021 2333.9972277733 180 184 187
-943.428509256281 154.517041020974 2334.86855678559 186 190 191
-935.556962946923 154.745154650233 2336.67924047154 192 196 197
-927.338657768282 154.90552896717 2337.54399309507 200 204 207
-918.78139936871 154.997845223966 2337.46020882621 202 206 209
-909.546317569037 154.954458978118 2335.4793518085 195 199 202
-900.336801236017 154.909670423394 2333.48884578496 192 196 199
-893.543402614774 155.335648666085 2338.12265014519 185 189 192
-887.756475872319 155.964271623994 2345.60572405402 177 181 184
-881.944059539514 156.593341095623 2353.0983472837 185 189 192
-872.768132505824 156.545215056953 2351.09538518779 196 200 203
-864.28046660236 156.631446853508 2350.98585626935 208 212 215
-856.137058371449 156.78447355535 2351.82309593501 201 205 208
-849.960602284064 157.344960505314 2358.37600327538 199 203 206
-842.793238777454 157.701314870774 2362.0736193471 207 211 214
-836.583967920982 158.262207078284 2368.63873440799 209 213 216
-829.399155759786 158.618201205975 2372.34266305068 219 223 226
-822.525333977526 159.042393394182 2377.00529909964 223 227 230
-815.328397877688 159.397924598601 2380.7138522015 224 228 231
-808.437281255687 159.821869641446 2385.38275346771 215 219 222
-801.228243123081 160.17692098182 2389.09566748605 223 227 230
-794.319948759019 160.600465423294 2393.77077984505 231 235 238
-787.098915212798 160.955062508716 2397.48801797338 229 233 236
-783.478546096434 162.137871591521 2412.75867287085 219 223 226
-787.239400712623 165.051280737811 2452.14422320998 214 218 219
-1056.36326648512 149.892175147921 2400.14941766712 162 168 156
-1046.31284484335 149.822841961398 2397.39629025814 200 205 201
-1036.29270878606 149.751683789205 2394.63176695562 198 202 201
-1025.17900329895 149.488593600237 2389.05017390064 184 188 189
-1012.25070169851 148.905452975878 2378.77070795094 187 191 192
-997.176676123648 147.937038193119 2362.84194851702 204 208 211
-982.938861065663 147.0915554241 2348.7517502905 204 207 212
-970.250846067675 146.497445911454 2338.38415157416 184 188 191
-960.167320945408 146.347579318744 2334.57016498604 181 185 188
-950.838036528242 146.32396734775 2332.62477301235 184 188 191
-941.891035490312 146.363073673896 2331.61202586891 196 200 201
-934.38100415591 146.657857424988 2334.36294419255 201 205 206
-925.816127474283 146.759076659851 2334.28259967558 202 206 209
-917.964652148726 146.988192440563 2336.08606643329 199 203 206
-908.73239751848 146.958376548289 2334.10495179835 189 193 196
-900.557534389967 147.120969815814 2334.95434202224 187 191 194
-893.758150121254 147.541776458482 2339.58967668225 183 187 190
-886.948633586614 147.962429427399 2344.2289354853 186 190 193
-879.456522615439 148.253207695237 2346.97304044789 194 198 201
-870.296330210004 148.21810409992 2344.96534393478 213 217 220
-862.486239339632 148.442208057374 2346.75339601568 228 232 235
-855.666938350686 148.861307982048 2351.39609269877 207 211 214
-849.489382367835 149.411088806475 2357.94859187819 205 209 212
-842.968177851435 149.895704680409 2363.55447843838 206 210 213
-836.111044976113 150.314883663676 2368.21092683163 214 218 221
-828.60740689035 150.602658420587 2370.95899340815 221 225 228
-821.419728138238 150.955667882157 2374.66373839315 224 228 231
-815.166583554922 151.505931421166 2381.2437381714 227 231 234
-807.961623945724 151.858693190911 2384.954743252 232 236 239
-800.135978915307 152.079087518465 2386.74816684588 234 238 241
-792.926661914793 152.43103697593 2390.46069384013 238 242 245
-787.832701372572 153.246391287855 2400.90625360611 228 232 235
-786.301630384227 154.85872623288 2422.91685302124 207 211 214
-795.089028170775 158.799515863351 2478.68631651831 208 212 213
-792.67381497256 160.288989397188 2498.87552113196 238 240 239
-1041.34012663597 137.849082761321 2342.83463304756 165 171 157
-1049.00503814221 140.570525271355 2382.92032118944 162 168 156
-1044.31602111502 141.362861694051 2393.21675872723 196 201 197
-1036.56907837685 141.671340914941 2396.05478920601 195 199 198
-1026.57481354213 141.614968984355 2393.28223586754 195 199 200
-1014.37926811444 141.191944137293 2384.88172554798 199 203 204
-998.920650282039 140.217640525192 2368.02570236536 203 207 210
-985.036633835985 139.482661856368 2354.88184976468 198 201 206
-971.603901543172 138.804935668458 2342.64515901719 184 188 191
-961.146563117102 138.613444734342 2337.89729598024 186 190 193
-951.089172453856 138.48107739656 2334.07513410842 192 196 199
-942.137222071053 138.53124536543 2333.06501986644 199 203 204
-934.267562862284 138.76471815467 2334.87516794981 200 204 205
-925.348749575285 138.812578694049 2333.85283965724 200 204 207
-916.799230911154 138.9209096805 2333.76745158877 199 203 206
-908.957686432104 139.151810991675 2335.56744481812 191 195 198
-900.777483122362 139.320105424151 2336.41895118715 188 192 195
-894.31341412904 139.797724206435 2342.00355032437 182 186 189
-886.141060667323 139.964804885769 2342.85236727445 184 188 191
-878.314976496049 140.193239792343 2344.64630279397 195 199 202
-869.493795186726 140.23389027019 2343.58795712674 194 198 201
-862.347737566805 140.585541098328 2347.27747708029 200 204 207
-855.196788556125 140.936863207315 2350.96900376267 198 202 205
-849.018151899726 141.475847827191 2357.52108100051 195 199 202
-842.172827144938 141.889682078549 2362.17283579157 212 216 219
-835.317428796773 142.30341752162 2366.82798893691 223 227 230
-827.497854207791 142.528249428317 2368.61954173388 234 238 241
-820.314707460902 142.878491266264 2372.32243124956 235 239 242
-813.439751621319 143.291548109724 2376.98489346984 240 244 247
-806.554807833528 143.704532573685 2381.65072492039 238 242 245
-799.044403807502 143.990814973845 2384.4011372164 235 239 242
-793.36593467421 144.657067085101 2392.91445412515 228 232 235
-789.775989313956 145.76870003221 2408.16893888163 221 225 228
-790.021517810483 147.709391948276 2435.95865407761 206 210 213
-794.895278576623 150.67398754817 2479.21018517255 206 210 211
-793.949174137405 152.433904796671 2504.2193026103 236 238 237
-1044.708589509 131.80699202823 2373.153834461 161 167 155
-1041.56147553292 132.80768635465 2387.1724952118 193 198 194
-1036.09086809853 133.462970118141 2395.6092062746 189 193 192
-1025.7226947541 133.364812602625 2391.90254460785 192 196 197
-1012.41588800046 132.799901967291 2380.6954230392 198 202 203
-998.077982775337 132.056829653395 2366.64931836162 199 203 206
-984.565497254387 131.426258944344 2354.44516291319 199 202 207
