ply
format ascii 1.0
comment KinectMotionCapture
element vertex 750
property float x
property float y
property float z
property uchar red
property uchar green
property uchar blue
end_header
-352.85729567262 467.387766399526 2647.29343172152 123 124 119
-354.481634392453 467.683242917906 2654.27741269829 113 112 107
-357.079491465091 468.039323799525 2660.95922395473 122 119 114
-361.627023575638 468.517520360825 2667.0467019292 128 123 117
-367.153016705314 469.057177432061 2672.85328685635 128 123 117
-335.619982198585 467.264875659743 2689.88344186531 132 129 120
-698.940206912049 474.446149639975 2295.36361336092 245 246 248
-691.262083702405 474.24893080778 2307.21270325209 249 250 252
-684.527615082721 474.104135188903 2318.63283839333 254 255 255
-677.782234983346 473.956986719442 2330.00627514934 244 245 247
-664.326176727526 473.419895528816 2343.9349706574 242 243 245
-640.315571342783 472.268467316121 2361.83931921144 239 240 242
-624.896991916532 471.610898491431 2376.30369069779 233 234 236
-614.251070279711 471.22739864311 2388.85482259478 230 231 233
-602.629506604881 470.78473283444 2401.69900642266 230 231 233
-582.349160511182 469.83495382526 2417.69570900885 223 224 226
-550.510850976579 468.206848037792 2437.8404779354 194 195 197
-533.050899587654 467.41295789508 2452.50346860756 215 217 216
-509.793992357104 466.276363508823 2469.16391395465 201 203 202
-478.803540085498 464.682075401977 2488.46961958947 174 176 175
-465.110861145406 464.097158483073 2501.38267139446 214 216 215
-461.037430979504 464.074516482582 2510.78672129948 164 166 165
-455.992248563056 463.993369433895 2520.49948863856 136 140 141
-450.938322999731 463.910315834717 2530.17593642533 166 170 171
-440.081682637416 463.483303325615 2541.82302674133 179 183 184
-428.242302701345 462.995850460538 2553.73372913214 207 211 210
-412.51798746001 462.275951482207 2566.88751333836 210 212 211
-410.318209379487 462.354157583624 2575.3747380037 169 171 170
-407.145201395037 462.37355769227 2584.16543212883 149 151 150
-402.028521872714 462.276265880575 2593.57263792122 127 129 126
-396.903289334521 462.177029740918 2602.94329779675 124 126 123
-389.829205054361 461.960217248532 2612.90924898581 121 121 119
-380.802776590441 461.62515274705 2623.45441276966 127 127 125
-368.84855729135 461.113121940657 2634.87352282116 121 126 119
-361.737217089023 460.888049884773 2644.67907458486 124 127 120
-358.504865300826 460.893526074542 2653.21645537427 129 132 125
-358.186219569042 461.072371835039 2660.81993974175 131 132 126
-360.786405197552 461.425674222433 2667.51364617416 128 129 121
-697.012133599391 466.205978583652 2296.27150533531 246 247 249
-688.381786045548 465.983141540909 2308.49602088326 253 254 255
-683.560213431887 465.967107504389 2319.15584427219 251 252 254
-676.817781074136 465.844188773157 2330.52801933242 244 245 247
-661.453471079611 465.244731279866 2345.19735395996 243 244 246
-635.535432758854 464.06024864448 2363.82979586912 231 232 234
-621.07817369846 463.503518650855 2377.91458168919 219 220 222
-610.434629587798 463.154620904666 2390.45583850743 234 235 237
-604.571398401991 463.068043668664 2401.12449872985 234 235 237
-585.260400832733 462.233844945529 2416.76723548078 214 215 217
-567.84322952098 461.500935531115 2431.58287290448 194 195 197
-553.284649578539 460.923486207736 2445.23445348865 207 209 208
-533.896878594076 460.073848626683 2460.54796304907 209 211 210
-505.820573077622 458.735342069487 2478.8743286101 140 142 141
-477.706314875602 457.389438735217 2497.0367169427 157 159 158
-468.8254688378 457.114777988547 2508.1889595204 208 210 209
-464.752554774678 457.107543191474 2517.58513524664 154 158 159
-463.56663614868 457.261035621268 2525.93932083506 145 149 150
-455.619027710835 457.033451897903 2536.61876345747 174 178 179
-447.659193792027 456.803287718492 2547.24585131942 136 140 139
-436.787027856027 456.406805598983 2558.80765646095 116 118 117
-433.637243246666 456.443997031029 2567.69022185794 147 149 148
-427.577837888125 456.315500851935 2577.51799479122 137 139 138
-422.477100084669 456.239482896208 2586.98293637829 121 123 120
-415.429402550416 456.051596509488 2597.04814935511 124 126 123
-406.431249236853 455.751107559102 2607.69757350352 127 127 125
-392.567464701774 455.171681251607 2619.85449266031 121 123 118
-381.597052123483 454.754131675403 2630.99575778074 123 128 121
-372.553765605046 454.444044412705 2641.45303089516 126 129 122
-365.44177964097 454.242116831807 2651.24212423688 128 131 124
-694.130888338454 457.92051633852 2297.56113187063 235 239 240
-686.457420942403 457.776517487698 2309.39943569927 243 247 248
-683.54788430361 457.878637788215 2319.30248278985 240 244 245
-676.809005674635 457.779938058475 2330.67607279723 240 244 245
-664.320569028121 457.379012441941 2344.23108509461 240 244 245
-639.371398873481 456.323114201336 2362.50088225199 235 236 238
-623.965095345939 455.762490475798 2376.96232846714 207 208 210
-617.161504447134 455.65026751144 2388.05871292026 213 214 216
-605.552381240486 455.283504477044 2400.91198666238 234 235 237
-595.845115624345 455.014273113493 2412.97576186944 217 218 220
-576.521631414395 454.235300266953 2428.53099324297 182 183 185
-566.778862323778 453.958646414781 2440.44268538757 133 135 134
-559.905692318793 453.831652243051 2451.24115222319 144 146 145
-535.705023355058 452.78394746906 2468.24696459662 151 153 152
-502.807185865739 451.269584460898 2488.21343658555 144 146 145
-480.460884470784 450.310201870525 2504.22589879461 120 122 121
-474.470142531812 450.217839071517 2514.33498977121 134 138 137
-473.292072826988 450.380558870022 2522.7183349836 131 135 134
-470.180314997251 450.439076422557 2531.75483850399 126 130 129
-469.959536433385 450.651143449611 2539.77112864679 131 135 134
-464.904706702419 450.60332553556 2549.42178126109 128 130 129
-460.808254193205 450.605332233995 2558.70988392077 124 126 123
-454.769440913191 450.501576597707 2568.61384581601 122 124 121
-453.561824865984 450.656343783162 2576.87167031796 122 124 121
-446.537530405624 450.496403871145 2587.02357349458 119 121 118
-432.715997317911 449.967279887811 2599.33709064452 129 129 127
-406.26372626658 448.751756051116 2615.63365330722 139 141 136
-687.435915160228 449.457315275493 2300.37761670341 236 240 241
-679.762016268301 449.339448443887 2312.19864911278 237 241 242
-676.850410446622 449.454226932893 2322.08513306044 242 246 247
-672.021931798677 449.47332744949 2332.6938594937 239 243 244
-662.404370157677 449.254043034265 2345.12245843282 236 240 241
-641.290642868275 448.463021949646 2361.91092032839 235 236 238
-624.934479223466 447.903640561284 2376.74349825757 221 222 224
-619.093236940536 447.863438040988 2387.48069172885 209 210 212
-609.407626034113 447.630123082713 2399.61876518473 225 226 228
-598.748192773328 447.345812315521 2412.05201731738 229 230 232
-578.474285444089 446.57857112268 2427.96973002081 187 188 190
-571.618965524901 446.478837960028 2438.82973415486 128 130 129
-565.713486049577 446.424802394478 2449.29308416737 141 143 142
-555.951706794134 446.175388455209 2461.10389855459 146 148 147
-533.66467593441 445.293322412715 2477.33206576207 144 146 145
-506.532238878219 444.162363312969 2495.13809358389 133 135 134
-495.743497056653 443.851373275303 2507.01722970333 125 129 128
-489.759867885211 443.780837677048 2517.14482557784 132 136 135
-486.660696299187 443.854796231772 2526.22879584422 137 141 140
-487.417373073882 444.123219326282 2533.96167718849 132 136 135
-485.274775381687 444.243611136307 2542.67605927522 128 130 127
-483.127133961582 444.362737192756 2551.37004668146 122 124 121
-479.040253077298 444.381906066175 2560.69023319474 130 132 129
-478.817846030341 444.597091397681 2568.69642680901 122 124 121
-470.844774768894 444.414791615414 2579.23703105081 124 126 123
-700.792579571683 441.686408339834 2286.34102194122 241 245 248
-689.324995522559 441.422377411441 2299.75757494597 244 248 251
-679.748146849879 441.243191221455 2312.34308058304 235 239 242
-674.929778489153 441.282729054051 2322.98433819477 239 243 246
-672.013482249492 441.409293872313 2332.84213471864 246 250 253
-666.223483081117 441.400658131444 2343.78765468625 240 244 247
-648.94656917472 440.853622915368 2359.11202177194 225 226 228
-632.602134211452 440.346430427923 2373.96558721047 217 218 220
-625.811237672685 440.283786759682 2385.08874939211 197 198 200
-614.218023553882 439.993540177992 2397.9671232466 183 184 186
-602.607677874391 439.699747627786 2410.7720912146 218 219 221
-579.465669725186 438.859181091407 2427.76473408325 226 227 229
-570.694127083235 438.692994763429 2439.33374276635 143 145 144
-561.908948929107 438.523996599611 2450.84540578111 136 138 137
-552.149226305896 438.306468006454 2462.64652895354 146 148 147
-548.146712113144 438.360209294804 2472.31814926664 146 148 147
-537.398558493966 438.091307816364 2484.35138523356 125 127 126
-532.414009802828 438.094771332772 2494.28157446787 123 127 126
-518.746073026938 437.681633295061 2507.20370616117 127 131 130
-511.809870180579 437.587745899074 2517.70494172098 120 124 123
-508.723272606727 437.676596954072 2526.83447462387 123 127 126
-512.390443249023 438.088817449408 2533.63887100056 124 126 123
-512.195123775885 438.315000591172 2541.7579594913 132 134 131
-522.633737902528 439.0532921893 2546.31243129896 136 138 135
-703.62558025399 433.637352561098 2285.33233371146 242 246 249
-695.024138933137 433.535630627715 2297.6129907951 241 245 248
-684.501930339436 433.347924433694 2310.59411407878 234 238 241
-673.009682255296 433.115431432312 2323.8834335814 233 237 240
-671.049245396181 433.296880632903 2333.36460910283 250 254 255
-665.261866099547 433.309698814329 2344.30905523568 246 250 253
-654.684286177675 433.110434491515 2357.05297871528 219 220 222
-640.263908231908 432.739374894782 2371.19107867434 206 207 209
-633.481525409386 432.701925078162 2382.33693898557 212 213 215
-625.73029509281 432.619721371791 2393.79622877632 189 190 192
-614.132540142014 432.365019033049 2406.63368715057 173 174 176
-597.721468741697 431.893953771398 2421.17236526811 186 187 189
-584.166602634964 431.546161924106 2434.55431686563 147 149 148
-565.789978232128 430.980474183634 2449.60010380765 153 155 154
-555.076039649471 430.752904442364 2461.7598009258 147 149 148
-553.963100180734 430.952244798433 2470.40860840114 151 153 152
-550.922123611036 431.064155232284 2479.72561091305 133 135 134
-551.726562025565 431.347690730577 2487.66115530009 124 128 127
-541.931192494705 431.153433987382 2499.29150995348 115 119 118
-538.870040536503 431.260532003532 2508.52352501756 117 121 120
-540.626885413283 431.584109439328 2516.07487628899 119 123 122
-555.899468737854 432.519200709847 2519.03064270602 121 123 120
-572.155696311378 433.50095967144 2521.73597060977 122 124 121
-699.791254859881 425.295359693991 2287.01288288657 230 234 235
-695.95523192055 425.416224736972 2297.37759300645 230 234 235
-687.345004235555 425.34145670041 2309.60476532508 230 231 233
-674.905871705003 425.107989585371 2323.27854629234 210 211 213
-665.311933276466 424.98797576953 2335.7539413782 252 253 255
-659.52431772004 425.021566732581 2346.6840421322 254 255 255
-651.81531706007 424.974504464645 2358.30875103131 227 228 232
-643.137565739141 424.885379111704 2370.24681987935 225 226 230
-640.1889367597 425.030583204099 2379.95117674373 204 205 209
-632.445927615218 424.976125996782 2391.43037416242 207 208 210
-621.815892018833 424.799767453084 2403.92967533978 159 160 162
-613.08762756772 424.699867635249 2415.65149147269 157 158 160
-611.062731355199 424.876920106704 2424.85120802261 149 150 152
-581.189159334927 423.889877172107 2444.1638762327 144 146 145
-562.8040467555 423.377446732214 2459.14093518191 149 151 150
-558.813568628696 423.464744108272 2468.84585672907 148 150 149
-554.815838010358 423.550322427415 2478.51983072049 154 156 155
-556.586528925254 423.877570946941 2486.13003638765 153 155 154
-553.541370944836 424.001021628155 2495.42182560245 123 125 122
-563.019943502582 424.653100943568 2500.35291533322 122 124 121
-573.473200461809 425.347576941319 2504.99659637746 123 125 122
-595.518597989867 426.535794509003 2505.75138215473 132 134 131
-661.913428222756 429.873751433445 2500.17379598903 182 184 181
-685.489278979156 416.573396955312 2292.91415458723 224 228 229
-688.31308501858 416.960747899506 2300.5732349131 211 215 216
-685.420456658981 417.131387797358 2310.50940220639 245 246 248
-676.800050179783 417.083075341696 2322.67507418431 237 238 240
-667.211868277418 416.995703454294 2335.156636919 230 231 233
-657.609061286998 416.905161906859 2347.57561739482 246 248 247
-647.036229204006 416.774984835691 2360.29982771806 236 237 241
-640.272116333433 416.788356492744 2371.49521800365 227 228 232
-639.237232787816 417.020308366937 2380.46880373909 202 203 205
-632.454758839057 417.029586834047 2391.58677844531 208 209 211
-622.787454259838 416.925327831811 2403.72961360893 160 161 163
-616.939981101851 416.966658068369 2414.39139535627 156 157 159
-617.797146426355 417.266718829076 2422.54847880355 144 145 147
-610.974617687336 417.267092230032 2433.49518673602 142 144 143
-594.53683536922 416.889979296435 2447.86090149633 146 148 147
-586.725222062611 416.846663705681 2459.03123638499 144 146 145
-581.786448326961 416.913998624253 2469.12556932719 145 147 146
-578.763615813991 417.055097956842 2478.50644344197 140 142 141
-588.252765061803 417.688227746489 2483.49419923381 130 132 131
-597.751756332634 418.322785929331 2488.52557091593 131 133 130
-612.081634886801 419.149733893851 2491.94725027292 130 132 129
-631.25167356882 420.170851395682 2493.79905199671 137 139 136
-664.924745257696 421.771943884033 2490.86800066146 154 156 153
-756.559249554259 425.961570366157 2477.53585006519 171 173 168
-681.662140569913 408.291021219484 2294.59130890154 229 233 234
-683.531812249381 408.641836271455 2302.62381968006 228 232 233
-680.638367824468 408.825293565684 2312.54885214628 211 212 214
-680.598684645235 409.107894643177 2321.32166688329 205 206 208
-672.925429101777 409.120594538913 2333.06873917113 183 184 186
-664.28556207903 409.09685352247 2345.13420468364 212 214 213
-648.945966248441 408.83306355688 2359.71610186471 252 253 255
-640.274996683325 408.802835916429 2371.64832690775 237 238 240
-639.241748716353 409.04282320861 2380.62439377295 217 218 220
-632.462828733857 409.076378569918 2391.74375042222 197 198 200
-626.630780436827 409.141843564662 2402.45930770178 175 176 178
-619.830616290741 409.170619926528 2413.48786119938 144 145 147
-619.731609166934 409.439213747707 2422.00749912798 146 148 147
-622.509035353124 409.810968490433 2429.47028991157 142 144 143
-626.247693955373 410.217406419695 2436.59310447162 139 141 140
-631.910779973442 410.693904194855 2443.03986133674 132 134 133
-628.926581949512 410.855522147092 2452.57891284833 129 131 130
-624.974451944038 410.980528307188 2462.43063919819 125 127 126
-626.790626093447 411.315308121076 2470.23684049427 122 124 123
-636.312726417509 411.932798320564 2475.37899637558 132 134 131
-643.916926051463 412.480664985747 2481.22571383484 131 133 130
-659.244594258803 413.314383496481 2484.48275366267 146 148 145
-697.750937389007 415.008266235526 2480.01218357554 168 170 167
-736.30469335944 416.710175201823 2475.74473455595 183 185 182
-756.545893992778 417.737363768736 2477.75671511781 194 196 191
-736.802542763598 401.617357518846 2263.53545858999 231 235 238
-693.055056688636 400.51152600226 2290.13307142038 226 230 231
-684.463590631623 400.527003672616 2302.38875227429 228 232 233
-683.47761438501 400.785361038393 2311.56232084971 221 222 224
-684.39425583432 401.104517427735 2319.97025888461 205 206 208
-683.402549040009 401.361187954668 2329.11956751454 202 203 205
-672.865148365808 401.306222928759 2341.9556717341 218 220 219
-659.447328681949 401.154393776488 2355.82626983377 245 246 248
-649.831741304743 401.123799978745 2368.15367326639 254 255 255
-647.85029580745 401.341469887815 2377.52096880738 252 253 255
-642.993994262116 401.46332603937 2387.94665404418 244 245 247
-638.129237289956 401.58322584112 2398.33623046844 154 155 157
-633.256015139499 401.701254381312 2408.68960506342 136 137 139
-627.415627961936 401.785391232196 2419.35852067395 142 144 143
-631.157465116052 402.187362715774 2426.49688236853 138 140 139
-638.741077569831 402.71782397641 2432.26203175144 135 137 136
-656.896702825433 403.603724604143 2434.28076703372 129 131 130
-660.658045603907 404.00813307395 2441.50473478248 128 130 129
-656.729186394758 404.153037494281 2451.44621572741 126 128 127
-651.83041466012 404.263616101175 2461.69247237805 125 127 126
-654.626573341571 404.633582516942 2469.23886114501 125 127 124
-663.204969888686 405.200215835086 2474.80992017537 127 129 126
-677.576953335585 405.965411173755 2478.45345878353 140 142 139
-703.541927038448 407.129445132583 2478.26766515057 183 185 182
-741.122626483322 408.696201206562 2474.34826793792 191 193 190
-758.463593026297 409.572878204494 2477.33897941164 136 138 133
-765.191761418142 410.085646674441 2483.90244897424 131 133 128
-729.159605579247 393.082069321333 2266.77347408281 230 234 237
-704.439545853751 392.660686409537 2285.67966236663 223 227 228
-689.199653433364 392.511662586598 2300.63232200848 210 214 215
-685.362233413883 392.694546781968 2310.95548456032 219 220 222
-683.423045964714 392.932119158745 2320.49728738394 206 207 209
-681.478926091102 393.168473987222 2330.01915764139 182 183 185
-673.806850899799 393.233357973571 2341.74073826186 170 172 171
-664.213714587957 393.238689959605 2354.14485721758 143 144 146
-658.426256432707 393.355395900438 2365.02785246675 140 141 143
-657.408008282921 393.6135723923 2374.05931886019 138 139 141
-655.429966603915 393.841898068754 2383.43534620784 152 153 155
-653.447172405028 394.068937722275 2392.79118761624 137 139 138
-652.417184344626 394.32389472181 2401.7728148117 156 158 157
-647.55079449858 394.46104070998 2412.14505221087 135 137 136
-643.63472382133 394.625557559186 2422.13243780293 134 136 135
-643.54924930893 394.905954170806 2430.70476618461 132 134 133
-654.022610445232 395.510337611 2435.49002729572 129 131 128
-664.507280556514 396.116303906387 2440.32419127107 128 130 127
-667.312523628393 396.486034415004 2447.91183625047 119 121 120
-664.347710547222 396.676451971953 2457.51828357132 124 126 125
-665.226848058192 396.985191048559 2465.76817121775 128 130 127
-672.847380605728 397.503997754078 2471.70286659653 134 136 133
-686.258348525776 398.204911404938 2475.7058324492 149 151 148
-704.506316835957 399.05980288599 2478.14972290713 173 175 172
-730.49593099921 400.161504939757 2478.10808449456 186 188 185
-753.61941932101 401.176843968181 2479.15883388765 192 194 189
-770.006606708573 401.982104252823 2482.5450568093 197 199 194
-739.568542725072 385.057764659436 2262.68074063715 230 234 237
-705.360210606066 384.462213415088 2285.44481646467 222 226 227
-688.225080515326 384.31146262182 2301.16088303171 227 231 232
-689.148146442222 384.636922405646 2309.59450996961 201 202 204
-683.404027548261 384.783887113823 2320.64959930067 214 215 217
-682.414985211627 385.05646553535 2329.80129255948 196 197 199
-674.747394593132 385.148419857844 2341.52671289934 199 201 200
-668.021799962447 385.263555387391 2352.83306892735 181 182 184
-662.240264982189 385.402216722914 2363.72816523547 150 151 153
-660.270761433487 385.642810654085 2373.13460070906 147 148 150
-662.120698618206 385.986707364607 2381.08421909619 139 141 140
-663.970846521005 386.330264539575 2389.0349657321 143 145 144
-664.863740541093 386.647113762952 2397.34070234611 135 137 136
-658.092635053052 386.75166314648 2408.45165137646 134 136 135
-649.393215628475 386.800636589489 2420.21301289606 135 137 134
-644.517153678654 386.953578392831 2430.53333886061 134 136 133
-652.109595064803 387.453114231373 2436.35558292067 132 134 131
-661.630290484609 388.007604986154 2441.52968861231 130 132 129
-672.122219258516 388.590530935608 2446.40939000891 125 127 126
-674.93234464692 388.957896375288 2454.01994033922 126 128 127
-682.555201741176 389.461456878892 2459.97384632582 132 134 131
-687.297037551361 389.883842411329 2466.95036437638 139 141 138
-692.04275654472 390.306524536298 2473.94381951933 153 155 152
-700.648698905148 390.83992073662 2479.65581023296 180 182 179
-725.663645312885 391.845831992678 2479.9330585335 184 186 183
-755.535249674218 392.995923057313 2478.74253043541 186 188 183
-771.919571307607 393.760827217318 2482.13986135052 191 193 188
-775.756867409636 394.163784463021 2489.69937668896 180 182 177
-742.373378748727 376.789316703714 2261.67698203633 230 234 237
-709.129844300663 376.319070386212 2284.06240504517 223 227 228
-689.151858771282 376.155107129463 2300.92929101424 219 223 224
-688.173838061173 376.438012071536 2310.12347817632 216 217 219
-685.288446038407 376.674554544493 2320.05277118918 191 192 194
-683.349665156123 376.932445394329 2329.58441491805 240 241 243
-676.639765623071 377.074394737673 2340.94416156347 205 207 206
-668.965137910102 377.190874074389 2352.62414760538 210 211 213
-661.278375566744 377.304759766007 2364.25218698408 157 158 160
-659.310208314067 377.555940595391 2373.65828407873 145 146 148
-662.115858009081 377.923022513691 2381.24927868785 145 147 146
-663.010399317178 378.242950014553 2389.55937724737 143 145 144
-661.03273786034 378.491342128236 2398.92636406012 142 144 143
-659.0505581709 378.738504867424 2408.27307760877 140 142 141
-654.188973510578 378.912756122634 2418.64466531361 141 143 140
-655.071934731398 379.229029002501 2426.90588487718 141 143 140
-659.791585084537 379.64123692178 2433.79062718402 136 138 135
-668.355350599289 380.150724035837 2439.33082500189 133 135 132
-675.967336019252 380.637012878823 2445.24698276557 128 130 129
-677.819070890205 380.977576327683 2453.20648330781 130 132 131
-684.480469533383 381.440626128323 2459.50496985366 135 137 134
-689.223279377633 381.855052233088 2466.49046153393 143 145 142
-692.043559740753 382.22009813671 2474.14712479869 156 158 155
-703.539311219661 382.809319443763 2478.89013766333 182 184 181
-723.727241252208 383.625465513469 2480.79150562476 186 188 185
-758.41397703367 384.822510236589 2478.00848299498 181 183 178
-774.796056102438 385.547137292297 2481.41962155794 181 183 178
-784.432862210545 386.097153307508 2487.10800961732 173 175 170
-734.734047271984 368.282711082092 2264.91401619625 229 233 236
-708.147046494225 368.04918089072 2284.59571158569 221 225 226
-694.8297255337 368.085768920392 2298.79834402782 209 213 214
-689.101712994177 368.277726219717 2309.89794404715 228 229 231
-687.170836826199 368.547775606765 2319.45726923903 235 236 238
-684.282755578178 368.796447840002 2329.36866406048 185 186 188
-678.530119177101 368.982953946267 2340.36296339747 235 237 236
-670.860598989005 369.126524746762 2352.04952181727 186 188 187
-663.178951146476 369.267560962072 2363.68412957681 190 192 191
-664.078139890994 369.591488167095 2372.01344132933 163 165 164
-666.887465345082 369.956301346021 2379.62088143481 138 140 139
-665.873935179799 370.237712549403 2388.65947208296 148 150 149
-659.116942114113 370.392417902682 2399.80419486996 144 146 145
-658.092687483836 370.671103688347 2408.797130359 144 146 143
-658.980788553199 370.991159448419 2417.07877408477 137 139 136
-664.660250526306 371.41710965458 2423.62850966604 133 135 132
-669.385803984155 371.822183012117 2430.54346076353 133 135 132
-672.195690304703 372.184618583896 2438.15585721067 135 137 134
-678.848615307069 372.633460413274 2444.42427427571 138 140 139
-681.663811703612 372.996034776633 2452.05998833902 140 142 141
-689.288535067158 373.467839851785 2458.0407956874 146 148 145
-693.072020061948 373.852583101122 2465.37281480588 154 156 153
-695.895146373643 374.215402943541 2473.04332825336 164 166 163
-706.427473904359 374.755661013666 2478.12614566039 184 186 183
-726.611633757818 375.520691394801 2480.04205103362 183 185 182
-762.254876492838 376.648541416342 2476.95715383486 186 188 183
-779.600577855131 377.355578908901 2480.06850606252 187 189 184
-796.966230158953 378.065667253914 2483.26597920128 191 193 188
-732.79265412747 359.913929987764 2265.8377711443 226 230 233
-710.012768986221 359.829063815837 2283.98165798171 218 222 223
-698.602868173569 359.943191910092 2297.42997571509 208 212 213
-689.077309987089 360.088210010157 2310.05081035802 196 197 199
-686.197037778697 360.351556817778 2319.98689878335 229 230 232
-682.35867519841 360.596034297468 2330.26968071189 179 180 182
-680.418461756203 360.874040758128 2339.78318041249 190 192 191
-672.754052818446 361.044790445063 2351.47627620756 207 209 208
-666.031290624793 361.230735179579 2362.75346592034 193 195 194
-665.978924687774 361.539631304136 2371.45492724431 174 176 175
-668.789835284447 361.90182647594 2379.07089222599 162 164 163
-663.956137008211 362.118900501659 2389.54126283307 144 146 143
-659.114221080407 362.334104355969 2399.97543530424 141 143 140
-660.005588229216 362.657502727149 2408.2695052398 141 143 140
-666.641357876894 363.091253078392 2414.47120226 137 139 136
-673.283293594517 363.525766164787 2420.70070832537 136 138 135
-675.137693485173 363.867601158492 2428.67120459603 138 140 137
-676.032942792883 364.190225690748 2436.98283670325 140 142 137
-677.887110250807 364.531210501514 2444.95280879145 142 144 143
-680.702045687173 364.890904935602 2452.58906679448 144 146 145
-687.363702718093 365.327056727836 2458.90342606484 151 153 150
-693.069657807815 365.744666128138 2465.57481134466 158 160 157
-698.78073294583 366.162873142607 2472.26840700485 168 170 167
-710.275790043581 366.698548247544 2477.03985415408 183 185 182
-732.384639301152 367.451836743631 2478.33005582067 185 187 184
-767.05676479708 368.465869907192 2475.58920688178 187 189 184
-786.330973426855 369.169765352611 2478.08770737138 184 186 181
-802.730988312686 369.817403672785 2481.62316371974 190 192 187
-768.759708893379 351.782954973784 2242.28490578838 230 234 237
-739.388997476307 351.676867415621 2263.29640425828 225 229 232
-708.079716605642 351.534417968739 2284.89856320148 216 220 221
-698.573235071129 351.714761285448 2297.58268340588 219 223 224
-689.052403404136 351.892056486514 2310.2042750648 219 220 222
-684.271958561135 352.139528509773 2320.89143181728 189 190 192
-680.435150995144 352.399882406366 2331.17064163265 239 240 242
-679.447874037367 352.703109767214 2340.31208746089 209 211 210
-677.504044251339 352.990482076164 2349.80522919522 180 182 181
-671.741613284703 353.216279448344 2360.73325820374 183 185 184
-672.648572670297 353.546341470012 2369.09211716064 166 168 167
-669.735249851445 353.814620946096 2378.88075076377 174 176 175
-664.905314254491 354.050614962838 2389.35548736842 168 170 167
-662.934985204385 354.331272745175 2398.73472095923 148 150 147
-664.786376324632 354.673396495013 2406.69178902008 139 141 138
-670.466900167591 355.078328033305 2413.25856630464 142 144 141
-670.405354596991 355.388468829431 2421.91884480835 143 145 142
-672.258584294746 355.729840795458 2429.88445687382 143 145 140
-673.152974077039 356.054688358892 2438.19099390338 142 144 139
-677.885149250012 356.443958190617 2445.14441920386 149 151 150
-684.54199501295 356.866144290098 2451.44579142473 150 152 151
-692.165866876794 357.305620333337 2457.44294786702 153 155 152
-695.951308311574 357.679768521867 2464.78981985406 165 167 164
-698.777025637673 358.037309862901 2472.47485544332 172 174 171
-708.344077742287 358.51225910655 2477.89893265816 182 184 181
-729.482279395825 359.191527195265 2479.51184509424 187 189 186
-763.178122440149 360.096155083849 2477.09077517972 189 191 186
-784.374219586374 360.785104463134 2478.95311423541 182 184 179
-799.803438342683 361.374647615975 2482.80234656903 189 191 186
-800.761567635226 361.706515170067 2491.38562761038 195 197 192
-817.97970448981 343.922163651127 2222.29307574736 230 234 237
-744.083708042337 343.372452780569 2261.52777587958 225 229 232
-708.993670385967 343.278708292392 2284.66889605481 217 221 222
-696.644007948563 343.456356747831 2298.49512895785 218 222 223
-690.926655585639 343.712942368109 2309.6047779892 229 230 232
-685.199892862299 343.967451221251 2320.67309463635 214 215 217
-681.366068971034 344.243983645838 2330.95702296737 210 211 213
-680.381033816541 344.555293580643 2340.10359356418 234 236 235
-679.392506948157 344.865709438434 2349.23530352828 161 163 162
-675.541058667067 345.137961302021 2359.44299993691 157 159 158
-671.682211682222 345.408568419364 2369.62014719815 181 183 182
-666.861773171894 345.664893536222 2380.12477533949 202 204 203
-662.987895840963 345.932029390259 2390.23773193509 176 178 175
-663.885135150464 346.261693337615 2398.55507919124 165 167 164
-665.737812368164 346.603808453261 2406.51781961551 149 151 148
-672.375428990658 347.01094882364 2412.7433065907 144 146 143
-672.316434494919 347.326593517955 2421.41158938431 142 144 141
-674.171576730171 347.668007507381 2429.38560447316 143 145 140
-674.109501358586 347.98235361612 2438.03998853091 146 148 143
-677.882450148585 348.349954024492 2445.33674834111 150 152 149
-683.578415411379 348.744877903631 2451.97636917007 152 154 153
-688.318721034662 349.126646914117 2458.97003364881 160 162 159
-693.062689030775 349.508658203112 2465.98078055888 167 169 166
-698.772811028186 349.905021846449 2472.68193728032 174 176 173
-711.225260079433 350.400536338327 2477.13941918722 182 184 181
-733.322636842476 351.040155164836 2478.44592323202 184 186 183
-756.410067736625 351.698394782661 2479.54673066132 191 193 188
-779.52491325689 352.361180559713 2480.76566879803 184 186 181
-793.982334701741 352.897648906647 2484.92022611025 187 189 184
-794.937541281225 353.231510678409 2493.49054147379 182 184 179
-741.191000645678 334.964355666881 2262.83902347722 232 236 239
-714.649443575547 335.055376524441 2282.53007965119 218 222 223
-694.715350241948 335.202158303355 2299.40760979737 207 211 212
-689.949716334126 335.489076186594 2310.13683128196 219 220 222
-688.027180005585 335.801847258459 2319.70777910316 218 219 221
-685.148982938896 336.104053732454 2329.63015580966 180 181 183
-680.361466166919 336.38601127226 2340.26477991059 171 173 172
-677.469918904254 336.685194999557 2350.13119226691 234 236 233
-676.478295072551 337.002305861319 2359.24531744677 209 211 208
-673.576315265381 337.298917579661 2369.06618437296 165 167 164
-668.760021835627 337.574241784942 2379.57790347996 163 165 162
-664.889978917787 337.857690668544 2389.69816191372 165 167 164
-666.744964417029 338.200292391817 2397.67078774732 145 147 144
-670.512001610823 338.56310846774 2404.94431165276 150 152 147
-675.238475176916 338.936407135937 2411.88200611092 135 137 132
-675.182882494405 339.257690230013 2420.56087651693 144 146 141
-675.124776497488 339.578174803281 2429.23022788861 137 139 134
-676.023027155478 339.908550662292 2437.55052659411 142 144 139
-682.6745131914 340.30332521436 2443.84548976273 154 156 153
-689.332599704516 340.698854177009 2450.16800829978 154 156 153
-688.314393832752 341.006732490342 2459.17042800631 164 166 163
-691.136359449239 341.358272706722 2466.8424610708 169 171 168
-692.998233428594 341.698394047243 2474.84690038972 174 176 173
-711.217210119669 342.231613162819 2477.35223427974 180 182 179
-732.345824195151 342.802831497426 2478.98644966935 183 185 182
-755.426273033994 343.401344852036 2480.09161918478 186 188 185
-776.605969535976 343.980948645024 2481.94600107212 187 189 186
-793.952051717267 344.517361045345 2485.15938751419 189 191 188
-803.59578267024 344.961319741431 2490.94066987419 189 191 188
-739.246858871598 326.571883921519 2263.76568686039 219 223 226
-718.403864789911 326.780647308765 2281.1580279922 241 245 246
-698.480256313069 326.989931524456 2298.0449985554 235 239 240
-690.871752169839 327.276840605283 2309.91612186613 218 219 221
-692.752121938745 327.626413673799 2317.99650507368 222 223 225
-687.027102807069 327.922675193737 2329.04794743347 203 204 206
-687.00027220862 328.257312739563 2337.84679188217 186 188 187
-679.355649965399 328.536345759649 2349.56339051323 198 200 197
-678.366894614511 328.861647745666 2358.68533811754 222 224 221
-671.655471360694 329.143478584151 2369.95609664582 164 166 163
-670.65604592753 329.466180275523 2379.03255513927 150 152 149
-669.653348878357 329.787868525788 2388.09410667334 157 159 156
-669.601917334949 330.116075371381 2396.78832753751 150 152 149
-672.415230520954 330.46605900063 2404.4231485507 145 147 142
-679.05530383088 330.846666076071 2410.67506712119 146 148 143
-679.960098922794 331.181399154505 2419.02272800291 147 149 144
-679.906638105205 331.50776642367 2427.70800228614 147 149 144
-680.808982249291 331.841281104075 2436.04449309345 147 149 144
-686.503942231345 332.214812186467 2442.69335303226 152 154 151
-690.285199936822 332.572455069052 2450.03258339429 158 160 157
-688.309335981139 332.880241056665 2459.37147108342 165 167 164
-691.131650112578 333.228920136993 2467.04672273203 172 174 171
-693.955611947182 333.577495730392 2474.72820956548 175 177 174
-711.208660072018 334.056082203184 2477.56564576964 182 184 181
-732.331526390266 334.572994715466 2479.20647414628 185 187 184
-758.294684870445 335.138586871711 2479.36466552216 187 189 186
-779.470527599693 335.664328613091 2481.23374537009 187 189 186
-791.992482663798 336.112051245189 2486.02453394557 187 189 186
-806.457977125302 336.580235748649 2490.25482793891 186 188 185
-734.442930849128 317.823940224839 2256.8548838304 231 235 238
-732.567105688119 318.166988474515 2266.61385987384 214 218 221
-713.623836111999 318.446562659174 2283.22301921662 225 229 230
-698.447767759011 318.735146639573 2298.20062419927 236 240 241
-689.894030349608 319.045231389293 2310.44928091104 223 224 226
-694.623781822402 319.405878758277 2317.40886079238 216 217 219
-690.803863078043 319.731679541976 2327.72508515822 216 217 219
-689.829842249582 320.067951179867 2336.90550955173 203 205 204
-685.045880321273 320.386710630664 2347.53415265623 163 165 162
-683.110258884792 320.716335102017 2357.03752734696 197 199 196
-677.358272659522 321.027289711398 2367.96258159787 190 192 189
-674.457334468627 321.349652247632 2377.77289269434 160 162 159
-670.596186778156 321.665939622132 2387.91303408796 141 143 140
-671.501560354012 322.004202211825 2396.26008174881 154 156 153
-673.361178356979 322.346738583265 2404.25315949595 143 145 140
-678.088925669423 322.703885889957 2411.20596651646 143 145 140
-680.9073386285 323.051166081924 2418.86485013638 143 145 140
-682.770069254413 323.393287057181 2426.87188821287 147 149 144
-689.422208709664 323.761434506953 2433.18430550424 149 151 146
-693.205163588163 324.114222576617 2440.53387002911 150 152 149
-694.113835777388 324.450626771539 2448.89654632472 158 160 157
-693.102010747182 324.775085640754 2457.91733154753 167 169 166
-695.927790291284 325.121530257556 2465.60916803588 170 172 169
-697.794133463049 325.461991844957 2473.63310106484 172 174 171
-711.199124159519 325.873740405469 2477.77980529513 181 183 180
-734.240670292416 326.348597184117 2478.78627787335 184 186 183
-760.19772387477 326.846689349437 2478.95726884847 186 188 185
-778.47887599754 327.299475217593 2481.78389165914 187 189 186
-792.925264092196 327.730015294546 2485.95213323366 187 189 186
-809.317257338939 328.176126637117 2489.5707732133 186 188 185
-735.360756108805 309.79981732246 2265.61887683301 229 233 236
-712.636693101417 310.13597399794 2283.7611162087 212 216 217
-698.414806308425 310.4738165321 2298.35692926465 193 197 198
-689.865016413952 310.813436919794 2310.60669551047 210 211 213
-690.796660709744 311.16136987077 2319.0638192819 216 217 219
-688.87708643186 311.505141793051 2328.62958591411 204 205 207
-688.854070460762 311.850448413212 2337.43896460376 192 194 193
-686.926336536186 312.192141664699 2346.96999774601 186 188 187
-684.993887747021 312.532700044661 2356.48092197757 155 157 156
-679.246367496254 312.865370498485 2367.41288333018 170 172 171
-677.302031975097 313.20303106379 2376.87313218404 178 180 177
-673.445311682906 313.535734182116 2387.02312803644 170 172 169
-671.490296090516 313.870821648318 2396.43782776681 138 140 137
-671.440674627933 314.208961454855 2405.13309623433 142 144 141
-674.255519226448 314.5530780822 2412.77811631072 154 156 151
-678.984413873231 314.901833166967 2419.74091517706 162 164 159
-683.717225395528 315.250890680304 2426.72079617104 150 152 147
-690.368826380704 315.605565079874 2433.03985147227 146 148 143
-693.194386419711 315.950207202108 2440.73178086337 156 158 155
-694.10404867426 316.289125880314 2449.09734101927 165 167 164
-695.01266480385 316.627458392416 2457.45863611069 172 174 171
-699.760068448832 316.977394718672 2464.50230150062 170 172 169
-703.550625787755 317.324470687047 2471.88872650999 174 176 173
-716.956158763284 317.704263409187 2476.05661571419 180 182 179
-738.071290344707 318.113389256717 2477.72675698789 182 184 181
-762.098730976303 318.53714225069 2478.55129934693 185 187 184
-776.524132434035 318.929654357539 2482.64942853906 186 188 185
-794.820501792603 319.339546902411 2485.56833569456 188 190 187
-807.352429662672 319.729872675545 2490.43682914677 189 191 188
-740.045190157721 301.405717174816 2263.857714299 216 220 223
-716.385761309121 301.814528040923 2282.39295338521 236 240 241
-699.328736309258 302.204102656939 2298.13539414425 217 221 222
-686.041271913714 302.581979927328 2312.26885659792 190 191 193
-684.123985005799 302.936734894902 2321.83824282921 209 210 212
-688.850254217083 303.279915349492 2328.79275133217 212 213 215
-685.977625595854 303.634574261782 2338.7088150008 210 212 211
-687.853877062173 303.981524874428 2346.77259304145 189 191 190
-682.117370276325 304.337305631955 2357.73949332885 176 178 177
-682.08485069035 304.684887125359 2366.50456920875 148 150 149
-675.379976257445 305.0381998301 2377.7621423092 155 157 156
-672.477999055295 305.385936720933 2387.55403696841 154 156 155
-669.570293946783 305.732205777174 2397.32046809965 143 145 142
-672.384636187706 306.073689919308 2404.96482284139 136 138 135
-674.245183787453 306.415490612043 2412.96242962878 160 162 159
-680.885742588051 306.755222870765 2419.24052878267 160 162 159
-684.662788763712 307.096545252871 2426.5707999075 151 153 148
-692.271403505101 307.437447763259 2432.55761601549 152 154 149
-693.18309544895 307.779523816351 2440.930263085 161 163 160
-695.052102927956 308.121083270479 2448.96529085466 169 171 168
-695.962108726561 308.462099120342 2457.33221778596 174 176 173
-699.750271191801 308.803569684314 2464.71030010973 171 173 170
-705.461493437794 309.146016624038 2471.44910361402 176 178 175
-719.825917113048 309.493978633235 2475.30473253855 179 181 178
-743.821712435758 309.851158909952 2476.02898336439 182 184 181
-760.149237322905 310.206962382563 2479.41665481336 185 187 184
-775.532591897861 310.564791274611 2483.20006994653 187 189 186
-791.896990795365 310.926432309538 2486.74679602919 188 190 187
-803.460070669212 311.285438529624 2491.92190152054 189 191 188
-738.101135122613 293.011409203766 2264.78583991195 225 229 232
-716.344019165263 293.483441054471 2282.55159438399 216 220 221
-705.927062330541 293.895114044568 2295.6439821906 210 214 215
-694.546187360559 294.308069062373 2309.04444424344 193 194 196
-688.84096833879 294.691686830578 2320.13284359353 174 175 177
-690.72168534638 295.039729128072 2328.21565728394 228 229 231
-688.802510896912 295.403818356204 2337.77123581434 217 219 218
-687.829243058216 295.762782535769 2346.94163130192 189 191 190
-681.144747908196 296.143951834341 2358.27262290488 178 180 179
-677.305089228535 296.511573281563 2368.47726421416 162 164 163
-673.458483454765 296.877631415048 2378.65112571077 154 156 155
-673.416980171104 297.227863890598 2387.37614144128 148 150 149
-672.419540823835 297.580847790196 2396.44354076555 166 168 167
-676.190612648677 297.916436485116 2403.74977142157 185 187 184
-679.964154849963 298.252234540937 2411.06785124834 173 175 172
-685.65171687886 298.582021130691 2417.70984063265 152 154 151
-689.432100954754 298.918326153032 2425.05668510222 153 155 152
-692.258167520991 299.257589040337 2432.75401043392 153 155 152
-693.170856031144 299.602122851214 2441.12960337487 163 165 162
-694.08251561874 299.946160253065 2449.50095426283 169 171 168
-694.992895269071 300.289670625785 2457.86806140298 173 175 172
-698.78046890425 300.625485444552 2465.24687552746 172 174 171
-703.530579689384 300.959055882853 2472.31209601468 177 179 176
-718.850779258726 301.269325301915 2475.84518679918 182 184 181
-740.91702020111 301.568085734225 2477.21388387575 185 187 184
-758.200058345288 301.88087056481 2480.28207887514 186 188 185
-779.353208942047 302.189601485561 2482.1777164031 186 188 185
-795.715723735352 302.510953589306 2485.74092308316 186 188 185
-808.242361514755 302.841598701306 2490.62229397975 191 193 190
-721.967481072892 284.733454608689 2271.46843141921 226 230 233
-710.621483795336 285.19005450562 2284.99691415177 224 228 229
-709.678179728705 285.56352297934 2294.29081630017 224 228 229
-702.096355261435 285.986058274376 2306.19973469779 211 212 214
-697.347932528392 286.384965824139 2316.93784344221 191 192 194
-694.489427739792 286.768335816544 2326.89925792087 210 211 213
-690.675113687556 287.157066451118 2337.20316650058 217 219 218
-688.75440328431 287.530840098127 2346.74628067635 208 210 209
-684.926983312336 287.916577438899 2356.99419759368 201 203 202
-682.995643495109 288.287815687215 2366.4919636968 177 179 178
-677.250599224227 288.683192233914 2377.39795396488 153 155 154
-677.21287389159 289.03925682483 2386.13618726064 139 141 140
-679.079857203312 289.382287986136 2394.16142977497 181 183 182
-685.717467326846 289.695100246612 2400.44236882563 188 190 187
-689.497443635696 290.026388328159 2407.79036723981 156 158 155
-693.279879857056 290.357797180736 2415.1502208203 146 148 145
-696.109407976311 290.695101334265 2422.86286539812 153 155 152
-695.11406179989 291.054406515281 2431.93577046571 156 158 155
-694.115206707175 291.412727862207 2440.9937918891 163 165 162
-691.197215598164 291.780686894154 2450.70322606153 169 171 168
-694.02359921323 292.115984015164 2458.40428102693 172 174 171
-696.85164052042 292.451150453702 2466.11163118982 171 173 170
-705.438695013373 292.756405930632 2471.874576019 174 176 173
-718.835952528515 293.038586979886 2476.06341078335 178 180 177
-739.935107907721 293.285072688153 2477.7588113399 184 186 183
-758.174715509824 293.549644837856 2480.51306626116 185 187 184
-781.245980437505 293.795045193243 2481.78654212655 186 188 185
-796.643179703751 294.080283707488 2485.67257381106 186 188 185
-809.167594200281 294.381097263397 2490.56169359165 190 192 189
-809.174222532242 294.738538777929 2499.49456478151 192 194 189
-720.975279396354 276.378138218083 2272.01054440934 221 225 228
-706.794815445465 276.902437846987 2286.67922235766 210 214 215
-708.691480106419 277.253502858198 2294.83053271938 207 211 212
-705.850760036722 277.653548559435 2304.86050879082 193 194 196
-703.003905082262 278.052255204893 2314.86532503107 201 202 204
-697.30494936764 278.478366739594 2325.95524425844 182 183 185
-691.59616585027 278.902441696102 2337.00414079396 209 211 210
-688.728048208205 279.296353273923 2346.91699529528 216 217 219
-687.755144634707 279.670248403266 2356.08021404779 200 201 203
-686.778786765122 280.043342714296 2365.22868220022 179 180 182
-684.84715087224 280.424480147669 2374.71932124636 192 194 193
-685.768298654319 280.777652830667 2383.1271095022 211 213 212
-685.735194694323 281.139146040782 2391.88251428721 223 225 224
-691.422295936777 281.447708066479 2398.53495677686 177 179 178
-694.251482680232 281.782651885174 2406.24857173901 142 144 141
-697.082354544657 282.117585475639 2413.96853191865 151 153 150
-697.047668320934 282.477474026963 2422.71790814757 153 155 152
-697.010940370368 282.836591098901 2431.45765470214 158 160 157
-693.144442762112 283.22756378584 2441.53029381942 163 165 162
-690.228095128631 283.6087662449 2451.23918073894 166 168 165
-692.096215118583 283.949014940725 2459.27106866662 170 172 169
-696.84060630765 284.265511919669 2466.32112737522 175 177 174
-705.426097666407 284.551665951544 2472.08841898227 178 180 177
-720.739891851577 284.786023778969 2475.63793267918 182 184 181
-740.874053917484 284.985906658273 2477.66483393799 184 186 183
-759.109506372161 285.20440344126 2480.42787891586 186 188 185
-781.213520420251 285.397416866565 2482.02522295681 186 188 185
-795.644347958544 285.651735830165 2486.22854327429 187 189 186
-811.054396172789 285.901551469847 2490.1931158021 190 192 189
-813.954555503917 286.243784684048 2498.21518942005 192 194 189
-759.646011286236 267.096591897835 2247.3780595563 220 224 227
-730.382345865605 267.87993104027 2268.33704610411 220 224 227
-712.429996952087 268.50222883633 2284.55478698409 210 214 215
-707.704735303587 268.942317879691 2295.37073517818 199 203 204
-706.759949399393 269.330455381042 2304.64947965503 195 196 198
-703.916177681067 269.742497354075 2314.65895259222 198 199 201
-698.220843941051 270.190191398855 2325.75322460585 195 196 198
-690.617835013592 270.660255854898 2337.54083698766 194 196 195
-686.801721556426 271.079381128438 2347.81785280978 234 235 237
-686.779435257851 271.449082872665 2356.61609844096 221 222 224
-688.65690853878 271.794307095028 2364.68627590588 167 168 170
-689.58313132275 272.151048945288 2373.11432827124 167 168 170
-690.508134815669 272.507274271286 2381.53839795225 181 182 184
-692.385088922744 272.851511865332 2389.60686794114 166 168 167
-695.215860199629 273.184085043904 2397.32777319142 163 165 164
-696.139697388273 273.539153796959 2405.74738372345 152 154 153
-697.062756669065 273.893756761093 2414.16275389733 158 160 159
-694.163759820317 274.292125420984 2423.93691534416 161 163 160
-691.258560227154 274.689027567609 2433.68569289747 171 173 170
-687.39093704452 275.095338433986 2443.74435067046 170 172 169
-687.344789324718 275.457075945715 2452.44104704702 171 173 170
-693.042658637356 275.75437086239 2459.14756679256 172 174 171
-700.66250473368 276.031152325727 2465.22158861572 175 177 174
-710.207797183303 276.288265584983 2470.67899069828 177 179 176
-723.601799208156 276.505667490453 2474.89158087684 181 183 180
-740.851703262713 276.684819227183 2477.89128023171 185 187 184
-760.043151633288 276.847033325834 2480.34369069847 187 189 186
-778.295680903461 277.022901042102 2483.20705897175 188 190 187
-795.607434269051 277.212013971261 2486.47344311471 188 190 187
-809.088394487539 277.443234579893 2491.06109339729 191 193 190
-818.730921457756 277.715165565817 2496.93825139775 192 194 189
-739.750833115346 258.93452893141 2255.64375906133 227 231 234
-725.606357998789 259.555021576964 2270.41444692132 231 235 238
-714.277991522966 260.124982279961 2283.95503239308 233 237 238
-711.449501301399 260.553295290593 2294.02227430099 223 227 228
-707.668041280079 260.995473225096 2304.43952068016 223 224 226
-706.722041933134 261.390660911266 2313.70877134189 220 221 223
-700.083685383742 261.875103668306 2325.18233407968 234 235 237
-694.383397031368 262.342406093229 2336.24215380229 219 221 220
-687.723919035732 262.822438216797 2347.62523749079 209 210 212
-687.703783733354 263.197359219324 2356.42880544047 224 225 227
-686.730631699435 263.586194867976 2365.58214180794 222 223 225
-690.510090955557 263.901844175281 2372.93814641727 212 213 215
-695.244279627217 264.203325910062 2379.95207844258 200 201 203
-696.17257824549 264.562162874204 2388.38804585021 157 159 158
-697.099867919123 264.920449038236 2396.8198912301 146 148 147
-693.257479960344 265.348284028335 2406.97709012646 157 159 158
-693.225164506238 265.718967590574 2415.73056405695 156 158 157
-691.280838700163 266.116448361617 2425.15567142967 162 164 161
-692.19851361865 266.471680662816 2433.54694485099 170 172 169
