ply
format ascii 1.0
comment KinectMotionCapture
element vertex 779
property float x
property float y
property float z
property uchar red
property uchar green
property uchar blue
end_header
-875.16272427736 -115.322631215673 2389.44394941237 23 26 19
-872.07452921498 -115.370620732367 2405.49544461869 23 26 19
-855.017837813445 -114.358380504387 2380.8367366683 27 30 23
-839.480483593033 -113.742420841799 2385.46170555085 29 32 25
-828.719098252961 -113.20407647938 2378.74601463453 25 28 21
-814.254571677189 -112.377571129624 2360.59811844025 23 26 19
-806.420398300256 -112.061651046457 2362.40159396824 18 21 14
-801.977272825296 -112.010112522137 2374.6861622665 19 22 15
-800.535306000614 -112.195749855598 2396.5289812184 16 19 12
-788.096102000222 -111.520845597528 2384.03336245801 18 21 14
-777.840008208642 -111.015229414177 2378.19816699024 18 21 14
-766.440615849722 -110.417178736521 2368.51886990314 19 22 15
-758.352766075522 -110.080433402259 2369.34953065395 20 23 16
-750.275798236593 -109.744261033452 2370.17644866312 23 26 19
-740.760614575747 -109.292161315291 2366.20138159774 23 26 19
-734.441558044005 -109.096900993809 2372.77854410247 24 27 20
-726.394584783314 -108.762378470088 2373.59418516623 23 26 19
-721.461684003674 -108.681531990467 2384.99236232052 22 25 18
-708.376720939001 -107.934799095883 2368.47031240965 21 24 17
-701.211437332641 -107.671173825586 2372.16017621719 25 28 21
-695.962697668691 -107.566521836111 2382.6083494256 25 28 21
-688.770770971527 -107.302197736726 2386.30794639637 24 27 20
-684.536531246959 -107.285497451048 2400.6473568363 29 32 25
-674.907269686076 -106.818371822155 2395.64806174241 29 32 25
-669.017996065206 -106.665406585252 2404.19924352382 18 23 16
-662.83728855146 -106.489262087238 2411.79150685798 19 24 17
-659.999060168393 -106.59982155359 2432.01368372946 19 24 17
-657.838860587006 -106.773140243553 2455.18469500821 22 25 18
-646.685629720046 -106.175227980381 2444.34939152559 24 25 19
-647.669067979605 -106.627820842805 2480.22337774451 27 26 21
-639.274855017741 -106.270065864937 2480.10063502569 29 28 23
-632.374174633324 -106.042832258502 2485.82472521139 15 14 9
-628.626644610873 -106.09513917579 2504.24856828976 22 23 17
-626.726973502893 -106.31592661785 2530.52151551978 18 19 13
-611.109416243294 -105.316152359458 2501.07249625742 17 20 13
-610.763781861365 -105.682165008327 2534.23599407741 17 20 13
-603.258368295187 -105.408135209951 2538.050224911 18 21 14
-603.597798066656 -105.849506388369 2575.2258608357 14 17 10
-872.058240457594 -123.225262629098 2381.44270030156 30 33 26
-850.104118016107 -121.72161627969 2342.60112956236 27 30 23
-849.372350755432 -122.002957472902 2365.24498726463 30 33 26
-838.278603998767 -121.409135354898 2357.58768538043 24 27 20
-843.135606201975 -122.173848698415 2397.36374585276 25 28 21
-827.927920505573 -121.228485036608 2377.36146854527 23 26 19
-818.473211336026 -120.772702554029 2374.431262934 22 25 18
-805.947900754291 -120.050066983204 2361.97053133207 20 23 16
-797.196498615919 -119.651512391802 2360.91383670842 17 20 13
-791.211432411461 -119.493554531728 2368.43364399684 16 19 12
-780.361445280366 -118.910361814804 2360.68671877586 17 20 13
-770.768110011965 -118.435257939773 2356.74178282482 18 21 14
-764.779309541515 -118.277645441797 2364.26292085419 24 27 20
-758.175815779437 -118.06676695849 2369.87805226441 25 28 21
-748.63537687113 -117.594206768133 2365.91370515418 24 27 20
-740.29001289543 -117.227315208812 2365.77364882859 24 27 20
-731.960649438507 -116.861212741592 2365.62771937538 25 28 21
-724.785348476076 -116.59919840923 2369.32110131674 26 29 22
-718.169460363056 -116.388646930059 2374.94071138713 25 28 21
-712.097605985811 -116.228958461745 2382.49192834991 25 28 21
-703.509538644991 -115.838633349058 2381.37526713305 25 28 21
-692.748829044255 -115.245821367757 2372.5303278892 22 25 18
-690.744189257652 -115.466334371678 2394.57470132876 21 24 17
-686.4847456268 -115.481173036614 2408.92063532492 26 29 22
-678.166356748136 -115.116720285689 2408.77059392156 25 28 21
-667.22431547148 -114.502636238726 2398.92633375402 20 25 18
-663.669684834081 -114.58969139784 2416.21091119381 20 27 19
-657.968199507756 -114.475238926391 2425.7575128233 22 27 20
-656.845077716193 -114.805026527429 2452.80664252516 22 25 18
-648.490148628502 -114.439919904063 2452.6699268877 21 24 17
-646.430902183146 -114.689313306606 2476.86532868503 24 25 19
-637.050181835969 -114.225497534149 2472.84203573785 26 25 20
-634.103692348348 -114.396436881457 2494.16580271856 8 7 2
-625.460669585859 -114.005929239202 2493.06912264236 17 18 12
-623.344201107549 -114.268657445057 2518.35086545843 19 22 15
-614.675153114926 -113.877430456747 2517.26369560151 14 17 10
-606.265244397359 -114.004700676691 2552.3087043971 18 21 14
-864.036412831339 -130.631006299639 2359.26598274968 33 36 29
-855.490722919721 -130.245752464065 2359.20009782281 26 29 22
-856.000676501207 -130.702689082668 2385.64627631597 24 29 22
-852.859224484614 -130.825338452057 2401.71123426343 19 22 15
-813.108236302683 -127.512482774707 2308.6741579038 21 24 17
-822.409827351863 -128.801672932427 2361.7288185715 20 23 16
-813.934781708 -128.419946711936 2361.63699976495 20 23 16
-805.165519007916 -128.009468576749 2360.58769420453 22 25 18
-796.417173916283 -127.599934481053 2359.53071726213 20 23 16
-787.689779203186 -127.191382925466 2358.4660541262 19 22 15
-773.239402992084 -126.227995221257 2339.25653402257 19 22 15
-771.496866369215 -126.49378587795 2360.1354487257 18 21 14
-764.902474942926 -126.291123973498 2365.7466529615 25 28 21
-758.587862533079 -126.11699094982 2372.32086096675 27 30 23
-750.208910003232 -125.740255894738 2372.19375133176 25 28 21
-738.372154701252 -125.019189103565 2360.54927960888 25 28 21
-734.359688651635 -125.075032884735 2374.80263777843 25 28 21
-726.874107511075 -124.785968833178 2377.54424086798 26 29 22
-718.825584892669 -124.440152788217 2378.3612969858 27 30 23
-714.138617175203 -124.435234502175 2390.73094475669 27 30 23
-706.081321241406 -124.08938703336 2391.5514452257 25 28 21
-695.842352222893 -123.51880075703 2384.64837354459 22 25 18
-688.370599019337 -123.231006632481 2387.3848566073 21 24 17
-686.009738820668 -123.47471658358 2408.49009751082 25 28 21
-675.826985299136 -122.906714381021 2401.56640565602 24 27 20
-668.86230584843 -122.674084373286 2406.24785434087 21 26 19
-665.023358636986 -122.773256118504 2422.5680099109 20 27 19
-661.630939857591 -122.924995014338 2440.8553254371 20 25 18
-656.876681125876 -122.936375256815 2454.31474904798 20 23 16
-651.813455386492 -122.918397358248 2466.82209085703 20 23 16
-643.938893161446 -122.598604874409 2468.64078765439 24 25 19
-633.585977099493 -122.00740617367 2460.71411621628 24 25 19
-628.699880693337 -122.014266738915 2474.22178242225 11 12 6
-619.865351449238 -121.587460761368 2472.13086637266 17 18 12
-621.410243556351 -122.317748512677 2512.04638205586 19 22 15
-629.669454934917 -123.817518596989 2580.39669435725 12 15 8
-614.729482905568 -122.715713668222 2553.90910432897 10 13 6
-609.96681463468 -122.763280865908 2569.50221985781 21 24 17
-865.201318024891 -138.835150379493 2363.55674866602 28 31 24
-856.317882708806 -138.408262613407 2362.55016443754 19 24 17
-858.104166720315 -139.06403375848 2392.78408102604 16 21 14
-848.217110631095 -138.537722293391 2388.94972857417 19 22 15
-814.549298141558 -135.569552049794 2313.94249331155 22 25 18
-815.951984648216 -136.190607951435 2343.25159405723 20 23 16
-814.399416955106 -136.514835298505 2364.05733107765 19 22 15
-806.242700334534 -136.157554120317 2364.91481750748 23 26 19
-796.560155830778 -135.63992756778 2361.00550302577 23 26 19
-792.39889802802 -135.701318741553 2374.24569372471 21 24 17
-786.066532460821 -135.536795566469 2380.82537273506 22 25 18
-772.224545381291 -134.574624795405 2363.52807697279 19 22 15
-762.649089196762 -134.061741715098 2359.5794953805 22 25 18
-756.6434707366 -133.930584126571 2367.10449364671 24 27 20
-744.483218174666 -133.135359184513 2354.51659974061 23 26 19
-737.034763191411 -132.847232444538 2357.2446427813 22 25 18
-733.601385088205 -132.998633187851 2373.41349910207 22 25 18
-727.823357857397 -132.897136039085 2381.92037754273 23 26 19
-724.268183329069 -133.044110576377 2398.13407534831 24 27 20
-712.828301405977 -132.318036895733 2387.41233863776 26 29 22
-706.714297164611 -132.183669499835 2394.977214019 26 29 22
-695.096929883831 -131.43071123411 2383.2554366517 26 29 22
-688.441706472583 -131.235081117874 2388.8882128725 24 27 20
-679.621585332784 -130.793503626341 2386.79317635185 25 28 21
-674.821331887893 -130.811976126287 2399.20222020975 24 27 20
-670.234280725906 -130.85911616989 2412.59819289706 18 23 16
-669.508191316775 -131.360184051458 2440.55669869081 16 23 15
-668.90824468401 -131.886576611321 2469.53401752669 15 22 14
-663.307339563659 -131.834063042473 2480.1062117437 20 23 16
-652.851577341841 -131.208236497771 2472.21926659867 23 26 19
-644.209122403193 -130.794756584164 2471.1241135053 28 29 23
-640.057342917543 -130.92047063309 2487.55593012959 21 22 16
-630.183241547618 -130.358103984718 2481.58647868798 13 14 8
-630.569020862283 -131.045304895231 2516.59335905703 18 19 13
-635.839414175585 -132.347951233958 2572.17824619868 16 19 12
-618.696715688401 -130.895773125972 2536.91765657792 10 13 6
-626.009262052702 -132.480796249424 2602.40582664023 8 11 4
-605.97662942044 -130.653063235075 2554.357346534 23 26 19
-868.98606343161 -147.352686731527 2375.4051951141 22 25 18
-841.538858703249 -144.883924478347 2320.49955943287 17 22 15
-835.692453610863 -144.770951669404 2327.96533743273 16 21 14
-825.341169282402 -144.161440423078 2322.1728216155 22 25 18
-823.606028236198 -144.507142634789 2341.97646353603 24 27 20
-819.260127327768 -144.567765850751 2354.21724371564 20 23 16
-813.926394644873 -144.521207945053 2363.62510424562 18 21 14
-804.221360398109 -143.983281108297 2359.72549282099 22 25 18
-795.474043643803 -143.551641352848 2358.66981015234 22 25 18
-794.66621591615 -144.025969952567 2382.39355281337 21 24 17
-790.423910601061 -144.114252469358 2395.66116212246 23 26 19
-774.148671886954 -142.816160995081 2370.7400909967 20 23 16
-760.694568879796 -141.834562891419 2354.36988444486 21 24 17
-752.052315140698 -141.407669340066 2353.27567032852 23 26 19
-742.847679311747 -140.913095558389 2350.25753054672 22 25 18
-734.831032025236 -140.556711648971 2351.06380252164 22 25 18
-729.117991918803 -140.473773746254 2359.54566837471 23 26 19
-724.794982985938 -140.559868764637 2372.84301969442 24 27 20
-719.008742853606 -140.474354162206 2381.35142197674 26 29 22
-713.192528214185 -140.387800905688 2389.87104779653 26 29 22
-702.925012294136 -139.760782737319 2382.98260615318 26 29 22
-696.815987421137 -139.640150547322 2390.54463599966 27 30 23
-687.156489086016 -139.082932289381 2385.56312469411 25 28 21
-680.225169588854 -138.861647971851 2390.23159640457 24 27 20
-671.954072567767 -138.473532929323 2390.06615745102 23 26 19
-668.969215123829 -138.750550360548 2409.26249441019 15 22 14
-667.463714738598 -139.223114257278 2434.30641713552 15 22 14
-668.16657244098 -139.988491231603 2468.12563627232 15 22 14
-669.473667489004 -140.846468492736 2504.91799516244 20 25 18
-653.888055635609 -139.531226451619 2477.61453826241 24 27 20
-648.740384333628 -139.564051159462 2490.14872917787 26 27 21
-640.068774341126 -139.138265848094 2489.06509767238 19 20 14
-641.48669951934 -140.047161839789 2527.94671269463 7 8 2
-637.856045240869 -140.300265582663 2547.37949622231 18 19 13
-635.582115329125 -140.744205003726 2572.70477801497 14 17 10
-629.147564869206 -140.635778994589 2581.45071879372 6 11 4
-623.860020542085 -140.687030752665 2595.10089671914 10 15 8
-615.491580829858 -140.319770443698 2596.03606304066 18 21 14
-867.52647123927 -155.326605608193 2372.13395184153 17 20 13
-849.731046609861 -154.427824420218 2370.13455387269 18 23 16
-853.656722511711 -155.505223305851 2407.02573882998 23 26 19
-834.239406691836 -153.799015274914 2374.74413685166 25 28 21
-823.193782635705 -153.08664630834 2367.0780404269 19 22 15
-813.453454464398 -152.52797088846 2363.19281812424 16 19 12
-808.39246404958 -152.53685972581 2373.56420814292 20 23 16
-799.914108745743 -152.130297579997 2373.47546577036 22 25 18
-796.321939422763 -152.325056244496 2388.63218924277 19 22 15
-785.117698094827 -151.581448401969 2379.95952521528 25 28 21
-777.267471915653 -151.251076278314 2381.77017806397 23 26 19
-763.192243742328 -150.139079367918 2363.50212162909 23 26 19
-753.34837115995 -149.551518390333 2358.59014412354 24 27 20
-742.962977556131 -148.891636025168 2351.74701152567 19 22 15
-735.519428757999 -148.603254387365 2354.4732911975 20 23 16
-727.790008376877 -148.278185364407 2356.23939633029 23 26 19
-719.498694626482 -147.879960355089 2356.08206568686 24 27 20
-717.130670372655 -148.251955838766 2376.1139282802 24 27 20
-711.047415843445 -148.145448287119 2383.66527476122 24 27 20
-705.767772898965 -148.147436973014 2394.11663008276 24 27 20
-696.07024672842 -147.566512241176 2389.15072440923 27 30 23
-692.10623615316 -147.74841368312 2404.44352187086 24 27 20
-683.512388214685 -147.313451854744 2403.33232887369 22 25 18
-675.471737240337 -146.951498490917 2404.14799681934 21 24 17
-667.968818033996 -146.661987604986 2406.89593319367 13 20 12
-664.378386336685 -146.910333044578 2424.18109458853 12 22 13
-662.777673338487 -147.441854223248 2449.25516321074 15 22 14
-656.458335553921 -147.327280245444 2456.8931505344 21 26 19
-652.13898285545 -147.496262097395 2472.31603193777 22 27 20
-649.257057760618 -147.875529707095 2493.60036724456 21 24 17
-649.006420645648 -148.640122743757 2525.63271922571 18 19 13
-650.811736505565 -149.716227106567 2566.49433130656 8 9 3
-641.490546317394 -149.202731317463 2563.51996779627 18 21 14
-633.883263276455 -148.935974411151 2567.37091718963 12 15 8
-625.083311814869 -148.494372102015 2566.33511037739 7 12 5
-620.067463678623 -148.61148971334 2580.94815742689 13 18 11
-878.507241542197 -164.848771517549 2404.75802865801 23 25 20
-855.868919448188 -162.659746582159 2364.08339947598 20 23 16
-848.288931043011 -162.364372669943 2366.85978035924 21 24 17
-851.257462783669 -163.417621454822 2400.90063088142 23 26 17
-838.519988061077 -162.466977593057 2388.53419006922 22 25 16
-825.864997012815 -161.519676421793 2376.13752762918 19 22 13
-821.402972815034 -161.630340645577 2388.41672408681 19 22 13
-815.033782788918 -161.496378800151 2395.00773121013 20 23 14
-809.564770040857 -161.482818348217 2404.46225435758 20 23 14
-792.803525320653 -159.978228227077 2378.66679188075 18 21 12
-782.531800289311 -159.323218267669 2372.84854782837 25 28 19
-775.297760691475 -159.07076660512 2376.56255020316 24 27 18
-765.686866467341 -158.498524814826 2372.63132329098 22 25 16
-755.524509813846 -157.848094340375 2366.7729960702 28 31 22
-747.740112347812 -157.517704396415 2368.55973221982 29 32 25
-739.961468301227 -157.187665852498 2370.34435142239 29 32 25
-731.32974628858 -156.739239035752 2369.24793545358 23 26 19
-721.584369047315 -156.133874055929 2364.30125992681 20 23 16
-712.161883200868 -155.569605956654 2360.30097554772 22 25 16
-707.511661575587 -155.67442626876 2372.64899213088 24 27 18
-700.326811599852 -155.424872172802 2376.34490344264 26 29 20
-695.598525239504 -155.526872360427 2388.72149665862 26 29 20
-692.715873964098 -155.899845929749 2407.87371253988 25 28 19
-687.331946525412 -155.919719965699 2418.36135455102 22 25 16
-674.467148083185 -154.852522735445 2401.78349011053 21 24 15
-667.495637129502 -154.640230686537 2406.46588640549 13 18 11
-661.557160144658 -154.581981488704 2415.02754483518 16 21 14
-658.427429710673 -154.945902990013 2434.2699625414 19 24 17
-656.23342127739 -155.460113957958 2457.42779128423 20 23 16
-653.679802986808 -155.932031239741 2479.65266037663 19 22 15
-654.529696757701 -156.934629324143 2515.53366955119 19 22 15
-655.454212892553 -157.968740663498 2552.45199843579 18 21 14
-653.012362374125 -158.502310323546 2576.76497310893 14 17 10
-642.45052023742 -157.781543757482 2568.92373415697 11 14 7
-629.304973953529 -156.647480980291 2550.31980858811 10 13 6
-620.549123509148 -156.196214108685 2549.26845312155 12 15 8
-616.749800766265 -156.535208878002 2568.75629392674 15 18 11
-617.51323024567 -157.620764311447 2607.86238257861 17 20 13
-884.568910487253 -173.903898362995 2423.20502348736 25 27 22
-859.614175485202 -171.280744450792 2375.93838755843 19 22 15
-838.796574017009 -169.192626256544 2339.9278984198 22 25 18
-847.26282690292 -171.07966683924 2390.04103702605 22 25 16
-827.267033975544 -169.086073147513 2355.85793443218 21 24 15
-829.476142674875 -170.137800240605 2388.04145989894 16 19 10
-813.009868531846 -169.372371167185 2389.81554926789 12 15 6
-798.046591657177 -168.04242281633 2369.75348658575 12 15 6
-800.843272202375 -169.210908481156 2404.91463853184 14 17 8
-784.470875387147 -167.670522157437 2380.04715012624 18 21 12
-773.329913002183 -166.863536683484 2371.35653073112 20 23 14
-764.918345746848 -166.443282393388 2371.24455484651 22 25 16
-759.460805716195 -166.449688435422 2380.69340302101 24 27 18
-750.47299377923 -165.944887489734 2378.66381086983 25 28 21
-743.532195091757 -165.737971796985 2383.33464259044 25 28 21
-734.006798269538 -165.150141326326 2379.37352745216 22 25 18
-723.950873498128 -164.479424331435 2373.47806018199 20 23 16
-716.75151597364 -164.231573673267 2377.17911410394 22 25 16
-708.15576616557 -163.773691933839 2376.07034147131 25 28 19
-701.236276583952 -163.568092892064 2380.73333145009 26 29 20
-698.406377120039 -163.989177756071 2399.86249623789 25 28 19
-695.490057853218 -164.407004307166 2419.02330643045 24 27 18
-686.856321960222 -163.948032545158 2417.92841781297 21 24 15
-677.712767304241 -163.40696871728 2414.89159269538 20 23 12
-665.970633677847 -162.453217896597 2402.16374150846 16 19 12
-666.031840147777 -163.361326681319 2433.00540427429 18 21 14
-661.0453846026 -163.480973506421 2445.47446858354 20 23 16
-657.0298091125 -163.763168127611 2461.84499047213 19 22 15
-657.998802262765 -164.862821757329 2497.67565767882 18 21 14
-664.298861588432 -166.855772561871 2554.96771069547 19 22 15
-654.959408594561 -166.307789684878 2552.00258485419 19 22 15
-650.308229291511 -166.534565751302 2567.54167065879 14 17 10
-639.286182861727 -165.703079937977 2557.74288267837 9 12 5
-623.052869763334 -163.983076864261 2526.43856627074 9 12 5
-615.783472478191 -163.765328916542 2531.22960751315 13 16 9
-615.315013168908 -164.716365355963 2564.39359126265 17 20 13
-610.508148342188 -164.937578075387 2579.9896632281 14 17 10
-849.745565870874 -177.240913238774 2323.60932655812 19 22 15
-843.887702421046 -177.181780389512 2331.07545980387 21 24 17
-843.910416796491 -178.774653966303 2381.07872539622 19 22 13
-828.378458691829 -177.322525773774 2360.16569408292 18 21 12
-829.627163580551 -178.319863267097 2389.50260539137 15 18 9
-818.579260646993 -177.516922431322 2381.84442506578 14 17 8
-800.789120771504 -175.70605006269 2353.24598530557 13 16 7
-789.604930022914 -174.864101752615 2344.57345609494 12 15 6
-785.472804985449 -175.07622575661 2357.79168873344 11 14 5
-777.367223373148 -174.693206732116 2358.63253785602 13 16 7
-770.168623445597 -174.447246677675 2362.33317386548 15 18 9
-763.854063976652 -174.337462706735 2368.90225309127 19 22 13
-758.694132675445 -174.408289592222 2379.30491872501 20 23 14
-755.822188525795 -174.839391445029 2397.38179358562 22 25 18
-746.233054878497 -174.229618915852 2393.44549199285 22 25 18
-736.966477657368 -173.666394059492 2390.45529198346 20 23 16
-727.164495043945 -173.014607042438 2385.53268593102 20 23 16
-719.089164871195 -172.633484912313 2386.36240044583 22 25 16
-708.520553701938 -171.850356097975 2378.52832626882 23 26 17
-700.490280441707 -171.471151183793 2379.34152525822 25 28 19
-697.660128412625 -171.93841609024 2398.46729745449 24 27 18
-695.014118130969 -172.446857631065 2418.58961343319 23 26 17
-687.720806203831 -172.198275465897 2422.3248597114 19 22 13
-675.911194316419 -171.197788142085 2409.62530655987 17 20 9
-670.492911627835 -171.259636058615 2420.12226412718 19 22 15
-665.555144160285 -171.408073353202 2432.57146594248 18 21 14
-662.88655860325 -171.9500134928 2453.76626738645 18 21 14
-663.183372157295 -173.014226344687 2486.64365942425 16 19 12
-661.048941266013 -173.678869489214 2510.83504729816 16 19 12
-660.552953970678 -174.644681702643 2541.87480566818 18 21 14
-658.424587410537 -175.343683382389 2567.12795397392 16 19 12
-647.607387070066 -174.518072600044 2558.32085067334 10 13 6
-632.490467431339 -172.914945287586 2531.93537793112 8 11 4
-620.166026231007 -171.79347169334 2516.23183288759 11 14 7
-619.089799573717 -172.703289692848 2546.42008262381 16 19 12
-612.708627491854 -172.660863827515 2555.14164921696 19 22 15
-861.698222971 -187.062153398273 2359.0576377903 35 37 32
-846.337167458168 -185.584562060273 2339.15124292491 30 33 26
-855.872844367997 -187.896331905417 2392.04369613811 21 24 17
-852.050802642765 -188.186571100554 2406.20992618579 11 14 5
-832.337799412127 -186.027090349896 2373.00340246127 12 15 6
-822.555049773655 -185.389607597506 2369.13953960982 13 16 7
-808.759650393083 -184.119895101364 2352.91507753864 14 17 8
-805.260593886402 -184.459666350997 2368.02677389171 15 18 9
-785.766622262444 -182.272428179989 2333.67620586312 14 17 8
-780.445900074485 -182.321710109419 2343.07210792309 12 15 6
-772.680170600167 -181.982898558698 2344.85244240867 13 16 7
-771.191115338466 -182.657633712256 2366.67546714656 16 19 10
-767.823501280322 -183.039561698208 2382.80303527144 21 24 15
-762.330177186033 -183.082455395191 2392.26213208829 21 24 15
-753.892305630059 -182.644561845687 2392.16104445422 19 22 15
-746.335490377168 -182.350919857407 2394.92887498457 19 22 15
-736.778852677482 -181.723133681667 2390.98212555207 19 22 15
-723.293707996095 -180.429732567166 2373.57991309862 20 23 16
-716.933363698975 -180.329409639136 2380.16516812637 22 25 16
-708.884627114303 -179.943670596454 2380.98531424009 22 25 16
-700.846834793796 -179.55842999001 2381.80144628383 22 25 16
-695.276775111415 -179.598986061894 2391.28885470439 23 26 17
-691.564185980873 -179.968299124116 2407.54271704456 23 26 17
-684.031077416162 -179.676194035662 2410.30181808326 19 22 13
-680.212418917087 -180.041547846064 2426.59451814028 16 19 8
-674.746710134054 -180.123117466432 2437.10747365997 20 23 16
-672.882612543915 -180.857748434468 2461.19510429505 18 21 14
-662.407012285804 -180.048499831438 2453.32946084608 17 20 13
-662.698784809395 -181.196896938882 2486.20233264304 15 18 11
-661.570491744919 -182.106977417852 2514.27611347569 16 19 12
-661.559326269116 -183.24380575866 2547.26018121167 16 19 12
-654.712810973222 -183.125604048595 2554.02317509857 11 14 7
-645.644091401187 -182.591289411135 2552.02520658483 8 11 4
-632.242634822245 -181.228978023433 2532.46467401618 11 14 7
-622.554590800682 -180.56076977455 2527.50216310784 14 17 10
-620.020683094149 -181.270126797133 2551.83532217736 17 20 13
-862.203921827345 -195.268311566934 2361.45465368399 36 38 33
-852.673409482924 -194.660444996827 2358.56346520017 24 27 20
-845.746448610894 -194.468884829238 2363.22785621861 16 19 12
-838.809536177446 -194.2770127047 2367.89614085593 15 18 9
-832.495431682274 -194.188182716355 2374.46347376122 15 18 9
-817.68677320217 -192.706042381572 2355.42327177538 16 19 10
-810.779008475744 -192.515532713003 2360.08086315664 16 19 10
-803.552571693893 -192.27331961899 2363.79133062652 16 19 10
-794.790613225258 -191.77461426713 2362.74602804889 16 19 10
-783.924498797849 -190.918559902602 2355.02580463262 14 17 8
-774.921384612864 -190.371240132961 2353.00498047598 14 17 8
-771.018269381281 -190.691636366971 2367.1986464817 14 17 8
-768.237557002468 -191.21323332946 2385.23579971852 17 20 11
-760.388739006665 -190.868498441815 2387.04677030953 19 22 13
-753.417934546667 -190.676101993753 2391.72740875395 20 23 16
-743.843772039662 -190.028190961035 2387.78854519467 19 22 15
-733.734886253805 -189.280815462255 2381.91810465651 21 24 17
-722.257622630465 -188.283442720207 2371.23067437418 23 26 19
-713.096747388368 -187.691175944591 2368.20400582016 23 26 17
-703.411605867953 -186.999855903611 2363.24218414577 22 25 16
-697.347744722243 -186.961236111321 2370.78136204241 17 20 11
-691.804671166455 -187.021688758935 2380.25720985606 18 21 12
-690.820315324941 -187.928800092276 2406.14580444203 19 22 13
-685.430984091119 -188.034734978013 2416.62891642635 19 22 13
-678.941111442169 -187.940450061035 2423.26052408586 19 22 11
-674.531887638206 -188.242127573918 2437.63949069995 19 22 15
-673.181572993909 -189.135287747491 2463.66185019439 17 20 13
-666.818504801111 -189.085524149179 2471.31083637101 15 18 11
-648.962793561054 -186.817109700971 2435.30408685278 15 18 11
-656.793274930356 -189.524313528694 2497.31947833332 15 18 11
-656.321187879903 -190.64879779468 2528.33858078707 12 15 8
-650.264149697641 -190.689949267324 2538.00262755565 7 10 3
-641.726361491034 -190.240952492619 2537.93868114915 7 10 3
-631.026766285302 -189.353582234475 2529.09350733759 13 16 9
-624.221315731866 -189.247703535161 2535.8409053758 13 16 9
-615.027321428094 -188.655232959986 2532.82628559766 17 20 13
-606.33400765681 -188.161049010491 2531.75570067655 22 25 18
-868.259983818283 -204.42276766567 2379.89619117956 33 35 30
-863.538693286148 -204.617061738837 2391.19672258994 18 21 14
-848.486271189018 -203.062210227399 2372.25057525496 19 22 15
-841.204394599086 -202.82018648236 2375.98117180244 20 23 14
-824.745764858264 -201.000260321775 2352.23266302166 20 23 14
-819.724672580388 -201.141045132941 2362.579604787 20 23 14
-816.218435845758 -201.551315681849 2377.68884500708 19 22 13
-807.091565780153 -200.985157213585 2375.71440741935 17 20 11
-800.132820253851 -200.798130187556 2380.39025926882 17 20 11
-789.219545353268 -199.90998529311 2372.68933800001 15 18 9
-778.664142526436 -199.077938031501 2365.92096625382 15 18 9
-762.194671261097 -197.173861619615 2340.04963340201 14 17 8
-757.708856538628 -197.420081497732 2352.32724596011 16 19 10
-759.035434282225 -198.734494588986 2383.74505175059 19 22 13
-751.490757526755 -198.440824522712 2386.5084740275 21 24 17
-734.441805342086 -196.388140295205 2357.65897803522 20 23 16
-728.981325515376 -196.47038492703 2367.10342651058 22 25 18
-720.090757262264 -195.914023511786 2365.04239239689 25 28 21
-713.188859064983 -195.729798796032 2369.69737803807 24 27 18
-702.944304393174 -194.910380087475 2362.81511063894 22 25 16
-697.154784335342 -194.937930502545 2371.31617370524 17 20 11
-689.699546083035 -194.648139193394 2374.04680695673 16 19 10
-690.076951848605 -195.884051738676 2404.74884932656 16 19 10
-684.688924071902 -196.011612752846 2415.23011029529 19 22 13
-680.055482701069 -196.294882984056 2428.6251218879 21 24 13
-671.430953014944 -195.791428462353 2427.53024460498 19 22 15
-664.126840880824 -195.549897967455 2431.2688829442 17 20 13
-648.487255550939 -194.858471242933 2434.87013410096 15 18 11
-646.727410903291 -195.759039375241 2459.97417604553 15 18 11
-651.089529243463 -197.950407941161 2509.42242635359 11 14 7
-646.067943557381 -198.218981598235 2522.95957423248 7 10 3
-633.658232368294 -196.93711745673 2507.2993670063 11 14 7
-629.328542011555 -197.35903467784 2523.77347632906 12 15 8
-626.124751411189 -198.035328509204 2545.15260066401 11 14 7
-613.591731761127 -196.706693881337 2528.47391439769 17 20 13
-603.504095642753 -195.894271289242 2521.53410472694 24 27 20
-869.740279965366 -212.881074931541 2385.11999724258 19 21 16
-868.240168237992 -213.673596228427 2405.87108720911 22 25 18
-859.896553989897 -213.258347061498 2406.80085434318 21 24 17
-837.222784182447 -210.26795343956 2365.13275865106 24 27 18
-831.228592069943 -210.258079385547 2372.64470856495 22 25 16
-822.073525329419 -209.676906144779 2370.68164877669 19 22 13
-813.566530801283 -209.210687779575 2370.60806757212 19 22 13
-804.150011630148 -208.574615760744 2367.67758923364 15 18 9
-799.352236166805 -208.790822006137 2379.00400287824 13 16 7
-782.681187859249 -206.796566985016 2353.21271465606 13 16 7
-778.493477129002 -207.126287380079 2366.442525134 14 17 8
-767.988920905493 -206.268758984242 2359.65760149958 15 18 9
-756.945041847512 -205.300625100126 2350.94361268548 17 20 11
-761.785328312524 -207.371599163272 2393.82736447882 20 23 14
-744.337652898852 -205.168051889669 2364.06731192452 21 24 17
-741.170562703479 -205.717055449175 2381.17622662336 21 24 17
-730.223992426634 -204.752903195025 2372.42658145436 20 23 16
-715.098744698975 -202.953719517614 2349.25885040298 21 24 17
-714.121021498622 -203.946709914111 2374.07174484619 19 22 13
-706.363598709218 -203.599962705631 2375.8499142645 17 20 11
-695.036553296956 -202.531538322608 2365.11326502449 15 18 9
-699.040328136248 -204.570316467456 2408.30312783439 15 18 9
-687.984735365273 -203.55737522941 2398.5302196011 14 17 8
-687.422832471955 -204.701275631069 2426.38056752754 15 18 9
-689.376188385709 -206.391423428762 2463.94213752199 16 19 8
-681.968448441061 -206.14823132403 2467.71880741283 18 21 14
-669.882809335713 -204.916052884773 2454.06996193233 18 21 14
-651.45830835494 -202.316460107593 2416.16200485165 19 22 15
-657.17471269582 -204.870541987981 2469.35704984714 18 21 14
-656.830588523538 -206.157701957808 2500.31738444004 15 18 11
-661.077326504555 -208.475393003857 2549.79802553278 7 10 3
-649.775603001387 -207.408445820221 2539.0520644352 8 11 4
-639.035193825948 -206.453050388184 2530.22685247958 12 15 8
-630.049268861689 -205.879786438911 2528.2017403633 16 19 12
-635.677988691692 -208.610126364496 2585.68207904381 15 18 11
-866.651490304825 -220.528567977225 2377.13204214635 17 19 14
-861.93236006116 -220.772037683085 2388.42807826279 24 27 20
-845.929112783778 -218.911492919587 2366.65054344998 24 27 20
-842.163432264632 -219.334860229128 2380.78650493131 24 27 18
-832.965153768299 -218.738165426595 2378.84031672335 23 26 17
-822.539375965202 -217.90348348282 2373.09160236645 18 21 12
-811.849359820148 -217.010994945832 2366.37670108485 17 20 11
-811.691461487766 -218.145718847772 2391.94783888882 15 18 9
-795.209744545681 -216.124140901203 2367.15637726712 13 16 7
-781.605403182227 -214.642699724859 2350.87847191027 13 16 7
-767.202592665434 -212.987531340755 2331.70386536058 13 16 7
-766.625138354425 -214.058500762681 2356.36544344243 15 18 9
-760.612780426978 -214.061793541707 2363.88274591526 17 20 11
-753.989631676744 -213.9462263973 2369.49782732809 20 23 14
-748.803027694457 -214.124439927039 2379.90208165475 21 24 17
-741.274271957514 -213.831004991151 2382.65970148676 19 22 15
-728.898772687155 -212.540366801244 2369.12058397128 17 20 13
-714.633252680831 -210.843272139495 2348.83270179044 18 21 14
-707.004245743024 -211.782463990176 2379.26623960453 16 19 10
-703.640527329908 -212.364791922527 2396.44408234199 16 19 10
-694.48210534677 -211.722768671393 2393.4202766324 15 18 9
-697.22390340258 -213.636752805883 2432.81159965295 15 18 9
-693.893671287048 -214.268044126057 2451.04013743257 15 18 9
-691.276133254651 -215.069803484269 2472.19678761883 15 18 7
-687.513783437232 -215.636788644725 2489.52062575251 15 18 7
-683.675423747573 -216.200837918999 2506.87204833932 19 22 15
-671.02580286419 -214.804823021949 2491.3073678663 21 24 17
-669.157521396542 -215.826134027947 2516.44169873723 17 20 13
-672.208238367906 -217.990214738459 2561.03519952612 12 15 8
-662.079591765075 -217.16806884967 2555.17783468546 6 9 2
-653.231405715631 -216.633596716199 2554.16630618171 11 14 7
-639.034489009413 -214.844586551246 2531.7273205422 12 15 8
-633.42585076488 -215.054598693417 2543.3488184417 16 19 12
-624.426569147485 -214.466792668695 2541.32991082717 13 16 9
-638.150515465486 -219.32958476716 2633.04006415383 17 20 13
-853.783490342958 -226.242722326174 2340.84439333239 21 24 17
-841.396562228013 -225.005036045368 2329.43879981938 20 23 16
-848.342545979413 -227.538004087267 2374.72253754438 23 26 19
-841.049800558588 -227.30348341352 2378.45651702758 19 22 13
-834.068031294252 -227.131406685284 2383.13960624188 17 20 11
-824.257296329458 -226.396536723928 2379.2932595309 15 18 9
-819.453224062174 -226.661368488557 2390.61829216777 16 19 10
-805.052805118778 -224.993414459856 2372.51059190965 15 18 9
-800.847707352636 -225.382222416584 2385.74200719455 14 17 8
-789.921749834861 -224.402872017573 2378.05282990307 14 17 8
-770.64206491991 -221.690010005265 2343.66380831861 14 17 8
-762.284399759337 -221.213090185638 2343.53652328339 16 19 10
-758.961777994251 -221.787255030502 2359.63323944057 18 21 12
-754.689806536533 -222.173596480853 2372.88913855087 21 24 15
-748.041044896366 -222.065064125355 2378.51299530243 20 23 16
-740.802452692341 -221.833012233735 2382.22736691998 18 21 14
-730.424534403448 -220.925502030134 2375.4002021753 15 18 11
-720.381008907445 -220.081337238347 2369.51331669599 15 18 11
-711.783614826831 -219.544987489769 2368.41106202592 15 18 9
-703.20740594659 -219.009472470551 2367.30079269003 14 17 8
-704.542137879717 -220.67047514149 2400.82285180009 16 19 10
-693.194661015016 -219.524182851816 2390.09950133196 16 19 10
-695.129365143234 -221.359471958839 2426.59034083956 15 18 9
-693.414017039969 -222.398829409858 2450.6009331001 15 18 9
-687.091057975109 -222.403831759788 2458.23121394601 14 17 6
-694.361472324165 -225.553379968828 2516.14998965783 14 17 6
-687.596325068236 -225.490909041205 2522.87921450354 19 22 15
-686.973908652438 -226.874683864319 2552.86681713722 22 25 18
-672.990679267298 -225.123017726983 2532.48048567741 15 18 11
-677.24903946715 -227.702728989084 2581.93687983261 10 13 6
-663.827460895593 -226.073561103412 2563.4703493259 6 9 2
-650.766267065469 -224.508753237532 2545.934831985 8 11 4
-644.400254313644 -224.562565695325 2554.6436292891 8 11 4
-634.383817242313 -223.719867118211 2548.74679093957 15 18 11
-625.369953803167 -223.117412781427 2546.73428668704 14 17 10
-611.893760000912 -221.385652886222 2526.16197389551 20 23 16
-848.42346707508 -233.261169018798 2326.26272297994 22 25 18
-855.800902959385 -235.986969208367 2372.44170468607 19 22 15
-852.036202222441 -236.475812070289 2386.57236994075 22 25 18
-838.664137654253 -234.999603226858 2372.34278738814 17 20 11
-828.225480456361 -234.114934061408 2366.60252421475 17 20 11
-824.094634355114 -234.53653772363 2379.80474089822 17 20 11
-809.040389469651 -232.676728805217 2359.8157091366 18 21 12
-805.19496413664 -233.162495255814 2373.97568248349 17 20 11
-805.257983837752 -234.489869329187 2400.5185729438 15 18 9
-798.228858946186 -234.321386480487 2405.21834276668 14 17 8
-777.079710785726 -231.110723457968 2365.14653553728 15 18 9
-765.98455858382 -230.041550064592 2356.45879977423 15 18 9
-758.492592163202 -229.749060677482 2359.20298132285 17 20 11
-750.708674694572 -229.392191705391 2360.99154095634 20 23 14
-742.640456933863 -228.971235904144 2361.82142247359 21 24 17
-738.031725102942 -229.321349962567 2374.13585645147 20 23 16
-730.23930311909 -228.964200729034 2375.92752724089 17 20 13
-724.14612984611 -228.991393999454 2383.47238963349 17 20 13
-711.035941072949 -227.419683114103 2367.02175107665 16 19 10
-708.005306381094 -228.149472549916 2385.13400202093 15 18 9
-702.42235315973 -228.302640029119 2394.61734413264 15 18 9
-697.892215134916 -228.708931865723 2407.96579386883 16 19 10
-691.9592562525 -228.795459538515 2416.5145237186 16 19 10
-692.667800091329 -230.466298041502 2449.1968021128 15 18 9
-687.139436997686 -230.674659870621 2459.72270131661 15 18 7
-684.449932067539 -231.576874235024 2480.89792028887 15 18 11
-690.475428662291 -234.6213331123 2535.01047127593 17 20 13
-685.453051427759 -235.008520557099 2548.53921145965 18 21 14
-680.883220224654 -235.519384755517 2564.02730554134 11 14 7
-667.564135955163 -235.529995090127 2579.53215377076 7 10 3
-650.521140138599 -232.903935286414 2546.45702214885 5 8 1
-639.275922595043 -231.72324803509 2535.69911218383 16 19 12
-633.471667383329 -233.670385079116 2581.39321318166 16 19 12
-623.448699355985 -232.802457630676 2575.50065133234 14 17 10
-865.544574291204 -244.920992561689 2376.76033515437 22 25 18
-859.202644288117 -244.896081284711 2383.33320964806 19 22 15
-852.199064283111 -244.733857338396 2388.02322581016 18 21 14
-838.18871681098 -243.071940038179 2371.90645493167 15 18 9
-818.287479510111 -240.121090078786 2337.76122324172 15 18 9
-807.973934291677 -239.216606890513 2331.9772514926 17 20 11
-809.499410887327 -240.892219219077 2362.22872625865 18 21 12
-803.797830776836 -241.003810104782 2370.69175075709 13 16 7
-803.864539704205 -242.399557113245 2397.22814193582 10 13 4
-799.566455894804 -242.844615549843 2410.48909835375 13 16 7
-782.909970615321 -240.522109879875 2384.71728587219 13 16 7
-770.572878254032 -239.148518754375 2372.23728315845 12 15 6
-755.959124488435 -237.240189409751 2352.09186537421 13 16 7
-747.608609900789 -236.746795431617 2351.96322526888 18 21 12
-740.723008208436 -236.589275039833 2356.61027489393 19 22 15
-736.98718200709 -237.167796900515 2371.79023875923 18 21 14
-728.915354149797 -236.741031418356 2372.62187030985 18 21 14
-717.751526310688 -235.580495595501 2362.89942418863 17 20 13
-713.36360738313 -236.022103622134 2376.19328141763 15 18 9
-707.535199838915 -236.128818853172 2384.70275496162 14 17 8
-702.774265224618 -236.500145363433 2397.07088941322 14 17 8
-701.76842222372 -237.798357061468 2422.93778194408 15 18 9
-696.870540532845 -238.164347756509 2435.35607700735 16 19 10
-684.98810412609 -236.808594130376 2422.70953484315 16 19 10
-686.659200507325 -238.82437803634 2459.28228001881 15 18 7
-686.059267840286 -240.305657070201 2488.18780037637 14 17 10
-687.010960386636 -243.90952907717 2555.83452783173 15 18 11
-679.625948295946 -243.732591465256 2560.66449706984 9 12 5
-672.734298794734 -243.686379892922 2567.43845813767 7 10 3
-662.83815656866 -242.854074651647 2562.5636841969 7 10 3
-648.306605117258 -240.781887678364 2539.20083952705 8 11 4
-644.390335032602 -241.520656175783 2557.63419758454 18 21 14
-644.491217172905 -243.363722100303 2592.6573799351 12 15 8
-653.248725802729 -247.606871157045 2663.81957282506 20 23 16
-881.671711267764 -256.662051160847 2424.41329601781 10 12 7
-867.12276905746 -254.865840208143 2407.43579326742 15 18 11
-855.245457173284 -253.641685975393 2397.9773828049 22 25 16
-832.94528765915 -250.081110823325 2357.28337574552 17 20 11
-813.719420637383 -247.166782548802 2325.02311352544 18 21 12
-811.571931931027 -248.0765901521 2343.8677122516 16 19 10
-812.128851387859 -249.618172585449 2371.28128995188 14 17 8
-804.247433499927 -249.251651018743 2373.10600345296 13 16 7
-796.676556367183 -248.955713856966 2375.87911636685 13 16 7
-796.062821716569 -250.276173434594 2400.5350520279 14 17 8
-788.733634979676 -250.048125946928 2404.28178359755 13 16 9
-768.912004562692 -246.87668022293 2367.99115956493 14 17 10
-758.439039328376 -245.882742556895 2361.20505003502 15 18 11
-744.219429366443 -243.982440835325 2341.98237554552 17 20 13
-742.282877742225 -245.017357709936 2362.87400568868 18 21 14
-735.082213669124 -244.794314472449 2366.5736625693 18 21 14
-728.446096292727 -244.71024868991 2372.19107914298 17 20 13
-720.949413175622 -244.417176248839 2374.93701843693 16 19 12
-719.599410506565 -245.650368692135 2398.80049612643 16 19 12
-710.663674791965 -245.008758030059 2396.76230523954 15 18 11
-708.610110706971 -246.097525922778 2418.75894349616 14 17 10
-698.848134179097 -245.248260506792 2413.83695609624 13 16 9
-703.928415425361 -248.19413967864 2461.90053127753 14 17 10
-698.107009441225 -248.375706025939 2471.46836949298 17 20 13
-689.610928321988 -247.868175330212 2471.39368581316 15 18 11
-688.45043813966 -249.284109342141 2498.37444137359 16 19 12
-684.722558528946 -251.827139329163 2548.60219155673 11 14 7
-679.638581435658 -252.271323770087 2562.14875846285 7 10 3
-671.234329694872 -251.825826617498 2563.10283973404 5 8 1
-646.434467573442 -246.881450317857 2499.95545751949 9 12 5
-639.944024577717 -246.91992044433 2507.64381206481 12 15 8
-639.515752549215 -248.656721992982 2539.66760510155 13 16 9
-647.366305543966 -252.76299891249 2605.83636645759 18 21 14
-643.444712597396 -253.603335752826 2625.33080555974 16 19 12
-884.765596632481 -265.725043105879 2434.33823558838 15 17 12
-863.411912691671 -262.320347690557 2397.55530696064 24 27 20
-859.249175107542 -262.830656478334 2410.76216376888 18 21 12
-842.639293604706 -260.467999144335 2387.10956036713 16 19 8
-820.185805525506 -256.714315989378 2345.41927376999 14 17 6
-822.355156242207 -258.695901539398 2377.54733980473 14 17 8
-813.825239961514 -258.178788252373 2377.48567273155 18 21 12
-800.084620689807 -256.417758750139 2361.27837764226 16 19 10
-795.593303303454 -256.853946169545 2373.54365617046 12 15 6
-796.190237722966 -258.529231659169 2401.99941736564 13 16 7
-791.553432782538 -258.959699706939 2414.31798852166 13 16 9
-774.681784298189 -256.403131586785 2387.57520275572 13 16 9
-761.210509848101 -254.652561491812 2371.26925539866 14 17 10
-750.76282175211 -253.632061514364 2364.47596590394 16 19 12
-742.103873336771 -253.048605012748 2363.39963051505 19 22 15
-741.499231214271 -254.493257050292 2389.10944823719 19 22 15
-729.967375718248 -253.185581985197 2378.46526603816 17 20 13
-727.24280361458 -254.119013681208 2397.51750405385 16 19 12
-718.847627261225 -253.60699502278 2397.40649650712 15 18 11
-716.831191851404 -254.751639011922 2419.385428581 15 18 11
-709.50561460921 -254.526166272315 2423.13090872206 14 17 10
-703.261596299569 -254.587691573368 2430.72798837485 14 17 10
-691.076115002647 -253.07082385406 2417.13715387811 15 18 11
-701.087689938251 -257.500223804561 2483.56316520106 17 20 13
-699.154020451198 -258.770395967819 2507.6359207859 17 20 13
-683.051471139399 -258.017765945294 2511.41000203022 12 15 8
-680.643946708751 -259.208179179285 2534.59438861257 10 13 6
-675.340598738056 -259.61230647123 2547.15712733524 7 10 3
-669.735956259784 -259.943442285446 2558.76803444831 5 8 1
-661.105084791901 -259.422033649786 2558.74337227687 9 12 5
-641.426805002509 -255.715371676009 2514.97464422597 14 17 10
-640.243212445481 -257.320658336686 2544.08261926186 15 18 11
-656.978053844103 -264.215342739857 2646.27862764692 20 23 16
-633.653559472525 -259.387140572434 2586.85315695868 19 22 15
-862.285846024803 -270.332532804894 2395.226550328 17 20 11
-861.327737960118 -271.637361648163 2417.87542236688 25 28 17
-853.910984714747 -271.411217599721 2421.65408082529 15 18 7
-838.61463465522 -269.278895370011 2401.77332222479 14 17 6
-825.628876176286 -267.684354193648 2388.47911906862 15 18 9
-809.942119111689 -265.408884430673 2366.61789822968 18 21 12
-809.753384606566 -266.935441776427 2392.1706755142 15 18 9
-805.480423236473 -267.471288570303 2405.41565387993 13 16 7
-807.496485769393 -269.595357520451 2438.65522090587 13 16 7
-805.154548250206 -270.654091070405 2458.62553541984 12 15 8
-781.633073247431 -266.346294860982 2410.96525125939 12 15 8
-762.800859919609 -263.180639835955 2377.51436663608 13 16 9
-746.499374005482 -260.625292622653 2351.63113781956 14 17 10
-749.157455592569 -262.966093594288 2387.82100545288 17 20 13
-736.152438115722 -261.242713841418 2372.41015411012 16 19 12
-741.14857642457 -264.250158588782 2417.29998764723 14 17 10
-721.419670170642 -260.729750009602 2378.86863646852 14 17 10
-715.027056987005 -260.735014368004 2385.45739495996 14 17 10
-714.420571869117 -262.308805346348 2412.22469480967 14 17 10
-709.304048936839 -262.683517352956 2423.65521617257 14 17 10
-696.815870105278 -261.044145235801 2409.11704997282 16 19 12
-693.828050932243 -262.013389423363 2428.26223342522 16 19 12
-700.603688262548 -265.729357504699 2483.1181199076 15 18 11
-695.766417498297 -266.242717286046 2496.57008405482 18 21 14
-684.115519384957 -266.744620768593 2516.76478424577 10 13 6
-681.945208334627 -268.065271417287 2540.91971191517 7 10 3
-679.409640127275 -269.30767655752 2564.14644443261 7 10 3
-670.998412660719 -268.850216473328 2565.10396286923 6 9 2
-656.639987714176 -266.626168636224 2542.75622922061 11 14 7
-648.804247027124 -266.31899809409 2545.62642458707 12 15 8
-643.400994829339 -266.746085381009 2558.223729899 14 17 10
-637.466363433866 -267.024531812765 2568.89195363886 16 19 12
-649.343493155085 -272.793124078195 2652.67182221226 18 21 14
-860.192903297723 -278.095917029339 2390.06794548541 17 18 10
-855.404799950044 -278.508481535245 2401.3762836481 23 25 14
-858.188145582242 -280.816804483533 2435.38972188821 15 18 7
-835.931052745139 -276.880129544633 2394.70844078385 16 19 8
-816.408667436561 -273.583612134289 2361.51844964138 16 19 10
-799.249552899807 -270.846047517924 2334.89376756258 16 19 10
-801.598690140377 -273.070589163073 2368.0047352135 14 17 8
-806.829361301521 -276.074318841678 2410.67626768537 14 17 8
-810.032835185017 -278.598795453454 2447.72067143257 13 16 7
-804.967599628702 -279.000195430857 2459.13029021045 12 15 8
-783.826954862259 -275.173609968001 2419.10186571034 11 14 7
-764.977772507206 -271.903178363745 2385.66505213211 12 15 8
-750.699999314038 -269.811302820723 2366.47796507956 14 17 10
-739.721565852879 -268.581620388264 2357.76018598325 14 17 10
-752.591354670007 -273.816725857823 2428.41994458878 13 16 9
-742.376309592249 -272.816764151458 2422.60713374084 12 15 8
-727.705015348042 -270.576075467377 2401.44114337886 12 15 8
-719.576908990327 -270.124232385744 2402.29511516711 13 16 9
-712.288768601384 -269.905163014257 2406.02625564387 14 17 10
-700.616263327076 -268.448185316486 2394.37788567594 13 16 9
-694.173977572423 -268.462086295178 2400.98404043106 14 17 10
-698.188070304281 -271.484276219443 2445.16276491664 14 17 10
-713.422666663682 -277.811205395842 2530.88053537861 14 17 10
-696.861886663244 -274.963183297239 2501.91367761119 17 20 13
-686.469739824956 -275.887894526467 2526.95241447022 10 13 6
-681.709801130619 -276.500551628192 2541.43534506832 6 9 2
-679.168365480787 -277.799761394861 2564.65992344819 7 10 3
-665.992186092828 -275.883776693014 2547.19268153173 7 10 3
-652.428410092908 -273.819313937608 2527.7441041465 11 14 7
-652.488602653948 -275.953296591419 2561.69356418006 15 18 11
-656.273580262481 -279.299240842999 2611.26414250567 13 16 9
-652.841517798046 -280.430114912545 2632.69190777658 17 20 13
-658.589858802433 -284.5192043231 2692.15963055384 20 23 16
-862.182523024978 -285.228342539504 2371.74097200506 24 26 15
-852.943779462935 -284.51997165686 2369.81791241369 22 24 13
-847.88835715494 -284.877215764987 2380.16074106334 14 16 5
-841.205970453736 -284.823843066495 2385.79265317814 18 21 10
-836.081816133544 -285.17831422111 2396.16091827804 17 20 9
-817.184591024612 -281.94096299268 2364.87243124946 14 17 8
-806.210853000887 -280.748179824997 2357.21671825338 14 17 8
-801.433130464662 -281.185422331223 2368.51916837764 14 17 8
-800.26233735614 -282.596364966622 2391.2375647304 14 17 8
-793.853077226825 -282.622767274762 2397.83077679031 14 17 8
-788.321502199881 -282.891613238877 2407.28672314811 13 16 9
-783.051161485735 -283.240007649597 2417.70830744966 12 15 8
-777.152037223311 -283.424993895453 2426.23756936003 12 15 8
-758.394376764128 -280.054002172734 2392.77534416675 13 16 9
-751.391750782093 -279.918180702293 2397.46302158751 14 17 10
-744.95240015257 -279.943134126098 2404.06753028206 13 16 9
-744.170134174981 -281.577006327544 2429.82760845779 9 12 5
-732.2951771464 -280.070918983008 2418.25624791117 9 12 5
-723.285149374173 -279.370715010532 2416.24972538291 10 13 6
-712.644528303038 -278.190367401356 2408.47178589993 11 14 7
-697.683706233581 -275.730867078961 2385.29413477732 12 15 8
-712.744045622956 -284.088853197409 2498.65446946631 11 14 7
-700.96611243999 -282.586318287401 2487.0478427813 14 17 10
-713.75552302678 -288.497243238736 2565.15221642992 15 18 11
-690.942649571574 -283.648926650028 2513.00877458687 18 21 14
-684.689623259714 -283.819385856005 2521.66771849076 12 15 8
