ply
format ascii 1.0
comment KinectMotionCapture
element vertex 784
property float x
property float y
property float z
property uchar red
property uchar green
property uchar blue
end_header
-839.256584644318 -335.547804832459 2461.99989318848 20 23 14
-834.968328475952 -336.518406867981 2469.00010108948 19 22 13
-832.319676876068 -338.171005249023 2480.99994659424 17 20 11
-831.603169441223 -340.642035007477 2499.00007247925 16 19 10
-824.848175048828 -340.659916400909 2499.00007247925 15 18 9
-808.599710464478 -336.724698543549 2470.00002861023 15 18 9
-805.494606494904 -338.242769241333 2480.99994659424 17 19 8
-801.364421844482 -339.352339506149 2489.00008201599 18 19 11
-794.317364692688 -339.235126972198 2487.99991607666 18 19 11
-789.808392524719 -340.209126472473 2494.99988555908 18 19 11
-784.00593996048 -340.638041496277 2497.99990653992 18 19 11
-774.453401565552 -339.430868625641 2489.00008201599 22 23 15
-777.595639228821 -343.815386295319 2520.99990844727 14 15 7
-789.431214332581 -352.156013250351 2582.00001716614 23 24 18
-773.360013961792 -348.085761070251 2552.00004577637 14 15 9
-1091.08746051788 -356.706231832504 2568.00007820129 26 29 20
-1117.87545681 -367.816865444183 2648.00000190735 25 28 17
-1119.48418617249 -370.732992887497 2668.99991035461 31 34 23
-1074.72515106201 -358.231693506241 2578.9999961853 18 21 10
-1069.37420368195 -358.788102865219 2582.99994468689 21 24 15
-1038.91503810883 -350.872129201889 2526.00002288818 18 21 12
-1030.01320362091 -350.179851055145 2520.99990844727 16 19 10
-1023.98180961609 -350.460678339005 2523.00000190735 17 20 11
-1028.82635593414 -354.492694139481 2552.00004577637 18 21 14
-1024.3057012558 -355.330646038055 2558.00008773804 15 18 11
-1014.58370685577 -354.363411664963 2551.00011825562 13 16 9
-1001.74129009247 -352.285504341125 2536.00001335144 8 11 4
-997.220456600189 -353.125512599945 2542.00005531311 7 9 4
-993.0579662323 -354.105085134506 2549.00002479553 8 10 5
-990.406572818756 -355.640977621078 2559.99994277954 8 10 5
-965.799450874329 -349.258869886398 2513.99993896484 12 15 6
-923.018157482147 -338.579475879669 2437.00003623962 18 21 12
-911.907196044922 -336.922019720078 2424.99995231628 18 21 10
-899.368941783905 -334.709256887436 2408.99991989136 17 20 9
-894.331037998199 -335.275828838348 2413.00010681152 15 18 7
-894.423425197601 -337.788254022598 2430.99999427795 17 20 9
-888.575673103333 -338.078051805496 2433.00008773804 17 20 9
-884.89294052124 -339.202135801315 2440.99998474121 17 21 7
-878.649234771729 -339.354038238525 2441.99991226196 20 24 10
-873.472154140472 -339.923411607742 2446.00009918213 21 24 13
-861.540496349335 -337.852656841278 2430.99999427795 25 28 19
-851.800739765167 -336.61612868309 2421.99993133545 26 29 20
-845.949053764343 -336.908787488937 2424.00002479553 23 26 17
-842.164754867554 -338.035881519318 2431.99992179871 21 24 15
-841.086447238922 -340.275526046753 2447.99995422363 21 24 15
-839.92201089859 -342.515826225281 2463.99998664856 20 23 14
-833.260595798492 -342.532455921173 2463.99998664856 19 22 13
-834.650576114655 -345.885962247849 2487.99991607666 17 20 11
-829.255938529968 -346.459716558456 2492.00010299683 16 19 10
-823.839843273163 -347.033828496933 2496.00005149841 15 18 9
-811.200261116028 -344.54944729805 2477.9999256134 15 18 9
-809.047162532806 -346.514761447906 2492.00010299683 17 18 10
-801.023244857788 -345.977544784546 2487.99991607666 18 19 11
-793.021023273468 -345.440655946732 2483.99996757507 18 19 11
-788.838982582092 -346.572905778885 2492.00010299683 18 19 11
-785.555005073547 -348.122805356979 2503.00002098084 18 19 11
-779.100120067596 -348.282247781754 2503.99994850159 21 22 14
-766.470909118652 -345.660090446472 2484.99989509583 11 12 4
-781.460523605347 -355.557501316071 2555.99999427795 23 24 18
-1091.0896062851 -363.686561584473 2568.00007820129 25 28 19
-1116.18840694427 -374.447852373123 2644.00005340576 24 27 18
-1116.12939834595 -376.854300498962 2661.00001335144 23 26 17
-1102.22852230072 -374.588042497635 2644.99998092651 23 26 17
-1073.51315021515 -367.224276065826 2592.99993515015 20 23 12
-1061.53416633606 -365.526139736176 2581.00008964539 19 22 11
-1036.13936901093 -359.155178070068 2536.00001335144 17 20 11
-1038.99526596069 -362.556934356689 2559.99994277954 15 18 9
-1036.48209571838 -364.118427038193 2571.00009918213 12 15 6
-1019.09530162811 -360.440462827683 2545.00007629395 10 13 6
-1011.39652729034 -360.162198543549 2542.99998283386 10 13 6
-1002.13027000427 -359.318047761917 2536.99994087219 10 12 7
-998.782753944397 -360.59907078743 2546.0000038147 10 12 7
-998.115062713623 -362.872302532196 2562.00003623962 8 10 5
-996.201634407043 -364.721387624741 2575.00004768372 7 9 4
-991.145789623261 -365.437984466553 2579.99992370605 7 9 4
-942.578256130219 -350.007623434067 2470.99995613098 15 17 12
-923.766136169434 -345.484137535095 2438.99989128113 17 20 13
-908.888876438141 -342.377513647079 2417.00005531311 17 20 13
-898.985147476196 -341.112852096558 2407.99999237061 17 20 13
-895.061254501343 -342.115163803101 2414.99996185303 17 20 11
-893.675804138184 -344.109803438187 2428.99990081787 19 22 11
-887.467861175537 -344.263404607773 2430.0000667572 19 22 11
-883.792757987976 -345.409214496613 2437.99996376038 20 23 12
-879.715442657471 -346.413940191269 2444.9999332428 21 24 13
-875.243842601776 -347.27755188942 2450.99997520447 23 26 15
-861.172080039978 -344.316065311432 2430.0000667572 26 29 20
-850.731134414673 -342.771649360657 2418.99991035461 27 30 21
-847.330093383789 -344.06179189682 2427.99997329712 23 26 17
-842.495679855347 -344.785541296005 2433.00008773804 23 26 17
-841.414034366608 -347.068727016449 2448.99988174438 20 23 14
-839.564621448517 -349.069178104401 2463.00005912781 20 23 14
-840.345144271851 -352.20393538475 2484.99989509583 20 23 14
-832.955896854401 -351.937770843506 2483.00004005432 18 21 12
-826.908707618713 -352.238953113556 2484.99989509583 18 21 12
-817.880570888519 -351.264744997025 2477.9999256134 18 21 12
-812.163829803467 -351.70841217041 2480.99994659424 18 21 12
-808.054208755493 -352.861315011978 2489.00008201599 17 20 13
-801.003992557526 -352.738738059998 2487.99991607666 17 20 11
-795.236110687256 -353.183597326279 2490.9999370575 17 20 11
-788.502395153046 -353.203415870667 2490.9999370575 17 20 9
-778.31643819809 -351.663827896118 2480.00001907349 17 20 9
-771.923363208771 -351.826012134552 2480.99994659424 22 25 16
-781.871676445007 -359.504789113998 2535.00008583069 24 27 18
-766.152501106262 -355.413317680359 2506.00004196167 14 17 10
-1115.31019210815 -378.89438867569 2625 23 26 17
-1117.87867546082 -382.211953401566 2648.00000190735 24 27 18
-1111.5163564682 -382.499188184738 2650.00009536743 23 26 17
-1099.72822666168 -380.910843610764 2638.99993896484 24 27 18
-1075.16837120056 -374.84884262085 2596.99988365173 19 22 11
-1050.01640319824 -368.499010801315 2552.99997329712 20 23 12
-1045.94278335571 -369.511216878891 2559.99994277954 18 21 10
-1047.10936546326 -372.400641441345 2579.99992370605 11 14 5
-1029.62481975555 -368.651151657104 2553.99990081787 9 12 3
-1013.48471641541 -365.335285663605 2530.99989891052 11 14 7
-1008.60726833344 -366.061836481094 2536.00001335144 11 14 7
-1003.70442867279 -366.789072751999 2540.99988937378 11 13 8
-1001.52218341827 -368.527472019196 2552.99997329712 10 12 7
-996.939063072205 -369.400531053543 2559.00001525879 8 10 5
-997.354090213776 -372.150927782059 2578.00006866455 8 10 5
-985.374748706818 -370.282590389252 2565.00005722046 6 8 3
-942.187905311584 -356.577008962631 2470.00002861023 13 15 10
-928.680419921875 -353.987604379654 2451.99990272522 17 20 13
-907.750904560089 -348.511278629303 2414.00003433228 17 20 13
-903.827965259552 -349.532037973404 2421.0000038147 17 20 13
-896.903395652771 -349.398463964462 2420.00007629395 17 20 11
-895.135879516602 -351.286709308624 2433.00008773804 20 23 12
-886.725246906281 -350.576668977737 2427.99997329712 21 24 13
-881.242513656616 -351.022273302078 2430.99999427795 21 24 13
-875.744462013245 -351.468414068222 2434.00001525879 22 25 14
-868.802547454834 -351.337432861328 2433.00008773804 23 26 15
-856.196403503418 -348.896384239197 2415.99988937378 25 28 19
-853.530168533325 -350.499302148819 2427.00004577637 26 29 20
-851.50283575058 -352.391630411148 2440.00005722046 22 25 16
-847.328007221222 -353.41802239418 2447.00002670288 22 25 16
-842.772305011749 -354.30046916008 2453.00006866455 20 23 14
-839.548110961914 -355.761229991913 2463.00005912781 19 22 13
-833.564817905426 -356.066942214966 2464.99991416931 19 22 13
-832.602918148041 -358.539968729019 2482.00011253357 18 21 12
-824.228823184967 -357.835412025452 2476.99999809265 17 20 11
-815.551996231079 -356.986701488495 2470.99995613098 18 21 12
-809.199035167694 -357.149630784988 2471.99988365173 18 21 12
-800.568461418152 -356.301605701447 2466.00008010864 17 20 13
-801.306545734406 -359.644055366516 2489.00008201599 17 20 11
-797.451019287109 -360.964179039001 2497.99990653992 17 20 11
-788.798928260803 -360.117256641388 2492.00010299683 17 20 9
-783.945024013519 -361.004680395126 2497.99990653992 17 20 9
-779.680907726288 -362.181574106216 2506.00004196167 9 12 3
-767.971396446228 -359.890133142471 2490.00000953674 19 22 13
-762.462377548218 -360.489517450333 2493.99995803833 13 16 9
-1113.65914344788 -387.939035892487 2638.00001144409 25 28 19
-1107.74254798889 -388.378471136093 2641.00003242493 24 27 18
-1084.72669124603 -382.789433002472 2602.9999256134 24 27 18
-1052.39760875702 -373.818933963776 2542.00005531311 20 23 12
-1032.32967853546 -369.113832712173 2509.99999046326 16 19 10
-1046.75781726837 -376.762449741364 2562.00003623962 13 16 7
-1039.39521312714 -376.617729663849 2561.00010871887 15 18 9
-1029.21807765961 -375.444382429123 2552.99997329712 15 18 11
-1016.68393611908 -373.389452695847 2539.00003433228 13 16 9
-1010.98847389221 -373.835206031799 2542.00005531311 12 15 8
-1009.62364673615 -375.899463891983 2555.99999427795 10 12 7
-999.946534633636 -374.876081943512 2549.00002479553 10 12 7
-1001.99639797211 -378.265470266342 2572.00002670288 9 11 6
-994.251251220703 -377.978831529617 2569.9999332428 8 10 7
-976.914584636688 -374.015957117081 2542.99998283386 6 8 3
-961.251437664032 -370.641857385635 2519.99998092651 9 11 6
-937.381982803345 -364.032387733459 2474.99990463257 18 21 14
-919.021964073181 -359.48246717453 2444.00000572205 17 20 13
-910.537362098694 -358.757227659225 2438.99989128113 18 21 14
-905.416548252106 -359.356433153152 2443.00007820129 17 20 11
-891.813099384308 -356.572866439819 2424.00002479553 20 23 12
-883.791506290436 -355.996251106262 2420.00007629395 21 24 13
-879.417359828949 -356.891274452209 2426.00011825562 21 24 13
-868.175685405731 -354.991644620895 2413.00010681152 21 24 13
-858.790397644043 -353.828012943268 2404.99997138977 23 26 17
-851.929843425751 -353.694707155228 2404.00004386902 25 28 19
-854.21884059906 -357.38730430603 2428.99990081787 25 28 19
-854.977309703827 -360.49211025238 2450.00004768372 20 23 14
-852.506279945374 -362.273305654526 2461.99989318848 21 24 15
-841.725468635559 -360.523521900177 2450.00004768372 20 23 14
-832.714259624481 -359.509766101837 2443.00007820129 19 22 13
-829.489946365356 -360.998213291168 2453.00006866455 18 21 12
-821.850955486298 -360.573977231979 2450.00004768372 17 20 11
-821.881592273712 -363.535165786743 2470.00002861023 17 20 11
-814.213454723358 -363.111793994904 2467.00000762939 17 20 11
-807.216346263886 -362.983137369156 2466.00008010864 18 21 12
-803.471088409424 -364.326864480972 2474.99990463257 17 20 13
-796.779870986938 -364.34617638588 2474.99990463257 17 20 11
-794.558048248291 -366.426944732666 2489.00008201599 17 20 11
-788.462162017822 -366.741538047791 2490.9999370575 17 20 9
-784.552037715912 -368.087142705917 2500 17 20 9
-781.837821006775 -370.02220749855 2513.00001144409 16 19 10
-779.978275299072 -372.399508953094 2529.00004386902 24 27 18
-1105.64041137695 -392.263978719711 2618.99995803833 27 30 21
-1101.87184810638 -393.460154533386 2627.00009346008 26 29 20
-1097.22888469696 -394.357562065125 2632.99989700317 24 27 18
-1061.91956996918 -384.172588586807 2565.00005722046 22 25 14
-1060.70744991302 -386.269927024841 2578.9999961853 12 15 6
-1045.93873023987 -383.42547416687 2559.99994277954 11 14 5
-1032.49299526215 -381.031185388565 2543.99991035461 16 19 10
-1044.93713378906 -388.22340965271 2592.00000762939 16 19 12
-1034.2983007431 -386.879086494446 2582.99994468689 13 16 9
-1022.91488647461 -385.236024856567 2572.00002670288 12 15 8
-1013.17298412323 -384.192764759064 2565.00005722046 10 12 7
-1009.7473859787 -385.546743869781 2573.99988174438 9 11 6
-1005.10585308075 -386.45213842392 2579.99992370605 8 10 5
-998.885869979858 -386.759132146835 2582.00001716614 8 10 7
-983.821094036102 -383.621573448181 2561.00010871887 7 9 4
-970.77876329422 -381.233513355255 2545.00007629395 8 10 5
-943.811178207397 -373.303353786469 2492.00010299683 19 22 15
-919.012069702148 -366.122454404831 2444.00000572205 17 20 13
-912.020146846771 -365.982800722122 2443.00007820129 18 21 14
-899.475693702698 -363.596558570862 2427.00004577637 17 20 11
-888.490378856659 -361.809939146042 2414.99996185303 19 22 11
-880.127489566803 -361.072599887848 2410.00008583069 18 21 10
-875.417292118073 -361.833959817886 2414.99996185303 18 21 10
-866.723358631134 -360.947817564011 2408.99991989136 20 23 12
-854.84904050827 -358.713567256927 2394.00005340576 24 27 18
-849.435150623322 -359.176814556122 2397.0000743866 25 28 19
-850.687384605408 -362.487703561783 2418.99991035461 24 27 18
-855.659902095795 -367.447853088379 2451.99990272522 19 22 13
-851.451694965363 -368.51242184639 2459.00011062622 20 23 14
-841.70925617218 -367.17963218689 2450.00004768372 21 24 15
-835.083663463593 -367.196083068848 2450.00004768372 20 23 14
-831.16352558136 -368.411958217621 2457.99994468689 20 23 14
-825.187861919403 -368.729174137115 2460.00003814697 18 21 12
-817.538022994995 -368.297249078751 2457.00001716614 17 20 11
-814.195096492767 -369.814455509186 2467.00000762939 17 20 11
-814.39882516861 -372.98122048378 2487.99991607666 17 20 11
-807.99674987793 -373.150378465652 2489.00008201599 17 20 11
-799.657642841339 -372.420281171799 2483.99996757507 17 20 11
-790.068924427032 -371.090710163116 2474.99990463257 17 20 11
-787.175595760345 -372.91020154953 2486.99998855591 17 20 11
-786.41414642334 -375.779896974564 2506.00004196167 17 20 11
-783.683240413666 -377.750426530838 2519.00005340576 16 19 10
-775.947391986847 -377.322047948837 2516.00003242493 15 18 11
-1100.87406635284 -395.116746425629 2591.00008010864 32 35 26
-1084.53500270844 -391.758471727371 2569.00000572205 31 34 25
-1083.83762836456 -394.043505191803 2584.00011062622 25 28 19
-1092.2292470932 -399.684250354767 2621.00005149841 24 27 18
-1070.1996088028 -394.193798303604 2585.00003814697 13 16 7
-1045.90046405792 -387.789309024811 2542.99998283386 16 19 10
-1038.17439079285 -387.485295534134 2540.99988937378 15 18 9
-1034.92569923401 -388.85959982872 2549.99995231628 15 18 9
-1050.57787895203 -397.401988506317 2605.99994659424 14 17 10
-1033.89406204224 -393.745630979538 2582.00001716614 13 15 10
-1027.28486061096 -393.902331590652 2582.99994468689 12 14 9
-1021.857380867 -394.517332315445 2586.99989318848 9 11 6
-1009.74106788635 -392.540603876114 2573.99988174438 8 10 7
-1010.16330718994 -395.444720983505 2592.99993515015 7 9 6
-1003.9074420929 -395.756989717484 2595.00002861023 7 9 6
-986.885964870453 -391.799688339233 2569.00000572205 9 11 6
-942.286789417267 -379.463642835617 2487.99991607666 20 23 16
-913.36190700531 -370.474517345428 2428.99990081787 17 20 13
-904.916822910309 -369.72188949585 2424.00002479553 18 21 14
-897.982358932495 -369.579911231995 2423.00009727478 17 20 11
-887.007355690002 -367.76065826416 2411.00001335144 17 20 9
-881.941378116608 -368.382483720779 2414.99996185303 16 19 8
-877.579689025879 -369.309991598129 2421.0000038147 16 19 8
-872.107028961182 -369.780451059341 2424.00002479553 18 21 10
-861.61994934082 -368.115693330765 2413.00010681152 25 28 19
-847.294986248016 -364.773213863373 2391.00003242493 26 29 20
-845.046281814575 -366.618186235428 2403.00011634827 24 27 18
-848.316550254822 -370.905011892319 2430.99999427795 18 21 12
-853.167116641998 -375.955522060394 2463.99998664856 20 23 14
-842.723727226257 -374.293178319931 2453.00006866455 22 25 16
-836.089551448822 -374.309688806534 2453.00006866455 22 25 16
-837.571084499359 -377.989023923874 2476.99999809265 21 24 15
-833.89151096344 -379.38004732132 2486.00006103516 19 22 13
-820.847272872925 -376.498401165009 2467.00000762939 17 20 11
-809.226155281067 -374.227404594421 2451.99990272522 16 19 10
-815.689146518707 -380.351155996323 2492.00010299683 16 19 10
-807.003378868103 -379.454642534256 2486.00006103516 17 20 11
-799.315989017487 -379.016369581223 2483.00004005432 17 20 11
-791.325807571411 -378.425747156143 2479.00009155273 17 20 11
-785.256087779999 -378.751337528229 2480.99994659424 17 20 11
-785.765588283539 -382.283419370651 2503.99994850159 17 20 11
-784.283936023712 -384.900093078613 2520.99990844727 20 23 16
-787.028014659882 -389.65505361557 2552.00004577637 17 20 13
-1089.83099460602 -398.124784231186 2565.00005722046 33 36 27
-1074.40614700317 -395.016878843308 2545.00007629395 30 33 24
-1078.38714122772 -399.049639701843 2571.00009918213 21 24 15
-1073.06110858917 -399.668574333191 2575.00004768372 21 24 15
-1058.60793590546 -396.873831748962 2556.99992179871 19 22 13
-1038.90812397003 -392.062157392502 2526.00002288818 17 20 11
-1032.45306015015 -392.218112945557 2526.99995040894 15 18 11
-1025.58898925781 -392.219632863998 2526.99995040894 15 18 11
-1030.01487255096 -396.567970514297 2555.0000667572 16 19 12
-1025.48146247864 -397.502452135086 2561.00010871887 8 10 5
-1029.26898002625 -401.697278022766 2588.00005912781 8 10 5
-1015.61939716339 -401.862859725952 2588.99998664856 8 10 7
-1002.3649930954 -399.385631084442 2572.99995422363 8 10 7
-995.002031326294 -399.237424135208 2572.00002670288 8 10 7
-986.877739429474 -398.779481649399 2569.00000572205 9 11 6
-972.66811132431 -395.838499069214 2549.99995231628 8 10 5
-904.906570911407 -376.307219266891 2424.00002479553 15 18 11
-897.971510887146 -376.162469387054 2423.00009727478 16 19 10
-889.93912935257 -375.552505254745 2418.99991035461 17 20 9
-880.468726158142 -374.322116374969 2411.00001335144 16 19 8
-876.479744911194 -375.421077013016 2417.99998283386 16 19 8
-874.972224235535 -377.607583999634 2431.99992179871 18 21 10
-862.677574157715 -375.136584043503 2415.99988937378 26 29 20
-851.17894411087 -372.976571321487 2401.99995040894 24 27 18
-843.97679567337 -372.680246829987 2400.00009536743 19 22 13
-848.999321460724 -377.819508314133 2433.00008773804 19 22 13
-851.420164108276 -381.872653961182 2459.00011062622 21 24 15
-843.39451789856 -381.267517805099 2454.99992370605 22 25 16
-838.117837905884 -381.905317306519 2459.00011062622 23 26 17
-834.510385990143 -383.32012295723 2467.99993515015 22 25 16
-836.892426013947 -387.531369924545 2494.99988555908 19 22 13
-828.814446926117 -386.928200721741 2490.9999370575 18 21 12
-818.44824552536 -385.238081216812 2480.00001907349 15 18 9
-807.814359664917 -383.392840623856 2467.99993515015 14 17 8
-803.088486194611 -384.344160556793 2473.99997711182 16 19 10
-798.008561134338 -385.140597820282 2479.00009155273 16 19 10
-792.263209819794 -385.626763105392 2482.00011253357 17 20 11
-790.616035461426 -388.133227825165 2497.99990653992 18 21 12
-790.137588977814 -391.261845827103 2517.99988746643 18 21 12
-787.684500217438 -393.458843231201 2532.00006484985 18 21 12
-779.912889003754 -393.014490604401 2529.00004386902 13 16 9
-1082.18729496002 -402.255147695541 2546.99993133545 31 34 25
-1078.20904254913 -403.356641530991 2553.99990081787 29 32 23
-1080.48677444458 -406.827956438065 2575.99997520447 24 27 18
-1079.73039150238 -409.194648265839 2591.00008010864 24 27 18
-1054.88264560699 -402.402341365814 2548.00009727478 22 25 16
-1034.383893013 -397.190302610397 2515.00010490417 22 25 16
-1031.63504600525 -398.77000451088 2525.00009536743 19 22 15
-1034.11018848419 -402.403622865677 2548.00009727478 17 20 13
-1026.38399600983 -402.089834213257 2546.0000038147 15 18 11
-1014.2662525177 -400.039672851563 2532.99999237061 8 10 5
-1024.094581604 -406.67650103569 2575.00004768372 8 10 5
-1024.21700954437 -409.523844718933 2592.99993515015 8 10 7
-1016.00575447083 -409.055411815643 2589.99991416931 8 10 7
-1001.18982791901 -405.902773141861 2569.9999332428 8 10 7
-993.447363376617 -405.593723058701 2568.00007820129 7 9 6
-993.784368038177 -408.602207899094 2586.99989318848 7 9 4
-954.008936882019 -397.878915071487 2519.00005340576 11 14 7
-919.358909130096 -386.199712753296 2444.9999332428 16 19 12
-902.283370494843 -381.786733865738 2417.00005531311 14 17 10
-898.701965808868 -383.06075334549 2424.99995231628 16 19 10
-887.352645397186 -381.018191576004 2411.99994087219 16 19 8
-878.630876541138 -380.081832408905 2405.99989891052 16 19 8
-875.379860401154 -381.515711545944 2414.99996185303 17 20 9
-871.361374855042 -382.634252309799 2421.99993133545 19 22 11
-863.735258579254 -382.173597812653 2418.99991035461 27 30 21
-850.810647010803 -379.343509674072 2401.00002288818 25 28 19
-846.423864364624 -380.305737257004 2407.00006484985 22 25 16
-850.379884243011 -385.060667991638 2437.00003623962 20 23 14
-856.597781181335 -390.922546386719 2473.99997711182 22 25 16
-845.439493656158 -388.884514570236 2460.99996566772 22 25 16
-837.078511714935 -388.110935688019 2456.00008964539 22 25 16
-834.155082702637 -389.866292476654 2467.00000762939 21 24 15
-832.849621772766 -392.412513494492 2483.00004005432 18 21 12
-832.456052303314 -395.433515310287 2502.00009346008 18 21 12
-818.429589271545 -391.97501540184 2480.00001907349 15 18 9
-808.777213096619 -390.571355819702 2470.99995613098 14 17 8
-800.147593021393 -389.642238616943 2464.99991416931 15 18 9
-798.954367637634 -392.349243164063 2482.00011253357 16 19 10
-793.200373649597 -392.843574285507 2484.99989509583 17 20 11
-794.076800346375 -396.658450365067 2509.0000629425 18 21 12
-790.430128574371 -398.260623216629 2519.00005340576 18 21 12
-785.796165466309 -399.388939142227 2526.00002288818 17 20 13
-779.890894889832 -399.885267019272 2529.00004386902 20 22 17
-1081.76720142365 -409.018993377686 2546.0000038147 32 35 26
-1079.47933673859 -410.781651735306 2556.99992179871 32 35 26
-1085.10363101959 -415.597558021545 2586.99989318848 30 33 24
-1080.56581020355 -416.558831930161 2592.99993515015 30 33 24
-1063.99178504944 -412.862211465836 2569.9999332428 26 29 20
-1047.54507541656 -409.166514873505 2546.99993133545 25 28 21
-1038.98859024048 -408.524036407471 2542.99998283386 20 23 16
-1041.41402244568 -412.219882011414 2565.99998474121 16 19 12
-1024.76918697357 -408.366173505783 2542.00005531311 12 14 9
-1015.864610672 -407.565474510193 2536.99994087219 8 10 5
-1026.87442302704 -414.798200130463 2582.00001716614 8 10 5
-1018.68224143982 -414.320528507233 2578.9999961853 7 9 6
-1008.54694843292 -413.040399551392 2571.00009918213 7 9 6
-997.677445411682 -411.439716815948 2561.00010871887 6 8 7
-994.213998317719 -412.892252206802 2569.9999332428 6 8 5
-994.928956031799 -416.112810373306 2589.99991416931 5 7 4
-999.351322650909 -420.940935611725 2619.99988555908 5 7 2
-964.604079723358 -409.221112728119 2546.99993133545 5 7 2
-923.485696315765 -394.609451293945 2456.00008964539 14 17 10
-911.232590675354 -392.209053039551 2440.99998474121 14 17 10
-894.985437393188 -388.041704893112 2414.99996185303 17 20 11
-886.605739593506 -387.249141931534 2410.00008583069 16 19 8
-878.253996372223 -386.457055807114 2404.99997138977 15 18 7
-874.642670154572 -387.754648923874 2413.00010681152 18 21 10
-869.18979883194 -388.249307870865 2415.99988937378 23 26 15
-862.650454044342 -388.262420892715 2415.99988937378 23 26 17
-853.277087211609 -386.990517377853 2407.99999237061 21 24 15
-851.684033870697 -389.254748821259 2421.99993133545 19 22 13
-851.760447025299 -392.323315143585 2440.99998474121 18 21 12
-848.272264003754 -393.785297870636 2450.00004768372 19 22 13
-843.705475330353 -394.765764474869 2456.00008964539 19 22 13
-837.061822414398 -394.782334566116 2456.00008964539 18 21 12
-832.785308361053 -395.924538373947 2463.00005912781 16 19 10
-834.173262119293 -399.800270795822 2486.99998855591 15 18 9
-826.781392097473 -399.496853351593 2484.99989509583 15 18 9
-815.110802650452 -397.103935480118 2470.00002861023 14 17 8
-807.121694087982 -396.479725837708 2466.00008010864 13 16 7
-803.698718547821 -398.106902837753 2476.0000705719 13 16 7
-793.462097644806 -396.357893943787 2464.99991416931 14 17 8
-790.626525878906 -398.307651281357 2476.99999809265 15 18 9
-790.25787115097 -401.54442191124 2496.99997901917 17 20 11
-785.388171672821 -402.530431747437 2503.00002098084 17 20 11
-783.596813678741 -405.125200748444 2519.00005340576 16 18 13
-779.251873493195 -406.433880329132 2526.99995040894 11 13 8
-1081.34746551514 -415.777534246445 2545.00007629395 31 34 25
-1087.50474452972 -420.837074518204 2575.99997520447 29 32 23
-1085.10684967041 -422.630071640015 2586.99989318848 26 29 20
-1078.06766033173 -422.627031803131 2586.99989318848 24 27 18
-1075.58536529541 -424.42199587822 2598.00004959106 24 27 20
-1063.99714946747 -422.623783349991 2586.99989318848 20 23 16
-1058.5994720459 -423.276960849762 2591.00008010864 17 20 13
-1053.99405956268 -424.257785081863 2596.99988365173 11 14 7
-1026.37958526611 -415.927678346634 2546.0000038147 9 11 6
-1019.46556568146 -415.93000292778 2546.0000038147 8 10 7
-1026.0751247406 -421.487629413605 2579.99992370605 8 10 7
-1010.77795028687 -418.060928583145 2559.00001525879 7 9 6
-1002.26509571075 -417.412221431732 2555.0000667572 7 9 8
-996.113002300262 -417.744547128677 2556.99992179871 6 8 7
-992.272853851318 -419.057935476303 2565.00005722046 6 8 5
-987.23840713501 -419.881939888 2569.9999332428 6 8 5
-976.838529109955 -418.419420719147 2561.00010871887 6 8 3
-965.731203556061 -416.630774736404 2549.99995231628 6 8 3
-946.788728237152 -411.411613225937 2517.99988746643 14 17 10
-919.061899185181 -402.271509170532 2461.99989318848 15 18 11
-897.569000720978 -395.745933055878 2421.99993133545 16 19 10
-887.330293655396 -394.12260055542 2411.99994087219 16 19 8
-878.972768783569 -393.316924571991 2407.00006484985 15 18 7
-875.71769952774 -394.799500703812 2415.99988937378 19 22 11
-868.817210197449 -394.648611545563 2414.99996185303 23 26 15
-861.566066741943 -394.33491230011 2413.00010681152 22 25 16
-854.68053817749 -394.185036420822 2411.99994087219 20 23 14
-853.779315948486 -396.814197301865 2427.99997329712 18 21 12
-850.349545478821 -398.299932479858 2437.00003623962 17 20 11
-846.179127693176 -399.459421634674 2444.00000572205 18 21 12
-841.628074645996 -400.456130504608 2450.00004768372 17 20 11
-832.955181598663 -399.491846561432 2444.00000572205 15 18 9
-826.343774795532 -399.508744478226 2444.00000572205 13 16 7
-838.850975036621 -408.844083547592 2500.99992752075 13 16 7
-829.757392406464 -407.718002796173 2493.99995803833 14 17 8
-819.381952285767 -405.938386917114 2483.00004005432 13 16 7
-810.702741146088 -404.976427555084 2476.99999809265 12 15 6
-802.056133747101 -404.014825820923 2470.99995613098 13 16 7
-796.661019325256 -404.688656330109 2474.99990463257 14 17 6
-792.840421199799 -406.180590391159 2483.99996757507 15 18 7
-788.971066474915 -407.673001289368 2493.00003051758 16 19 10
-787.563145160675 -410.474181175232 2509.99999046326 17 20 11
-778.286814689636 -409.187525510788 2502.00009346008 18 20 15
-772.445619106293 -409.700125455856 2505.00011444092 9 11 6
-1093.25003623962 -427.347511053085 2572.99995422363 18 21 12
-1083.28771591187 -426.179498434067 2565.99998474121 13 16 7
-1075.04391670227 -425.676882266998 2562.99996376038 14 17 8
-1086.40515804291 -432.981133460999 2607.00011253357 11 14 5
-1073.10318946838 -430.487364530563 2592.00000762939 13 16 9
-1071.40123844147 -432.644873857498 2605.00001907349 10 13 6
-1052.87945270538 -427.99386382103 2576.99990272522 8 11 4
-1042.62936115265 -426.665514707565 2569.00000572205 7 10 3
-1028.39350700378 -423.677176237106 2551.00011825562 8 10 5
-1028.67257595062 -426.668703556061 2569.00000572205 7 9 6
-1031.63969516754 -430.823713541031 2594.00010108948 7 9 6
-1018.2785987854 -428.17011475563 2578.00006866455 8 10 7
-1006.18290901184 -426.015496253967 2565.00005722046 8 10 9
-1007.79402256012 -429.674804210663 2586.99989318848 9 11 10
-996.134757995605 -427.687913179398 2575.00004768372 9 11 8
-982.621490955353 -424.871236085892 2558.00008773804 8 10 7
-977.974653244019 -425.875395536423 2563.99989128113 8 10 5
-970.267117023468 -425.551623106003 2562.00003623962 6 8 3
-921.665191650391 -410.122513771057 2469.00010108948 15 18 11
-902.376234531403 -404.484748840332 2434.99994277954 15 18 9
-890.262544155121 -402.003675699234 2420.00007629395 16 19 8
-879.691481590271 -400.187522172928 2408.99991989136 16 19 8
-874.618172645569 -400.863856077194 2413.00010681152 18 21 10
-867.005825042725 -400.37789940834 2410.00008583069 21 24 13
-861.909747123718 -401.05539560318 2414.00003433228 21 24 15
-856.792807579041 -401.73351764679 2417.99998283386 19 22 13
-850.951790809631 -402.079969644547 2420.00007629395 18 21 12
-847.543001174927 -403.590023517609 2428.99990081787 17 20 11
-842.355072498322 -404.269993305206 2433.00008773804 17 20 11
-837.146162986755 -404.950499534607 2437.00003623962 16 19 10
-835.324108600616 -407.293289899826 2450.99997520447 14 17 8
-826.664805412292 -406.31315112114 2444.9999332428 13 16 7
-824.746251106262 -408.657222986221 2459.00011062622 14 17 8
-830.071628093719 -414.658188819885 2494.99988555908 15 18 9
-819.693088531494 -412.848681211472 2483.99996757507 16 19 10
-814.283609390259 -413.532555103302 2487.99991607666 15 18 9
-804.308593273163 -411.889910697937 2477.9999256134 15 18 7
-800.18162727356 -413.239628076553 2486.00006103516 15 18 7
-796.011626720428 -414.58985209465 2493.99995803833 16 19 8
-794.329941272736 -417.270570993423 2509.99999046326 16 19 10
-782.835304737091 -414.798140525818 2494.99988555908 16 19 10
-778.576135635376 -416.149824857712 2503.00002098084 16 18 13
-780.440628528595 -420.827358961105 2530.99989891052 12 14 9
-1097.08034992218 -435.862690210342 2582.00001716614 13 16 7
-1084.98156070709 -433.831065893173 2569.9999332428 9 12 3
-1073.37021827698 -431.969374418259 2559.00001525879 13 16 7
-1070.15597820282 -433.484762907028 2568.00007820129 11 14 5
-1072.27730751038 -437.195420265198 2589.99991416931 9 12 3
-1066.87831878662 -437.868684530258 2594.00010108948 8 11 4
-1061.45977973938 -438.542872667313 2598.00004959106 8 11 4
-1049.52824115753 -436.517119407654 2585.99996566772 8 11 4
-1041.29242897034 -436.011523008347 2582.99994468689 8 10 5
-1037.87982463837 -437.53245472908 2592.00000762939 6 8 3
-1028.45478057861 -436.522215604782 2585.99996566772 7 9 4
-1018.66948604584 -435.344040393829 2578.9999961853 8 10 7
-1021.47662639618 -439.568430185318 2604.00009155273 9 11 8
-1015.57958126068 -440.079987049103 2607.00011253357 9 11 8
-1001.54411792755 -437.047392129898 2588.99998664856 10 12 9
-986.071407794952 -433.340221643448 2566.99991226196 8 10 5
-982.925117015839 -435.035824775696 2576.99990272522 8 10 5
-977.832615375519 -435.888141393662 2582.00001716614 6 8 3
-964.818239212036 -433.196008205414 2565.99998474121 10 13 6
-922.028720378876 -416.998445987701 2470.00002861023 14 17 10
-905.701279640198 -412.61887550354 2444.00000572205 14 17 8
-906.437993049622 -416.006058454514 2463.99998664856 16 19 8
-889.539659023285 -411.289930343628 2436.00010871887 16 19 8
-871.344029903412 -405.898690223694 2404.00004386902 18 21 10
-862.67614364624 -404.897809028625 2398.00000190735 20 23 12
-858.326077461243 -405.9237241745 2404.00004386902 19 22 13
-856.070339679718 -407.963454723358 2415.99988937378 17 20 11
-849.530875682831 -407.977491617203 2415.99988937378 16 19 10
-846.132338047028 -409.511923789978 2424.99995231628 16 19 10
-840.954661369324 -410.202592611313 2428.99990081787 16 19 10
-845.030725002289 -415.453791618347 2460.00003814697 14 17 8
-834.285080432892 -413.443595170975 2447.99995422363 14 17 8
-830.028533935547 -414.642721414566 2454.99992370605 14 17 8
-822.04532623291 -413.984566926956 2450.99997520447 15 18 9
-819.407224655151 -416.029453277588 2463.00005912781 16 19 10
-818.684339523315 -419.088423252106 2480.99994659424 17 20 11
-811.973333358765 -419.107437133789 2480.99994659424 17 20 11
-808.832943439484 -420.985221862793 2492.00010299683 16 19 8
-803.380191326141 -421.680986881256 2496.00005149841 16 19 10
-798.54428768158 -422.715216875076 2502.00009346008 16 19 10
-792.093694210052 -422.905057668686 2503.00002098084 16 19 10
-785.323858261108 -422.926366329193 2503.00002098084 15 18 9
-777.932047843933 -422.610104084015 2500.99992752075 18 21 14
-1106.00996017456 -446.485430002213 2602.9999256134 22 25 18
-1083.72068405151 -440.304040908813 2566.99991226196 21 24 15
-1070.85812091827 -437.897384166718 2552.99997329712 11 14 3
-1068.49265098572 -439.779818058014 2563.99989128113 10 13 2
-1066.89786911011 -442.006170749664 2576.99990272522 12 15 6
-1067.29137897491 -445.091187953949 2595.00002861023 11 14 5
-1061.86902523041 -445.775777101517 2598.99997711182 12 15 6
-1059.26847457886 -447.661995887756 2609.99989509583 12 15 6
-1050.5633354187 -446.976363658905 2605.99994659424 10 13 6
-1031.07082843781 -441.660642623901 2575.00004768372 10 13 6
-1018.50950717926 -439.261585474014 2561.00010871887 10 13 6
-1016.69085025787 -441.494435071945 2573.99988174438 11 14 7
-1015.98024368286 -444.242715835571 2589.99991416931 10 12 7
-1014.79494571686 -446.82040810585 2605.00001907349 9 11 6
-1006.56700134277 -446.31153345108 2601.99999809265 8 10 5
-997.204422950745 -445.288836956024 2595.99995613098 8 11 4
-986.350238323212 -443.580806255341 2585.99996566772 9 12 5
-983.126044273376 -445.304155349731 2595.99995613098 9 12 5
-976.088881492615 -445.312947034836 2595.99995613098 9 12 5
-913.473308086395 -422.860324382782 2464.99991416931 13 16 7
-898.702025413513 -419.096708297729 2443.00007820129 14 17 8
-885.146260261536 -415.848165750504 2424.00002479553 15 18 9
-871.694624423981 -412.600129842758 2404.99997138977 17 20 11
-863.74294757843 -411.925941705704 2401.00002288818 19 22 11
-860.098123550415 -413.311153650284 2408.99991989136 17 23 13
-859.954237937927 -416.412889957428 2427.00004577637 16 22 12
-854.790925979614 -417.113214731216 2430.99999427795 14 20 10
-850.304484367371 -418.157368898392 2437.00003623962 12 18 8
-849.594473838806 -421.089619398117 2453.9999961853 12 18 8
-844.671070575714 -421.963453292847 2459.00011062622 12 18 8
-841.084241867065 -423.524260520935 2467.99993515015 13 19 9
-833.730399608612 -423.198044300079 2466.00008010864 14 20 10
-824.040055274963 -421.671003103256 2457.00001716614 16 22 12
-818.390965461731 -422.203779220581 2460.00003814697 16 22 12
-813.385963439941 -423.080325126648 2464.99991416931 15 21 11
-810.645163059235 -425.158977508545 2476.99999809265 14 20 10
-806.216537952423 -426.379948854446 2483.99996757507 17 20 11
-801.750600337982 -427.601486444473 2490.9999370575 18 19 13
-794.69358921051 -427.450299263 2490.00000953674 18 19 11
-788.275063037872 -427.64276266098 2490.9999370575 18 19 11
-781.537413597107 -427.664071321487 2490.9999370575 19 20 12
-779.776394367218 -430.432766675949 2506.99996948242 10 11 3
-1108.56652259827 -454.608887434006 2608.99996757507 21 24 17
-1090.0593996048 -449.897319078445 2582.00001716614 15 18 9
-1071.702003479 -445.186913013458 2555.0000667572 23 26 15
-1078.91499996185 -451.106250286102 2588.99998664856 12 15 4
-1073.939204216 -451.973646879196 2594.00010108948 15 18 9
-1061.94674968719 -449.879944324493 2582.00001716614 14 17 8
-1065.95611572266 -454.582452774048 2608.99996757507 14 17 8
-1066.57409667969 -457.892060279846 2628.00002098084 15 18 9
-1046.12815380096 -452.142268419266 2595.00002861023 13 16 9
-1026.66461467743 -446.741938591003 2563.99989128113 13 16 9
-1015.7231092453 -445.001393556595 2553.99990081787 12 15 8
-1009.97281074524 -445.526838302612 2556.99992179871 11 14 7
-1009.30738449097 -448.318272829056 2572.99995422363 10 12 7
-1003.49295139313 -448.845475912094 2575.99997520447 10 12 7
-1015.45834541321 -457.388758659363 2625 10 12 7
-1005.64849376678 -456.175297498703 2618.00003051758 11 13 8
-990.538239479065 -452.523082494736 2596.99988365173 11 13 8
-984.253823757172 -452.879369258881 2598.99997711182 9 11 6
-983.223855495453 -455.676078796387 2615.00000953674 8 10 5
-969.416677951813 -452.548772096634 2596.99988365173 10 13 6
-889.151692390442 -424.349337816238 2434.99994277954 13 16 9
-871.68288230896 -419.13253068924 2404.99997138977 14 17 8
-865.889012813568 -419.493079185486 2407.00006484985 15 18 9
-859.01415348053 -419.33137178421 2405.99989891052 15 18 9
-858.16890001297 -422.133237123489 2421.99993133545 16 19 10
-860.050916671753 -426.330238580704 2446.00009918213 17 20 11
-859.361231327057 -429.307907819748 2463.00005912781 19 22 13
-848.886430263519 -427.405714988709 2451.99990272522 20 23 14
-842.937469482422 -427.770167589188 2453.9999961853 20 23 14
-838.341295719147 -428.83238196373 2460.00003814697 20 23 14
-836.41791343689 -431.289851665497 2473.99997711182 20 23 14
-829.723834991455 -431.307345628738 2473.99997711182 19 22 13
-823.362827301025 -431.499630212784 2474.99990463257 18 21 12
-816.996991634369 -431.692510843277 2476.0000705719 14 17 8
-814.225733280182 -433.803766965866 2487.99991607666 13 16 7
-806.196928024292 -433.125823736191 2483.99996757507 13 16 9
-801.408588886261 -434.192001819611 2490.00000953674 14 15 9
-794.034719467163 -433.863669633865 2487.99991607666 15 16 10
-786.355435848236 -433.361321687698 2484.99989509583 16 17 9
-781.829655170441 -434.603333473206 2492.00010299683 18 18 10
-784.41995382309 -439.8572742939 2522.0000743866 12 13 7
-1086.26639842987 -455.325335264206 2572.99995422363 18 20 15
-1081.77447319031 -456.380784511566 2578.9999961853 14 17 10
-1085.5872631073 -460.976362228394 2605.00001907349 17 20 11
-1077.25489139557 -460.441082715988 2601.99999809265 17 20 11
-1068.52996349335 -459.729999303818 2598.00004959106 15 18 9
-1062.68906593323 -460.258483886719 2601.0000705719 15 18 9
-1065.35720825195 -464.504092931747 2625 16 19 10
-1039.67773914337 -456.363826990128 2578.9999961853 15 18 11
-1019.85633373261 -450.701832771301 2546.99993133545 14 17 10
-1013.73255252838 -451.057225465775 2549.00002479553 13 16 9
-1014.31465148926 -454.421788454056 2568.00007820129 11 14 7
-1002.24268436432 -452.12459564209 2555.0000667572 11 13 8
-1000.37181377411 -454.42920923233 2568.00007820129 12 14 9
-1001.52635574341 -458.150297403336 2588.99998664856 13 15 10
-997.191190719604 -459.394931793213 2595.99995613098 11 13 8
-995.10794878006 -461.702167987823 2608.99996757507 11 13 8
-988.032758235931 -461.709767580032 2608.99996757507 10 12 7
-985.094785690308 -463.664799928665 2619.99988555908 9 11 6
-971.646785736084 -460.665374994278 2602.9999256134 9 12 5
-946.434140205383 -452.003300189972 2553.99990081787 15 18 11
-906.773805618286 -436.262279748917 2464.99991416931 14 17 10
-887.314975261688 -430.078476667404 2430.0000667572 13 16 9
-874.933302402496 -427.257895469666 2414.00003433228 13 16 7
-863.358795642853 -424.791753292084 2400.00009536743 14 17 8
-860.072374343872 -426.397144794464 2408.99991989136 14 17 8
-854.966640472412 -427.118271589279 2413.00010681152 15 18 9
-860.388278961182 -433.150351047516 2447.00002670288 17 20 11
-858.299553394318 -435.466051101685 2460.00003814697 20 23 14
-850.94827413559 -435.127109289169 2457.99994468689 20 23 14
-841.891050338745 -433.903634548187 2450.99997520447 20 23 14
-839.687824249268 -436.221271753311 2463.99998664856 19 22 13
-837.076842784882 -438.362628221512 2476.0000705719 18 21 12
-831.718266010284 -439.088225364685 2480.00001907349 17 20 11
-827.336609363556 -440.345615148544 2486.99998855591 15 18 9
-822.257578372955 -441.249489784241 2492.00010299683 12 15 6
-819.115281105042 -443.216323852539 2503.00002098084 11 14 5
-808.44908952713 -441.110968589783 2490.9999370575 11 14 7
-803.319454193115 -442.016392946243 2496.00005149841 13 14 8
-798.801124095917 -443.27649474144 2503.00002098084 15 16 10
-787.916600704193 -440.995097160339 2490.00000953674 16 17 9
-781.180739402771 -441.016346216202 2490.00000953674 18 18 10
-782.220602035522 -445.466071367264 2515.00010490417 13 14 8
-1084.16271209717 -461.423456668854 2568.00007820129 12 14 11
-1096.88115119934 -469.861537218094 2615.00000953674 22 24 19
-1089.75970745087 -469.855576753616 2615.00000953674 26 29 22
-1078.50086688995 -468.053966760635 2605.00001907349 17 20 11
-1065.65392017365 -465.534716844559 2591.00008010864 14 17 8
-1058.19690227509 -465.352296829224 2589.99991416931 14 17 8
-1053.58850955963 -466.428458690643 2595.99995613098 15 18 9
-1039.27481174469 -463.193655014038 2578.00006866455 14 17 10
-1017.45307445526 -456.545919179916 2540.99988937378 14 17 10
-1014.12844657898 -458.164066076279 2549.99995231628 13 16 9
-1023.00143241882 -465.352952480316 2589.99991416931 11 14 7
-1016.75307750702 -465.715289115906 2592.00000762939 11 13 8
-1001.14631652832 -461.766183376312 2569.9999332428 13 15 10
-998.813331127167 -463.927000761032 2582.00001716614 14 16 11
-1001.41048431396 -468.424558639526 2607.00011253357 9 11 8
-991.286933422089 -466.993510723114 2598.99997711182 8 10 7
-991.433322429657 -470.414727926254 2618.00003051758 8 10 7
-983.582258224487 -470.063477754593 2615.9999370575 9 11 6
-971.637487411499 -467.73636341095 2602.9999256134 8 10 5
-949.388742446899 -460.378497838974 2562.00003623962 11 13 8
-910.442054271698 -444.754898548126 2474.99990463257 14 17 10
-871.659934520721 -432.197213172913 2404.99997138977 15 18 11
-864.066243171692 -431.66971206665 2401.99995040894 14 17 10
-864.700973033905 -435.276240110397 2421.99993133545 14 15 7
-863.456785678864 -437.985092401505 2437.00003623962 14 15 7
-862.835347652435 -441.054135560989 2453.9999961853 15 16 8
-859.331429004669 -442.686080932617 2463.00005912781 15 16 8
-856.125771999359 -444.498509168625 2473.00004959106 15 16 8
-848.057866096497 -443.795174360275 2469.00010108948 14 15 7
-843.419909477234 -444.889903068542 2474.99990463257 11 12 4
-838.41198682785 -445.805490016937 2480.00001907349 11 12 4
-833.377420902252 -446.721643209457 2484.99989509583 11 12 4
-830.312371253967 -448.717147111893 2496.00005149841 11 12 4
-824.218451976776 -449.095189571381 2497.99990653992 11 12 4
-824.986279010773 -453.249394893646 2520.99990844727 11 12 4
-813.621938228607 -450.751960277557 2506.99996948242 9 12 5
-804.264724254608 -449.333548545837 2499.00007247925 12 13 7
-796.546578407288 -448.8146007061 2496.00005149841 14 15 9
-793.907642364502 -451.173156499863 2509.0000629425 14 15 7
-787.747323513031 -451.554149389267 2510.99991798401 15 15 7
-783.442676067352 -453.014761209488 2519.00005340576 12 13 7
-1080.94835281372 -470.040917396545 2576.99990272522 14 19 13
-1068.92859935761 -467.84582734108 2565.00005722046 18 23 16
-1068.155169487 -470.576375722885 2579.99992370605 18 21 12
-1056.60891532898 -468.565791845322 2569.00000572205 15 18 9
-1055.33933639526 -471.116065979004 2582.99994468689 14 17 8
-1051.56087875366 -472.572982311249 2591.00008010864 15 18 9
-1043.70975494385 -472.206860780716 2588.99998664856 15 18 11
-1024.66011047363 -466.734915971756 2559.00001525879 15 18 11
-1022.0810174942 -468.741863965988 2569.9999332428 14 17 10
-1021.81422710419 -471.844166517258 2586.99989318848 12 15 8
-1010.86580753326 -470.022737979889 2576.99990272522 11 13 8
-1007.76469707489 -471.850126981735 2586.99989318848 11 13 8
-1018.15009117126 -480.062246322632 2631.99996948242 11 13 8
-1003.70919704437 -476.601958274841 2612.99991607666 9 11 8
-1001.57821178436 -478.979289531708 2625.99992752075 7 9 6
-984.987914562225 -474.426299333572 2601.0000705719 7 9 6
-980.941951274872 -475.893259048462 2608.99996757507 8 10 7
-971.628367900848 -474.807411432266 2602.9999256134 7 9 6
-953.102767467499 -472.637921571732 2591.00008010864 9 11 6
-874.185800552368 -440.006405115128 2411.99994087219 16 18 13
-870.529413223267 -441.477328538895 2420.00007629395 13 15 10
-869.686663150787 -444.408357143402 2436.00010871887 14 15 7
-870.529592037201 -448.252439498901 2457.00001716614 14 14 6
-864.579439163208 -448.630958795547 2459.00011062622 14 14 6
-860.3635430336 -449.922323226929 2466.00008010864 13 13 5
-857.841312885284 -452.126652002335 2477.9999256134 13 13 5
-855.941951274872 -454.696714878082 2492.00010299683 14 14 6
-851.581990718842 -455.990225076675 2499.00007247925 12 12 4
-846.508383750916 -456.919401884079 2503.99994850159 12 12 4
-842.414498329163 -458.396762609482 2512.00008392334 12 12 4
-832.622587680817 -456.772297620773 2503.00002098084 12 12 4
-820.90026140213 -454.053312540054 2487.99991607666 13 13 5
-815.804243087769 -454.984724521637 2493.00003051758 12 13 5
-808.734238147736 -454.821676015854 2492.00010299683 12 15 8
-804.244577884674 -456.119209527969 2499.00007247925 15 16 8
-796.845078468323 -455.774545669556 2496.99997901917 16 17 9
-794.835686683655 -458.533406257629 2512.00008392334 16 17 9
-790.549218654633 -460.015177726746 2519.99998092651 16 16 8
-787.774622440338 -462.410241365433 2532.99999237061 5 6 0
-1061.24079227448 -468.347877264023 2529.99997138977 15 20 16
-1063.10033798218 -472.228527069092 2551.00011825562 15 20 14
-1061.94996833801 -474.814265966415 2565.00005722046 16 19 10
-1060.72592735291 -477.401047945023 2578.9999961853 14 17 8
-1053.70807647705 -477.397322654724 2578.9999961853 13 16 7
-1057.65068531036 -482.392549514771 2605.99994659424 15 18 9
-1043.71070861816 -479.243934154511 2588.99998664856 17 20 13
-1029.86550331116 -476.096391677856 2572.00002670288 19 22 15
-1034.40880775452 -481.464803218842 2601.0000705719 15 18 11
-1023.78726005554 -479.800015687943 2592.00000762939 8 11 4
-1011.25538349152 -477.210640907288 2578.00006866455 9 11 6
-1012.43555545807 -481.101006269455 2598.99997711182 10 12 7
-1011.9560956955 -484.251856803894 2615.9999370575 6 8 3
-1016.76392555237 -489.995330572128 2647.0000743866 8 10 9
-993.180990219116 -482.041209936142 2604.00009155273 8 10 7
-981.193780899048 -479.641258716583 2591.00008010864 8 10 7
-974.542319774628 -479.83381152153 2592.00000762939 7 9 6
-976.098835468292 -484.099864959717 2615.00000953674 6 8 5
-975.679099559784 -487.441271543503 2632.99989700317 6 8 5
-881.060898303986 -450.0752389431 2430.99999427795 15 17 12
-871.596813201904 -448.605388402939 2423.00009727478 11 13 8
-877.171397209167 -454.912424087524 2457.00001716614 9 12 5
-868.390560150146 -453.814268112183 2450.99997520447 13 13 5
-865.268647670746 -455.679208040237 2460.99996566772 13 13 5
-855.81362247467 -454.212039709091 2453.00006866455 12 12 4
-856.7875623703 -458.300352096558 2474.99990463257 13 13 5
-852.834761142731 -459.797233343124 2483.00004005432 14 14 6
-848.157823085785 -460.924357175827 2489.00008201599 15 15 7
-840.744376182556 -460.570573806763 2486.99998855591 15 15 7
-839.713931083679 -463.736146688461 2503.99994850159 16 16 8
-829.943358898163 -462.087154388428 2494.99988555908 17 17 9
-821.541607379913 -461.179435253143 2490.00000953674 16 16 8
-812.185645103455 -459.716498851776 2482.00011253357 14 15 7
-803.846716880798 -458.809584379196 2476.99999809265 16 19 12
-802.615225315094 -461.978286504745 2493.99995803833 18 19 11
-798.73913526535 -463.665753602982 2503.00002098084 20 21 13
-791.333973407745 -463.316082954407 2500.99992752075 23 24 16
-783.939778804779 -462.966829538345 2499.00007247925 22 21 16
-778.42253446579 -463.729560375214 2503.00002098084 5 6 1
-1062.08741664886 -475.603640079498 2532.00006484985 16 21 17
-1062.69025802612 -478.977292776108 2549.99995231628 12 17 11
-1066.50984287262 -483.854621648788 2575.99997520447 16 19 10
-1061.55323982239 -484.788447618485 2581.00008964539 15 18 9
