ply
format ascii 1.0
comment KinectMotionCapture
element vertex 778
property float x
property float y
property float z
property uchar red
property uchar green
property uchar blue
end_header
-983.521660426386 -102.271547919432 2182.529711458 20 23 14
-976.664962327585 -102.007058686837 2186.10777405448 21 24 15
-971.702556317752 -101.849301690027 2194.32229726547 18 21 12
-958.028019551597 -101.201676868707 2181.20690677663 16 19 10
-939.192276628695 -100.261556089969 2155.05604105277 17 20 11
-940.619467931892 -100.46461705984 2179.05474117826 16 19 10
-939.709809445398 -100.537505318099 2197.51248229531 16 19 10
-927.697640714264 -99.9816834195777 2188.05264364789 18 21 12
-915.751961244104 -99.4286684534811 2178.56843516747 16 19 10
-900.976626846922 -98.7132869334592 2161.59163889395 25 28 19
-889.543998711753 -98.1872440086544 2152.98554075001 20 23 14
-882.45553741483 -97.909144283914 2155.58202801078 27 30 21
-872.886674486588 -97.4888019323978 2151.62406849511 25 28 19
-872.850974861594 -97.6166380612271 2172.96004464971 31 34 25
-871.664875725829 -97.6802113972543 2191.51892986197 22 25 18
-862.765853984676 -97.2996207105299 2189.44795934105 20 23 16
-863.525788979285 -97.4785992817872 2213.69091579733 18 21 14
-856.99642583999 -97.2364752681277 2218.21465975083 18 21 14
-852.151399432494 -97.0928608359151 2227.45227800778 20 23 16
-840.543598476349 -96.5551945403405 2217.84414749266 20 23 16
-833.007975507396 -96.2548417090544 2219.53822817678 17 20 13
-838.394651643092 -96.7131078448585 2258.07865821683 20 23 16
-828.140222165541 -96.2549153237802 2252.23927985022 20 23 16
-815.323657406019 -95.6448113212206 2238.80932490501 21 24 17
-814.240660548859 -95.7273867768684 2259.46268222736 17 20 13
-809.529976589337 -95.5969115874751 2269.71705368838 13 16 9
-805.415216278389 -95.5029270545044 2281.88551721011 18 21 14
-797.775622594611 -95.1998656952549 2283.61757872225 23 26 19
-1063.67663990649 -113.65868822865 2212.278691802 25 28 17
-1013.68577031802 -110.882841812139 2136.78813331715 18 21 12
-1021.64837974618 -111.541425668008 2174.37726145717 21 24 15
-1023.48676479899 -111.822103561201 2198.22070313046 21 24 15
-1003.60921895473 -110.745913010681 2171.39181967115 18 21 12
-994.038343153237 -110.313027884169 2168.50234842302 18 21 12
-983.335008034952 -109.808364134494 2162.82958066249 20 23 14
-980.376895007913 -109.79133747267 2175.63854043189 22 25 16
-976.979454294263 -109.748076134227 2187.54254765936 22 25 16
-969.35198742042 -109.438044726289 2189.27072894734 19 22 13
-958.333737006591 -108.912574267147 2182.64739540218 17 20 11
-954.11110889361 -108.819113037057 2192.72164508314 18 21 12
-932.356527785341 -107.606632979003 2159.11864001471 17 20 11
-925.584822197845 -107.349291589472 2162.6652823238 17 20 11
-919.90861725021 -107.162629238689 2169.00822397548 18 21 12
-909.838417130834 -106.693634247596 2164.16953377071 18 21 12
-897.275920602393 -106.062787036835 2152.7819438788 18 21 12
-895.209925999127 -106.110082744687 2168.46183331388 22 25 16
-884.510327104127 -105.598599129421 2161.72166637544 24 27 18
-873.153662089829 -105.043142436572 2153.09044159796 23 26 17
-868.187073514206 -104.903757495853 2161.30509829121 24 27 18
-862.142556983067 -104.694737594648 2166.71699204835 28 31 24
-856.775502819924 -104.530829113796 2174.0127013369 24 27 20
-859.979870307565 -104.932826153235 2204.81707884213 22 25 18
-859.958213402582 -105.125867842099 2227.20958912298 18 21 14
-849.666253439669 -104.640808506982 2221.38612844042 16 19 12
-842.782310777403 -104.381449105985 2224.97344865071 16 19 12
-834.225274445832 -104.010723369518 2223.8440338986 15 18 11
-832.9718383585 -104.128684298581 2243.48983776086 15 18 11
-837.210245429735 -104.61839630527 2279.24518141591 20 23 16
-823.344027914444 -103.893045140655 2263.00537730086 19 22 15
-810.227369141205 -103.215624228454 2248.62272640634 22 25 18
-809.072020067252 -103.347420377517 2269.29865822628 14 17 10
-802.409873308529 -103.107266893858 2273.87075308095 15 18 11
-798.894009092523 -103.08256946605 2287.94949981232 27 30 23
-1012.44129753266 -118.429559212105 2134.53751835637 20 23 14
-1027.16297524917 -119.659996104192 2187.76065779728 21 24 15
-1013.94576656414 -118.960222884205 2176.61614999669 18 21 12
-1000.02000963124 -118.209015591782 2163.59985269171 20 23 14
-991.640208921926 -117.842400981057 2163.47228762848 20 23 14
-986.761771517592 -117.720573716104 2171.65384524132 23 26 17
-982.621605100581 -117.651654780489 2181.69628173603 23 26 17
-974.617476696151 -117.312195245177 2182.49698246515 19 22 13
-967.382497348047 -117.02689546475 2185.14724849202 18 21 12
-963.918221723138 -117.008832836481 2197.07363806977 20 23 14
-956.656739985398 -116.722824837815 2199.73358684627 19 22 13
-939.351457123091 -115.72135055331 2177.29775598179 18 21 12
-919.96792129577 -114.567087360768 2149.22846029387 18 21 12
-908.090629927899 -113.945683648985 2139.72481819293 19 22 13
-901.015318462832 -113.667695864498 2142.31651917988 17 20 11
-903.705826816429 -114.094593307217 2170.10579921346 19 22 13
-902.666047418642 -114.256205314237 2188.60412379567 22 25 16
-889.771943264516 -113.55987531841 2176.27540395079 24 27 18
-876.959868345623 -112.86692980478 2163.9166244396 23 26 17
-866.689874213912 -112.357256815242 2158.08678557992 23 26 17
-856.117170926156 -111.823963910251 2151.30215824761 21 24 17
-851.482868269383 -111.726324676943 2160.45999805538 24 27 20
-849.90596697411 -111.855990486707 2178.08907904318 29 32 25
-852.682007149356 -112.311476065226 2207.97849191348 29 32 25
-845.489948738778 -112.030637749525 2210.61282652723 22 25 18
-833.929650229204 -111.423722998038 2200.99266149593 12 15 8
-836.774684588581 -111.894394291714 2231.92241663907 11 14 7
-840.789316193516 -112.458839322409 2266.68687136136 10 13 6
-835.108158523197 -112.297574139463 2274.09625250375 11 14 7
-830.053010287748 -112.184888289721 2283.40788230086 13 16 9
-819.144907197156 -111.628261105725 2275.68032268386 16 19 12
-810.217130521744 -111.221000080505 2273.62155792481 11 14 7
-804.177769950535 -111.034480972671 2280.09669114998 14 17 10
-791.493128050628 -110.337123112977 2266.62538711844 23 26 19
-1031.6273364218 -127.253424095569 2159.96626731839 22 25 16
-1012.3974239281 -126.056897946593 2135.04452063449 21 24 15
-1018.76031144499 -126.802280396453 2168.94211377929 21 24 15
-1022.57844872075 -127.359997773522 2197.37836954245 22 25 16
-999.571938329595 -125.869354660835 2163.18466900723 20 23 14
-988.074183954277 -125.255217372371 2155.67569107522 19 22 13
-994.057404856386 -125.986194824243 2189.71206393419 21 24 15
-981.786685766203 -125.312754943443 2180.35504080652 23 26 17
-975.313620451373 -125.086638525273 2184.85737615277 20 23 14
-961.998387535762 -124.328613097071 2172.68632322109 19 22 13
-955.92705682099 -124.13322479102 2178.10693105252 20 23 14
-954.332531736266 -124.289366614566 2194.67386152992 20 23 14
-937.787912765837 -123.273338849493 2174.09611777067 20 23 14
-917.309538522238 -121.942062873131 2143.23830518035 19 22 13
-910.583019413376 -121.692324718727 2146.76770156331 19 22 13
-909.312852776473 -121.87648957187 2164.28147659588 16 19 10
-914.106540940124 -122.547640352647 2197.68800915141 17 20 11
-902.576438692065 -121.919564639439 2189.12502555009 20 23 14
-888.612930613752 -121.093660083395 2173.99471390167 20 23 14
-874.393046345985 -120.243214432652 2157.89284877829 19 22 13
-866.598736136317 -119.908597673587 2158.61694928245 19 22 13
-856.024909848939 -119.347963795265 2151.83479289818 19 22 15
-850.348262030512 -119.184635910362 2158.17613483873 22 25 18
-841.215357636643 -118.739412725927 2155.12820875135 26 29 22
-840.638250280241 -118.996169643128 2175.58461515025 30 33 26
-832.518074048674 -118.634929956812 2175.36231321757 28 31 24
-827.771958215041 -118.552708198284 2184.55936137323 20 23 16
-831.655564677366 -119.190070721241 2218.29911016649 18 21 14
-832.0625125609 -119.544725715547 2242.65706502981 15 18 11
-831.038836752471 -119.784871232107 2263.27697987466 11 14 7
-827.312988174286 -119.801992546963 2276.36231028231 11 14 7
-811.902238251615 -118.833464124268 2255.36900541495 12 15 8
-815.206190663401 -119.449058723953 2289.32100671793 14 17 10
-805.62562074053 -118.973277588661 2285.37148373783 12 15 8
-795.450631500699 -118.445037693604 2279.50852693574 20 23 16
-784.383942255888 -117.837990902879 2270.77558132133 19 21 16
-792.300107531317 -118.869801400717 2320.08655965289 28 30 25
-1007.12291081523 -133.880618074972 2161.97002129304 20 23 14
-1008.53641642065 -134.31659781233 2184.88930931085 18 21 12
-980.224484713119 -132.265496642909 2137.73275049233 17 20 11
-979.670812336521 -132.537682323719 2156.046111178 23 26 17
-981.720826510963 -133.033810246493 2180.86296023244 23 26 17
-963.022938180262 -131.777539957122 2155.75241698104 20 23 14
-956.61827136819 -131.559888074509 2160.22926191985 21 24 15
-949.826085675576 -131.309794433551 2163.7825442608 19 22 15
-927.685059525753 -129.745157107963 2129.27996377944 21 24 17
-921.730471769572 -129.562988645305 2134.6571570515 21 24 17
-911.700064646974 -129.029916425365 2129.80858898059 20 23 16
-906.475360321499 -128.911448607204 2137.04914865667 18 21 14
-912.14332216316 -129.741821669707 2172.25937795683 19 22 15
-909.680731938242 -129.871046352149 2187.01062756578 20 23 16
-901.410040741433 -129.494485343137 2186.84416939075 22 25 18
-883.892074421473 -128.303457541675 2162.36654974907 23 26 19
-870.767120624266 -127.493474655807 2149.06372530356 21 24 17
-864.751611695729 -127.310123782795 2154.46314274015 20 23 16
-855.583678047234 -126.846834748749 2151.42930719368 20 23 16
-850.598224024323 -126.756325466258 2159.64738497121 20 23 16
-844.895056482372 -126.60307501671 2165.99760216466 20 23 16
-837.807995801639 -126.326139183601 2168.59349271148 23 26 19
-820.911137639612 -125.160486938041 2143.88828652443 26 29 22
-822.291164134772 -125.650556376411 2170.01583492879 31 34 27
-827.540354415297 -126.501184237943 2207.50980388178 30 33 26
-824.996625526292 -126.646486353058 2223.35587738398 22 25 18
-823.037124946361 -126.849640366524 2241.11868056313 14 17 10
-821.971890222412 -127.140210025299 2261.74989074067 12 15 8
-815.643508827954 -126.946328851062 2267.26378102192 11 14 7
-802.573833091838 -126.123033156988 2252.87506591083 15 18 11
-807.389295444753 -126.975168470495 2291.59332131137 8 11 4
-797.827980977501 -126.481075827673 2287.6381837336 20 23 16
-783.30156843038 -125.514098657852 2268.45656131725 18 20 15
-782.224334938962 -125.822629002953 2290.15733217259 28 30 25
-1072.97124007346 -146.387124252577 2255.49734894173 22 25 16
-1058.67774592422 -145.482193876015 2242.6262630298 27 30 21
-1007.0688328663 -141.58271990224 2162.47509019795 20 23 14
-993.57869727403 -140.72992324441 2150.37473661769 18 21 12
-994.19111359719 -141.154712212169 2171.45282234278 17 20 11
-990.444403241003 -141.187346241427 2182.41144968389 22 25 16
-969.355733062032 -139.63458123417 2151.79209222729 23 26 17
-951.505563246821 -138.369952380852 2128.50728414548 19 22 13
-949.72536639384 -138.580727631852 2144.07125203756 20 23 14
-942.223209115308 -138.265441116671 2145.75404584461 19 22 15
-927.618590346105 -137.289490755309 2129.80143874493 21 24 17
-925.375786126189 -137.46241827404 2144.46953439554 22 25 18
-917.531966518769 -137.114030680211 2145.21266255467 21 24 17
-912.628907680538 -137.042054995432 2153.3991503725 20 23 16
-910.605241311884 -137.244089263636 2169.0522394041 18 21 14
-907.064441227759 -137.306296890978 2181.00037667276 18 21 14
-895.581557137691 -136.614574374437 2172.42503919433 23 26 19
-878.818838360735 -135.414163412839 2149.80708451191 26 29 22
-869.265065490172 -134.898978944536 2145.85079820075 23 26 19
-862.905639714763 -134.690235126244 2150.310278939 20 23 16
-858.626225931419 -134.683963106568 2160.39883672666 21 24 17
-853.959773177856 -134.642513810544 2169.56386394623 21 24 17
-850.287059481975 -134.700533772134 2181.56024635004 21 24 17
-844.178229352691 -134.522341997029 2186.99318162131 21 24 17
-833.996676348643 -133.943122281564 2181.13645619012 23 26 19
-827.552392800728 -133.731931842437 2185.62720785061 25 28 21
-826.758318699087 -134.084537986167 2206.15496013367 26 29 22
-826.19727504195 -134.466569306755 2227.66288837626 26 29 22
-819.304688818741 -134.218112516298 2231.25252649748 24 27 20
-820.213467804213 -134.758712254144 2257.5472299225 21 24 17
-817.444450675589 -134.933909833741 2273.47315774745 15 18 11
-817.804950077125 -135.433230558966 2298.90363006565 14 17 10
-808.515644184358 -134.950548355912 2295.91535685917 6 9 2
-797.05251658021 -134.241868070797 2286.26756436075 20 23 16
-781.594975399206 -133.115004118978 2264.23639664059 18 20 15
-774.017729283596 -132.800474037207 2265.94667027321 23 25 20
-1061.64716352616 -153.313132948121 2230.29017995196 21 24 15
-1065.00697617822 -154.060016703149 2257.81213312031 24 27 18
-1044.00982863088 -152.457525055453 2229.2966407891 18 21 12
-1010.56426911616 -149.63559498405 2171.26378994486 18 21 12
-987.645801601672 -147.820984026145 2137.06254401741 22 25 16
-1001.1381454421 -149.559975292752 2188.56060860267 22 25 16
-991.926582638923 -149.08309143984 2186.6102071548 25 28 19
-976.593396004634 -148.000611625827 2169.86379770136 24 27 18
-964.80201639899 -147.262850856501 2161.40402188881 18 21 12
-943.216754920456 -145.546960704751 2128.84429027833 18 21 12
-937.638125338585 -145.418780356318 2135.14736657476 19 22 15
-930.91682749293 -145.177360197995 2138.67423827064 20 23 16
-922.704695580556 -144.786189933529 2138.48760560006 21 24 17
-926.677095295962 -145.627123139671 2168.97980971921 23 26 19
-916.57942792157 -145.04801522713 2164.15940759547 23 26 19
-910.522536577448 -144.878858086108 2169.57278987799 19 22 15
-904.088942572959 -144.672224264928 2174.05931382181 17 20 13
-897.28629797597 -144.428384238741 2177.61592443028 18 21 14
-882.29196621948 -143.33781581309 2159.6801960302 21 24 17
-873.417684567391 -142.875891333004 2157.60637327041 21 24 17
-870.181555915632 -143.000839254139 2170.505634348 18 21 14
-861.317240010753 -142.539551098655 2168.42788834103 21 24 17
-851.787281798225 -142.006590614523 2164.46429049905 21 24 17
-844.351771079044 -141.693014273083 2166.12299437812 22 25 18
-847.817843833771 -142.538417710424 2197.86538504826 23 26 19
-846.393504974357 -142.872245297729 2216.49069488952 23 26 19
-837.168084910345 -142.374596265941 2213.48033883338 19 22 15
-828.306353573353 -141.914220513402 2211.40158491358 21 24 17
-825.084583137141 -142.063696318119 2225.36058898695 23 26 19
-826.716332205615 -142.74649129803 2253.51524815211 24 27 20
-822.032642513581 -142.747518242761 2263.75014384124 22 25 18
-819.56570348151 -142.995613769608 2280.62711701499 17 20 13
-811.902543726059 -142.674346484641 2282.36911463215 17 20 13
-810.275279735352 -143.024249806917 2302.13324378665 10 13 6
-797.851646780622 -142.17368057695 2289.64522168325 16 19 12
-782.075661554221 -140.940273648945 2266.67123924403 17 19 14
-775.729507841728 -140.762603190496 2272.19036375147 28 30 25
-776.432213997643 -141.387362467211 2299.62040174551 27 29 24
-1065.60686975117 -161.663769042578 2239.95428267503 25 28 19
-1063.7416604428 -161.947113282518 2255.54366333866 28 31 22
-1023.70595699172 -158.276916331605 2182.90309104115 21 24 15
-1006.17057885396 -156.922357231204 2161.64405948197 20 23 14
-998.169333089145 -156.55598989306 2162.4454887713 25 28 19
-998.350043976713 -157.047996073646 2182.60880141013 24 27 18
-989.927748377235 -156.639761398834 2182.49981663666 26 29 20
-981.136368172929 -156.191593495374 2181.46139094934 25 28 19
-965.498901443662 -155.014470080215 2163.76586834963 18 21 12
-943.911890931264 -153.194757341773 2131.2146058088 18 21 12
-924.401171395016 -151.584528724858 2103.22617836329 16 19 12
-930.10055338792 -152.677468519112 2137.33836992065 17 20 13
-935.253798472253 -153.723503504957 2170.58597633202 18 21 14
-926.9672232844 -153.321443935138 2170.42721331458 21 24 17
-918.329734388789 -152.880153838837 2169.33235419397 22 25 18
-911.166387235471 -152.599157237469 2171.95626887263 25 28 21
-904.363679152267 -152.358002007923 2175.51269997583 21 24 17
-891.105588692953 -151.403233819024 2162.26917336185 17 20 13
-888.251943792095 -151.598651569528 2176.0909572103 20 23 16
-881.451238707247 -151.35793193136 2179.64662768291 23 26 19
-874.294659130582 -151.077795335748 2182.26801855801 22 25 18
-866.093788830223 -150.680067848315 2182.07778887381 21 24 17
-846.506986888687 -148.991524074087 2150.9229910095 16 19 12
-842.536721481753 -149.066993146366 2161.95961232363 18 21 14
-843.96582280528 -149.763750777913 2188.05348074038 23 26 19
-844.253213022607 -150.339123872984 2211.37166562315 22 25 18
-839.399318323211 -150.329147100327 2220.60242288877 24 27 20
-828.189269397836 -149.583844626808 2211.9322511474 24 27 20
-820.671752752921 -149.264943031333 2213.62089835265 23 26 19
-825.605058670513 -150.406909178339 2251.20791232394 21 24 17
-818.975350221359 -150.199855099895 2255.76546941431 20 23 16
-810.401383552605 -149.76314675146 2254.64718458295 20 23 16
-810.163150881877 -150.318863542828 2278.15783109994 15 18 11
-809.494866668132 -150.832280510031 2300.76111253944 17 20 13
-808.404355895817 -151.303702268605 2322.45441711228 16 19 12
-784.558388617395 -149.63122358246 2300.31232410148 23 25 20
-791.933014631878 -151.151769523294 2348.71663187668 17 19 14
-1063.93734700521 -169.457637976751 2236.77315441736 38 41 34
-1047.70402281981 -168.196305995804 2219.30048287932 35 38 31
-1029.20280571962 -166.676206718179 2196.27150037733 31 34 27
-1006.11521742374 -164.636497926096 2162.14868637204 22 25 18
-999.67792017411 -164.439500769849 2166.63582874214 27 28 22
-995.952619483587 -164.547226446022 2177.58075705776 27 28 22
-988.316431800662 -164.218452690273 2179.31352108325 24 25 19
-974.543112047742 -163.195944291324 2166.26230772782 22 23 17
-950.561791123448 -161.00851634195 2128.20888674139 22 23 17
-935.516521120826 -159.823076914577 2111.3653805251 23 24 18
-935.248827561664 -160.321850171807 2130.62454851483 19 22 13
-934.888209266905 -160.817074870293 2149.91749298991 17 20 11
-937.402978295167 -161.651743123425 2176.67330252394 15 18 9
-934.625579715646 -161.882469912671 2190.46471909709 21 24 15
-915.687385596167 -160.233365679961 2163.33776113153 25 28 19
-906.3594353982 -159.697638506302 2160.36753118013 20 23 14
-901.030330021739 -159.630362109169 2167.6421612043 20 23 14
-896.39160698145 -159.646935556474 2176.79273526902 20 23 14
-885.315848703884 -158.901371132366 2169.14034669412 21 24 15
-884.181481319689 -159.338815494656 2187.65222665231 21 24 15
-876.651147561535 -159.015728215536 2189.34584661266 21 24 15
-862.863744884147 -157.937579888175 2174.17083575914 21 24 17
-847.447103233836 -156.654014688316 2154.26974353779 17 20 13
-841.065671506345 -156.461292600347 2158.73626530497 18 21 14
-840.117001133874 -156.934905026834 2178.24450186429 23 26 19
-841.101719727962 -157.65441162049 2203.43181283749 24 27 20
-830.57118494121 -156.95942341046 2196.64406427413 23 26 19
-825.079385697555 -156.887018144716 2203.9779397662 24 27 20
-823.851039538312 -157.350160748588 2223.58883731202 25 28 21
-822.857597726138 -157.850956515473 2244.17784622774 25 28 21
-814.62157318673 -157.444686591792 2244.00103393924 24 27 20
-806.07896401766 -156.998171759422 2242.8720956655 21 24 17
-807.466093079736 -157.819340888936 2271.10519391501 18 21 12
-802.056196334375 -157.779202367723 2279.47368711894 11 14 5
-805.422035589739 -158.876567987436 2314.43366275742 11 14 5
-806.741823795451 -159.723867198798 2343.75581315002 15 18 11
-792.690541799344 -159.2628076813 2352.0958822818 18 21 14
-1048.44087570606 -176.194907891071 2221.62917228535 27 30 23
-1023.98836071393 -173.899221851651 2184.8216782824 31 34 27
-1014.72663226207 -173.379606755681 2182.89272803916 26 29 22
-1003.53303047097 -172.629055500644 2176.35008894007 28 29 23
-995.500811436028 -172.251033772423 2177.16365132397 28 29 23
-986.319629554955 -171.734900340826 2175.2054270948 24 25 19
-974.861410444294 -170.943213368929 2167.69548092355 22 23 17
-961.553495862478 -169.923803070065 2155.54149087226 23 24 18
-945.677361448147 -168.586397319198 2136.87822252631 24 25 19
-943.454776389718 -168.902563087574 2151.52816424156 22 25 16
-943.778990600166 -169.536110479402 2172.69521346102 19 22 13
-929.53662505384 -168.38729321397 2157.69058548264 17 20 11
-931.964616971107 -169.289868553264 2184.47280070187 17 20 11
-920.727056350894 -168.507549647273 2176.8819741788 18 21 12
-904.461508222148 -167.093345516627 2156.23262223979 25 28 19
-897.33880295249 -166.814212688919 2158.84162957113 23 26 17
-902.030405168484 -168.023370181672 2192.24466031968 19 22 13
-889.846289849713 -167.111141500944 2181.80763154834 18 21 12
-876.322349067196 -166.022259923369 2167.6040068673 21 24 15
-869.546755628833 -165.788192804512 2171.15030569774 23 26 17
-864.852294176323 -165.822195360952 2180.31981656672 22 25 18
-851.49247304191 -164.740010698857 2166.05605576114 20 23 16
-851.586700915451 -165.396829216304 2188.3717223529 21 24 17
-845.112276682447 -165.20604213634 2192.87163148492 24 27 20
-837.277832966565 -164.837788221376 2193.61285197621 25 28 21
-831.79789561644 -164.779379697047 2200.9413615204 26 29 22
-824.298450014211 -164.455525721662 2202.62407080742 26 29 22
-819.11255115356 -164.439922620123 2210.90932593112 25 28 21
-814.550294286924 -164.510995156903 2221.09456115741 25 28 21
-809.622508602281 -164.536787215265 2230.34946697749 24 27 20
-804.014897296713 -164.473908881707 2237.72495682392 22 25 18
-803.181467548245 -165.780704544536 2283.79439750896 15 18 9
-800.556211065442 -166.145766036793 2300.72006808921 13 16 7
-783.634413391034 -166.017107052902 2325.01108206685 14 17 10
-1044.38917365309 -183.616906755656 2212.94153708156 27 30 23
-1025.51574396369 -181.895783319674 2188.9964047478 23 26 19
-1016.24196741129 -181.362252336139 2187.07313631314 35 38 31
-1009.73187074053 -181.173726118878 2191.58583599575 25 26 20
-995.437559245386 -180.004184004741 2177.668456197 25 26 20
-987.798806919849 -179.670204643393 2179.40229051947 23 24 18
-994.739278918412 -181.19215473129 2216.23135528039 21 22 16
-983.583577507784 -180.416301230465 2209.6768546446 20 21 15
-955.450634026341 -177.454131678783 2161.45719370335 21 22 16
-947.8948726123 -177.123774174237 2163.16085534137 21 24 15
-941.463558557269 -176.938967083303 2167.64464972703 18 21 12
-937.616580116507 -177.092138432004 2178.63061349554 16 19 10
-924.151650425074 -175.989644980276 2165.47338544931 15 18 9
-921.375040926113 -176.286348851315 2179.25953724369 16 19 10
-911.276570672711 -175.620168267249 2174.4457423029 22 25 16
-906.62536454979 -175.674575480083 2183.59799732231 21 24 15
-893.707282723989 -174.627679417982 2171.30444023552 19 22 13
-880.515965596814 -173.536355574095 2158.04695570458 18 21 12
-869.175452720752 -172.686651641903 2149.43206367278 20 23 14
-869.451303780469 -173.407739252575 2171.67663622928 21 24 15
-863.710315080617 -173.318487967375 2178.0357664306 21 24 17
-864.158952164233 -174.080336992809 2201.28129436459 21 24 17
-855.933422749175 -173.657289078256 2201.10193472947 21 24 17
-845.684042338074 -172.952205762354 2195.27935015213 23 26 19
-836.830204573046 -172.437111385244 2193.20211111405 24 27 20
-829.006238549461 -172.063871263534 2193.93964657825 26 29 22
-822.189130069903 -171.831584770878 2197.50064072588 26 29 22
-814.707848063064 -171.505760822484 2199.17689913418 25 28 21
-819.331889856886 -172.905197401345 2235.79004327796 24 27 20
-807.223648183327 -171.924958483488 2224.26376770022 24 27 20
-801.630559405127 -171.876247868785 2231.63291199007 23 26 19
-808.739752504622 -174.456883682924 2301.3863266179 18 21 12
-799.15108038734 -173.846207333869 2297.44967122334 13 16 7
-742.687739361985 -167.073061652646 2174.48044955613 13 16 9
-1039.54263930173 -190.885749536261 2202.4211376975 30 33 26
-1033.77702713571 -190.804997230848 2208.7885732672 26 29 22
-1018.9363646946 -189.528310153532 2194.01097700091 38 41 34
-1009.27672272888 -188.92973411328 2191.16600517259 16 17 11
-996.539245340624 -187.918320349279 2180.93751729522 18 19 13
-996.223281085447 -188.562971369296 2200.20296282619 21 22 16
-991.980696247751 -188.688445598865 2210.26819880992 19 20 14
-973.606507854214 -186.90832902574 2186.14612449104 14 15 9
-956.515529801809 -185.288199412001 2164.74566341097 13 14 8
-950.452253866449 -185.159876092385 2170.15828447822 11 14 5
-940.269006236546 -184.468283620653 2165.37746401484 12 15 6
-925.309428323518 -183.114594479041 2148.5155173539 12 15 6
-924.440253089011 -183.701571931553 2166.91976053452 13 16 7
-928.23377066007 -184.946331477114 2197.44674421761 14 17 8
-916.996619744258 -184.104128050358 2189.86003291102 12 15 6
-899.331025719275 -182.352437649452 2165.47835484709 13 16 7
-891.472038624643 -181.971619372984 2166.22944087073 17 20 11
-882.9128528858 -181.490363262118 2165.10914677225 18 21 12
-884.245626121627 -182.419864429763 2190.15389769191 17 20 11
-876.355253695434 -182.038051527214 2190.91620792604 17 20 11
-866.73800499371 -181.405957424309 2186.99180578676 18 21 14
-859.570596491442 -181.125713987168 2189.61713927858 20 23 16
-859.24877612172 -181.844567680315 2211.01248062583 20 23 16
-846.934293403098 -180.814715041909 2199.56513790473 19 22 15
-840.428248295411 -180.633694376854 2204.07579919642 20 23 16
-823.874826772668 -178.962879935553 2180.35073541779 25 28 21
-817.75748815002 -178.83379112521 2185.78305724713 25 28 21
-816.236942908278 -179.39647703572 2204.42580044886 26 29 22
-820.83970761597 -180.893484082061 2241.03931350949 25 28 21
-820.717439916661 -181.693865874726 2264.48911092706 23 26 19
-807.291506474956 -180.474834536798 2249.19339457356 20 23 16
-798.431589339361 -179.94636885779 2247.11911897995 15 18 9
-804.477556810771 -181.719601647044 2289.58726663955 13 16 7
-1046.65786194156 -199.74162798027 2219.43355997128 25 28 21
-1023.41647617624 -197.259188691439 2185.40003108538 27 30 23
-1027.13687773721 -198.503961252809 2213.82021279859 31 34 27
-1011.94877653892 -197.122720792877 2198.11018656289 17 18 12
-999.581250956552 -196.126991877266 2188.81265409169 18 19 13
-1006.18339676513 -197.799047251431 2224.68650923685 19 20 14
-994.205697739659 -196.858008493047 2216.30976791553 17 18 12
-974.676157474236 -194.835650940937 2189.42583077146 13 14 8
-959.091396343305 -193.360690409877 2171.7338848398 13 14 8
-944.370175524992 -191.998180200392 2155.85281020132 11 14 5
-937.956030983543 -191.825251036079 2160.32947004937 12 15 6
-930.790569598384 -191.544398848806 2162.95414201158 12 15 6
-930.980941250163 -192.337313095907 2184.15779677527 13 16 7
-923.033032384244 -191.947410581076 2184.94187683812 13 16 7
-912.193698296233 -191.130082588472 2178.27555738965 13 16 7
-907.887316800386 -191.27572050637 2188.36219740739 13 16 7
-901.036876944847 -191.046835970224 2191.93504541261 15 18 9
-894.891080421919 -190.924186902603 2197.37722117697 16 19 10
-885.205747154257 -190.270174368441 2193.47921049802 16 19 10
-879.054531691031 -190.147443790134 2198.923361317 16 19 10
-865.942626012407 -188.966568212295 2185.64378044588 17 20 13
-852.573251450474 -187.736377399578 2171.3946580597 20 23 16
-850.586394759766 -188.248330928511 2188.07754508725 20 23 16
-852.257503506516 -189.335705388156 2215.12082099792 18 21 14
-836.945909302688 -187.793978003893 2195.20129414858 19 22 15
-825.770594145644 -186.885671035789 2186.53054696893 23 26 19
-819.966544361613 -186.816316952249 2192.91108835472 24 27 20
-822.373989411419 -188.050687631132 2222.87565755187 26 29 22
-827.572888762648 -189.74801822733 2261.39057025214 25 28 21
-823.5009699693 -189.982434378596 2273.51894379085 23 26 19
-812.303240381216 -189.073612453782 2264.85637947007 17 20 13
-801.805425367418 -188.270826302497 2258.06487611122 15 18 9
-830.596822917729 -193.878117235108 2368.77685852718 15 18 9
-816.693647348451 -193.49360183731 2378.12415019866 10 13 6
-786.263829955019 -189.396198794265 2310.55859064446 10 13 6
-1041.96394937739 -207.77625196258 2229.06602228855 20 23 16
-1028.64348475414 -206.623682843221 2217.99319542171 26 29 22
-1015.79027741894 -205.531504906314 2207.81285036605 18 19 13
-1009.60759145778 -205.414906512293 2213.2679729157 18 19 13
-983.742073850743 -202.384682310188 2171.69600810695 18 19 13
-984.170423989426 -203.241390792425 2192.80838297228 18 19 13
-976.885823619342 -202.955759647668 2195.47670318189 16 17 11
-960.908553849759 -201.363393997211 2176.86941824015 10 11 5
-954.432886835823 -201.193601290076 2181.36844916745 10 13 4
-936.762989101249 -199.324988386262 2158.06396733508 16 19 10
-927.751456342436 -198.761885897796 2156.04739279381 16 19 10
-927.588902684416 -199.553779127324 2176.31279937643 11 14 5
-917.106171352884 -198.76510650083 2170.58130689881 10 13 4
-911.382045503268 -198.709066777967 2176.93180432795 10 13 4
-909.596549786773 -199.269522778333 2193.53786976264 12 15 6
-913.809129702744 -200.779199962879 2226.02571637414 15 18 9
-894.439882528443 -198.592342787338 2196.96258370949 18 21 12
-884.051188408427 -197.8076641719 2191.19687693215 18 21 12
-874.757534304878 -197.191962995742 2188.22022008788 17 20 11
-863.064929714135 -196.188260755058 2178.67806507424 16 19 12
-851.094469222731 -195.131699694373 2168.17404328372 18 21 14
-844.66735988997 -194.964578869086 2172.65522978413 21 24 17
-848.411697057975 -196.456365837716 2205.31455641592 23 26 19
-846.602468017273 -197.058453590317 2222.99266011384 23 26 19
-832.009422312179 -195.563284485616 2204.94165718854 21 24 17
-825.489974029293 -195.392789399921 2209.45664849062 23 26 19
-819.618541313231 -195.33175943209 2215.86104455832 22 25 18
-827.115069877758 -197.517075357514 2260.97072527939 25 28 21
-821.745511639669 -197.559879779824 2269.3183038112 22 25 18
-817.952410563215 -197.874587393597 2282.40587052089 16 19 12
-809.248444561007 -198.334356565677 2305.79949796145 15 18 9
-805.294321627151 -198.642968467206 2318.94602989025 13 16 7
-787.28284042579 -196.510164889684 2289.38549142719 11 14 7
-1019.33959839396 -212.289417620997 2177.21430060433 25 28 21
-1018.74656612168 -213.026553403594 2195.50688099059 21 24 17
-1010.25367563662 -212.559327928033 2195.42799694033 17 18 12
-1010.31236554418 -213.411584761084 2215.60846289662 18 19 13
-1004.10549683709 -213.302486467216 2221.0718060515 19 20 14
-987.927375328978 -211.639399348512 2202.54283413696 17 18 12
-969.965212994794 -209.682740862077 2179.35093188402 12 13 7
-957.057380771993 -208.505849964119 2168.13026959219 10 11 5
-950.979601889546 -208.402001405418 2173.54631346498 13 16 7
-931.844116394027 -206.220534821857 2146.53120645499 15 18 9
-918.42352094637 -204.934202973053 2133.37174101368 15 18 9
-922.361847878638 -206.431033801763 2163.82683653151 14 17 8
-917.752628902892 -206.563888950016 2172.95791702155 13 16 7
-911.657769977809 -206.459614806849 2178.38019882628 12 15 6
-909.145083776747 -206.943184175898 2193.12291431225 12 15 6
-905.136550288429 -207.189225335318 2204.16056992112 14 17 8
-887.250349093285 -205.146513779946 2178.81419419504 16 19 10
-872.686919873021 -203.636740339048 2161.82034295175 19 22 13
-865.570870537434 -203.358459431943 2164.42686765352 20 23 14
-854.638437754201 -202.438500881681 2156.73556185932 19 22 15
-846.861713835649 -202.044927706252 2157.45746665398 19 22 15
-841.146042253837 -202.000637458529 2163.80400581347 20 23 16
-843.890608706637 -203.406535475259 2193.63314413295 21 24 17
-846.149554886444 -204.748732953609 2222.57697660472 22 25 18
-839.912342242965 -204.639427656536 2228.05136046996 21 24 17
-824.708594884202 -202.970675148656 2208.10197875485 22 25 18
-826.734013245438 -204.303894886221 2237.13133803799 21 24 17
-824.046246641337 -204.826039624081 2253.00131247369 19 22 15
-823.553438410411 -205.747478133446 2275.51005102181 16 19 12
-820.70428940379 -206.263429987909 2291.43938331316 16 19 12
-811.091142059225 -205.57468369577 2287.51776549495 18 21 12
-804.043072588291 -205.344481042443 2291.16251921536 21 24 15
-789.778682402416 -203.802336447124 2272.99564777324 18 21 12
-779.670303898236 -203.004812051822 2267.12880673492 13 16 9
-1037.87245732255 -223.046854053154 2220.86721087745 19 22 15
-1001.38998082064 -218.103932840523 2155.564859683 13 16 9
-1009.40636138145 -220.269676927596 2194.08754364767 17 18 12
-1006.36147411671 -220.672652266109 2206.89634193476 20 21 15
-1000.94783325888 -220.697989673421 2214.19469901456 21 22 16
-990.149620835747 -219.847674904754 2208.5824836633 16 17 11
-974.835187065225 -218.25070760179 2191.86807949282 11 12 6
-954.71922142762 -215.848407924234 2163.09251316931 11 12 6
-938.902914014938 -214.136881345623 2144.43573544077 11 14 5
-914.637642263653 -211.002330149047 2104.42357963472 11 14 5
-926.118320385739 -213.826383750828 2153.370765219 17 20 11
-925.9547094892 -214.722393729744 2173.62870016108 18 21 12
-920.586592426591 -214.749811757146 2180.91035975034 17 20 11
-906.862032890246 -213.357816674739 2166.80249779467 14 17 8
-896.826010886358 -212.585183025137 2161.97429941867 13 16 7
-893.614812704467 -212.982096015392 2174.84398212154 11 14 5
-882.902784942951 -212.088082855671 2168.13719352205 13 16 7
-870.482444271562 -210.889776513725 2156.74102307156 18 21 12
-859.18701612655 -209.878003002003 2148.12172416716 20 23 14
-852.461254171711 -209.662562812991 2151.64825761138 22 25 18
-848.139813770044 -209.873741491279 2161.73567824536 21 24 17
-841.044074998096 -209.596401370388 2164.33475237279 19 22 15
-842.425027791074 -210.83826299922 2190.40498599181 19 22 15
-839.30311777441 -211.286493935608 2204.30516547279 20 23 16
-829.106984006681 -210.460461153905 2198.47236022059 20 23 16
-832.874431369435 -212.175836363357 2232.17297619836 21 24 17
-825.622242631385 -211.892575484658 2234.82934120449 21 24 17
-828.483217474412 -213.477581607531 2266.73603677165 19 22 15
-822.769957181616 -213.492118796637 2274.14381743267 16 19 12
-800.976855585736 -210.502484207901 2234.28905141613 14 17 10
-805.215219774775 -212.37902173109 2271.00632868951 11 14 5
-788.380803517249 -211.389259407695 2269.73118119842 15 18 9
-1008.55907048867 -227.97466278631 2192.74723221885 18 19 13
-1000.86248919221 -227.623102468065 2194.50365879472 21 22 16
-992.400164343786 -227.141132115726 2194.4147816253 21 22 16
-988.161154605965 -227.37702308731 2204.47038752147 16 17 11
-980.080384404763 -226.960269218335 2205.30451276926 13 14 8
-961.441168501537 -224.723863005565 2180.24660444213 13 14 8
-937.707432531051 -221.584867695071 2142.17502382101 10 13 4
-933.93128565075 -221.889200519469 2153.12359214358 10 13 4
-933.80601950022 -222.838761118566 2173.3635545196 12 15 6
-935.785831361014 -224.172125284403 2199.20955044218 17 20 11
-921.959098745655 -222.726958451347 2185.14282369667 17 20 11
-908.224640229496 -221.285441296888 2171.04254923679 15 18 9
-891.706683246987 -219.333158619247 2149.45894956161 14 17 8
-886.742657267382 -219.440480615055 2157.65431504042 14 17 8
-886.353748542424 -220.379882156854 2177.99058087653 14 17 8
-872.852262240272 -218.947585290702 2163.80496317668 15 18 9
-860.14144821685 -217.646714849597 2151.45526068594 15 18 9
-855.484928675419 -217.816411520616 2160.60074749611 22 25 18
-852.168631979882 -218.239525942099 2173.50689380133 23 26 19
-845.03946417581 -217.960888669038 2176.11821182374 25 28 21
-840.282644098995 -218.126747327205 2185.30043116934 23 26 19
-837.171539540755 -218.608198081023 2199.19392382795 21 24 17
-830.994949560009 -218.517625744439 2204.64486777139 20 23 16
-825.134281444586 -218.489686917157 2211.04311018128 20 23 16
-823.196649203431 -219.218084419095 2228.75808300648 22 25 18
-813.351509039269 -218.431470189199 2223.86158494675 23 26 19
-809.370531816317 -218.778570458671 2235.94815949576 22 25 18
-787.36648814488 -215.607278596983 2195.11718675098 19 22 15
-795.842999824362 -218.401084386596 2244.09162483197 17 20 11
-809.120685266703 -222.186585941001 2308.31296247562 19 22 13
-814.860614009156 -224.521751460843 2350.84965247145 20 23 14
-821.006520620275 -226.97333634875 2395.36367251946 16 19 12
-1016.78951323178 -235.287918272317 2173.20564569314 23 26 19
-1016.98127192945 -236.301822098816 2193.32556623687 28 31 24
-1014.34399435932 -236.834253006503 2207.04305322237 21 22 16
-1001.95581182551 -235.660949179706 2197.766424508 20 21 15
-995.023680763041 -235.442722221848 2201.36840417051 16 17 11
-986.556176867052 -234.952549974514 2201.28202758964 14 15 9
-971.646193631786 -233.309838814806 2185.49067903525 13 14 8
-962.874882656488 -232.754834132522 2184.45276814365 13 14 8
-946.629551351872 -230.848032837946 2164.90004845853 11 14 5
-936.833535046103 -230.094069240586 2161.0497945513 12 15 6
-931.508034936913 -230.150680651272 2168.31376711354 11 14 5
-915.146255931802 -228.186389680668 2147.74088439631 14 17 8
-910.939042961086 -228.445687112399 2157.78291697283 15 18 9
-900.900640783661 -227.629337772502 2152.9588818219 15 18 9
-891.621634322656 -226.948651753144 2149.9818061492 16 19 10
-889.151161114002 -227.540810195728 2164.70099085073 16 19 10
-891.571980014148 -229.065945277731 2192.50539540715 15 18 9
-875.571108719239 -227.11588168596 2171.80056219191 14 17 8
-868.075049345216 -226.769866517803 2173.48345892718 13 16 7
-860.584116192547 -226.424082130365 2175.16473000621 19 22 15
-855.1615902161 -226.477069112986 2182.46422917866 22 25 18
-843.910869524457 -225.401525552352 2173.83349792952 25 28 21
-838.819317506627 -225.520464649727 2182.07432187832 24 27 20
-825.292442627018 -223.98509910559 2166.83889495577 23 26 19
-833.547938760448 -226.745137056244 2212.69626110457 21 24 17
-831.966955747397 -227.584168334497 2231.34011291904 21 24 17
-821.758448024972 -226.708400708944 2225.51555616268 22 25 18
-812.900002705314 -226.097366867316 2223.44723000803 24 27 20
-806.330752690673 -225.946716783655 2227.97881881244 24 27 20
-801.675955421435 -226.188811328704 2238.18477355867 23 26 19
-801.435124919309 -227.345246260463 2261.65103882239 11 14 5
-814.969146160801 -231.371438258653 2326.82763580275 14 17 8
-824.094634355114 -234.53653772363 2379.80474089822 17 20 11
-1009.85058270946 -242.872363886557 2177.28792798667 24 27 20
-1018.17382799711 -245.426394216231 2216.73637589232 21 22 16
-1014.28200581569 -245.775658978628 2227.72358320944 18 19 13
-991.487188681093 -242.655813937504 2193.57589245124 13 14 8
-988.774544397577 -243.218355069793 2207.31874543479 13 14 8
-969.673172410222 -240.744358553524 2181.37987179417 13 14 8
-957.141652928771 -239.474410025259 2171.09605853543 13 14 8
-955.168996669392 -240.177326392946 2186.69256701917 13 16 7
-940.10471548564 -238.418358085188 2169.89949625408 13 16 7
-925.14791850379 -236.663598331878 2153.06705489977 10 13 4
-915.434509235541 -235.8938642375 2149.18797666273 11 14 5
-902.84248075005 -234.56585653272 2137.86371871244 16 19 10
-908.774434293927 -236.803606667536 2173.93839730302 17 20 11
-901.233039645451 -236.453110317595 2175.63835846362 16 19 10
-901.184519183029 -237.56559928227 2196.90469928109 15 18 9
-885.102948026996 -235.544026316531 2176.23432854724 15 18 9
-890.938534777019 -237.833751940687 2213.4066554168 16 19 10
-874.256627113095 -235.677295495248 2190.83147418065 16 19 10
-863.600352483633 -234.703600239035 2184.11044051593 15 18 11
-855.40146403455 -234.215998513341 2183.92627190552 17 20 13
-845.171082160388 -233.314691499797 2178.11184414282 19 22 15
-833.971086222773 -232.208318659 2169.46500880401 21 24 17
-836.273509796534 -233.8585047503 2198.36955176786 22 25 18
-828.428717840306 -233.44049885294 2199.11828603001 25 28 21
-831.844124607616 -235.357078555409 2231.8648198338 23 26 19
-818.679739915509 -233.839642519261 2217.56314434569 20 23 16
-817.986163485181 -234.927000813157 2239.06575437027 22 25 18
-809.757005590283 -234.438269150106 2238.89266904186 24 27 20
-803.787691272657 -234.427911219042 2245.32880588521 24 27 20
-797.480059608532 -234.348621321751 2250.82651091535 31 34 25
-811.34723498728 -238.623988632955 2316.93007035364 28 31 22
-835.196127755355 -245.128266546798 2414.43736672482 13 16 7
-1028.62103541897 -254.220325453117 2221.87651168953 19 22 13
-1030.96517323991 -255.773438946001 2247.57355387108 21 22 14
-997.942489659108 -250.624799767927 2189.56261023675 18 19 11
-990.26117738637 -250.266220293985 2191.31401860939 15 16 10
-977.235110925813 -248.880351789313 2180.15182864524 14 15 10
-968.460442986535 -248.303662756624 2179.11702788885 14 15 10
-954.051468369579 -246.6299154237 2164.21254205459 14 15 9
-960.331154190257 -248.979834032118 2200.15241315967 12 13 7
-955.642675765971 -249.205847881377 2209.30526261115 14 15 9
-917.555401281452 -243.976199086675 2155.27395413513 13 14 8
-915.507197895451 -244.714582749169 2170.89523566307 15 16 10
-906.155851765099 -243.99840887908 2167.94712132393 14 17 10
-905.450648273517 -245.023109800008 2187.32557102048 14 17 10
-892.178272651361 -243.510653356689 2174.12905890675 16 19 12
-887.485402604953 -243.736481816298 2183.28377229267 16 19 12
-881.35124926766 -243.672140322429 2188.71731825089 16 19 12
-875.201474988712 -243.607170460015 2194.15633299 15 18 9
-863.498118906234 -242.389855625069 2184.63420180842 15 18 9
-853.579358020482 -241.534572870558 2179.76963407146 17 20 11
-843.701669216725 -240.680891553155 2174.89002247369 17 20 11
-831.157617729438 -239.255337317486 2162.4891364823 18 21 12
-822.054377791073 -238.548820033943 2159.45014724124 20 23 14
-821.980808077337 -239.773524577031 2181.78367878527 23 26 17
-821.13802971706 -240.851258715966 2202.27466939462 23 26 17
-818.228826929807 -241.497485432398 2217.1491814907 23 26 19
-813.950663438214 -241.856382595345 2228.27628863989 24 27 20
-811.564450288409 -242.639945473341 2245.08352920227 24 27 20
-804.935667148548 -242.497772522945 2249.63610901355 25 28 21
-791.621417566056 -240.866714720233 2234.33064746925 29 32 25
-787.864241174937 -241.362861640713 2247.39121720094 19 22 15
-831.899880085121 -252.670719822037 2405.46615809547 21 24 17
-1004.78186137856 -258.66411207588 2186.47103069074 22 23 15
-984.325435111507 -255.784412240569 2157.85544140922 20 21 13
-973.655517475795 -254.816942642112 2152.20545126264 15 16 10
-967.996461052492 -254.840781467834 2158.52627956151 13 14 8
-957.384622176911 -253.875550968757 2152.85501827664 12 13 8
-962.267313610742 -256.024726865353 2185.05113700899 12 13 8
-957.255275877438 -256.196201546831 2193.2591065384 13 14 8
-954.070278903546 -256.745019676136 2206.10780787311 13 14 8
-941.601144848943 -255.401194483904 2195.80690175822 13 14 8
-932.135751865451 -254.664273497096 2192.90179032688 13 14 8
-918.69739415189 -253.098961620315 2179.76982807243 15 16 10
-906.430263306013 -251.762983563689 2169.39493452678 15 18 11
-899.975842066018 -251.633221452986 2173.88297138885 15 18 11
-893.154793884174 -251.427943817726 2177.44361342211 14 17 10
-883.852582908597 -250.697324860331 2174.4787363409 15 18 11
-874.93213400268 -250.042799638021 2172.43596560652 15 18 11
-872.659669327892 -250.810745304904 2188.1367534875 16 19 10
-864.433553956958 -250.305717170544 2187.96379229066 16 19 8
-855.192570352646 -249.577432450082 2184.9764928842 17 20 11
-840.188192403765 -247.583624986693 2166.04600923343 18 21 12
-832.743874476828 -247.231497274201 2167.71082186434 19 22 13
-822.619095499258 -246.285050578367 2161.8611761593 21 24 15
-817.204389459115 -246.379356065177 2169.15446220285 22 25 16
-816.722500188631 -247.584321375667 2190.57128469525 22 25 16
-812.530104549445 -247.971145622021 2201.66512201966 23 26 19
-808.942482558051 -248.503983569405 2214.66157217909 24 27 20
-808.204134962393 -249.698878645175 2236.17233542747 25 28 21
-806.082043013996 -250.594898422951 2253.94168202321 27 30 23
-790.851792194166 -248.469758460207 2232.97006324092 35 38 31
-779.847065370667 -247.305231299349 2224.25666713604 27 30 23
-784.220588689842 -249.740106573943 2261.94926478411 20 23 16
-1019.12501869743 -269.425913935716 2220.97981653727 21 22 14
-980.004890517459 -262.655561265377 2148.24049305946 19 20 12
-974.358526212037 -262.691034177482 2154.55583202486 14 15 9
-968.691133415231 -262.725661071386 2160.87887526431 13 14 8
-964.519519715648 -263.07442511959 2170.90122288964 12 13 8
-956.163484658468 -262.556460276343 2170.77669679448 12 13 8
-959.044428012398 -264.395418342211 2198.39024241184 12 13 7
-947.297739205022 -263.169530538973 2189.95105871813 12 13 7
-940.408460886924 -262.964504674206 2193.5362180205 12 13 7
-925.82010707432 -261.116096399211 2177.64352959406 13 14 8
-917.518712473727 -260.600124887694 2177.49874586371 15 16 10
-904.536582210801 -259.070155879622 2165.26516290988 17 20 13
-900.961438505505 -259.569899920267 2177.19276568478 16 19 12
-898.759036913889 -260.378974504753 2192.8647394687 14 17 10
-889.767635036633 -259.70807524597 2190.84898406061 14 17 10
-873.08089866253 -257.330006958837 2168.29227824355 14 17 10
-862.106891978506 -256.198017603738 2160.63207587161 14 17 8
-856.376459273203 -256.229838379442 2166.97823560335 16 19 8
-853.028108899523 -256.802220483923 2179.8845114233 17 20 11
-841.787766820849 -255.595826242855 2171.26013643234 18 21 12
-836.356781426781 -255.70319522767 2178.55835171475 19 22 13
-830.229106513288 -255.65546902715 2183.98829016789 21 24 15
-821.755311456936 -255.068532985719 2182.84494414718 23 26 17
-818.258086344645 -255.63497215348 2195.80576015465 23 26 17
-814.70454319224 -256.199197964366 2208.78745992764 24 27 20
-805.565119616254 -255.458316710306 2205.76421037743 24 27 20
-813.559369835584 -258.775173589689 2252.74104033786 25 28 21
-819.071500352361 -261.547503698626 2293.1944007427 27 30 23
-788.812291037617 -255.761940046271 2227.82759406032 29 32 25
-789.161924891372 -257.309636274729 2253.18316693947 31 34 27
-1018.22949302818 -278.467373836407 2239.8222858563 17 18 10
-987.354091189438 -273.195020442809 2186.37352405263 13 14 6
-983.88588944541 -273.726687660858 2198.25986214214 13 14 8
-972.784977915632 -272.626794994589 2191.70990355752 13 14 9
-959.8526369173 -271.12198420154 2180.52288830399 14 15 10
-951.109892763115 -270.514149144536 2179.47883845486 11 12 6
-948.328660047856 -271.205842938144 2193.23661311168 11 12 6
-939.216414198842 -270.516841019406 2191.26638503661 12 13 7
-930.861870052925 -269.990724926927 2191.14167795691 14 15 9
-906.158871534749 -265.825833558517 2149.23293875504 13 14 8
-907.337881073454 -267.4054583443 2173.21794869778 15 18 11
-895.134129029852 -265.995513107121 2162.82560819499 16 19 12
-900.086595005653 -268.455835344321 2197.10601120251 15 18 11
-888.256334526703 -267.127071463353 2187.63839816249 14 17 10
-868.775387707692 -264.032698870879 2157.61802172881 12 15 8
-858.179634556119 -262.95210191929 2150.88306424195 12 15 6
-854.89383011829 -263.557070960786 2163.76415603809 15 18 7
-861.157814581483 -266.401797676833 2202.87232099168 16 19 10
-850.536180633512 -265.320083187813 2196.14685129007 17 20 11
-843.345372153079 -265.039042486854 2198.78074702756 18 21 12
-832.130052123311 -263.800719355188 2190.14943536707 20 23 14
-820.310879031026 -262.405446734062 2179.61625581631 24 27 18
-816.159197186709 -262.843045461751 2190.69146927436 24 27 18
-812.616678867486 -263.437732362971 2203.66661066826 24 27 20
-806.091947196552 -263.315878209395 2208.17985158762 25 28 21
-802.45984288622 -263.906989514725 2221.18781272087 25 28 21
-798.131551162502 -264.33754090348 2232.32772691356 26 29 22
-800.35583208302 -267.956941816621 2287.77802201292 17 20 13
-996.500959373581 -281.72663325615 2188.80624556007 18 20 9
-983.427851247828 -281.494887605934 2197.84016152992 12 13 7
-971.570857837462 -280.199482168199 2189.4465551627 12 13 8
-961.656594965016 -279.326926217975 2185.64821265623 12 13 8
-956.262775342901 -279.463733350596 2192.93070306268 11 12 6
-950.842961252495 -279.599504773421 2200.22297068689 10 11 5
-947.240103283828 -280.153217673277 2212.15657105785 12 13 7
-917.962628375253 -274.845656911886 2159.196689386 15 16 10
-916.980512776529 -275.987479465389 2177.60010409347 14 15 9
-894.61739393459 -272.199180139941 2141.21263029642 12 15 8
