ply
format ascii 1.0
comment KinectMotionCapture
element vertex 751
property float x
property float y
property float z
property uchar red
property uchar green
property uchar blue
end_header
-795.952796936035 201.904058456421 1909.9999666214 173 177 176
-796.151697635651 203.280314803123 1922.99997806549 177 181 180
-796.281695365906 204.657062888145 1935.99998950958 177 181 180
-795.933902263641 205.928519368172 1947.99995422363 170 172 171
-794.71093416214 206.989049911499 1957.99994468689 105 107 106
-791.419267654419 207.521423697472 1963.00005912781 124 126 125
-784.898161888123 207.20848441124 1960.00003814697 127 129 128
-778.39457988739 206.895917654037 1957.00001716614 142 144 143
-772.698521614075 206.795185804367 1955.9999704361 148 150 149
-768.186092376709 207.011997699738 1957.99994468689 164 164 164
-763.664066791534 207.229241728783 1960.00003814697 166 168 167
-760.292768478394 207.764014601707 1965.0000333786 160 162 161
-756.895542144775 208.299204707146 1970.00002861023 160 162 161
-754.235148429871 209.046244621277 1976.99999809265 159 161 160
-750.401437282562 209.476441144943 1980.99994659424 145 147 146
-746.92291021347 210.012778639793 1985.99994182587 142 144 143
-741.924703121185 210.126504302025 1986.99998855591 136 138 137
-738.404512405396 210.663571953774 1991.99998378754 141 143 142
-734.490156173706 211.095258593559 1996.00005149841 152 154 153
-730.919778347015 211.633026599884 2000.99992752075 158 160 159
-725.872933864594 211.748123168945 2002.00009346008 165 167 166
-720.821022987366 211.863473057747 2003.00002098084 164 166 165
-716.478705406189 212.190732359886 2006.00004196167 168 170 169
-712.474822998047 212.624058127403 2009.99999046326 170 172 171
-708.449959754944 213.057696819305 2013.99993896484 173 175 174
-703.356742858887 213.17432820797 2015.00010490417 176 178 177
-697.9119181633 213.185399770737 2015.00010490417 170 172 171
-693.498194217682 213.514104485512 2017.99988746643 174 176 175
-690.091550350189 214.160561561584 2023.9999294281 179 181 180
-686.314404010773 214.701548218727 2029.00004386902 179 181 180
-683.516919612885 215.560257434845 2036.99994087219 172 174 173
-679.345071315765 215.996012091637 2040.99988937378 168 170 169
-677.132606506348 217.067062854767 2051.00011825562 166 168 167
-675.520777702332 218.35008263588 2062.99996376038 184 186 185
-675.792753696442 220.268592238426 2081.00008964539 185 187 186
-674.357175827026 221.658274531364 2094.00010108948 173 175 174
-673.170626163483 223.154172301292 2108.00004005432 180 182 181
-671.591579914093 224.54459965229 2121.00005149841 186 188 187
-668.686389923096 225.511908531189 2130.00011444092 184 186 185
-664.487421512604 226.055979728699 2134.99999046326 176 178 177
-661.186814308167 226.917937397957 2142.99988746643 169 171 170
-658.760249614716 228.097945451736 2154.00004386902 184 186 185
-659.305155277252 230.337232351303 2174.99995231628 190 192 191
-659.135341644287 232.365176081657 2194.00000572205 190 192 191
-660.351037979126 234.923124313354 2217.99993515015 192 192 192
-658.7815284729 236.528262495995 2233.00004005432 187 187 187
-655.376434326172 237.498179078102 2242.00010299683 178 178 178
-651.053369045258 238.150522112846 2247.99990653992 160 160 158
-648.418962955475 239.438816905022 2259.99999046326 164 164 162
-899.589240550995 195.54328918457 1898.00000190735 186 188 187
-889.677822589874 194.504618644714 1888.00001144409 181 183 182
-882.635176181793 194.084703922272 1883.99994373322 170 172 171
-877.014935016632 193.97446513176 1883.00001621246 174 176 175
-870.939910411835 193.761765956879 1881.00004196167 189 191 190
-864.418268203735 193.446636199951 1878.00002098084 189 191 190
-856.543183326721 192.823052406311 1871.99997901917 192 194 193
-848.703503608704 192.200049757957 1866.00005626678 196 198 197
-839.99502658844 191.371589899063 1858.00004005432 196 198 197
-833.579421043396 191.058665513992 1855.00001907349 197 199 198
-827.629208564758 190.849259495735 1853.00004482269 202 204 203
-820.804476737976 190.434366464615 1848.99997711182 203 205 204
-814.444899559021 190.122961997986 1845.99995613098 197 199 198
-808.542311191559 189.915046095848 1843.99998188019 193 195 194
-805.26727437973 190.325558185577 1848.00004959106 190 192 191
-802.405536174774 190.839499235153 1853.00004482269 188 190 189
-799.518406391144 191.353872418404 1858.00004005432 186 188 187
-799.171686172485 192.48665869236 1868.99995803833 184 186 185
-799.191892147064 193.722873926163 1881.00004196167 183 185 184
-798.304319381714 194.753542542458 1891.00003242493 183 185 184
-796.105802059174 195.475697517395 1898.00000190735 179 183 182
-793.870985507965 196.198284626007 1904.99997138977 176 180 179
-794.497966766357 197.642281651497 1919.0000295639 174 178 177
-793.816566467285 198.777735233307 1929.99994754791 171 175 174
-794.711351394653 200.325593352318 1945.00005245209 167 169 168
-793.90275478363 201.461955904961 1955.9999704361 98 100 99
-791.82642698288 202.289745211601 1963.99998664856 115 117 116
-784.50208902359 201.778948307037 1958.99999141693 121 123 122
-778.001606464386 201.474547386169 1955.9999704361 146 148 147
-772.308647632599 201.376497745514 1955.00004291534 151 153 152
-767.799377441406 201.587855815887 1957.00001716614 157 157 157
-764.059484004974 202.005594968796 1960.99996566772 157 159 158
-761.459827423096 202.732801437378 1968.00005435944 146 148 147
-757.670640945435 203.151300549507 1972.00000286102 141 143 142
-754.623770713806 203.776270151138 1978.00004482269 136 138 137
-750.787675380707 204.19554412365 1981.99999332428 139 141 140
-747.306823730469 204.718187451363 1986.99998855591 146 148 147
-741.93274974823 204.726055264473 1986.99998855591 163 165 164
-737.300932407379 204.940319061279 1988.9999628067 167 169 168
-733.394920825958 205.360993742943 1993.00003051758 168 170 169
-730.198264122009 205.988079309464 1998.99995326996 168 170 169
-725.51965713501 206.20334148407 2000.99992752075 170 172 171
-720.47084569931 206.315860152245 2002.00009346008 171 173 172
-715.417146682739 206.428691744804 2003.00002098084 169 171 170
-711.067259311676 206.747889518738 2006.00004196167 172 174 173
-706.349909305573 206.96434378624 2007.99989700317 172 174 173
-701.273143291473 207.078024744987 2009.0000629425 166 168 167
-696.883857250214 207.398116588593 2012.00008392334 166 168 167
-692.478716373444 207.718521356583 2015.00010490417 176 178 177
-689.08029794693 208.348423242569 2020.99990844727 177 179 178
-684.973359107971 208.772495388985 2025.00009536743 182 184 183
-682.186901569366 209.60921049118 2032.99999237061 165 167 166
-677.69330739975 209.93073284626 2036.00001335144 161 163 162
-674.834191799164 210.768073797226 2043.99991035461 165 167 166
-672.259330749512 211.708843708038 2052.99997329712 184 186 185
-672.558605670929 213.578104972839 2071.00009918213 185 187 186
-670.828282833099 214.828968048096 2082.99994468689 180 182 181
-667.755603790283 215.667635202408 2091.00008010864 172 174 173
-666.856110095978 217.228621244431 2105.99994659424 179 181 180
-664.933562278748 218.480542302132 2118.00003051758 186 188 187
-662.323415279388 219.526454806328 2128.00002098084 185 187 186
-658.424854278564 220.160022377968 2134.0000629425 179 181 180
-655.411124229431 221.103340387344 2142.99988746643 173 175 174
-654.167234897614 222.666054964066 2157.99999237061 182 184 183
-654.043734073639 224.641919136047 2177.00004577637 189 191 190
-655.00795841217 227.03093290329 2200.00004768372 185 185 185
-654.962420463562 229.110822081566 2220.00002861023 193 193 193
-652.762055397034 230.468675494194 2233.00004005432 194 194 194
-648.75316619873 231.207549571991 2240.00000953674 167 167 165
-644.992828369141 232.049837708473 2247.99990653992 165 165 163
-644.030869007111 233.924716711044 2266.00003242493 175 175 173
-893.893122673035 189.177393913269 1886.0000371933 182 184 183
-888.256132602692 189.069002866745 1884.99999046326 181 183 182
-882.159471511841 188.860923051834 1883.00001621246 169 171 170
-877.473771572113 188.954278826714 1883.99994373322 175 175 175
-870.470583438873 188.546732068062 1879.99999523163 187 187 187
-862.57141828537 187.939152121544 1873.99995326996 186 186 186
-855.165362358093 187.432453036308 1868.99995803833 194 194 194
-845.515072345734 186.424866318703 1858.99996757507 195 195 195
-837.730526924133 185.818985104561 1853.00004482269 196 197 199
-829.53155040741 185.113310813904 1845.99995613098 199 200 202
-823.606371879578 184.909552335739 1843.99998188019 203 204 206
-816.362679004669 184.405460953712 1838.99998664856 201 202 204
-810.913324356079 184.30295586586 1838.00005912781 198 199 201
-805.471360683441 184.200897812843 1837.00001239777 198 199 201
-801.780104637146 184.500381350517 1840.0000333786 197 198 200
-798.074424266815 184.800326824188 1843.00005435944 195 196 198
-795.215010643005 185.301244258881 1848.00004959106 192 193 195
-794.468283653259 186.303958296776 1858.00004005432 186 187 189
-795.793414115906 187.808468937874 1873.00002574921 184 185 187
-796.616673469543 189.213126897812 1886.99996471405 183 184 186
-795.268416404724 190.11689722538 1896.00002765656 181 183 182
-792.622685432434 190.720230340958 1901.99995040894 175 177 176
-792.430222034454 191.925689578056 1914.00003433228 176 178 177
-792.174160480499 193.131536245346 1925.99999904633 174 176 175
-794.305980205536 194.939479231834 1944.00000572205 166 168 167
-794.312238693237 196.24650478363 1957.00001716614 101 103 102
-791.830480098724 196.952313184738 1963.99998664856 110 112 111
-784.105956554413 196.354791522026 1957.99994468689 122 124 123
-777.608513832092 196.058511734009 1955.00004291534 147 149 148
-772.313833236694 196.063473820686 1955.00004291534 153 155 154
-768.197119235992 196.369618177414 1957.99994468689 148 150 149
-765.234291553497 196.97704911232 1963.99998664856 146 147 149
-762.626767158508 197.685152292252 1970.99995613098 138 139 141
-759.214043617249 198.193058371544 1975.99995136261 131 132 134
-755.012214183807 198.500707745552 1978.99997234344 130 132 131
-750.037372112274 198.608115315437 1980.00001907349 157 159 158
-746.186196804047 199.016779661179 1983.99996757507 171 173 172
-741.194009780884 199.124827980995 1985.00001430511 174 176 175
-737.309277057648 199.534177780151 1988.9999628067 176 178 177
-733.771443367004 200.04415512085 1993.99995803833 173 175 172
-730.20726442337 200.554504990578 1998.99995326996 170 172 169
-724.803745746613 200.5635201931 1998.99995326996 167 169 166
-719.400703907013 200.572803616524 1998.99995326996 168 170 169
-713.998198509216 200.582399964333 1998.99995326996 167 169 168
-710.01398563385 200.99364221096 2003.00002098084 168 170 169
-704.953253269196 201.10410451889 2003.99994850159 169 171 170
-700.585544109344 201.415538787842 2006.99996948242 169 171 170
-696.548402309418 201.82766020298 2010.99991798401 168 170 169
-692.489802837372 202.240064740181 2015.00010490417 178 180 179
-688.750803470612 202.753081917763 2019.99998092651 177 179 178
-684.308469295502 203.065663576126 2023.00000190735 175 177 176
-680.521190166473 203.579291701317 2028.00011634827 164 166 165
-674.709737300873 203.490808606148 2026.99995040894 167 169 168
-670.884788036346 204.004928469658 2032.00006484985 174 176 175
-668.670058250427 205.021306872368 2042.00005531311 184 186 185
-669.324100017548 206.941723823547 2061.00010871887 188 190 189
-667.943000793457 208.260014653206 2073.99988174438 185 187 186
-664.575695991516 208.976209163666 2081.00008964539 172 174 173
-662.436783313751 210.094332695007 2092.00000762939 177 179 178
-660.238325595856 211.212813854218 2102.9999256134 190 192 191
-659.536480903625 212.833777070045 2118.99995803833 189 191 190
-655.970990657806 213.551118969917 2125.99992752075 185 187 186
-652.061581611633 214.168265461922 2131.99996948242 175 177 176
-649.3319272995 215.187475085258 2141.99995994568 177 179 178
-648.350596427917 216.809809207916 2157.99999237061 183 185 184
-649.068832397461 219.03532743454 2180.0000667572 189 191 190
-650.257766246796 221.462264657021 2203.9999961853 183 185 184
-649.854779243469 223.387211561203 2223.00004959106 190 192 191
-647.6109623909 224.709630012512 2236.00006103516 176 178 177
-643.287718296051 225.328788161278 2242.00010299683 168 170 169
-641.205310821533 226.752236485481 2256.00004196167 174 176 175
-641.580164432526 229.080632328987 2279.00004386902 193 195 194
-888.671398162842 182.97453224659 1875 179 181 180
-886.363744735718 183.552324771881 1881.00004196167 172 174 173
-882.152318954468 183.74028801918 1883.00001621246 164 166 165
-877.467274665833 183.831229805946 1883.99994373322 177 177 177
-870.464622974396 183.434844017029 1879.99999523163 183 183 183
-862.10572719574 182.746291160584 1873.00002574921 183 183 183
-851.957678794861 181.668013334274 1861.99998855591 193 193 193
-841.417491436005 180.492743849754 1850.00002384186 191 191 191
-833.205759525299 179.805845022202 1843.00005435944 193 194 196
-825.933218002319 179.314538836479 1838.00005912781 193 194 196
-820.030450820923 179.116427898407 1835.99996566772 194 195 197
-813.252985477448 178.72366309166 1832.00001716614 195 196 198
-808.264195919037 178.721576929092 1832.00001716614 194 195 197
-802.400648593903 178.52483689785 1830.00004291534 192 193 195
-799.164533615112 178.913861513138 1833.99999141693 185 186 188
-795.475721359253 179.205790162086 1837.00001239777 184 185 187
-792.63299703598 179.69323694706 1842.00000762939 182 183 185
-791.047811508179 180.473759770393 1850.00002384186 181 182 184
-791.970193386078 181.840017437935 1863.9999628067 182 183 185
-792.818367481232 183.206722140312 1878.00002098084 180 182 181
-793.172717094421 184.476271271706 1891.00003242493 180 182 181
-790.957748889923 185.160920023918 1898.00000190735 175 177 176
-790.776491165161 186.333775520325 1909.9999666214 176 178 177
-790.942966938019 187.604606151581 1922.99997806549 174 176 175
-792.674779891968 189.266115427017 1940.00005722046 167 169 168
-793.098211288452 190.635368227959 1953.9999961853 99 101 100
-790.221750736237 191.224530339241 1960.00003814697 117 119 118
-783.71000289917 190.936043858528 1957.00001716614 137 139 138
-778.408825397491 190.940573811531 1957.00001716614 147 149 148
-773.503959178925 191.0430341959 1957.99994468689 144 146 145
-769.379615783691 191.341012716293 1960.99996566772 141 143 142
-766.019403934479 191.834524273872 1965.99996089935 141 142 144
-763.406872749329 192.523553967476 1973.00004959106 145 146 148
-758.836448192596 192.725032567978 1975.00002384186 156 157 159
-753.874480724335 192.829266190529 1975.99995136261 167 169 168
-748.529255390167 192.836239933968 1975.99995136261 171 173 172
-744.689285755157 193.233922123909 1980.00001907349 166 168 167
-740.081667900085 193.436741828918 1981.99999332428 172 174 173
-736.205220222473 193.83504986763 1985.99994182587 173 175 174
-732.308030128479 194.233730435371 1990.00000953674 176 178 175
-728.024303913116 194.535091519356 1993.00003051758 172 174 171
-723.362445831299 194.739148020744 1995.00000476837 166 168 165
-718.690276145935 194.943517446518 1996.99997901917 162 164 163
-713.650703430176 195.050537586212 1998.00002574921 166 168 167
-708.960473537445 195.25545835495 2000 172 174 173
-703.908085823059 195.363029837608 2000.99992752075 171 173 172
-700.246930122375 195.861369371414 2006.00004196167 177 179 178
-695.866346359253 196.164786815643 2009.0000629425 181 183 182
-691.126048564911 196.370765566826 2010.99991798401 175 177 176
-686.375260353088 196.577027440071 2013.00001144409 166 168 167
-682.290375232697 196.978837251663 2016.99995994568 166 168 167
-677.51270532608 197.185590863228 2019.00005340576 170 172 171
-671.725809574127 197.099551558495 2017.99988746643 174 176 175
-668.585777282715 197.795152664185 2025.00009536743 179 181 180
-666.717648506165 198.881730437279 2036.00001335144 189 191 190
-666.738629341125 200.554773211479 2052.99997329712 192 194 193
-664.735436439514 201.642051339149 2063.99989128113 183 185 184
-660.756528377533 202.143460512161 2069.00000572205 178 180 179
-658.333718776703 203.13361287117 2078.9999961853 178 180 179
-655.228674411774 203.928619623184 2086.99989318848 182 184 183
-655.192852020264 205.701142549515 2105.00001907349 187 189 188
-652.591109275818 206.69224858284 2115.00000953674 186 188 187
-649.629175662994 207.585871219635 2124.00007247925 173 175 174
-646.011888980865 208.284318447113 2131.00004196167 172 174 173
-644.159257411957 209.569469094276 2144.00005340576 185 187 186
-643.724501132965 211.343675851822 2161.99994087219 188 190 189
-644.077301025391 213.411584496498 2183.00008773804 184 186 185
-645.777761936188 215.96871316433 2209.00011062622 188 190 189
-645.309686660767 217.841923236847 2227.9999256134 184 186 185
-641.582190990448 218.639925122261 2236.00006103516 175 177 176
-638.663530349731 219.731509685516 2246.99997901917 173 175 174
-637.936890125275 221.605718135834 2266.00003242493 186 188 187
-885.345876216888 177.211090922356 1868.00003051758 179 181 180
-884.000301361084 177.962645888329 1876.00004673004 170 172 171
-880.27161359787 178.240358829498 1878.99994850159 168 170 169
-876.529574394226 178.518578410149 1881.99996948242 179 179 179
-868.606925010681 177.943661808968 1876.00004673004 181 181 181
-857.497751712799 176.705285906792 1863.00003528595 183 183 183
-846.919894218445 175.562337040901 1850.99995136261 191 191 191
-836.410284042358 174.419939517975 1838.99998664856 188 188 188
-830.941677093506 174.321353435516 1838.00005912781 191 192 194
-823.233902454376 173.748999834061 1832.00001716614 189 190 192
-817.794501781464 173.651352524757 1830.9999704361 191 192 194
-812.362909317017 173.55415225029 1830.00004291534 193 194 196
-807.380080223084 173.552230000496 1830.00004291534 192 193 195
-801.96076631546 173.455893993378 1828.9999961853 190 191 193
-796.984910964966 173.454850912094 1828.9999961853 191 192 194
-793.743073940277 173.833549022675 1832.99994468689 188 189 191
-790.481328964233 174.21267926693 1837.00001239777 183 184 186
-788.910210132599 174.971535801888 1845.00002861023 182 183 185
-788.996875286102 176.110163331032 1856.99999332428 182 183 185
-788.597941398621 177.154347300529 1868.00003051758 180 182 181
-789.399266242981 178.483456373215 1881.99996948242 181 183 182
-789.292812347412 179.623320698738 1894.00005340576 175 177 176
-791.192829608917 181.237772107124 1911.00001335144 176 178 177
-791.768372058868 182.568147778511 1924.99995231628 173 175 174
-793.086528778076 184.088602662086 1940.99998474121 167 169 168
-791.478216648102 184.945598244667 1950.00004768372 106 108 107
-788.613021373749 185.518443584442 1955.9999704361 125 127 126
-783.313810825348 185.522615909576 1955.9999704361 150 152 151
-778.811275959015 185.716807842255 1957.99994468689 144 146 145
-774.299204349518 185.911402106285 1960.00003814697 137 139 138
-769.777417182922 186.106309294701 1962.00001239777 134 136 135
-766.414761543274 186.586141586304 1967.00000762939 139 140 142
-762.639164924622 186.971500515938 1970.99995613098 166 167 169
-758.458614349365 187.262326478958 1973.99997711182 170 171 173
-753.118216991425 187.268882989883 1973.99997711182 166 168 167
-747.778713703156 187.275737524033 1973.99997711182 167 169 168
-743.192195892334 187.472656369209 1975.99995136261 172 174 173
-739.715933799744 187.954545021057 1980.99994659424 170 172 171
-735.842645168304 188.341870903969 1985.00001430511 170 172 171
-731.94831609726 188.729509711266 1988.9999628067 175 177 174
-727.302372455597 188.927680253983 1991.00005626678 173 175 172
-722.646176815033 189.126133918762 1993.00003051758 168 170 167
-717.619836330414 189.229980111122 1993.99995803833 164 166 165
-712.588489055634 189.334079623222 1995.00000476837 168 170 169
-708.26119184494 189.628288149834 1998.00002574921 175 177 176
-703.918039798737 189.922749996185 2000.99992752075 174 176 175
-700.606286525726 190.502256155014 2006.99996948242 177 179 178
-695.530414581299 190.60742855072 2007.99989700317 179 181 180
-690.449476242065 190.712869167328 2009.0000629425 168 170 169
-685.022294521332 190.723568201065 2009.0000629425 168 170 169
-679.595351219177 190.734520554543 2009.0000629425 169 171 170
-673.497200012207 190.5557513237 2006.99996948242 172 174 173
-667.742967605591 190.472140908241 2006.00004196167 175 177 176
-664.965748786926 191.243320703506 2013.99993896484 187 189 188
-665.092468261719 192.869454622269 2030.99989891052 191 193 192
-665.127277374268 194.495990872383 2048.00009727478 194 196 195
-662.815749645233 195.458069443703 2058.00008773804 186 188 187
-658.85317325592 195.945516228676 2062.99996376038 183 185 184
-655.496835708618 196.623221039772 2069.9999332428 180 182 181
-651.788413524628 197.206169366837 2075.99997520447 181 183 182
-650.537490844727 198.549315333366 2089.99991416931 186 188 187
-648.285090923309 199.607819318771 2101.0000705719 191 193 192
-645.972967147827 200.666606426239 2111.99998855591 184 186 185
-642.994582653046 201.535642147064 2121.00005149841 178 180 179
-640.267729759216 202.499955892563 2131.00004196167 177 179 178
-638.975203037262 203.939661383629 2145.99990844727 181 183 182
-638.781428337097 205.759897828102 2164.99996185303 185 187 186
-640.823066234589 208.340868353844 2191.99991226196 186 188 187
-642.139196395874 210.732221603394 2217.00000762939 195 197 196
-640.163123607636 212.078347802162 2230.99994659424 187 189 188
-637.542486190796 213.234692811966 2243.00003051758 174 176 175
-636.263787746429 214.866623282433 2259.99999046326 173 175 174
-637.402176856995 217.354640364647 2286.00001335144 187 189 188
-638.399183750153 219.843089580536 2312.00003623962 191 193 192
-883.916556835175 171.854510903358 1865.00000953674 174 176 175
-881.637275218964 172.400325536728 1871.00005149841 162 164 163
-879.328191280365 172.946617007256 1876.99997425079 167 169 168
-874.194920063019 172.940567135811 1876.99997425079 181 181 181
-865.823447704315 172.290071845055 1870.00000476837 182 182 182
-852.890133857727 170.718789100647 1853.00004482269 184 184 184
-842.797696590424 169.700860977173 1842.00000762939 187 187 187
-834.587156772614 169.051945209503 1835.00003814697 184 184 184
-830.938220024109 169.324770569801 1838.00005912781 182 183 185
-823.230981826782 168.768927454948 1832.00001716614 184 185 187
-817.791998386383 168.674141168594 1830.9999704361 191 192 194
-810.141265392303 168.119221925735 1825.00004768372 194 195 197
-804.731249809265 168.025329709053 1824.00000095367 195 196 198
-798.451840877533 167.747631669044 1820.99997997284 194 195 197
-794.805347919464 168.023034930229 1824.00000095367 191 192 194
-792.010605335236 168.483108282089 1828.9999961853 190 191 193
-789.190411567688 168.943539261818 1833.99999141693 187 188 190
-786.34512424469 169.404417276382 1838.99998664856 187 188 190
-785.173773765564 170.234128832817 1848.00004959106 187 188 190
-784.37751531601 171.156361699104 1858.00004005432 182 184 183
-785.625815391541 172.539576888084 1873.00002574921 184 186 185
-787.211179733276 174.01534318924 1889.00005817413 178 180 179
-789.953231811523 175.767838954926 1907.99999237061 175 177 176
-790.537297725677 177.060186862946 1922.00005054474 170 172 171
-791.046857833862 178.352907299995 1935.99998950958 164 166 165
-789.452433586121 179.185435175896 1945.00005245209 128 130 129
-787.004351615906 179.834082722664 1952.00002193451 134 136 135
-782.917678356171 180.114567279816 1955.00004291534 134 136 135
-779.213726520538 180.48757314682 1958.99999141693 132 134 133
-775.094270706177 180.768772959709 1962.00001239777 137 139 138
-770.175158977509 180.866077542305 1963.00005912781 156 158 157
-766.420483589172 181.240111589432 1967.00000762939 162 163 165
-762.258172035217 181.522354483604 1970.00002861023 162 163 165
-757.696509361267 181.712776422501 1972.00000286102 163 164 166
-753.124952316284 181.903541088104 1973.99997711182 166 168 167
-747.785747051239 181.910291314125 1973.99997711182 172 174 173
-743.575632572174 182.19381570816 1976.99999809265 174 176 175
-738.976716995239 182.385504245758 1978.99997234344 173 175 174
-734.367668628693 182.577461004257 1980.99994659424 171 173 172
-730.116426944733 182.861894369125 1983.99996757507 175 177 174
-726.21488571167 183.238804340363 1988.00003528595 177 179 176
-722.654938697815 183.708176016808 1993.00003051758 177 179 176
-717.988729476929 183.901309967041 1995.00000476837 176 178 177
-712.954998016357 184.00251865387 1996.00005149841 175 177 176
-707.91620016098 184.104010462761 1996.99997901917 175 177 176
-703.57608795166 184.390127658844 2000 175 177 176
-698.870897293091 184.584304690361 2002.00009346008 169 171 170
-692.769646644592 184.409916400909 2000 166 168 167
-686.335802078247 184.143513441086 1996.99997901917 166 168 167
-680.600225925446 184.061706066132 1996.00005149841 171 173 172
-675.885081291199 184.256792068481 1998.00002574921 170 172 171
-670.152604579926 184.175401926041 1996.99997901917 170 172 171
-665.424108505249 184.370890259743 1998.99995326996 175 177 176
-663.326323032379 185.304507613182 2009.0000629425 185 187 186
-663.139462471008 186.791896820068 2025.00009536743 190 192 191
-662.865936756134 188.27959895134 2040.99988937378 194 196 195
-660.895586013794 189.306437969208 2052.00004577637 187 189 188
-657.268881797791 189.872264862061 2058.00008773804 185 187 186
-653.292834758759 190.346032381058 2062.99996376038 182 184 183
-648.975670337677 190.727770328522 2066.99991226196 180 182 181
-646.192967891693 191.571116447449 2075.99997520447 184 186 185
-643.669962882996 192.506983876228 2085.99996566772 194 196 195
-642.316162586212 193.812310695648 2099.99990463257 193 195 194
-640.582978725433 195.025622844696 2112.99991607666 188 190 189
-637.878000736237 195.962354540825 2122.99990653992 176 178 177
-635.714054107666 197.083950042725 2134.99999046326 178 180 179
-634.370088577271 198.482811450958 2150.00009536743 184 186 185
-636.160314083099 200.89752972126 2176.00011825562 184 186 185
-638.099133968353 203.405022621155 2203.00006866455 193 195 194
-638.169825077057 205.35896718502 2223.99997711182 187 189 188
-636.136591434479 206.666871905327 2237.99991607666 180 182 181
-635.153353214264 208.344504237175 2256.00004196167 175 177 176
-634.908556938171 210.299521684647 2276.99995040894 184 186 185
-633.444964885712 211.885452270508 2293.99991035461 183 185 184
-882.961571216583 166.603818535805 1863.00003528595 173 175 174
-881.159484386444 167.223051190376 1870.00000476837 161 163 162
-878.385186195374 167.663872241974 1875 170 172 171
-872.792065143585 167.568668723106 1873.99995326996 180 180 180
-862.114131450653 166.490390896797 1861.99998855591 182 182 182
-848.74302148819 164.876192808151 1843.99998188019 184 184 184
-839.590728282928 164.067208766937 1835.00003814697 183 183 183
-833.673715591431 163.884580135345 1832.99994468689 181 181 181
-829.578697681427 164.060056209564 1835.00003814697 183 185 184
-821.880042552948 163.520693778992 1828.9999961853 185 187 186
-815.10990858078 163.160607218742 1825.00004768372 190 192 191
-807.91974067688 162.711530923843 1820.00005245209 189 191 190
-802.523791790009 162.62049973011 1819.00000572205 185 187 186
-797.135353088379 162.529855966568 1817.999958992 184 186 185
-793.061673641205 162.707850337029 1820.00005245209 182 184 183
-789.412140846252 162.975609302521 1822.99995422363 184 186 185
-786.608636379242 163.422554731369 1827.99994945526 186 188 187
-783.779978752136 163.86990249157 1832.99994468689 186 188 187
-782.200574874878 164.585828781128 1840.99996089935 186 188 187
-781.001508235931 165.391519665718 1850.00002384186 184 186 185
-782.271862030029 166.734009981155 1865.00000953674 186 188 187
-784.296035766602 168.25570166111 1881.99996948242 180 182 181
-787.471532821655 170.045986771584 1901.99995040894 174 176 175
-788.894832134247 171.479076147079 1917.99998283386 169 171 170
-790.232837200165 172.912567853928 1934.00001525879 162 164 163
-788.644194602966 173.720583319664 1942.999958992 128 130 129
-786.605060100555 174.43959414959 1950.99997520447 131 133 132
-782.521426677704 174.711897969246 1953.9999961853 134 136 135
-778.820514678955 175.073966383934 1957.99994468689 139 141 140
-774.704217910767 175.346970558167 1960.99996566772 148 150 149
-769.395709037781 175.352051854134 1960.99996566772 163 165 164
-765.257120132446 175.625711679459 1963.99998664856 162 163 165
-760.716378688812 175.810277462006 1965.99996089935 166 167 169
-757.318496704102 176.263436675072 1970.99995613098 165 166 168
-752.749919891357 176.448658108711 1973.00004959106 163 165 164
-747.792601585388 176.544725894928 1973.99997711182 167 169 168
-743.20662021637 176.730513572693 1975.99995136261 170 172 171
-738.610744476318 176.916629076004 1978.00004482269 172 174 173
-733.263254165649 176.924124360085 1978.00004482269 173 175 174
-728.652477264404 177.11079120636 1980.00001907349 174 176 173
-725.127279758453 177.566096186638 1985.00001430511 174 176 173
-721.575677394867 178.021684288979 1990.00000953674 175 177 174
-716.917872428894 178.209185600281 1991.99998378754 178 180 179
-711.892485618591 178.307488560677 1993.00003051758 177 179 178
-706.861972808838 178.40601503849 1993.99995803833 172 174 173
-702.178418636322 178.594291210175 1996.00005149841 169 171 170
-696.437001228333 178.51434648037 1995.00000476837 168 170 169
-690.008461475372 178.255677223206 1991.99998378754 168 170 169
-684.283792972565 178.176134824753 1991.00005626678 175 177 176
-678.223788738251 178.007304668427 1988.9999628067 173 175 174
-673.527777194977 178.196653723717 1991.00005626678 167 169 168
-668.149888515472 178.207218647003 1991.00005626678 171 173 172
-663.770735263824 178.486511111259 1993.99995803833 178 180 179
-661.026418209076 179.213613271713 2002.00009346008 182 184 183
-660.203635692596 180.478110909462 2016.00003242493 191 193 192
-659.954726696014 181.921988725662 2032.00006484985 197 199 198
-657.364726066589 182.739481329918 2040.99988937378 191 193 192
-653.767883777618 183.288618922234 2046.99993133545 192 194 193
-649.821817874908 183.748468756676 2052.00004577637 192 194 193
-645.848453044891 184.208497405052 2056.99992179871 185 187 186
-643.404304981232 185.116529464722 2066.99991226196 187 189 188
-640.597283840179 185.935288667679 2075.99997520447 193 195 194
-638.658940792084 187.022984027863 2088.00005912781 196 198 197
-636.958539485931 188.200563192368 2101.0000705719 195 197 196
-634.286046028137 189.109638333321 2111.00006103516 189 191 190
-632.154703140259 190.19815325737 2122.99990653992 187 189 188
-630.548298358917 191.466152667999 2137.00008392334 184 186 185
-632.373929023743 193.809688091278 2163.00010681152 188 190 189
-634.348273277283 196.24325633049 2190.00005722046 188 190 189
-635.028183460236 198.318794369698 2213.00005912781 189 191 190
-633.593440055847 199.767410755157 2229.00009155273 182 184 183
-632.916152477264 201.485201716423 2247.99990653992 179 181 180
-631.577968597412 203.024074435234 2265.00010490417 181 183 182
-629.318654537201 204.294309020042 2279.00004386902 176 178 177
-625.34236907959 205.02695441246 2286.99994087219 180 182 181
-623.216986656189 206.387341022491 2302.00004577637 181 183 182
-881.624221801758 162.224724888802 1871.00005149841 156 158 155
-878.379225730896 162.565544247627 1875 177 179 176
-872.786581516266 162.473306059837 1873.99995326996 180 180 178
-859.79425907135 160.994425415993 1856.99999332428 184 184 182
-847.35780954361 159.602776169777 1840.99996089935 183 183 181
-839.129269123077 158.991873264313 1833.99999141693 179 179 177
-833.215534687042 158.814877271652 1832.00001716614 181 181 179
-826.86311006546 158.551648259163 1828.9999961853 190 192 191
-818.731963634491 157.942101359367 1822.00002670288 188 190 189
-812.874555587769 157.766416668892 1820.00005245209 185 187 186
-806.142270565033 157.417759299278 1815.99998474121 181 183 182
-801.198840141296 157.416239380836 1815.99998474121 180 182 181
-795.380532741547 157.241776585579 1814.00001049042 185 187 186
-791.318118572235 157.414421439171 1815.99998474121 190 192 191
-787.246823310852 157.587453722954 1817.999958992 189 191 190
-784.02704000473 157.934203743935 1822.00002670288 188 190 189
-779.932200908661 158.107966184616 1824.00000095367 187 189 188
-777.102887630463 158.542156219482 1828.9999961853 187 189 188
-775.936841964722 159.323424100876 1838.00005912781 187 189 188
-776.820719242096 160.538479685783 1851.99999809265 185 187 186
-779.714047908783 162.187367677689 1871.00005149841 177 179 178
-783.747732639313 164.096653461456 1893.00000667572 175 177 176
-788.075029850006 166.093066334724 1916.00000858307 169 171 170
-790.235996246338 167.656421661377 1934.00001525879 154 156 155
-789.459586143494 168.613344430923 1945.00005245209 129 131 130
-786.608934402466 169.137194752693 1950.99997520447 134 136 135
-782.525718212128 169.401288032532 1953.9999961853 142 144 143
-778.825163841248 169.752433896065 1957.99994468689 150 152 151
-774.709105491638 170.017227530479 1960.99996566772 160 162 161
-769.793272018433 170.108929276466 1962.00001239777 167 169 168
-764.873087406158 170.200943946838 1963.00005912781 168 169 171
-759.561419487 170.206561684608 1963.00005912781 167 168 170
-755.403518676758 170.472592115402 1965.99996089935 169 170 172
-750.848829746246 170.652225613594 1968.00005435944 169 171 170
-746.284067630768 170.83215713501 1970.00002861023 171 173 172
-741.709172725677 171.012356877327 1972.00000286102 169 171 170
-736.004054546356 170.932695269585 1970.99995613098 171 173 172
-729.934334754944 170.766547322273 1968.99998188019 172 174 173
-725.348174571991 170.947596430779 1970.99995613098 172 174 171
-722.212910652161 171.475827693939 1976.99999809265 171 173 170
-718.683183193207 171.917617321014 1981.99999332428 170 172 169
-713.687300682068 172.012716531754 1983.00004005432 178 180 179
-708.686470985413 172.108069062233 1983.99996757507 177 179 178
-703.680634498596 172.20364511013 1985.00001430511 169 171 170
-698.318004608154 172.212719917297 1985.00001430511 164 166 165
-692.606508731842 172.135218977928 1983.99996757507 168 170 169
-686.900675296783 172.057956457138 1983.00004005432 172 174 173
-681.200504302979 171.980857849121 1981.99999332428 174 176 175
-675.846993923187 171.990752220154 1981.99999332428 173 175 174
-671.170055866241 172.174379229546 1983.99996757507 170 172 171
-667.153656482697 172.531813383102 1988.00003528595 176 178 177
-662.449896335602 172.715872526169 1990.00000953674 178 180 179
-658.72597694397 173.160523176193 1995.00000476837 175 177 176
-656.612455844879 174.039423465729 2005.00011444092 186 188 187
-655.419170856476 175.179004669189 2017.99988746643 192 194 193
-652.223110198975 175.798043608665 2025.00009536743 186 188 187
-647.711515426636 176.070034503937 2028.00011634827 188 190 189
-644.133627414703 176.60266160965 2033.99991989136 187 189 188
-640.837013721466 177.222341299057 2040.99988937378 189 191 190
-639.058768749237 178.276434540749 2052.99997329712 191 193 192
-636.906921863556 179.243966937065 2063.99989128113 193 195 194
-635.307133197784 180.385485291481 2076.99990272522 194 196 195
-633.939802646637 181.614145636559 2091.00008010864 195 197 196
-631.895482540131 182.669311761856 2102.9999256134 197 199 198
-629.190504550934 183.551087975502 2112.99991607666 192 194 193
-627.316176891327 184.693679213524 2125.99992752075 187 189 188
-627.417623996735 186.444714665413 2145.99990844727 190 192 191
-629.438102245331 188.804313540459 2173.00009727478 188 190 189
-631.599068641663 191.251248121262 2200.99997520447 192 194 193
-631.61826133728 193.090319633484 2221.99988365173 179 181 180
-631.523311138153 194.929793477058 2243.00003051758 176 178 177
-629.919946193695 196.335032582283 2259.0000629425 179 181 180
-626.848578453064 197.305947542191 2269.99998092651 175 177 176
-622.349858283997 197.842508554459 2276.00002288818 174 176 175
-619.712948799133 198.987707495689 2289.00003433228 168 170 169
-618.613302707672 200.654774904251 2308.00008773804 176 178 177
-882.560610771179 157.30507671833 1873.00002574921 157 159 156
-877.436757087708 157.299354672432 1873.00002574921 178 180 177
-870.91851234436 157.042130827904 1870.00000476837 182 182 180
-857.011616230011 155.441746115685 1850.99995136261 187 187 185
-846.893310546875 154.513716697693 1840.0000333786 180 180 178
-838.667988777161 153.92205119133 1832.99994468689 183 183 181
-831.847846508026 153.582751750946 1828.9999961853 187 187 185
-824.147641658783 153.07591855526 1822.99995422363 192 194 193
-817.38144159317 152.737498283386 1819.00000572205 178 180 179
-811.532557010651 152.567386627197 1817.00003147125 179 181 180
-806.140661239624 152.481630444527 1815.99998474121 184 186 185
-800.315201282501 152.312308549881 1814.00001049042 190 192 191
-794.064342975616 152.059435844421 1810.99998950958 192 194 193
-789.138913154602 152.058809995651 1810.99998950958 187 189 188
-785.514533519745 152.310431003571 1814.00001049042 186 188 187
-781.875729560852 152.562439441681 1817.00003147125 185 187 186
-777.794897556305 152.730822563171 1819.00000572205 185 187 186
-773.704886436462 152.899563312531 1820.99997997284 186 188 187
-772.138714790344 153.5724401474 1828.9999961853 186 188 187
-772.208511829376 154.581546783447 1840.99996089935 184 186 185
-776.382148265839 156.430661678314 1863.00003528595 178 180 179
-781.2659740448 158.448100090027 1886.99996471405 176 178 177
-787.666499614716 160.801842808723 1914.99996185303 169 171 170
-791.056215763092 162.568166851997 1935.99998950958 155 157 156
-790.274798870087 163.495168089867 1947.00002670288 138 140 139
-787.015914916992 163.918703794479 1952.00002193451 146 148 147
-782.529830932617 164.090618491173 1953.9999961853 160 162 161
-778.829574584961 164.430812001228 1957.99994468689 164 166 165
-773.923695087433 164.519399404526 1958.99999141693 167 169 168
-768.228888511658 164.440333843231 1957.99994468689 163 165 164
-762.540519237518 164.361566305161 1957.00001716614 164 165 167
-757.245481014252 164.367064833641 1957.00001716614 162 163 165
-752.719879150391 164.540812373161 1958.99999141693 164 165 167
-747.802793979645 164.630889892578 1960.00003814697 164 166 165
-743.638753890991 164.889216423035 1963.00005912781 162 164 163
-739.459216594696 165.147811174393 1965.99996089935 162 164 163
-734.14409160614 165.154695510864 1965.99996089935 164 166 165
-728.088080883026 164.993822574615 1963.99998664856 166 168 167
-722.411692142487 164.917200803757 1963.00005912781 167 169 166
-718.932926654816 165.344893932343 1968.00005435944 168 170 167
-714.702606201172 165.604814887047 1970.99995613098 170 172 169
-709.736764431 165.696978569031 1972.00000286102 166 168 167
-704.408705234528 165.705323219299 1972.00000286102 166 168 167
-699.435472488403 165.797933936119 1973.00004959106 167 169 168
-695.512652397156 166.142880916595 1976.99999809265 169 171 170
-690.52118062973 166.23592376709 1978.00004482269 173 175 174
-685.871005058289 166.413262486458 1980.00001907349 174 176 175
-680.179059505463 166.338637471199 1978.99997234344 173 175 174
-675.17477273941 166.432321071625 1980.00001907349 170 172 171
-669.826984405518 166.442140936852 1980.00001907349 167 169 168
-665.821552276611 166.788414120674 1983.99996757507 175 177 176
-661.128759384155 166.966736316681 1985.99994182587 179 181 180
-657.085716724396 167.313441634178 1990.00000953674 174 176 175
-653.67591381073 167.828500270844 1996.00005149841 175 177 176
-651.532769203186 168.680131435394 2006.00004196167 178 180 179
-648.047149181366 169.195652008057 2012.00008392334 178 180 179
-644.209623336792 169.627293944359 2016.99995994568 178 180 179
-640.028238296509 169.97504234314 2020.99990844727 179 181 180
-636.453032493591 170.491203665733 2026.99995040894 178 180 179
-633.467733860016 171.175792813301 2035.00008583069 181 183 182
-631.056129932404 172.028854489326 2045.00007629395 187 189 188
-628.895998001099 172.96627163887 2055.99999427795 188 190 189
-627.585530281067 174.156337976456 2069.9999332428 189 191 190
-626.199305057526 175.346717238426 2084.00011062622 190 192 191
-625.332355499268 176.70564353466 2099.99990463257 196 198 197
-623.198270797729 177.728280425072 2111.99998855591 199 201 200
-623.045444488525 179.3402582407 2131.00004196167 193 195 194
-624.817073345184 181.541740894318 2157.00006484985 190 192 191
-628.169476985931 184.248641133308 2188.99989128113 191 193 192
-629.074156284332 186.282634735107 2213.00005912781 183 185 184
-629.003643989563 188.064441084862 2233.99996757507 190 192 191
-627.424716949463 189.42566215992 2250 181 183 182
-624.930262565613 190.534591674805 2263.00001144409 160 162 161
-620.723962783813 191.138535737991 2269.99998092651 163 165 164
-617.561995983124 192.079454660416 2280.99989891052 154 156 155
-615.412056446075 193.357452750206 2296.0000038147 168 170 169
-613.976061344147 194.888338446617 2313.99989128113 191 193 192
-612.704396247864 196.50374352932 2332.99994468689 204 206 205
-880.669891834259 151.887074112892 1868.99995803833 161 163 160
-875.557422637939 151.881605386734 1868.99995803833 176 178 175
-867.187738418579 151.307761669159 1861.99998855591 178 178 176
-854.229211807251 149.921804666519 1845.00002861023 187 187 185
-845.968842506409 149.348929524422 1838.00005912781 186 186 184
-840.037047863007 149.182766675949 1835.99996566772 192 192 190
-832.299530506134 148.692011833191 1830.00004291534 189 189 187
-823.692977428436 148.039162158966 1822.00002670288 185 187 186
-816.031038761139 147.549241781235 1815.99998474121 198 200 199
-811.530649662018 147.628471255302 1817.00003147125 201 203 202
-805.251359939575 147.383064031601 1814.00001049042 193 195 194
-798.549294471741 147.056803107262 1809.99994277954 178 180 179
-791.871130466461 146.730914711952 1805.99999427795 178 180 179
-787.83118724823 146.892860531807 1807.99996852875 183 185 184
-783.349394798279 146.973937749863 1809.00001525879 182 184 183
-778.863787651062 147.055342793465 1809.99994277954 182 184 183
-773.94711971283 147.055864334106 1809.99994277954 183 185 184
-769.457161426544 147.137969732285 1810.99998950958 184 186 185
-767.496168613434 147.707864642143 1817.999958992 184 186 185
-766.757249832153 148.521855473518 1827.99994945526 183 185 184
-770.549774169922 150.229945778847 1848.99997711182 180 182 181
-776.714146137238 152.425900101662 1876.00004673004 178 180 179
-784.789979457855 155.028492212296 1907.99999237061 170 172 171
-790.65078496933 157.225236296654 1934.99994277954 156 158 157
-790.278255939484 158.203557133675 1947.00002670288 149 151 150
-787.826120853424 158.775955438614 1953.9999961853 154 156 155
-782.133400440216 158.698603510857 1952.99994945526 159 161 160
-777.640700340271 158.865347504616 1955.00004291534 159 161 160
-771.953165531158 158.788606524467 1953.9999961853 160 162 161
-767.056882381439 158.874690532684 1955.00004291534 161 163 162
-761.376917362213 158.798515796661 1953.9999961853 159 160 162
-756.477177143097 158.885151147842 1955.00004291534 158 159 161
-751.573026180267 158.972084522247 1955.9999704361 159 160 162
-747.045874595642 159.140557050705 1957.99994468689 161 163 162
-742.508709430695 159.309312701225 1960.00003814697 160 162 161
-737.585306167603 159.397050738335 1960.99996566772 159 161 160
-732.657372951508 159.485042095184 1962.00001239777 160 162 161
-727.353930473328 159.492000937462 1962.00001239777 163 165 164
-722.051024436951 159.499198198318 1962.00001239777 164 166 163
-717.844665050507 159.750521183014 1965.0000333786 164 166 163
-713.260114192963 159.920811653137 1967.00000762939 165 167 164
-707.225501537323 159.766107797623 1965.0000333786 161 163 162
-701.559364795685 159.692883491516 1963.99998664856 165 167 166
-696.607947349548 159.782543778419 1965.0000333786 167 169 168
-693.058788776398 160.197675228119 1970.00002861023 168 170 169
-688.784718513489 160.450398921967 1973.00004959106 168 170 169
-684.494495391846 160.703331232071 1975.99995136261 168 170 169
-679.157376289368 160.712525248528 1975.99995136261 170 172 171
-674.502372741699 160.884559154511 1978.00004482269 168 170 169
-668.821811676025 160.812765359879 1976.99999809265 169 171 170
-665.160238742828 161.229208111763 1981.99999332428 176 178 177
-660.473108291626 161.401838064194 1983.99996757507 180 182 181
-656.765818595886 161.818727850914 1988.9999628067 174 176 175
-652.703940868378 162.15443611145 1993.00003051758 172 174 173
-649.919450283051 162.815824151039 2000.99992752075 169 171 170
-646.769642829895 163.396090269089 2007.99989700317 170 172 171
-642.943143844604 163.813814520836 2013.00001144409 172 174 173
-638.139367103577 163.987591862679 2015.00010490417 174 176 175
-633.638441562653 164.242878556252 2017.99988746643 172 174 173
-629.432559013367 164.579778909683 2022.0000743866 176 178 177
-625.513315200806 164.998218417168 2026.99995040894 178 180 179
-622.790217399597 165.742456912994 2036.00001335144 179 181 180
-620.927691459656 166.731163859367 2048.00009727478 181 183 182
-620.201885700226 168.045774102211 2063.99989128113 183 185 184
-618.495941162109 169.116407632828 2076.99990272522 188 190 189
-616.424202919006 170.105889439583 2088.99998664856 197 199 198
-614.871740341187 171.258479356766 2102.9999256134 195 197 196
-617.298781871796 173.551514744759 2131.00004196167 194 196 195
-622.730433940887 176.740884780884 2170.00007629395 188 190 189
-625.676572322845 179.279193282127 2200.99997520447 181 183 182
-626.765131950378 181.329220533371 2226.0000705719 192 194 193
-626.323461532593 182.972267270088 2246.00005149841 182 184 183
-624.116063117981 184.12683904171 2259.99999046326 157 159 158
-619.917988777161 184.711277484894 2266.99995994568 163 165 164
-616.222858428955 185.458853840828 2276.00002288818 151 153 152
-612.746238708496 186.288073658943 2286.00001335144 156 158 157
-609.480202198029 187.198981642723 2296.99993133545 186 188 187
-606.416344642639 188.191547989845 2309.00001525879 199 201 200
-602.506875991821 188.939809799194 2318.00007820129 201 203 202
-599.576771259308 190.014287829399 2331.00008964539 198 200 199
-879.721999168396 146.648049354553 1866.99998378754 165 167 164
-874.146938323975 146.564275026321 1866.00005626678 175 177 174
-864.854514598846 145.852640271187 1856.99999332428 187 187 185
-850.9840965271 144.356057047844 1838.00005912781 185 185 183
-843.203544616699 143.880948424339 1832.00001716614 190 190 188
-838.661015033722 143.956005573273 1832.99994468689 191 191 189
-830.932140350342 143.481761217117 1827.00002193451 194 194 192
-822.786271572113 142.9293602705 1820.00005245209 201 203 200
-814.231514930725 142.298832535744 1812.00003623962 192 194 191
-809.29571390152 142.296940088272 1812.00003623962 185 187 184
-802.586495876312 141.981288790703 1807.99996852875 173 175 172
-795.90117931366 141.666010022163 1804.00002002716 178 180 177
-789.239645004272 141.351088881493 1799.99995231628 184 186 183
-785.216510295868 141.50770008564 1802.00004577637 184 186 183
-781.184256076813 141.664639115334 1804.00002002716 183 185 182
-776.28231048584 141.66484773159 1804.00002002716 183 185 182
-771.382212638855 141.665399074554 1804.00002002716 184 186 183
-767.333686351776 141.823351383209 1805.99999427795 185 187 184
-764.120221138 142.138659954071 1809.99994277954 185 187 186
-762.983918190002 142.846956849098 1819.00000572205 185 187 186
-765.550971031189 144.262358546257 1837.00001239777 184 186 185
-771.334111690521 146.306380629539 1863.00003528595 181 183 182
-779.034316539764 148.743435740471 1894.00005340576 173 175 174
-786.976456642151 151.259407401085 1925.99999904633 159 161 160
-788.658082485199 152.597740292549 1942.999958992 142 144 143
-787.426650524139 153.386667370796 1952.99994945526 146 148 147
-782.137453556061 153.390511870384 1952.99994945526 156 158 157
-776.451706886292 153.316110372543 1952.00002193451 156 158 157
-769.982516765594 153.08490395546 1949.00000095367 155 157 156
