ply
format ascii 1.0
comment KinectMotionCapture
element vertex 793
property float x
property float y
property float z
property uchar red
property uchar green
property uchar blue
end_header
129.618198378132 -204.466893206488 2860.20783944002 15 18 9
127.583422008359 -202.985144670824 2867.67737578113 15 18 9
113.320979948631 -204.486719388711 2866.47510765073 15 18 9
90.0162463959009 -208.166366468565 2858.98653292351 15 18 9
100.253450667044 -203.706157210634 2875.08492485674 17 20 9
122.896533434032 -196.285327130326 2899.68150872017 17 20 9
116.007161311668 -196.000851712794 2903.64655526141 21 24 17
62.856900187716 -206.775600158056 2875.83156963582 20 23 16
17.7616291341782 -215.548656679622 2853.8917794647 15 18 11
-23.3694612819009 -223.312470967398 2834.95155603041 12 15 8
-58.8437865425622 -229.677379787786 2820.10636446531 12 15 8
-33.5952769222909 -221.679573057157 2846.28150984636 12 15 8
-49.1494505664014 -223.316581401679 2844.9650579877 14 17 10
-62.2365634843449 -224.359540106472 2845.36170603393 16 19 12
-66.9623424551142 -223.440559846452 2851.33555884838 18 21 14
-65.7928730028674 -221.153518356923 2861.17252272874 19 22 15
-71.3388822941026 -220.432537297504 2866.5732312543 19 22 15
-126.758458194475 -231.216046245042 2839.59575638703 20 22 19
209.795039823967 -224.026089989282 2774.97975980511 0 2 0
210.744251791705 -221.694993110065 2785.02859341424 27 30 21
217.221731177202 -217.929256453816 2799.29511537223 25 28 19
196.996077183751 -221.148779125831 2792.93202873411 25 28 19
185.377135956899 -222.103769494188 2793.27500606553 14 17 8
191.920812425134 -218.345863759112 2807.47661290652 14 17 8
199.316702831331 -214.390790103484 2822.22006453624 14 17 8
194.057243580164 -213.711210939679 2827.34234381812 14 17 8
192.782803412975 -212.011601151351 2835.44190243194 14 17 8
174.754128449655 -214.592601650054 2831.05387563638 14 17 8
181.486362303962 -210.857788428041 2845.07165526895 14 17 8
170.619281096116 -211.601207051513 2846.05366359319 15 18 11
155.702885954085 -213.355856324028 2844.12127553165 16 19 12
155.258271805964 -211.455404622853 2852.78369177017 17 20 13
174.241555802029 -204.698597175418 2875.44467705718 17 20 13
160.114744703448 -206.247668761095 2874.11474539368 17 20 11
151.632620557623 -206.377324267899 2876.88880797373 16 19 10
143.950140608788 -206.303201049507 2880.25560295639 16 19 10
127.278168067908 -208.443539659944 2877.28937744238 16 19 10
112.189052117921 -210.174367267772 2875.52464502279 17 20 11
103.615314800964 -210.291382555391 2878.3878126172 18 21 10
104.891620365696 -207.997864954137 2888.11739165005 19 22 11
80.6558598055904 -211.922399380648 2880.17262542944 18 21 14
35.6834952072824 -220.840429310247 2858.13255217978 17 20 13
-7.81838913900312 -229.334398116764 2837.40341288881 12 15 8
-10.836692164518 -228.019743139335 2844.45739277548 11 14 7
-37.1316069125767 -232.291224475253 2835.77451922766 12 15 8
-40.1790379582785 -230.972484666269 2842.85681993266 12 15 8
-47.3921529000712 -230.64996785713 2847.13772537832 15 18 11
-58.7998669307841 -231.319923928595 2848.64573235458 17 20 13
-63.5176844761856 -230.398746569611 2854.61169246767 21 24 17
-66.5481094402978 -229.081783796558 2861.67703068539 21 24 17
-81.3729104264835 -230.537437534264 2861.02640618133 20 23 16
-119.907886173392 -237.522859979354 2845.06113164139 20 25 21
234.318500710823 -222.80384556446 2804.29322376413 24 27 20
230.647108234095 -221.711238475698 2810.61164039355 23 26 19
188.416830237877 -230.808116588062 2787.29197761355 21 24 17
176.77674225185 -231.781715779867 2787.65836652342 12 15 8
173.016287633241 -230.676790069692 2794.06340248944 11 14 7
194.136015030635 -221.020037314676 2828.34436394966 11 14 7
184.893541767805 -221.373403397807 2830.48961945069 11 14 7
174.034673768064 -222.13700925736 2831.46611776055 11 14 7
180.764915795205 -218.361033606216 2845.48012935989 12 15 8
180.330484121253 -216.445809600397 2854.13058875286 17 20 13
149.346231258164 -222.348987863296 2840.42642045962 17 20 13
148.886241389455 -220.42995215266 2849.10169614949 17 20 13
161.385741223298 -215.231158658353 2867.09549851365 17 20 13
191.800028514261 -205.53517067542 2897.80900076403 16 19 10
178.519789391984 -206.913092406531 2897.03002405738 18 21 12
160.315908987401 -209.512428606015 2892.81868886357 17 20 11
138.785967416591 -212.920200764672 2886.36169294488 17 20 11
120.451912397531 -215.502212368801 2882.27706249995 17 20 11
96.3159988644073 -219.501693633571 2874.2442238155 17 20 9
86.0663482019675 -220.031630591768 2875.99847130167 18 21 10
62.6108908567669 -223.808900434953 2868.67433397227 16 19 12
18.423128161932 -232.647641960897 2847.2599921182 17 20 13
-6.90522133553628 -236.801708635929 2839.01719831219 12 15 8
-42.8674296566962 -241.434741066077 2832.90264285457 7 10 3
-56.7659500293694 -242.730413897159 2832.72547221794 7 10 3
-55.6617583377066 -240.391434170355 2842.61924358876 12 15 8
-33.5873689055735 -233.021667464621 2866.37118616728 13 16 9
-60.9127498879189 -237.535731344015 2857.33052509946 15 18 11
-79.0822839094196 -239.826981052765 2854.45679555044 17 20 13
-111.6458814559 -245.521475389266 2842.29009648163 18 21 14
-77.5560735830849 -235.369525914952 2873.5374273459 22 27 23
-119.531784084704 -243.253155292103 2855.45363276022 13 18 14
156.226366307533 -246.844915080251 2763.53014200005 15 17 12
146.874283088259 -247.198350245378 2765.78425201845 18 20 15
144.621873886342 -245.657941639558 2773.46123104634 10 12 7
119.39193038577 -250.205853363564 2763.76168159723 10 12 7
147.319721893187 -240.695953193995 2794.13799597995 10 12 7
135.572647099857 -241.675803109156 2794.6118860672 10 12 7
174.913234296343 -229.267533258227 2833.06482966146 12 14 9
174.439154211733 -227.330888122082 2841.75149447861 12 14 9
150.713636512702 -231.447178402682 2833.32839098567 13 16 9
143.795018868425 -231.175999144447 2837.32444392903 15 18 11
117.513837808094 -235.898507912156 2827.27768496601 16 19 12
154.998269211775 -224.186321203617 2863.42563369084 16 19 12
171.619654453796 -217.898732188337 2884.2503038401 15 18 9
172.912976577862 -215.564473011413 2893.95730143289 15 18 9
153.881954935731 -218.411945215496 2889.18709479075 17 20 11
106.219290204116 -228.490863887072 2864.32179523762 16 19 10
89.4445293419217 -230.692397695667 2861.46668466973 16 19 10
89.0175001579641 -228.759695579561 2870.10687218165 16 19 8
91.9027360413982 -226.005538794451 2881.0048338309 16 19 8
50.3349031095848 -234.372340476539 2861.1705141268 17 20 13
39.1548603049028 -235.109681673764 2862.46239970217 18 21 14
16.3592647601112 -238.7182986149 2855.87499234286 13 16 9
-26.4310782511568 -247.238682368531 2835.86009542307 9 12 5
-57.7512642779974 -252.868546916192 2823.86602739741 9 12 5
-43.3408001576669 -247.230030490284 2842.73137959601 9 12 5
-36.3569106785899 -243.442764458615 2856.49150897068 10 13 6
-47.7387773109497 -244.152893490718 2857.97978664432 10 13 6
-45.7159508815534 -241.598170486856 2868.34670053823 11 14 7
-64.6915806725876 -244.137542680746 2864.89286123988 13 16 9
-99.7511658694816 -250.532226875541 2851.05713676552 14 17 10
120.890066087782 -266.160256054713 2727.78971945214 19 21 16
149.22382805353 -256.27536764768 2759.12472323036 16 18 13
135.909411120732 -257.705223945265 2758.38702365906 14 16 11
120.975350625186 -259.555475502409 2756.48630753061 10 12 7
105.995263991609 -261.399498913834 2754.63003767841 9 12 5
144.221477560788 -249.011417721539 2792.77564531526 9 11 6
178.678308237319 -237.711269496685 2827.73987963111 10 12 7
180.583978266744 -235.120784164841 2838.21784590563 11 13 8
152.901841068475 -240.362907749575 2826.80489946312 11 14 7
139.558214541336 -241.787001358241 2826.09569156988 11 14 7
114.913421851649 -246.16086459097 2817.20660158416 12 15 8
145.821761558964 -235.976126010873 2848.77451251656 15 18 11
135.677306319082 -236.552789332597 2850.43120552918 15 18 11
147.389432968745 -231.447827915257 2867.80350228503 14 17 8
139.689287536366 -231.394799852844 2871.19095720883 12 15 6
102.666615324007 -238.893313731174 2853.79977759288 12 15 6
94.0589605196083 -239.037542533915 2856.70064789936 12 15 6
68.2567447670213 -243.575063646757 2847.56817537044 13 16 7
64.4991320192001 -242.455505079715 2853.96788874491 15 18 7
69.7920148617723 -239.039997768941 2866.62833984846 15 18 9
53.7144365819739 -241.053288396549 2864.47000372778 12 15 8
27.2052545634973 -243.603740460724 2864.24766496248 11 14 7
10.9929689873165 -245.598912239006 2862.22075506242 10 13 6
-49.3471349875647 -258.58729698585 2830.53593824212 11 14 7
-54.0906727686332 -257.65385495203 2836.52562621586 12 15 8
-56.3230968413855 -256.099896784076 2844.18075709568 13 16 9
-62.7262821946597 -255.581751308554 2849.04572381524 15 18 11
-71.6509505399712 -255.682788678372 2852.25467173725 17 20 13
-61.2390871791026 -251.037263580014 2868.15223501215 16 19 12
-119.901373654559 -263.295714863308 2838.94484040223 15 18 11
-139.081768528199 -265.850905156448 2835.69667376605 17 22 18
134.312883611409 -272.356646028518 2729.54693150267 7 9 6
154.729911497468 -264.510194608875 2754.87420480422 19 21 16
149.304906321317 -263.809156062544 2760.15770194946 13 15 10
179.383177890046 -253.397813633267 2792.5160530222 8 11 4
139.247971741799 -262.190884816044 2771.32211618994 8 11 2
138.584223534598 -260.197837175954 2780.18878799119 9 12 3
187.053065898603 -240.720794454154 2843.95757555737 11 14 7
156.985855660082 -246.682970882298 2830.76873744432 11 14 7
150.072711213169 -246.422860121016 2834.76099134081 9 12 3
153.611107754869 -243.382578347545 2846.3853128123 9 12 3
131.387099763323 -247.180263580161 2839.25791693192 10 13 4
114.741203422216 -249.474318986264 2836.28851664133 12 15 6
126.402446688745 -244.305802117117 2853.7019478808 16 19 10
123.525608022985 -242.977462132257 2860.61342892889 16 19 10
123.10389193468 -241.012951030799 2869.24397694613 15 18 9
109.648223150319 -242.447480448893 2868.64757107868 13 16 7
86.3377610470852 -246.420954642204 2861.20811240585 12 15 6
42.4428622861659 -255.676978289143 2839.56496429332 11 14 5
57.5465047466643 -249.681269431049 2859.10609658531 10 13 4
48.8551576943244 -249.82428101721 2862.08955678512 12 15 8
9.5941323543185 -257.772000974813 2844.15366874077 11 14 7
12.3906166099279 -254.951107002266 2855.12989834128 9 12 5
-4.68588703185713 -257.186926604676 2852.57949023946 10 13 6
-37.6167033800123 -263.410262734301 2839.43869813754 11 14 7
-46.5010116150766 -263.527221954881 2842.61025895803 10 13 6
-62.0839986279185 -265.320066069756 2841.34511381726 12 15 8
-66.8259479240989 -264.38356796633 2847.33243487428 15 18 11
-67.3660990582272 -262.401413679472 2856.07798298772 15 18 11
-51.0559343242907 -256.242693607219 2875.81383715797 15 18 11
-58.2552652614297 -255.941462656864 2880.08420092388 17 19 14
-106.875005254468 -265.854291748266 2857.56199044581 13 18 14
135.177689186294 -279.759775426243 2731.19925539225 15 17 14
169.726423604132 -267.882632677892 2767.40385771353 18 20 15
189.521815717685 -260.186714285 2791.95376392453 12 14 9
143.173094260948 -270.858859344884 2765.87137787691 6 9 2
202.598495175711 -252.262272606703 2820.30751900407 9 12 3
128.359468225455 -270.544537284604 2773.45018642196 9 12 3
150.742136171889 -262.220603243867 2799.58879699862 11 14 5
181.228609415095 -251.739346830315 2831.53180235993 12 15 8
176.750753549975 -250.8382647779 2837.26210921276 13 16 9
163.471372076099 -252.324178097266 2836.49824195815 13 16 9
165.401738655758 -249.687272343747 2846.94482327516 14 17 8
149.669810160734 -251.817023088405 2844.46046456299 14 17 8
129.049822205772 -255.237303789339 2838.51862932698 12 15 6
118.865305749666 -255.840406111553 2840.21901139225 11 14 5
129.725717035938 -250.831864850548 2857.03475347588 10 13 4
147.974140408558 -243.894257704852 2878.98149694905 15 18 9
140.283148086369 -243.857656463474 2882.3622905761 17 20 11
124.420522626928 -245.968968361301 2880.00532847014 18 21 12
111.780200663794 -247.214848667794 2879.98829821758 19 22 13
79.4265648637715 -253.602850492603 2866.29869481691 19 22 13
75.7126607651033 -252.477273689711 2872.65411536401 19 22 13
24.2241562552525 -263.761373740917 2846.09808143569 18 21 14
7.20265440640766 -266.042014664284 2843.49968031206 14 17 10
-7.38903176380035 -267.675303858358 2842.64382379254 10 13 6
-22.8522876031687 -269.516146595275 2841.26687800195 11 14 7
-15.9077834173371 -265.601568144549 2855.04763867708 13 16 9
-16.4063673615562 -263.608807894635 2863.75000455776 12 15 8
-45.2865799182929 -268.841551202915 2853.52571609824 13 16 9
-58.3637979513734 -270.02881568821 2853.93386670887 12 15 8
-50.4913054206035 -265.91334086107 2868.18033816032 14 17 10
-44.2385206490958 -262.229283779645 2881.26481023737 16 19 12
-61.540637074458 -264.472072086147 2878.93946893623 19 21 16
-92.4184689740781 -270.086497986919 2867.92110205748 20 25 21
110.201752664169 -294.480109213428 2712.83191188906 17 19 16
146.257084448743 -282.013670780241 2750.28749958613 10 12 7
140.024242263891 -281.530768988722 2754.98852202242 10 12 7
180.332736821877 -267.997640739962 2795.14822219588 6 9 2
129.921476308736 -279.899968038461 2766.19659561168 9 12 3
140.333272160385 -274.781521332255 2783.44123763485 9 12 3
150.028945890036 -269.893363187885 2800.01412674255 12 15 6
136.695984335465 -271.399529609255 2799.30645869977 13 16 9
147.283055001305 -266.302943203074 2816.38028118421 15 18 11
154.746434337985 -262.094880338461 2831.01932361368 16 19 12
155.852761006527 -259.650084840578 2840.89533539615 15 18 9
147.337989408243 -259.839104558959 2843.71059138366 16 19 10
142.033896274834 -259.150242517852 2848.8758207652 14 17 8
123.797704788752 -261.959886560781 2844.72765436037 12 15 6
136.289739649378 -256.46182869482 2862.68463840985 9 12 3
147.243452955719 -251.411021152987 2879.40114542846 10 13 4
160.718003860569 -245.716552756045 2897.77035644878 13 16 7
130.215161040929 -251.786564736508 2885.03004597615 16 19 10
122.496875435711 -251.753805393203 2888.43851006758 17 20 11
67.2110813912057 -264.313851084616 2858.75660271724 18 21 12
80.7278241095144 -258.623994010243 2877.08459819455 18 21 12
39.1386888468399 -267.460538948395 2857.340859868 19 22 15
8.94041741898288 -273.245401932469 2845.67286992152 14 17 10
-18.0624174052739 -278.150520647085 2836.36971348448 9 12 5
-40.1873157091899 -281.747115585734 2830.53142632126 7 10 3
-29.1261115103811 -276.708355273782 2847.14297386995 11 14 7
-22.1541696865604 -272.756593213936 2860.89065500178 11 14 7
-23.4774299708427 -270.963555010938 2869.02488403469 13 16 9
-44.0403714631286 -274.115129076956 2864.40359541237 12 15 8
-59.6360045968356 -275.969812958146 2863.16048578901 18 21 14
-66.0237338224388 -275.460443319067 2868.01106356811 21 24 17
-80.8460412342073 -277.091696248163 2867.3839163916 22 25 18
-62.7505345289956 -270.376727284205 2888.09884272633 19 24 20
114.200064890448 -301.06074274071 2716.91936577647 7 9 6
139.274046508778 -291.593636887433 2745.88447691022 10 12 7
155.84456286258 -284.611233404818 2768.07421450234 10 12 7
143.336733781095 -285.926062924531 2767.9358075233 9 12 5
164.799341818453 -277.620290940122 2793.57416405892 9 12 3
158.648471131535 -277.149596922929 2798.19525404771 11 14 5
140.574321373337 -280.024868505892 2793.89587753344 13 16 7
110.489454400706 -286.234905815251 2780.76120654837 14 17 10
127.400487977686 -279.294856697453 2802.61872761874 17 20 13
141.219240744048 -273.258154218159 2822.01280621414 18 21 14
148.71230301013 -269.01025539567 2836.61648531875 14 17 8
140.180112649637 -269.207562615506 2839.44992544173 15 18 9
132.439924539405 -269.180959444135 2842.88138676593 17 20 11
120.647250687347 -270.259599564844 2843.41482069982 17 20 11
122.598163548135 -267.575219462847 2853.83398256796 15 18 9
139.203539661123 -260.919976033886 2874.62021085723 13 16 7
143.703190478302 -257.587137755675 2886.66366221731 13 16 7
139.273667425453 -256.684158546235 2892.34569347408 14 17 8
134.030935149212 -256.001646248736 2897.45092910671 15 18 9
129.608891076696 -255.099167617405 2903.12560761068 16 19 10
75.0587326687175 -267.592087825615 2874.12052924118 17 20 11
52.4046785093248 -271.500419297957 2867.43686687063 21 24 17
29.6698829554907 -275.398146214908 2860.83147670768 16 19 12
-17.975112988788 -285.850088743415 2837.4210117104 11 14 7
-38.4401991038588 -289.063120067047 2832.71163460777 9 12 5
-44.8378525998594 -288.55549027964 2837.57266232539 12 15 8
-46.2375168236262 -286.73878556536 2845.77926369963 11 14 7
-43.4400852541397 -283.835513628533 2856.74237717631 13 16 9
-45.6271685193035 -282.242631988165 2864.34673109172 14 17 10
-67.9405389004764 -285.867389078494 2858.69976184106 20 23 16
-85.283340584418 -288.179660373692 2856.42475331652 21 24 17
-84.9729228612341 -285.93172693901 2865.70363909866 20 23 16
-81.254483324162 -282.821194537428 2877.13845436007 14 19 15
161.263120904657 -295.110312192025 2754.32622461713 1 3 0
144.851050361412 -297.587783176815 2751.15174059511 10 12 7
126.024415038627 -300.738456814698 2746.22305051399 9 11 6
142.630059035421 -293.684588849957 2768.36734341808 10 13 6
180.69613287875 -280.533843006486 2806.55925066763 11 14 5
195.195001314421 -274.192804979959 2826.64955516421 12 15 6
143.040586717522 -286.832764093089 2796.70410937836 13 16 7
122.521877843019 -290.420088119356 2790.6867292908 14 17 10
119.49782849962 -289.040861934677 2797.73653391785 15 18 11
140.50088213252 -280.911084705584 2822.43999955882 16 19 12
151.201521695973 -275.720296376255 2839.38746128797 14 17 8
145.088625289855 -275.255097246461 2843.97165439652 15 18 9
131.715979362161 -276.808064936104 2843.3103107299 18 21 12
111.03115948166 -280.372223661766 2837.45411966357 18 21 12
112.148575592855 -277.884052378532 2847.3130463854 18 21 12
117.358345874539 -274.282074946223 2860.02846928801 16 19 10
122.619455350675 -270.686540150708 2872.6938638305 15 18 9
129.563648114299 -266.651406605442 2886.45677792018 12 15 6
145.564318484547 -260.173007721348 2906.45271617996 12 15 6
123.132240506374 -264.166876393035 2899.56127054075 13 16 7
103.084901848653 -267.483255127761 2894.45233873975 14 17 8
90.3826591128993 -268.792045997845 2894.50643272558 19 22 15
-11.2665851873088 -291.776455201654 2842.97120903337 12 15 8
-31.7153329153643 -295.039677838894 2838.25336376713 11 14 7
-43.9180152023497 -296.083553934815 2839.18880403027 11 14 7
-45.3158071306734 -294.253286547727 2847.39154163034 10 13 6
-62.5657038141285 -296.615347409839 2845.03197378516 12 15 8
-66.4720261253309 -295.446141974359 2851.57202016893 13 16 9
-45.1920122640148 -287.677508124142 2874.63692772482 14 17 10
-88.5587214887766 -296.846479475163 2855.29023193893 15 18 11
-89.9425306584436 -295.017385148717 2863.4792578308 16 19 12
-126.798644248684 -302.39941486679 2848.73928536832 21 26 22
140.223703849605 -306.530158914936 2748.56631172457 9 11 6
111.943989133893 -312.479182435022 2736.4343387747 16 18 13
122.203557903563 -307.179203907043 2753.80331421663 10 13 6
187.102914909298 -286.086784415149 2812.35389394251 14 17 8
165.372610978212 -287.910495756045 2814.3638689027 13 16 7
121.011849559483 -298.403789545336 2790.53204080536 14 17 10
127.566199093011 -294.279558686622 2804.66890644144 13 16 9
124.574296410169 -292.895759204126 2811.68645086992 12 15 8
139.247558514219 -286.508197532039 2831.59704154328 12 15 6
152.409943435862 -280.587591894923 2850.24281501425 14 17 8
148.730688254623 -279.445432758718 2856.56171565451 16 19 10
111.114665380313 -287.827624219137 2838.47310201822 16 19 10
117.092986824723 -283.958609204672 2851.80312137665 16 19 10
119.065668772612 -281.227839371633 2862.19347199552 18 21 12
114.562085080095 -280.309285984091 2867.94708254757 19 22 13
110.878910539974 -279.16549930481 2874.26929677699 17 20 11
120.291152516325 -274.414784636629 2889.72704257364 15 18 9
104.358467628211 -276.655297415154 2887.45840850777 14 17 8
30.851041490092 -294.637788875265 2845.49825426636 15 18 9
34.795865534428 -289.173216264506 2866.27938115864 15 18 11
-4.55807998616464 -297.658723166464 2848.51524890273 11 14 7
-24.9908654641637 -300.972240529931 2843.7886485828 10 13 6
-31.3571832540509 -300.473278612302 2848.61984058839 10 13 6
-29.3924332188515 -297.739192604899 2859.01791542668 8 11 4
-56.6292186506461 -302.822005099952 2849.97333846449 10 13 6
-68.8948098015527 -303.878383232371 2850.973095955 12 15 8
-53.4959798184951 -297.581347419007 2870.17656668103 13 16 9
-71.6459219139778 -300.195107269149 2867.33071107591 16 19 12
-94.0684424106633 -303.912248140759 2861.80578378602 20 23 16
-132.622970469054 -311.836289208116 2845.99865240287 22 27 23
117.544578653777 -320.85058348791 2732.11016000919 10 12 7
104.946122490873 -322.225959476723 2732.0706958034 16 18 13
134.907248366007 -311.070299688093 2764.43570234296 15 18 11
152.392457091251 -303.644524457408 2787.06851605558 15 18 9
166.820338644718 -297.159027043191 2807.20796054115 14 17 8
156.71365000685 -297.853435716723 2808.84455347125 14 17 8
155.346452007995 -296.004056822649 2817.01408617471 15 18 11
128.447958518008 -301.539627689241 2806.28358848531 14 17 10
122.256260899583 -301.06962470244 2810.94532235461 13 16 9
129.701873861332 -296.685364065853 2825.57596510328 13 16 7
159.730979034753 -285.870487625175 2856.506925507 14 17 8
157.681638006052 -284.265574622347 2863.97272111527 15 18 9
131.403124250604 -289.545881447351 2854.00575578834 16 19 10
126.897820513308 -288.624709945452 2859.76034957213 16 19 10
134.578295542361 -284.269762560121 2874.1621033018 15 18 9
122.785619306991 -285.411276187314 2874.70517012115 15 18 9
76.6929893027437 -296.142878124272 2851.21142565339 13 16 7
85.2053848226837 -291.560918386779 2866.17042702877 12 15 6
92.9647668433766 -287.215387762087 2880.4952167424 11 14 5
7.35726369621403 -306.521317892666 2839.40993343277 17 20 13
12.5899306941566 -302.85019653371 2852.09240011549 15 18 11
11.2531432334269 -301.000893812778 2860.23140812141 10 13 6
-4.16486222439394 -303.0073480902 2858.83434318836 9 12 5
-7.98845858909569 -301.837898217145 2865.29220535657 9 12 5
-25.970763426225 -304.514112108207 2862.28945199774 7 10 3
-29.8100946382833 -303.342295310254 2868.76258927152 9 12 5
-46.1995556790722 -305.556241799588 2866.94361419171 9 12 5
-63.4776010118689 -307.988995829726 2864.6224467908 10 13 6
-66.5098649221192 -306.587105546963 2871.67739670237 11 14 7
-103.252003785486 -314.182477448797 2856.85611537483 11 14 7
-55.6372685299635 -299.29517277077 2896.6453482753 11 16 12
-131.429153421637 -317.200190616975 2856.94224478037 8 12 11
101.931045572837 -333.209813602579 2721.10110457609 18 20 17
109.751049268686 -328.496340254147 2736.72822361397 15 17 12
136.567591684262 -318.159332721988 2766.66853150547 16 19 12
166.707055113886 -306.905033246177 2798.84186731442 16 19 10
151.04968722608 -309.25443689091 2796.31593341978 14 17 8
149.644928746917 -307.386730586978 2804.52005545226 15 18 9
138.702122623663 -308.325254193944 2805.60609616827 16 19 12
155.678590902166 -301.090914595729 2827.35514360823 16 19 12
145.551247887597 -301.797668054406 2829.01407119358 15 18 11
143.424976286363 -300.172160535544 2836.55355397914 15 18 9
174.289940897615 -289.010105052665 2868.01975216973 14 17 8
160.988668515112 -290.652150178118 2867.30069912375 13 16 7
150.07388791535 -291.592614689313 2868.35919694544 13 16 7
144.803303133548 -290.906178359145 2873.49151055751 15 18 9
147.653887572426 -287.903227423098 2884.38710993659 12 15 6
135.892613868037 -289.070046553473 2884.90273372078 13 16 7
101.255492859818 -296.704336516342 2869.41379993534 11 14 5
100.011386809289 -294.854422759493 2877.46068362 10 13 4
47.4586835151971 -305.214350870006 2858.91004487953 11 14 5
23.9180631865548 -309.569439385137 2851.755539157 13 16 9
-0.532568182561199 -314.143169918508 2844.12009372719 15 18 11
-9.34804801553479 -314.342546570323 2847.23548818727 13 16 9
13.3417826409663 -305.824214607592 2871.62344040644 12 15 8
-2.91223254807615 -308.090971307532 2869.67777091965 11 14 7
-9.21541045423258 -307.604834103684 2874.44815957441 10 13 6
-45.5920379484938 -315.347769871704 2859.28572992908 10 13 6
-37.7382920336498 -310.969584366843 2873.51198852383 11 14 7
-29.8219565320825 -306.59948262688 2887.67695166865 13 16 9
-52.1219804947193 -310.439654756911 2882.04856747588 13 16 9
-91.3590656843124 -318.821442279161 2865.56997082247 13 15 10
-113.006003050483 -322.408990824107 2860.67263364719 16 21 17
-127.103477266749 -323.943202500739 2860.72828305552 9 13 12
12.0597988733553 -370.688310332938 2643.00844962353 3 5 2
85.5339548134979 -345.913561530103 2709.50380592332 16 18 15
102.754187181597 -338.297377318794 2732.37160271148 9 11 6
120.087814415492 -330.695665238569 2755.12893569627 14 17 10
148.604000618991 -319.788745208922 2786.13139584021 15 18 9
140.987554420893 -317.440761447708 2799.01558364505 14 17 8
134.006310063068 -317.213297858213 2803.0806248395 15 18 11
156.559444572379 -308.24907618115 2828.95532536624 16 19 12
150.43637017664 -307.792720145695 2833.55127021642 15 18 11
161.960914831294 -302.15265795876 2851.03108884822 15 18 9
175.176125511071 -296.052281902905 2869.59783557107 14 17 8
165.908094047002 -296.545884085584 2871.78885973603 13 16 7
146.924089399146 -299.854788229014 2867.04016396265 13 16 7
145.696130111689 -297.994202246104 2875.06943632254 14 17 8
159.916746284635 -291.683626098022 2894.02398020593 14 17 8
135.161687400605 -296.620850813816 2885.3273129204 15 18 9
137.238626099483 -293.82952620562 2895.605522917 14 17 8
101.731475508767 -301.786949410647 2879.61139100274 13 16 7
65.2617882817612 -309.958915569592 2863.1875343924 14 17 8
59.8702852394237 -309.254965271552 2868.43733306788 15 18 9
-3.74688173418747 -322.730620057812 2842.91320086766 12 15 8
-37.3953845842787 -329.908702405034 2829.20894598582 9 12 5
-28.0432508153736 -325.002634263065 2844.70341894544 11 14 7
-8.64413785478257 -317.3240836504 2866.81524668632 13 16 9
-39.1270536745996 -323.553481715391 2855.4956149197 12 15 8
-48.0086893418479 -323.753923900947 2858.67686058659 14 17 10
-33.4636737167213 -317.48325743476 2877.31483181003 16 19 12
-51.5509080152445 -320.225425396007 2874.42568509828 19 22 15
-65.4898810926858 -321.807245554873 2874.33097704556 20 23 16
-71.0368709959615 -321.081187492301 2879.73190895453 20 22 17
-79.9626467391317 -321.275269040772 2882.95604626995 18 23 19
56.5816407574862 -362.578303300623 2688.28756231313 15 17 14
83.1703247222637 -351.990713418496 2718.41743889474 12 14 9
112.284922505621 -340.703450023713 2750.18636222819 12 15 8
129.711945514349 -333.035112910097 2772.84110467709 13 16 7
171.029345765927 -318.194684988622 2813.22263757946 12 15 6
146.632478636032 -323.245511827499 2804.1874087732 13 16 7
145.240034136026 -321.351717963184 2812.37510927032 15 18 11
139.875939335638 -320.654200835278 2817.59864197611 15 18 11
151.319525402556 -314.947132514169 2835.14861236296 14 17 10
124.336378187911 -320.688299604793 2824.53256410567 14 17 8
172.845416210264 -304.040242601419 2868.84181566858 14 17 8
182.113435491271 -299.077355378268 2884.41107988075 13 16 7
151.855658756773 -305.762259605753 2871.51829596841 13 16 7
137.678820761152 -307.685920602905 2870.29306806264 14 17 8
146.195468068096 -302.96715847385 2885.22762801694 14 17 8
150.709405216494 -299.440639554906 2897.22826692481 15 18 9
134.874253813265 -301.833027191224 2894.8852277043 14 17 8
105.087100732011 -308.23525870565 2882.90023796137 14 17 8
87.4803083590776 -311.082014234494 2879.54946331209 15 18 9
79.6764319429477 -311.091874119778 2883.04955728938 16 19 10
-14.390678691024 -333.455968211831 2836.6466778649 12 15 8
-40.6158210842023 -338.60706760677 2828.02452650224 8 11 4
-49.5191261797316 -338.815657765064 2831.22849449857 7 10 3
-46.7981453657496 -335.739256924336 2842.24193632923 12 15 8
-54.0371098494203 -335.478759860626 2846.55767724339 12 15 8
-56.2714034187728 -333.813245906434 2854.19851450648 15 18 11
-59.3267268295956 -332.383504793623 2861.27224650248 16 19 12
-74.1170556383888 -334.223987611985 2860.64393034474 18 21 14
-67.9230059388431 -330.228112512681 2873.74097849164 18 21 14
-51.5587928824672 -323.443722903937 2893.33035035249 16 18 13
-53.6805868695476 -321.792302856396 2900.86155694058 13 18 14
-121.839360021083 -338.275369319897 2866.12135639965 14 18 17
127.310621931719 -350.964806607289 2733.94808812171 4 4 2
99.0455793058205 -357.305122945412 2721.85971631937 16 18 13
117.084283472491 -349.293496603711 2745.27322165586 13 16 9
122.62177235959 -345.180784046474 2759.00463802802 13 16 7
129.795698974849 -340.589818695951 2773.87451846857 14 17 8
136.23984215136 -336.248959749388 2788.08880310955 13 16 7
150.68795474083 -329.495476840735 2808.16888758025 14 17 8
148.508945578606 -327.830992959524 2815.75464101215 16 19 12
157.523412713037 -322.787416762344 2831.56409830093 17 18 12
166.60831304138 -317.752824688136 2847.30460439442 12 15 6
130.838451998093 -326.22213155393 2830.23009470693 12 15 6
162.473219116898 -314.450675812181 2862.25904569533 13 16 7
167.685166600379 -310.638100327259 2874.94118030416 14 17 8
169.715898880666 -307.792848549905 2885.25696570344 14 17 8
158.012505630503 -309.03141735856 2885.72571791207 13 16 7
125.980176244641 -316.258864107794 2871.84112208559 14 17 8
135.328569097078 -311.256663889401 2887.32476370966 15 18 9
135.773530606659 -308.894856457351 2896.45287715392 15 18 9
115.80260002565 -312.51032916691 2891.31261480408 15 18 9
137.567149445049 -303.942617342006 2915.19517733008 17 20 11
133.989790769721 -302.783495137654 2921.41038609959 18 21 12
64.5349705337033 -320.681335342289 2882.49830730087 21 24 17
1.38292270229678 -336.636021269191 2848.37657304636 17 20 13
-54.4054005884864 -348.018879376973 2828.93873776358 9 12 5
-52.5275299033994 -345.150949812647 2839.40330306158 10 13 6
-51.4472803921215 -342.524397721399 2849.27834630158 9 12 5
-60.3575100795459 -342.742051172119 2852.49053007068 11 14 7
-59.2367030003755 -340.12047762258 2862.3263727145 13 16 9
-77.3828180174148 -342.934978071497 2859.50638613674 17 20 13
-79.6070511986944 -341.259367852069 2867.13540322017 18 21 14
-35.4536386371707 -326.624118381431 2904.73105926023 17 20 13
-56.1259195764907 -330.14557269581 2900.27335230631 15 20 16
108.607465296709 -364.511433820575 2720.51459621057 5 4 0
110.116832705857 -361.577647819128 2731.33535715642 10 11 5
125.822002366609 -354.225628916039 2752.91252064947 15 16 8
150.307806638389 -344.186968057887 2780.96065352737 14 17 6
137.785229166364 -345.691380603799 2780.86491220663 13 16 5
129.191103311632 -345.966279769125 2783.77166108862 12 15 4
144.41561770651 -338.898263563291 2804.45118852298 12 14 3
170.891241574867 -328.42102134528 2833.29239762853 15 16 8
171.177965983837 -326.021928777429 2842.57213212608 16 15 10
140.28195423208 -333.1394016856 2828.9598113231 14 15 9
142.955551018714 -330.005960331591 2840.01187563043 13 16 7
144.060461159706 -327.36424980626 2849.86052793263 14 17 8
157.288487878492 -321.07894153319 2868.38721523835 14 17 8
152.021806866516 -320.392142287253 2873.51559871048 14 17 8
137.845972105512 -322.374574256004 2872.29806090184 14 17 8
143.926403465786 -318.290841633092 2885.4949484356 13 16 7
142.736989523575 -316.393600849569 2893.48052713433 12 15 6
133.410033494555 -316.917763616727 2895.73491894638 13 16 7
117.522513974123 -319.372483977931 2893.45309478991 14 17 8
106.960423791664 -317.992079528575 2903.73738330271 18 21 12
64.6211566535499 -328.141909227899 2883.51539277191 19 22 15
-10.9109112489993 -347.89445891749 2840.99319508815 14 17 10
-38.7810920386844 -353.661346119362 2831.26178570485 11 14 7
-51.8268703128295 -355.092164427819 2831.67471331879 9 12 5
-45.7870393193334 -351.001089114659 2844.91049452855 9 12 5
-36.3590285512472 -345.958491206467 2860.3094414665 9 12 5
-40.2232806197338 -344.754962342155 2866.80263848954 11 14 5
-58.3095046555431 -347.617478653759 2863.93061384761 11 14 5
-84.8433981154702 -352.860949163041 2855.62870926876 16 19 10
-67.7426572598443 -345.683845267225 2875.84624013865 17 20 11
-58.9658533704838 -340.904119574997 2890.51345037279 15 18 11
-78.8468589541598 -344.228494539436 2886.65777636938 14 19 15
96.9508175841432 -375.946242690571 2712.52488832949 13 12 7
95.2920203899308 -373.978860488215 2720.96620466515 21 20 15
131.412675621005 -360.090869462146 2758.14682036178 20 21 13
111.750011907531 -363.847220178328 2752.72126616332 14 17 6
125.220452169517 -357.183038828639 2772.36814527957 14 17 6
105.500934943251 -360.93133772377 2766.99785740412 13 16 5
170.973814803116 -335.778828854555 2834.29788192879 17 17 9
166.470745283104 -334.841870006028 2840.04792373886 17 16 11
153.969822886815 -336.371479641211 2839.93440272658 15 16 10
150.258938231026 -335.186118837557 2846.27832671506 13 16 7
142.535788336189 -335.23232470459 2849.70329214159 14 17 8
146.086619520867 -331.834654230748 2861.26210609295 14 17 8
131.097044869868 -334.091396757795 2859.47659552935 14 17 8
133.070161836112 -331.189495262458 2869.84122098361 14 17 8
145.633634437967 -325.105477284103 2887.64066165129 13 16 7
161.538484009032 -318.053055233797 2907.64691100787 14 17 8
130.230761331522 -325.200533137941 2894.44785996568 15 18 9
97.1644688071098 -332.820285706937 2880.23107813167 15 18 9
102.490026317144 -328.95032647805 2892.79191501238 15 18 9
95.5431049956918 -328.744484165323 2896.82573069759 15 18 9
26.8259659551848 -346.806437655291 2858.6226265984 18 21 14
-17.425260438686 -357.529294862351 2837.55011445248 11 14 7
-44.4827083170232 -363.123596761511 2828.40305055916 9 12 5
-49.2484117086085 -362.148280514836 2834.40822247945 10 13 6
-23.2526682985434 -352.198220766918 2860.97005867743 9 12 5
-42.9348964851943 -355.594993710449 2856.92735832801 9 12 5
-57.6711473354163 -357.530612770317 2856.25974089493 10 13 4
-71.61216550886 -359.218790750613 2856.18278329234 11 14 5
-78.0400311001808 -358.727902884569 2861.07628651589 16 19 10
-76.0616716247391 -355.823419005361 2871.43532440581 17 20 11
-76.5762486741917 -353.646618840976 2880.12670849941 15 18 11
-95.6524641264718 -356.770340497728 2876.85911884502 15 20 14
90.7741128904398 -385.699582899699 2708.76369875452 16 15 10
112.640402279246 -376.176298797412 2735.23815529905 16 17 9
93.7391219137678 -379.726877904113 2730.44303254441 20 21 13
96.852168069816 -376.245299852798 2742.42417199755 15 18 7
100.008665141941 -372.769022573381 2754.36294750048 15 18 7
111.133231107914 -366.794690271074 2772.19054590584 14 17 6
132.667049682307 -357.579796808962 2797.62348372613 16 18 7
159.111557372476 -346.88283548177 2826.46311726822 18 18 10
147.395220690767 -348.185286931437 2826.95416432216 17 16 11
177.259472211325 -336.519009625097 2857.92265232204 14 15 7
162.37487958935 -338.822363160786 2856.03978213842 13 16 7
148.248293467552 -340.87070963985 2854.78308183886 14 17 8
146.170355202077 -339.184883369419 2862.26531598038 14 17 8
136.029178171818 -339.983872693511 2863.95195121043 14 17 8
142.063513564716 -335.818747352432 2877.18224507103 14 17 8
151.400285536259 -330.669252229469 2892.65565627905 13 16 7
146.15950876738 -329.984627701685 2897.75863787724 15 18 9
150.708290178938 -326.332298286897 2909.70608118036 15 18 9
116.873879075703 -334.296775432184 2894.88575543212 16 19 10
114.049633004743 -332.865530984373 2901.72980202143 14 17 8
-31.3679253018484 -369.420454461077 2829.06340951447 10 13 6
-42.7375557281322 -370.410517891195 2830.58091063636 9 12 5
-34.230433558859 -365.504462388725 2845.49758515638 11 14 7
-48.1001091164126 -367.229159643399 2845.35484297238 12 15 8
-52.0094507169921 -366.008578581522 2851.89063210198 13 16 9
-74.2824745647992 -370.173593578186 2846.28344802988 12 15 8
-67.3358840043745 -365.770750905151 2859.98997166538 13 16 7
-64.5252932200155 -362.596790371349 2870.90001019075 16 19 10
-73.4479923476923 -362.843876415813 2874.12858858086 16 19 10
-71.4282772963433 -359.920117554568 2884.44404878062 15 18 11
-86.2684377676865 -361.870824254695 2883.88184508403 13 18 12
-147.719198484071 -377.193773944002 2853.6453123475 16 21 17
107.296741405304 -388.120388362089 2722.4717389461 24 25 19
108.801999087842 -385.11289091273 2733.28534854942 16 19 10
118.209026474601 -379.571736776344 2750.04835522014 18 21 12
118.228119625602 -377.082265478105 2759.58049357628 16 19 8
125.389410722119 -372.316574745128 2774.43709693851 16 19 8
123.10453818616 -370.59499023431 2782.11953481736 15 18 7
132.75137954242 -365.083626193067 2798.64880563432 16 19 8
128.139241380486 -364.12693217331 2804.50423736845 18 19 11
149.075445472171 -355.098091826602 2829.14120445592 17 16 11
174.141463288373 -344.825643363108 2856.57862300111 14 15 7
168.072986378579 -344.390735508415 2861.1235217724 13 16 7
147.528132202022 -348.482265671121 2855.20628796105 14 17 8
163.986324162082 -341.006461816475 2876.0173938174 14 17 8
163.583411267826 -338.815020874627 2884.59572985368 14 17 8
147.424956430842 -339.200168035546 2890.77919804682 14 17 8
144.61594760641 -337.76329647498 2897.60728214027 15 18 9
116.532559702489 -344.077425582364 2886.75122552813 15 18 9
130.040940576121 -337.640794584932 2904.97715158111 15 18 9
142.000193051643 -331.714694408983 2921.98302263077 14 17 8
114.608832511051 -337.761944165084 2911.81723728294 13 16 7
-37.2269606049387 -381.390060554232 2816.81253892006 16 18 13
-50.2614932434979 -382.894444912939 2817.22517248172 10 12 7
-36.8556992748461 -376.443318532194 2835.55082643655 9 11 6
-37.457390109148 -374.223368796203 2844.32233831845 12 15 8
-62.1397104906571 -379.197125336127 2836.97608717201 13 16 9
-75.2462378923968 -380.691267272365 2837.45903661421 14 17 10
-75.8611959359206 -378.469160205323 2846.24306633641 14 17 10
-72.266809791619 -375.013985373016 2857.75046829194 15 18 11
-70.3071360597196 -372.058319670604 2868.1204967503 16 19 10
-66.6297978705437 -368.61372019926 2879.54708913274 15 18 9
-63.7520648410601 -365.421127836535 2890.38770063997 14 17 10
-109.829972554785 -376.512118044949 2869.76627278509 14 19 13
94.8590885770253 -399.935123287781 2713.8964864357 21 22 16
116.733373438852 -390.224251796917 2740.33494018123 17 20 11
149.756300593806 -376.940112613296 2775.01291957602 19 22 13
145.91071236399 -375.722792201859 2781.48588258871 14 20 8
127.84549100393 -379.113633393489 2777.2538410061 14 20 8
150.922950609664 -369.198948070948 2803.88464800914 16 19 8
150.311183147427 -366.966081672665 2812.66425705449 16 19 8
127.427714281678 -371.881927425612 2804.94006988968 18 19 11
145.966550678016 -363.528618157685 2827.80643594152 16 15 10
155.020908363101 -358.246676966951 2843.54105108186 14 15 7
148.905878440642 -357.80830504929 2848.13132785392 13 16 7
154.848450348401 -353.556144402863 2861.44021827365 14 17 8
176.965296261305 -344.232035891844 2886.27805939154 14 17 8
166.090522678933 -345.32635175689 2887.31956881646 14 17 8
140.611980196919 -350.97881064929 2878.03013342 14 17 8
127.214110244771 -352.820671047414 2877.43653579869 14 17 8
125.170401663958 -351.116250583535 2884.88203114367 14 17 8
112.539430666539 -352.698501575463 2884.90576852632 14 17 8
123.584722154812 -346.955799787494 2901.42907538907 15 18 9
137.986445549006 -340.214424346714 2920.1397673352 15 18 9
-41.0912995099455 -387.9431752783 2824.45258854993 9 11 6
-59.1018972822521 -390.976610122239 2821.53038975282 7 9 4
-44.8297419938584 -384.217174020498 2840.36741322756 9 11 6
-39.6067377800118 -380.226992539342 2853.01231825101 10 13 6
-56.8264735762103 -383.004061734081 2850.68380040726 11 14 7
-62.4088953471569 -382.271885794458 2856.11901246504 12 15 8
-71.3384194704685 -382.539235317568 2859.357700952 15 18 11
-71.0547109851167 -380.058591954972 2868.62837713444 14 17 10
-53.926268504509 -372.593897123729 2888.77555622456 14 17 10
-51.8625242402151 -369.627098531351 2899.04093351153 15 18 11
-101.290482369416 -381.846030469332 2876.24488942423 15 20 14
103.553941633191 -404.823669364978 2721.57190981355 15 16 10
105.049671683188 -401.765951264841 2732.38789574856 14 17 8
139.615235339249 -387.827581386407 2768.27113791786 21 24 15
133.379152883209 -387.37820766686 2772.98033342573 19 25 13
161.127705358487 -375.805596563966 2803.22976704188 16 22 10
143.875611186736 -378.983272636314 2799.57568174723 16 19 8
114.651712266203 -386.025413040911 2787.12595055078 16 19 8
139.456266782785 -375.514703004626 2814.78779106123 17 18 10
136.472736261649 -374.04076367599 2821.78369917948 15 16 10
173.50751640581 -359.698344271848 2857.98941100835 15 18 9
128.136400875281 -371.868299735367 2833.99144218331 13 16 7
138.048203471725 -366.287290244236 2850.24730900484 14 17 8
153.675998998509 -358.919249515393 2870.48202882015 14 17 8
150.016413318526 -357.717298951593 2876.77256020801 14 17 8
121.260807034564 -364.456334927199 2865.2299181163 14 17 8
115.122759430511 -364.015929350931 2869.84308905458 15 18 9
109.795237435402 -363.319248801353 2875.03042807 13 16 7
113.440401432487 -359.81335097786 2886.47957218913 13 16 7
131.027710291289 -351.975900580436 2907.53290639025 15 18 9
134.792770750795 -348.485189617844 2918.86557400321 16 19 10
-32.9282643972926 -395.697654962131 2821.74374851712 15 17 12
-36.0483145637516 -394.202170954247 2828.87203836712 8 10 5
-17.6473620857713 -386.108072063501 2850.49638920902 6 8 3
-42.2513412568022 -391.215450840166 2843.09209339071 7 9 4
-41.178408653507 -388.4574618769 2852.95531395821 8 11 4
-60.0674166521697 -391.77753318496 2849.53084492765 8 11 4
-55.6374066396663 -388.010160649583 2861.57922666281 10 13 6
-70.4099169702799 -390.058160255223 2860.96388738337 13 16 9
-76.8353555336008 -389.577278726578 2865.85645946454 13 16 9
-65.6068312836551 -383.802363580428 2882.19305236601 13 16 9
-40.8163097597685 -374.008549699404 2907.14062830688 16 19 12
99.0567560090585 -416.674465216546 2709.368051572 11 12 7
111.465674843913 -409.914126413071 2728.63791581017 16 17 11
114.549874628506 -406.310354992645 2740.62964001 16 19 10
126.329114313062 -399.831389516358 2759.14946248994 18 21 12
131.886844251181 -395.456163790189 2772.8219798675 15 21 9
124.85364929629 -395.269296579244 2776.94460889983 15 21 9
114.643944952881 -396.125678994407 2778.70743759666 15 21 9
109.971545137041 -395.15277858699 2784.62031474694 16 19 8
167.407972772164 -373.853757491184 2836.3810513302 17 18 10
204.399911545011 -359.363350629036 2872.60743279244 16 17 11
150.388187343914 -374.549630679061 2842.04884938665 16 19 10
122.607268774845 -381.130277117102 2830.93182739875 14 17 8
136.525065232242 -374.198176616309 2850.09521470828 12 15 6
148.924627262564 -367.796809902047 2868.01017914997 13 16 7
129.096525728212 -371.76935923466 2862.78086121435 14 17 8
103.530682520363 -377.544406359809 2853.59623521645 14 17 8
102.220593121465 -375.549468167179 2861.68754463518 13 16 7
104.998922504951 -372.265355652347 2872.61333879383 12 15 6
107.816771044764 -368.986166186277 2883.50061747051 12 15 6
124.572224015874 -361.329268850006 2903.98977321106 14 17 8
122.585114258659 -359.609634381924 2911.37681646434 15 18 9
-34.4841562605458 -403.986546661591 2821.67971023347 12 14 9
-41.7343518073445 -403.766101866844 2826.01286130919 7 9 4
-68.0179572642823 -409.445032132794 2817.52677780531 8 10 5
-46.3059820345322 -400.246625405272 2841.36833084765 7 9 4
-70.1760275146999 -405.146570656225 2834.62147875799 7 9 4
-46.6472505261901 -395.456088214924 2859.42034869844 8 10 5
-59.7210613710555 -397.026195070158 2859.88169985589 10 12 7
-71.9918985578167 -398.336463833814 2860.92452950396 12 15 8
-80.0987806604305 -398.367582061351 2864.72831673888 13 16 9
-97.4650014132057 -401.199495788989 2862.55370446246 13 16 9
-99.7158765806718 -399.443159823535 2870.197246202 15 18 11
85.0911049716512 -429.197846935155 2699.58104292231 23 24 19
112.333635122423 -417.334872408646 2730.28971075788 21 24 17
128.75684848844 -409.199957995066 2752.45538178213 15 21 11
137.42461685668 -403.724440602546 2768.54493750887 12 18 8
120.93394781447 -406.715174426198 2765.52436298165 15 21 9
119.406324449505 -404.681726481296 2773.82599511985 15 21 9
119.483327976061 -402.122955200456 2783.29038510984 13 19 7
121.97096986226 -398.776840312369 2794.49567232676 14 20 8
177.84190330747 -377.795480193959 2845.02376145917 16 19 10
186.125423887568 -372.634723857869 2860.12449314871 16 17 11
143.271932861839 -384.300235139365 2837.80333298042 15 16 10
147.554759727496 -380.452685406013 2849.98601960132 15 18 9
151.884634544491 -376.611083260991 2862.12252812001 13 16 7
155.456152298042 -373.037269698285 2873.63510397306 13 16 7
140.491063206097 -375.489560230833 2871.85384295518 14 17 8
111.714383776877 -382.38126349059 2860.35469096615 14 17 8
102.306746561775 -382.987836169845 2862.70138053768 12 15 6
91.2531937487673 -384.113747454893 2863.92509017074 11 14 5
99.7469045995603 -378.977896783896 2878.82078086072 11 14 5
86.2345105394766 -380.88401349744 2878.35040442693 12 15 6
49.7395192237313 -390.071712026692 2862.10179995151 14 17 8
46.7749200325818 -388.580434220549 2869.07634635982 15 18 11
-14.6332725793585 -405.531820424495 2836.20406859458 11 13 8
-61.4493801405209 -417.777849211643 2813.65257966287 6 8 5
-80.3337320491266 -421.184690433737 2810.23631162146 8 10 7
-98.4499601205799 -424.324204327191 2807.43502155208 9 11 6
-104.157561548145 -423.575245032779 2812.99205828688 7 9 4
-41.5580106214128 -401.632049041856 2863.78159414357 8 10 5
-68.8137433617788 -407.61737905436 2854.88922383382 10 12 7
-53.4888255115713 -400.433556266296 2874.03468583081 12 14 9
-80.0066651884421 -406.14762994314 2865.78673239271 13 16 9
-115.868737170843 -414.680885003879 2851.64705968161 12 15 8
-134.173161486621 -417.794714761237 2849.02851731881 12 15 8
-127.196324556828 -413.192655454083 2862.67556173088 12 17 13
111.718371639561 -427.881059697564 2721.12344814146 26 27 22
111.636645887185 -425.284587421066 2730.73988646118 21 24 17
91.1858162818699 -429.646136397298 2724.76919352337 15 21 11
98.9737426742496 -424.377113245417 2740.34605577945 14 20 10
126.537963975287 -412.441603828581 2770.72489676422 14 22 9
128.975576483945 -409.062704939431 2781.97501843158 13 21 8
159.182043727422 -396.361560690291 2813.86797543723 13 19 7
156.207285604 -394.864638496157 2820.85177557739 14 20 8
143.691000886199 -396.560755919457 2820.77811935584 17 20 11
158.275513327332 -389.217413795207 2840.63557582301 17 18 12
160.157155610212 -386.134150242295 2851.06423175719 17 20 11
153.253060274428 -385.972462382445 2855.06238445639 16 19 10
192.968401714233 -370.441714413092 2892.68169064489 14 17 8
173.268933150617 -374.527677048103 2887.34106286235 14 17 8
141.383663033802 -382.571304786264 2873.43106620149 14 17 8
121.51708721752 -386.634857651753 2868.253404079 13 16 7
106.451281880812 -389.105468904062 2866.5748635754 14 17 8
87.2717862973671 -392.88822128349 2862.0903277533 14 17 8
88.4157208650249 -390.0761455705 2871.87504832259 14 17 8
88.7737780035876 -387.531193488306 2881.06239039264 14 17 8
70.3131870121592 -391.03718683223 2877.23997613644 15 18 9
37.0068331574327 -399.263201815656 2863.35084623029 15 18 11
8.50949240053023 -405.897251921484 2852.95347294634 11 13 8
-62.1823232058243 -425.887702120447 2814.16212636208 6 8 5
-58.7344890778971 -422.265290175153 2825.79000122204 8 10 7
-107.476694431192 -435.133323204564 2802.40893134881 9 11 8
-81.6260220481118 -424.447707627716 2829.00611039085 8 10 5
-78.9506348027871 -421.093860125198 2840.02382081374 9 11 6
-36.9952756632785 -405.482565743457 2876.82376090603 8 10 5
-49.2131284429398 -406.842295917126 2877.82128662939 11 13 8
-44.6856206578041 -402.990092867953 2889.76031372215 12 15 8
-61.1288788254831 -405.647454880407 2888.06029660528 11 14 7
-64.1392152282858 -404.140003174127 2895.07787024551 11 14 7
88.3864773487728 -443.704080612226 2704.12067955245 19 20 15
119.547574442608 -430.263550916351 2737.790212794 18 21 14
79.5054146853582 -441.433237892335 2716.85514229632 16 22 12
117.147427247125 -425.857145725245 2755.10934569781 18 24 14
125.834944551022 -420.286596598773 2771.16558263271 10 18 5
129.060842497032 -416.610967413594 2783.00597791732 14 22 9
141.044790829901 -409.979634405903 2801.30000182874 13 19 7
118.965364663169 -414.922778115346 2794.19867016363 14 20 8
