ply
format ascii 1.0
comment KinectMotionCapture
element vertex 752
property float x
property float y
property float z
property uchar red
property uchar green
property uchar blue
end_header
-1181.74004554749 339.899182319641 2232.00011253357 153 155 152
-1174.98183250427 339.703440666199 2230.99994659424 148 150 147
-1169.80719566345 339.965879917145 2233.00004005432 139 141 138
-1164.10601139069 340.077340602875 2233.99996757507 136 138 135
-1158.92434120178 340.342402458191 2236.00006103516 132 134 131
-1153.7367105484 340.608596801758 2237.99991607666 131 133 130
-1148.03159236908 340.723961591721 2239.00008201599 132 134 131
-1144.87600326538 341.601341962814 2244.99988555908 135 137 134
-1140.6786441803 342.175543308258 2249.00007247925 136 138 135
-1136.9686126709 342.903017997742 2253.99994850159 133 135 132
-1135.24293899536 344.240039587021 2263.00001144409 125 127 124
-1131.47699832916 344.969630241394 2267.99988746643 94 96 93
-1127.68864631653 345.700323581696 2273.00000190735 98 100 97
-1121.90413475037 345.823764801025 2273.9999294281 122 124 121
-1117.10023880005 346.25256061554 2276.99995040894 115 117 114
-1112.77234554291 346.834480762482 2280.99989891052 94 96 93
-1107.94186592102 347.265392541885 2283.99991989136 69 71 68
-1101.65238380432 347.241312265396 2283.99991989136 91 93 90
-1092.48995780945 346.306264400482 2278.00011634827 120 122 119
-1083.84156227112 345.524400472641 2273.00000190735 128 130 127
-1077.12125778198 345.351785421371 2272.0000743866 126 128 125
-1072.29578495026 345.788210630417 2275.00009536743 124 126 123
-1066.9891834259 346.073657274246 2276.99995040894 124 126 123
-1062.6072883606 346.664041280746 2280.99989891052 126 128 125
-1057.74402618408 347.103446722031 2283.99991989136 131 133 130
-1053.32839488983 347.695827484131 2288.00010681152 133 135 132
-1047.97923564911 347.985208034515 2289.99996185303 134 136 133
-1043.53225231171 348.579436540604 2293.99991035461 129 131 128
-1037.71042823792 348.718792200089 2295.00007629395 126 128 125
-1032.33563899994 349.0110039711 2296.99993133545 128 130 127
-1026.95322036743 349.304169416428 2299.00002479553 130 132 129
-1022.45092391968 349.90206360817 2302.99997329712 135 137 134
-1018.37110519409 350.65284371376 2308.00008773804 134 136 133
-1013.38982582092 351.100623607636 2311.00010871887 138 140 137
-1007.95924663544 351.397305727005 2312.99996376038 137 139 136
-1004.68575954437 352.454483509064 2319.9999332428 136 138 135
-1000.94652175903 353.360563516617 2325.99997520447 139 141 138
-998.459994792938 354.723244905472 2335.00003814697 134 136 133
-994.652330875397 355.630934238434 2341.00008010864 136 138 135
-990.814447402954 356.539487838745 2346.99988365173 138 140 137
-987.365663051605 357.600778341293 2354.00009155273 139 141 138
-982.631027698517 358.207076787949 2358.00004005432 141 143 140
-979.118764400482 359.269917011261 2365.00000953674 143 145 142
-974.748075008392 360.029697418213 2369.99988555908 142 144 141
-970.352172851563 360.790312290192 2375 138 140 137
-966.337025165558 361.703515052795 2381.00004196167 139 141 138
-961.888015270233 362.465590238571 2385.99991798401 147 149 146
-958.214640617371 363.532304763794 2392.99988746643 143 145 142
-954.107344150543 364.447802305222 2398.9999294281 141 143 140
-949.574112892151 365.212112665176 2404.00004386902 142 144 141
-943.83841753006 365.521311759949 2405.99989891052 142 144 141
-939.262449741364 366.287082433701 2411.00001335144 141 143 140
-935.047507286072 367.205440998077 2417.00005531311 145 147 144
-930.033206939697 367.820620536804 2421.0000038147 141 143 140
-924.998581409454 368.436455726624 2424.99995231628 145 147 144
-921.079754829407 369.508773088455 2431.99992179871 142 144 141
-919.004380702972 371.341466903687 2444.00000572205 137 139 136
-916.491746902466 373.0229139328 2454.99992370605 141 143 140
-913.179576396942 374.401241540909 2463.99998664856 146 148 145
-908.716082572937 375.324308872223 2470.00002861023 148 150 147
-904.220819473267 376.24803185463 2476.0000705719 149 151 148
-899.694204330444 377.172380685806 2482.00011253357 148 150 147
-894.776165485382 377.945333719254 2486.99998855591 145 147 144
-890.902996063232 379.174828529358 2494.99988555908 143 145 142
-887.696146965027 380.708992481232 2505.00011444092 135 137 134
-887.952387332916 383.763551712036 2525.00009536743 138 140 137
-887.054324150085 386.362910270691 2542.00005531311 133 135 132
-885.025978088379 388.507008552551 2555.99999427795 133 135 132
-880.174100399017 389.435708522797 2562.00003623962 134 136 133
-877.335250377655 391.27704501152 2573.99988174438 135 137 134
-874.770164489746 393.271028995514 2586.99989318848 138 138 136
-870.12255191803 394.353598356247 2594.00010108948 138 138 136
-862.110018730164 393.91627907753 2591.00008010864 117 117 115
-854.444026947021 393.631428480148 2588.99998664856 144 144 142
-1223.04165363312 335.137069225311 2239.00008201599 166 168 165
-1216.75109863281 335.086017847061 2239.00008201599 167 169 166
-1211.54868602753 335.335671901703 2240.9999370575 177 179 176
-1199.88834857941 333.791375160217 2230.99994659424 185 187 184
-1190.96624851227 332.996904850006 2226.0000705719 175 177 174
-1183.14301967621 332.503169775009 2223.00004959106 166 168 165
-1180.63747882843 333.506494760513 2230.00001907349 154 156 153
-1174.93963241577 333.613693714142 2230.99994659424 149 151 148
-1169.76618766785 333.871722221375 2233.00004005432 138 140 137
-1164.58749771118 334.131002426147 2234.99989509583 135 137 134
-1158.88607501984 334.242165088654 2236.00006103516 133 135 132
-1154.21533584595 334.653407335281 2239.00008201599 131 133 130
-1149.02126789093 334.91638302803 2240.9999370575 130 132 129
-1144.8415517807 335.479468107224 2244.99988555908 131 133 130
-1139.63079452515 335.744917392731 2246.99997901917 132 134 131
-1134.41455364227 336.011469364166 2249.00007247925 129 131 128
-1132.70366191864 337.324887514114 2257.99989700317 127 129 126
-1129.95064258575 338.340610265732 2265.00010490417 103 105 102
-1127.16388702393 339.357227087021 2272.0000743866 93 95 92
-1123.35658073425 340.076237916946 2276.99995040894 117 119 116
-1119.52674388885 340.796291828156 2282.00006484985 117 119 116
-1115.67389965057 341.517329216003 2286.99994087219 99 101 98
-1108.88779163361 341.343522071838 2286.00001335144 62 64 61
-1101.14705562592 340.872257947922 2282.99999237061 103 105 102
-1091.50886535645 339.804917573929 2276.00002288818 122 124 121
-1084.29753780365 339.485257863998 2273.9999294281 127 129 126
-1078.99785041809 339.763849973679 2276.00002288818 126 128 125
-1075.5763053894 340.640544891357 2282.00006484985 123 125 122
-1069.78297233582 340.771824121475 2282.99999237061 119 121 118
-1063.98808956146 340.904176235199 2283.99991989136 120 122 119
-1057.72817134857 340.888202190399 2283.99991989136 125 127 124
-1052.85334587097 341.321051120758 2286.99994087219 126 128 125
-1047.96528816223 341.754764318466 2289.99996185303 131 133 130
-1043.0645942688 342.189460992813 2292.99998283386 128 130 127
-1038.15054893494 342.625051736832 2296.0000038147 126 128 125
-1033.67292881012 343.210726976395 2299.99995231628 128 130 127
-1028.28323841095 343.498945236206 2302.00004577637 131 133 130
-1023.32973480225 343.93721818924 2305.0000667572 135 137 134
-1018.80419254303 344.52560544014 2309.00001525879 133 135 132
-1013.38243484497 344.816416501999 2311.00010871887 136 138 135
-1007.95269012451 345.108091831207 2312.99996376038 135 137 134
-1003.81398200989 345.848232507706 2318.00007820129 135 137 134
-1000.94175338745 347.036778926849 2325.99997520447 140 142 139
-998.883545398712 348.524540662766 2335.99996566772 134 136 133
-995.498836040497 349.565476179123 2342.99993515015 136 138 135
-990.389883518219 350.010454654694 2345.99995613098 137 139 136
-984.847545623779 350.307077169418 2348.00004959106 139 141 138
-980.546534061432 351.052016019821 2352.9999256134 142 144 141
-977.876722812653 352.39452123642 2361.99998855591 142 144 141
-974.337577819824 353.439390659332 2368.99995803833 143 145 142
-969.945192337036 354.186654090881 2374.00007247925 139 141 138
-965.527534484863 354.934573173523 2378.99994850159 138 140 137
-960.681676864624 355.534106492996 2382.99989700317 147 149 146
-955.815970897675 356.134444475174 2387.00008392334 144 146 143
-952.123165130615 357.183009386063 2394.00005340576 142 144 141
-948.394238948822 358.232289552689 2401.00002288818 142 144 141
-943.844377994537 358.983874320984 2405.99989891052 142 144 141
-939.269006252289 359.736204147339 2411.00001335144 141 143 140
-934.667766094208 360.489159822464 2415.99988937378 144 146 143
-929.656863212585 361.093640327454 2420.00007629395 141 143 140
-925.006985664368 361.847907304764 2424.99995231628 144 146 143
-920.710146427155 362.752139568329 2430.99999427795 142 144 141
-918.262004852295 364.40309882164 2441.99991226196 137 139 136
-914.262294769287 365.457862615585 2448.99988174438 139 141 138
-910.96705198288 366.811722517014 2457.99994468689 141 143 140
-906.88818693161 367.867827415466 2464.99991416931 148 150 147
-903.502702713013 369.222939014435 2473.99997711182 148 150 147
-898.982048034668 370.131015777588 2480.00001907349 148 150 147
-894.789576530457 371.188968420029 2486.99998855591 145 147 144
-889.845788478851 371.94898724556 2492.00010299683 144 146 143
-887.001931667328 373.605161905289 2503.00002098084 142 144 141
-886.912763118744 376.456171274185 2522.0000743866 147 149 146
-886.372208595276 379.158556461334 2539.99996185303 141 143 140
-884.696185588837 381.413906812668 2555.0000667572 133 135 132
-880.191087722778 382.475554943085 2562.00003623962 133 135 132
-875.648617744446 383.537799119949 2569.00000572205 133 135 132
-873.435735702515 385.645687580109 2582.99994468689 138 138 136
-870.141088962555 387.306302785873 2594.00010108948 138 138 136
-863.127171993256 387.325018644333 2594.00010108948 119 119 117
-854.133367538452 386.448293924332 2588.00005912781 128 128 126
-1221.89795970917 328.72411608696 2236.99998855591 164 166 163
-1215.07108211517 328.527480363846 2236.00006103516 166 168 165
-1208.79733562469 328.479200601578 2236.00006103516 186 188 185
-1198.76611232758 327.404141426086 2229.00009155273 187 189 186
-1189.85104560852 326.624512672424 2223.99997711182 175 177 174
-1182.03496932983 326.140165328979 2220.99995613098 169 171 168
-1178.47740650177 326.83190703392 2226.0000705719 153 155 152
-1172.79195785522 326.93749666214 2226.99999809265 145 147 144
-1168.15483570099 327.338010072708 2230.00001907349 145 147 144
-1163.50698471069 327.739745378494 2233.00004005432 139 141 138
-1158.84876251221 328.142642974854 2236.00006103516 135 137 134
-1153.66387367249 328.399956226349 2237.99991607666 132 134 131
-1149.49929714203 328.951984643936 2242.00010299683 129 131 128
-1144.29795742035 329.211592674255 2243.99995803833 128 130 127
-1139.5982503891 329.619139432907 2246.99997901917 128 130 127
-1133.87870788574 329.734474420547 2247.99990653992 125 127 124
-1131.16872310638 330.731004476547 2255.00011444092 127 129 126
-1129.92143630981 332.168400287628 2265.00010490417 115 117 114
-1128.12805175781 333.460122346878 2273.9999294281 105 107 104
-1125.30303001404 334.459513425827 2280.99989891052 100 102 99
-1120.48208713531 334.87343788147 2283.99991989136 111 113 110
-1116.13714694977 335.435092449188 2288.00010681152 90 92 89
-1108.37936401367 334.971517324448 2285.00008583069 61 63 60
-1100.64220428467 334.50910449028 2282.00006484985 113 115 112
-1091.96710586548 333.754658699036 2276.99995040894 115 117 114
-1085.70778369904 333.734273910522 2276.99995040894 114 116 113
-1081.82311058044 334.447741508484 2282.00006484985 115 117 114
-1078.38618755341 335.308700799942 2288.00010681152 115 117 114
-1072.57735729218 335.437834262848 2289.00003433228 114 116 113
-1065.83547592163 335.274934768677 2288.00010681152 113 115 112
-1058.6394071579 334.966450929642 2286.00001335144 114 116 113
-1053.29954624176 335.245162248611 2288.00010681152 121 123 120
-1047.95205593109 335.524708032608 2289.99996185303 122 124 121
-1043.05219650269 335.951745510101 2292.99998283386 120 122 119
-1038.5913848877 336.526155471802 2296.99993133545 118 120 117
-1033.66243839264 336.954981088638 2299.99995231628 118 120 117
-1028.72025966644 337.384670972824 2302.99997329712 116 118 115
-1022.87697792053 337.522268295288 2303.99990081787 120 122 119
-1017.91381835938 337.953716516495 2306.99992179871 126 128 125
-1013.37552070618 338.532507419586 2311.00010871887 132 134 131
-1008.38232040405 338.965624570847 2313.99989128113 135 137 134
-1004.24182415009 339.692533016205 2319.00000572205 141 143 140
-1000.93722343445 340.713232755661 2325.99997520447 138 140 137
-998.452365398407 342.02766418457 2335.00003814697 136 138 135
-993.796527385712 342.610508203506 2338.99998664856 138 140 137
-989.121437072754 343.194127082825 2342.99993515015 137 139 136
-983.168482780457 343.339145183563 2344.00010108948 137 139 136
-980.129361152649 344.510197639465 2351.99999809265 140 142 139
-977.049052715302 345.681995153427 2359.99989509583 143 145 142
-973.51610660553 346.70814871788 2367.00010299683 143 145 142
-969.129800796509 347.442030906677 2371.99997901917 133 135 132
-964.718461036682 348.176658153534 2377.00009346008 135 137 134
-960.281670093536 348.911970853806 2381.99996948242 143 145 142
-955.018937587738 349.355101585388 2384.99999046326 137 139 136
-951.332330703735 350.384831428528 2391.99995994568 140 142 139
-948.004543781281 351.561784744263 2400.00009536743 143 145 142
-944.242775440216 352.592945098877 2407.00006484985 140 142 139
-938.886046409607 353.038847446442 2410.00008583069 138 140 137
-933.514535427094 353.485375642776 2413.00010681152 144 146 143
-928.512394428253 354.079067707062 2417.00005531311 141 143 140
-925.397157669067 355.405926704407 2426.00011825562 139 141 138
-921.47696018219 356.440395116806 2433.00008773804 139 141 138
-917.895913124084 357.622057199478 2440.99998474121 138 140 137
-913.526237010956 358.511418104172 2447.00002670288 134 136 133
-909.495651721954 359.547793865204 2453.9999961853 131 133 130
-905.060350894928 360.438376665115 2460.00003814697 150 152 149
-901.323854923248 361.622542142868 2467.99993515015 147 149 146
-897.182404994965 362.660825252533 2474.99990463257 146 148 145
-892.284452915192 363.40668797493 2480.00001907349 148 150 147
-888.78858089447 364.739269018173 2489.00008201599 146 148 145
-886.662185192108 366.65865778923 2502.00009346008 148 150 147
-887.982964515686 370.04417181015 2525.00009536743 155 157 154
-887.783885002136 372.844219207764 2543.99991035461 127 129 126
-885.751366615295 374.912232160568 2558.00008773804 133 135 132
-881.238698959351 375.954866409302 2565.00005722046 127 129 126
-876.688599586487 376.998007297516 2572.00002670288 129 131 128
-873.453676700592 378.628104925156 2582.99994468689 138 138 136
-869.824111461639 380.112141370773 2592.99993515015 134 134 132
-863.146185874939 380.277425050735 2594.00010108948 117 117 115
-854.812681674957 379.710018634796 2589.99991416931 123 123 121
-1221.84813022614 322.611391544342 2236.99998855591 161 163 160
-1215.02268314362 322.418659925461 2236.00006103516 166 168 165
-1207.66925811768 322.08326458931 2233.99996757507 184 186 183
-1196.56956195831 320.740282535553 2224.99990463257 184 186 183
-1189.27216529846 320.407927036285 2223.00004959106 172 174 171
-1182.52456188202 320.221096277237 2221.99988365173 167 169 166
-1177.90675163269 320.612043142319 2224.99990463257 150 152 149
-1171.69880867004 320.571959018707 2224.99990463257 141 143 140
-1168.11609268188 321.253508329391 2230.00001907349 140 142 139
-1163.9906167984 321.792095899582 2233.99996757507 140 142 139
-1160.36713123322 322.4758207798 2239.00008201599 135 137 134
-1155.69078922272 322.872668504715 2242.00010299683 133 135 132
-1151.00347995758 323.270589113235 2244.99988555908 129 131 128
-1144.77515220642 323.237746953964 2244.99988555908 128 130 127
-1139.05990123749 323.350101709366 2246.00005149841 128 130 127
-1132.83979892731 323.319613933563 2246.00005149841 123 125 122
-1129.63461875916 324.153929948807 2252.00009346008 132 134 131
-1128.89552116394 325.70892572403 2263.00001144409 125 127 124
-1128.10087203979 327.264755964279 2273.9999294281 110 112 109
-1125.77033042908 328.389823436737 2282.00006484985 90 92 89
-1121.92869186401 329.084098339081 2286.99994087219 108 110 107
-1115.62526226044 329.059988260269 2286.99994087219 72 74 71
-1108.35647583008 328.749239444733 2285.00008583069 78 80 77
-1100.13818740845 328.151851892471 2280.99989891052 111 113 110
-1093.86467933655 328.131020069122 2280.99989891052 113 115 112
-1087.59546279907 328.111231327057 2280.99989891052 111 113 110
-1083.2267999649 328.667849302292 2285.00008583069 111 113 110
-1078.83977890015 329.225391149521 2289.00003433228 112 114 111
-1073.49789142609 329.496204853058 2290.99988937378 114 116 113
-1065.8198595047 329.048991203308 2288.00010681152 117 119 116
-1059.08787250519 328.890323638916 2286.99994087219 124 126 123
-1053.28583717346 329.020291566849 2288.00010681152 126 128 125
-1049.31235313416 329.726338386536 2292.99998283386 129 131 128
-1044.40498352051 330.145686864853 2296.0000038147 128 130 127
-1039.93690013885 330.70969581604 2299.99995231628 122 124 121
-1034.55126285553 330.98703622818 2302.00004577637 120 122 119
-1028.71119976044 331.121444702148 2302.99997329712 119 121 118
-1022.86887168884 331.256777048111 2303.99990081787 121 123 120
-1018.34762096405 331.824243068695 2308.00008773804 123 125 122
-1014.24586772919 332.536280155182 2312.99996376038 126 128 125
-1008.81242752075 332.817882299423 2315.00005722046 131 133 130
-1004.23693656921 333.387792110443 2319.00000572205 142 144 141
-1000.07247924805 334.102302789688 2323.99988174438 138 140 137
-996.738612651825 335.105091333389 2331.00008964539 136 138 135
-992.09451675415 335.677355527878 2335.00003814697 136 138 135
-987.431049346924 336.250424385071 2338.99998664856 135 137 134
-982.747912406921 336.824208498001 2342.99993515015 136 138 135
-980.545878410339 338.261336088181 2352.9999256134 139 141 138
-977.877557277679 339.555442333221 2361.99998855591 145 147 144
-974.33990240097 340.562790632248 2368.99995803833 144 146 143
-969.948947429657 341.283351182938 2374.00007247925 133 135 132
-964.721143245697 341.717094182968 2377.00009346008 133 135 132
-959.882140159607 342.295318841934 2381.00004196167 141 143 140
-955.023050308228 342.874199151993 2384.99999046326 141 143 140
-951.337218284607 343.885093927383 2391.99995994568 143 145 142
-946.430087089539 344.465404748917 2395.99990844727 143 145 142
-943.071961402893 345.621436834335 2404.00004386902 140 142 139
-938.113689422607 346.203029155731 2407.99999237061 140 142 139
-933.135092258453 346.785336732864 2411.99994087219 143 145 142
-928.520560264587 347.512066364288 2417.00005531311 143 145 142
-925.405919551849 348.81454706192 2426.00011825562 141 143 140
-921.48631811142 349.830090999603 2433.00008773804 141 143 140
-916.777789592743 350.558698177338 2437.99996376038 141 143 140
-912.416756153107 351.431727409363 2444.00000572205 137 139 136
-908.024370670319 352.30541229248 2450.00004768372 134 136 133
-903.600454330444 353.179693222046 2456.00008964539 149 151 148
-899.144947528839 354.054540395737 2461.99989318848 147 149 146
-895.74533700943 355.361431837082 2470.99995613098 146 148 145
-891.218602657318 356.237500905991 2476.99999809265 147 149 146
-888.088464736938 357.689380645752 2486.99998855591 144 146 143
-888.448596000671 360.580205917358 2506.99996948242 146 148 145
-890.459895133972 364.190965890884 2532.00006484985 127 129 126
-890.242636203766 366.939425468445 2551.00011825562 106 108 105
-886.806547641754 368.393957614899 2561.00010871887 131 133 130
-882.286310195923 369.417518377304 2568.00007820129 124 126 123
-877.387642860413 370.297729969025 2573.99988174438 127 129 126
-874.486088752747 372.041702270508 2585.99996566772 133 133 131
-870.178043842316 373.210847377777 2594.00010108948 132 132 130
-863.497674465179 373.373240232468 2595.00002861023 116 116 114
-855.161964893341 372.816622257233 2591.00008010864 117 117 115
-1224.79367256165 315.699130296707 2230.99994659424 169 171 168
-1220.70705890656 316.216468811035 2234.99989509583 157 159 156
-1213.8888835907 316.027790307999 2233.99996757507 172 174 171
-1204.38015460968 315.133303403854 2227.9999256134 185 187 184
-1193.2989358902 313.816159963608 2219.00010108948 182 184 181
-1186.01965904236 313.490509986877 2217.00000762939 175 177 174
-1180.88674545288 313.731819391251 2219.00010108948 171 173 170
-1175.74906349182 313.974320888519 2220.99995613098 154 156 153
-1170.08006572723 314.076691865921 2221.99988365173 144 146 143
-1166.50688648224 314.745664596558 2226.99999809265 139 141 138
-1161.87012195587 315.133094787598 2230.00001907349 137 139 136
-1160.33172607422 316.369414329529 2239.00008201599 135 137 134
-1155.14099597931 316.617697477341 2240.9999370575 132 134 131
-1149.94513988495 316.867172718048 2243.00003051758 127 129 126
-1143.21386814117 316.693991422653 2242.00010299683 125 127 124
-1138.014793396 316.945731639862 2243.99995803833 126 128 125
-1134.32335853577 317.622303962708 2249.00007247925 122 124 121
-1130.60939311981 318.299859762192 2253.99994850159 125 127 124
-1129.86588478088 319.825679063797 2265.00010490417 121 123 120
-1129.06670570374 321.352332830429 2276.00002288818 109 111 108
-1126.73163414001 322.456359863281 2283.99991989136 89 91 88
-1121.90449237823 322.85538315773 2286.99994087219 95 97 94
-1113.16311359406 322.12620973587 2282.00006484985 67 69 66
-1106.87911510468 322.103977203369 2282.00006484985 107 109 106
-1100.59952735901 322.082757949829 2282.00006484985 112 114 111
-1094.80381011963 322.203695774078 2282.99999237061 110 112 109
-1089.00701999664 322.325676679611 2283.99991989136 122 124 121
-1084.63084697723 322.8719830513 2288.00010681152 120 122 119
-1079.29408550262 323.137015104294 2289.99996185303 116 118 115
-1073.95052909851 323.403030633926 2292.00005531311 109 111 108
-1066.73622131348 323.10551404953 2289.99996185303 109 111 108
-1060.46307086945 323.091268539429 2289.99996185303 114 116 113
-1055.11403083801 323.360055685043 2292.00005531311 118 120 117
-1050.21524429321 323.770850896835 2295.00007629395 123 125 122
-1045.75824737549 324.32359457016 2299.00002479553 123 125 122
-1040.37868976593 324.595063924789 2301.00011825562 117 119 116
-1033.64276885986 324.444204568863 2299.99995231628 113 115 112
-1027.8092622757 324.576377868652 2301.00011825562 116 118 115
-1022.41706848145 324.850410223007 2302.99997329712 120 122 119
-1017.89939403534 325.407415628433 2306.99992179871 126 128 125
-1013.36276531219 325.965255498886 2311.00010871887 132 134 131
-1007.93552398682 326.241731643677 2312.99996376038 134 136 133
-1003.36623191833 326.801121234894 2316.99991226196 140 142 139
-1000.06866455078 327.784448862076 2323.99988174438 137 139 136
-996.735692024231 328.76855134964 2331.00008964539 133 135 132
-992.517173290253 329.471319913864 2335.99996566772 132 134 131
-987.851738929749 330.033779144287 2339.99991416931 132 134 131
-983.586132526398 330.738037824631 2345.00002861023 135 137 134
-980.545878410339 331.86611533165 2352.9999256134 139 141 138
-976.222336292267 332.571893930435 2358.00004005432 145 147 144
-971.873641014099 333.278357982636 2362.99991607666 146 148 145
-967.499673366547 333.985477685928 2368.00003051758 132 134 131
-962.288916110992 334.411323070526 2371.00005149841 131 133 130
-959.079325199127 335.542976856232 2378.99994850159 139 141 138
-954.626977443695 336.252272129059 2384.0000629425 149 151 148
-950.944423675537 337.244272232056 2391.00003242493 146 148 145
-945.645689964294 337.672799825668 2394.00005340576 141 143 140
-941.509068012238 338.525086641312 2400.00009536743 141 143 140
-937.341451644897 339.37805891037 2405.99989891052 143 145 142
-932.755768299103 340.090662240982 2411.00001335144 142 144 141
-928.912818431854 341.085970401764 2417.99998283386 145 147 144
-925.033271312714 342.081964015961 2424.99995231628 142 144 141
-921.495795249939 343.219667673111 2433.00008773804 142 144 141
-916.78786277771 343.934774398804 2437.99996376038 141 143 140
-912.427484989166 344.791561365128 2444.00000572205 137 139 136
-907.294273376465 345.366775989532 2447.99995422363 134 136 133
-902.876377105713 346.224755048752 2453.9999961853 143 145 142
-898.061692714691 346.942245960236 2459.00011062622 144 146 143
-895.033299922943 348.365783691406 2469.00010108948 146 148 145
-891.231954097748 349.507659673691 2476.99999809265 143 145 142
-889.887928962708 351.637929677963 2492.00010299683 140 142 139
-891.298353672028 354.897737503052 2515.00010490417 141 143 140
-894.343614578247 358.863919973373 2542.99998283386 75 77 74
-892.003238201141 360.713988542557 2555.99999427795 83 85 82
-887.861669063568 361.859053373337 2563.99989128113 126 128 125
-882.990181446075 362.722426652908 2569.9999332428 124 126 123
-879.450142383575 364.150822162628 2579.99992370605 126 128 125
-875.518321990967 365.438729524612 2588.99998664856 130 130 128
-870.867073535919 366.444796323776 2595.99995613098 134 134 132
-863.84916305542 366.463273763657 2595.99995613098 116 116 114
-855.841159820557 366.058617830276 2592.99993515015 113 113 111
-1223.09803962708 309.186846017838 2227.9999256134 164 166 163
-1221.75216674805 310.38835644722 2236.99998855591 157 159 156
-1216.01617336273 310.480982065201 2237.99991607666 175 177 174
-1205.41679859161 309.326589107513 2230.00001907349 183 185 182
-1192.18039512634 307.480305433273 2217.00000762939 182 184 181
-1186.51294708252 307.577311992645 2217.99993515015 173 175 172
-1180.84645271301 307.675570249558 2219.00010108948 169 171 168
-1176.23913288116 308.05230140686 2221.99988365173 152 154 151
-1170.04227638245 308.014363050461 2221.99988365173 142 144 141
-1165.94660282135 308.532118797302 2226.0000705719 137 139 136
-1162.35554218292 309.189468622208 2230.99994659424 139 141 138
-1159.77919101715 310.125082731247 2237.99991607666 137 139 136
-1155.62331676483 310.646027326584 2242.00010299683 135 137 134
-1149.4003534317 310.613840818405 2242.00010299683 129 131 128
-1144.202709198 310.859858989716 2243.99995803833 127 129 126
-1138.9993429184 311.107009649277 2246.00005149841 119 121 118
-1135.80775260925 311.909258365631 2252.00009346008 118 120 117
-1132.08663463593 312.573999166489 2256.99996948242 125 127 124
-1130.33807277679 313.79359960556 2266.00003242493 127 129 126
-1129.53722476959 315.291076898575 2276.99995040894 112 114 111
-1126.70695781708 316.235572099686 2283.99991989136 84 86 83
-1122.37155437469 316.765666007996 2288.00010681152 89 91 88
-1113.62850666046 316.050797700882 2282.99999237061 91 93 90
-1107.82778263092 316.167593002319 2283.99991989136 104 106 103
-1101.06146335602 316.008687019348 2282.99999237061 116 118 115
-1095.74365615845 316.265970468521 2285.00008583069 110 112 109
-1090.41893482208 316.524207592011 2286.99994087219 114 116 113
-1086.0356092453 317.060232162476 2290.99988937378 114 116 113
-1080.22046089172 317.182034254074 2292.00005531311 113 115 112
-1074.40364360809 317.304730415344 2292.99998283386 109 111 108
-1067.65341758728 317.151606082916 2292.00005531311 108 110 107
-1062.76488304138 317.552953958511 2295.00007629395 111 113 110
-1056.48243427277 317.540109157562 2295.00007629395 108 110 107
-1052.0339012146 318.081557750702 2299.00002479553 112 114 111
-1046.65720462799 318.347156047821 2301.00011825562 113 115 112
-1041.27287864685 318.613648414612 2302.99997329712 111 113 110
-1034.08312797546 318.327575922012 2301.00011825562 110 112 109
-1028.24771404266 318.4574842453 2302.00004577637 116 118 115
-1022.4095582962 318.588107824326 2302.99997329712 121 123 120
-1017.89271831512 319.134622812271 2306.99992179871 127 129 126
-1012.47990131378 319.405287504196 2309.00001525879 134 136 133
-1007.93051719666 319.953352212906 2312.99996376038 136 138 135
-1003.36194038391 320.502191781998 2316.99991226196 141 143 140
-1000.92601776123 321.74351811409 2325.99997520447 134 136 133
-998.443365097046 322.985470294952 2335.00003814697 131 133 130
-994.63963508606 323.813259601593 2341.00008010864 131 133 130
-989.53914642334 324.226796627045 2344.00010108948 131 133 130
-985.263526439667 324.917733669281 2348.99997711182 136 138 135
-980.962991714478 325.609385967255 2354.00009155273 141 143 140
-975.809454917908 326.025128364563 2357.00011253357 144 146 143
-971.052825450897 326.57989859581 2361.00006103516 144 146 143
-966.684877872467 327.273607254028 2365.9999370575 132 134 131
-961.480319499969 327.691465616226 2368.99995803833 132 134 131
-957.873702049255 328.663259744644 2375.99992752075 140 142 139
-953.43005657196 329.359084367752 2381.00004196167 149 151 148
-950.551927089691 330.608934164047 2390.00010490417 145 147 144
-945.256292819977 331.029325723648 2392.99988746643 140 142 139
-941.123127937317 331.865519285202 2398.9999294281 141 143 140
-937.348425388336 332.840591669083 2405.99989891052 143 145 142
-933.537244796753 333.816438913345 2413.00010681152 142 144 141
-929.689526557922 334.792822599411 2420.00007629395 146 148 145
-924.660682678223 335.354834794998 2424.00002479553 143 145 142
-920.747697353363 336.332470178604 2430.99999427795 142 144 141
-916.421949863434 337.172389030457 2437.00003623962 140 142 139
-912.064731121063 338.012844324112 2443.00007820129 136 138 135
-906.934916973114 338.577270507813 2447.00002670288 132 134 131
-902.152240276337 339.280545711517 2451.99990272522 139 141 138
-897.708594799042 340.122759342194 2457.99994468689 141 143 140
-895.04611492157 341.657519340515 2469.00010108948 145 147 144
-891.605079174042 342.916011810303 2477.9999256134 141 143 140
-892.401576042175 345.835894346237 2499.00007247925 139 141 138
-896.274626255035 350.001960992813 2529.00004386902 120 122 119
-898.579239845276 353.615283966064 2555.0000667572 65 67 64
-895.159959793091 355.014830827713 2565.00005722046 88 90 87
-889.263153076172 355.446130037308 2568.00007820129 120 122 119
-883.694052696228 356.016218662262 2572.00002670288 124 126 123
-878.444731235504 356.72527551651 2576.99990272522 127 129 126
-874.521553516388 357.98853635788 2585.99996566772 130 130 128
-870.214462280273 359.113961458206 2594.00010108948 135 135 133
-864.200472831726 359.547585248947 2596.99988365173 116 116 114
-856.850206851959 359.427839517593 2595.99995613098 114 114 112
-847.868800163269 358.616173267365 2589.99991416931 175 175 173
-1225.24654865265 303.644061088562 2232.00011253357 150 152 149
-1222.79822826385 304.550021886826 2239.00008201599 164 166 163
-1217.05806255341 304.641127586365 2240.00000953674 180 182 179
-1206.99501037598 303.645640611649 2233.00004005432 176 178 175
-1192.67618656158 301.56397819519 2217.99993515015 179 181 178
-1184.86762046814 301.115572452545 2214.99991416931 174 176 173
-1177.08206176758 300.668478012085 2211.99989318848 170 172 169
-1172.49572277069 301.038205623627 2214.99991416931 154 156 153
-1167.37270355225 301.273196935654 2217.00000762939 144 146 143
-1164.33954238892 302.052825689316 2223.00004959106 141 143 140
-1160.75801849365 302.697598934174 2227.9999256134 143 145 142
-1157.1546792984 303.343385457993 2233.00004005432 143 145 142
-1154.04462814331 304.126083850861 2239.00008201599 141 143 140
-1147.83132076263 304.094851016998 2239.00008201599 134 136 133
-1143.66269111633 304.607927799225 2243.00003051758 130 132 129
-1138.97037506104 304.986298084259 2246.00005149841 131 133 130
-1137.29298114777 306.180328130722 2255.00011444092 126 128 125
-1132.56120681763 306.560665369034 2257.99989700317 127 129 126
-1131.30974769592 307.892292737961 2267.99988746643 118 120 117
-1130.0083398819 309.224814176559 2278.00011634827 106 108 105
-1128.16298007965 310.422450304031 2286.99994087219 87 89 86
-1121.3675737381 310.263723134995 2286.00001335144 81 83 80
-1114.09449577332 309.97034907341 2283.99991989136 106 108 105
-1108.29210281372 310.085147619247 2285.00008583069 96 98 95
-1101.52399539948 309.929490089417 2283.99991989136 112 114 111
-1096.20451927185 310.18203496933 2286.00001335144 109 111 108
-1090.87812900543 310.435444116592 2288.00010681152 112 114 111
-1086.49289608002 310.961157083511 2292.00005531311 113 115 112
-1081.14695549011 311.21638417244 2293.99991035461 113 115 112
-1075.32572746277 311.33696436882 2295.00007629395 109 111 108
-1069.96858119965 311.594098806381 2296.99993133545 107 109 106
-1065.06717205048 311.987727880478 2299.99995231628 108 110 107
-1058.77196788788 311.975330114365 2299.99995231628 113 115 112
-1053.39539051056 312.235087156296 2302.00004577637 115 117 114
-1047.10161685944 312.224447727203 2302.00004577637 116 118 115
-1041.26334190369 312.350273132324 2302.99997329712 117 119 116
-1034.97326374054 312.34136223793 2302.99997329712 119 121 118
-1029.13308143616 312.468886375427 2303.99990081787 119 121 118
-1023.73445034027 312.732845544815 2305.99999427795 124 126 123
-1017.44532585144 312.726378440857 2305.99999427795 129 131 128
-1011.59751415253 312.856316566467 2306.99992179871 134 136 133
-1007.05444812775 313.393890857697 2311.00010871887 136 138 135
-1003.79133224487 314.3390417099 2318.00007820129 140 142 139
-1001.78349018097 315.691739320755 2328.00006866455 131 133 130
-998.868584632874 316.773951053619 2335.99996566772 130 132 129
-995.062828063965 317.585676908493 2342.00000762939 132 134 131
-989.538311958313 317.855775356293 2344.00010108948 133 135 132
-984.424352645874 318.262100219727 2346.99988365173 135 137 134
-979.713320732117 318.804800510406 2351.0000705719 140 142 139
-975.396513938904 319.483786821365 2355.99994659424 143 145 142
-970.23206949234 319.892287254334 2358.99996757507 142 144 141
-965.870440006256 320.572644472122 2364.00008201599 134 136 133
-960.671901702881 320.982486009598 2367.00010299683 134 136 133
-956.668078899384 321.799784898758 2372.99990653992 139 141 138
-953.434705734253 322.889000177383 2381.00004196167 149 151 148
-950.557053089142 324.114501476288 2390.00010490417 146 148 145
-945.657312870026 324.66259598732 2394.00005340576 141 143 140
-940.345108509064 325.075656175613 2397.0000743866 141 143 140
-936.186969280243 325.896263122559 2403.00011634827 141 143 140
-932.771146297455 326.988697052002 2411.00001335144 141 143 140
-928.545296192169 327.810496091843 2417.00005531311 146 148 145
-924.288213253021 328.632950782776 2423.00009727478 143 145 142
-920.378446578979 329.591572284698 2430.0000667572 143 145 142
-916.431963443756 330.550849437714 2437.00003623962 143 145 142
-912.075340747833 331.375122070313 2443.00007820129 139 141 138
-906.575441360474 331.79298043251 2446.00009918213 136 138 135
-901.796042919159 332.482665777206 2450.99997520447 137 139 136
-898.086249828339 333.579897880554 2459.00011062622 139 141 138
-896.146476268768 335.356026887894 2471.99988365173 143 145 142
-893.417656421661 336.861461400986 2483.00004005432 139 141 138
-895.986616611481 340.402573347092 2509.0000629425 137 139 136
-900.54190158844 344.758450984955 2540.99988937378 88 90 87
-901.408016681671 347.758382558823 2562.99996376038 57 59 56
-896.571695804596 348.587960004807 2569.00000572205 91 93 90
-891.010820865631 349.146693944931 2572.99995422363 111 113 110
-884.397983551025 349.298804998398 2573.99988174438 119 121 118
-879.14365530014 349.99418258667 2578.9999961853 127 129 126
-874.539136886597 350.961446762085 2585.99996566772 130 130 128
-870.232462882996 352.064967155457 2594.00010108948 134 134 132
-863.886117935181 352.354556322098 2595.99995613098 115 115 113
-856.869101524353 352.373123168945 2595.99995613098 113 113 111
-848.215341567993 351.713359355927 2591.00008010864 165 165 163
-1225.20041465759 297.546952962875 2232.00011253357 146 148 145
-1222.20718860626 298.301726579666 2237.99991607666 169 171 168
-1213.2111787796 297.591626644135 2233.00004005432 185 187 184
-1206.95269107819 297.549277544022 2233.00004005432 176 178 175
-1194.24855709076 295.909404754639 2220.99995613098 179 181 178
-1187.50274181366 295.736640691757 2220.00002861023 173 175 172
-1177.04391479492 294.632703065872 2211.99989318848 169 171 168
-1172.45876789093 294.995248317719 2214.99991416931 153 155 152
-1167.33705997467 295.225828886032 2217.00000762939 144 146 143
-1164.82865810394 296.123176813126 2223.99997711182 142 144 141
-1162.2873544693 297.021508216858 2230.99994659424 142 144 141
-1158.67674350739 297.654569149017 2236.00006103516 142 144 141
-1155.0440788269 298.288613557816 2240.9999370575 141 143 140
-1149.33896064758 298.391342163086 2242.00010299683 133 135 132
-1144.14346218109 298.628181219101 2243.99995803833 129 131 128
-1138.94236087799 298.866093158722 2246.00005149841 125 127 124
-1135.24854183197 299.50425028801 2250.99992752075 125 127 124
-1131.03067874908 300.010323524475 2255.00011444092 131 133 130
-1130.78606128693 301.581561565399 2266.99995994568 123 125 122
-1129.98425960541 303.020626306534 2278.00011634827 104 106 103
-1128.13973426819 304.194450378418 2286.99994087219 75 77 74
-1121.83594703674 304.172158241272 2286.99994087219 80 82 79
-1116.02461338043 304.283887147903 2288.00010681152 97 99 96
-1110.21208763123 304.396599531174 2289.00003433228 97 99 96
-1104.3986082077 304.510235786438 2289.99996185303 107 109 106
-1099.06351566315 304.757863283157 2292.00005531311 108 110 107
-1093.24467182159 304.873406887054 2292.99998283386 110 112 109
-1086.95065975189 304.856985807419 2292.99998283386 111 113 110
-1081.60316944122 305.107414722443 2295.00007629395 111 113 110
-1076.24840736389 305.358678102493 2296.99993133545 110 112 109
-1071.81835174561 305.876731872559 2301.00011825562 110 112 109
-1066.90680980682 306.262701749802 2303.99990081787 113 115 112
-1060.60147285461 306.250751018524 2303.99990081787 109 111 108
-1054.75735664368 306.372612714767 2305.0000667572 112 114 111
-1048.00128936768 306.229472160339 2303.99990081787 113 115 112
-1042.15848445892 306.353062391281 2305.0000667572 112 114 111
-1036.76247596741 306.610286235809 2306.99992179871 113 115 112
-1030.9122800827 306.735515594482 2308.00008773804 118 120 117
-1025.05958080292 306.861490011215 2309.00001525879 125 127 124
-1018.32187175751 306.722491979599 2308.00008773804 133 135 132
-1012.90786266327 306.982904672623 2309.99994277954 140 142 139
-1009.22870635986 307.775676250458 2315.99998474121 138 140 137
-1006.38568401337 308.834999799728 2323.99988174438 135 137 134
-1002.64120101929 309.629261493683 2329.99992370605 132 134 131
-998.866498470306 310.424238443375 2335.99996566772 131 133 130
-993.362069129944 310.688406229019 2338.00005912781 133 135 132
-989.115417003632 311.351895332336 2342.99993515015 133 135 132
-983.16615819931 311.484605073929 2344.00010108948 134 136 133
-978.463888168335 312.016665935516 2348.00004959106 138 140 137
-974.569916725159 312.815099954605 2354.00009155273 144 146 143
-970.645368099213 313.614279031754 2359.99989509583 141 143 140
-966.281712055206 314.28125500679 2365.00000953674 134 136 133
-961.081147193909 314.683109521866 2368.00003051758 135 137 134
-956.269085407257 315.218478441238 2371.99997901917 138 140 137
-953.038990497589 316.286087036133 2380.00011444092 149 151 148
-950.562477111816 317.620158195496 2390.00010490417 148 150 147
-945.663213729858 318.157434463501 2394.00005340576 143 145 142
-940.351724624634 318.562477827072 2397.0000743866 141 143 140
-935.804426670074 319.233924150467 2401.99995040894 140 142 139
-932.005167007446 320.171773433685 2408.99991989136 140 142 139
-928.169429302216 321.110218763351 2415.99988937378 143 145 142
-923.91562461853 321.916401386261 2421.99993133545 141 143 140
-920.766770839691 323.121905326843 2430.99999427795 142 144 141
-917.194128036499 324.195086956024 2438.99989128113 143 145 142
-911.712646484375 324.604243040085 2441.99991226196 140 142 139
-906.586766242981 325.146913528442 2446.00009918213 137 139 136
-901.80778503418 325.822979211807 2450.99997520447 137 139 136
-898.098528385162 326.898515224457 2459.00011062622 139 141 138
-895.796716213226 328.506290912628 2470.99995613098 140 142 139
-894.870281219482 330.646514892578 2486.99998855591 133 135 132
-899.214565753937 334.781676530838 2517.99988746643 132 134 131
-903.39183807373 338.917672634125 2549.00002479553 53 55 52
-903.181791305542 341.458916664124 2568.00007820129 59 61 58
-897.634387016296 342.006176710129 2572.00002670288 94 96 93
-891.373157501221 342.287987470627 2573.99988174438 107 109 106
-884.758114814758 342.437267303467 2575.00004768372 105 107 104
-879.160761833191 342.985957860947 2578.9999961853 121 123 120
-874.556601047516 343.934059143066 2585.99996566772 128 128 126
-869.914829730988 344.882667064667 2592.99993515015 136 136 134
-864.237129688263 345.432668924332 2596.99988365173 116 116 114
-856.887757778168 345.318078994751 2595.99995613098 108 108 106
-848.561704158783 344.804763793945 2592.00000762939 147 147 145
-1228.99758815765 292.364567518234 2239.00008201599 148 148 146
-1222.16331958771 292.190104722977 2237.99991607666 177 177 175
-1209.36572551727 290.581047534943 2226.0000705719 183 183 181
-1202.58772373199 290.409445762634 2224.99990463257 173 173 171
-1192.05832481384 289.325565099716 2217.00000762939 177 177 175
-1184.78989601135 289.026141166687 2214.99991416931 175 177 174
-1174.87847805023 288.075655698776 2207.99994468689 168 170 167
-1170.83489894867 288.561552762985 2211.99989318848 150 152 149
-1166.77570343018 289.048552513123 2216.00008010864 144 146 143
-1163.22374343872 289.666950702667 2220.99995613098 138 140 137
-1161.21280193329 290.677607059479 2229.00009155273 141 143 140
-1158.12695026398 291.428327560425 2234.99989509583 142 144 141
-1155.01368045807 292.18003153801 2240.9999370575 142 144 141
-1148.79679679871 292.150527238846 2240.9999370575 137 139 136
-1143.60523223877 292.382806539536 2243.00003051758 131 133 130
-1137.90082931519 292.485743761063 2243.99995803833 124 129 125
-1134.71794128418 293.241381645203 2250 130 135 131
-1129.5006275177 293.476730585098 2252.00009346008 126 131 127
-1130.26297092438 295.27673125267 2266.00003242493 130 135 131
-1129.46474552155 296.686559915543 2276.99995040894 104 109 105
-1129.10389900208 298.227459192276 2289.00003433228 67 69 66
-1122.30515480042 298.075586557388 2288.00010681152 86 88 85
-1116.49191379547 298.18519949913 2289.00003433228 91 93 90
-1111.1626625061 298.426061868668 2290.99988937378 97 99 96
-1106.79137706757 298.928380012512 2295.00007629395 108 110 107
-1101.92310810089 299.301385879517 2298.00009727478 110 110 108
-1095.61204910278 299.28457736969 2298.00009727478 106 108 105
-1088.83094787598 299.138396978378 2296.99993133545 106 108 105
-1083.00220966339 299.253672361374 2298.00009727478 108 110 107
-1077.17168331146 299.369782209396 2299.00002479553 110 112 109
-1072.73685932159 299.877434968948 2302.99997329712 110 112 109
-1066.89465045929 299.995332956314 2303.99990081787 110 112 109
-1061.05065345764 300.114065408707 2305.0000667572 109 111 108
-1054.2893409729 299.973219633102 2303.99990081787 112 114 111
-1048.44665527344 300.093650817871 2305.0000667572 115 117 114
-1042.60182380676 300.214916467667 2305.99999427795 122 124 121
-1037.65332698822 300.597310066223 2309.00001525879 125 127 124
-1031.79848194122 300.720155239105 2309.99994277954 132 134 131
-1025.94113349915 300.843805074692 2311.00010871887 136 138 135
-1018.75758171082 300.57767033577 2309.00001525879 140 142 139
-1013.77999782562 300.963193178177 2312.00003623962 137 139 136
-1010.09631156921 301.73996090889 2318.00007820129 135 137 134
-1007.68148899078 302.907943725586 2326.99990272522 126 128 125
-1002.63857841492 303.295642137527 2329.99992370605 130 132 129
-998.009383678436 303.814291954041 2334.00011062622 134 136 133
-992.935955524445 304.203391075134 2336.99989318848 131 133 130
-988.692879676819 304.853588342667 2342.00000762939 131 133 130
-983.166337013245 305.113911628723 2344.00010108948 139 141 138
-978.048026561737 305.505096912384 2346.99988365173 140 142 139
-973.329544067383 306.027173995972 2351.0000705719 143 145 142
-969.413876533508 306.810170412064 2357.00011253357 141 143 140
-965.058922767639 307.463735342026 2361.99998855591 134 136 133
-960.678815841675 308.117926120758 2367.00010299683 136 138 135
-957.079708576202 309.033066034317 2374.00007247925 141 143 140
-953.844666481018 310.079038143158 2381.99996948242 150 152 149
-950.170159339905 310.995489358902 2388.99993896484 148 150 147
-944.089293479919 311.131507158279 2390.00010490417 141 143 140
-938.789069652557 311.528444290161 2392.99988746643 142 144 141
-934.253334999084 312.18633055687 2398.00000190735 142 144 141
-930.852353572845 313.235372304916 2405.99989891052 139 141 138
-927.025496959686 314.154922962189 2413.00010681152 144 144 142
-923.924565315247 315.335333347321 2421.99993133545 145 147 144
-919.640004634857 316.125810146332 2427.99997329712 143 145 142
-916.45222902298 317.307502031326 2437.00003623962 145 147 144
-910.976648330688 317.70846247673 2440.00005722046 145 147 144
-906.227111816406 318.370431661606 2444.9999332428 143 145 142
-901.083588600159 318.90270113945 2448.99988174438 136 138 135
-898.47594499588 320.34707069397 2460.00003814697 139 144 140
-896.534621715546 322.052448987961 2473.00004959106 134 139 135
-897.042453289032 324.670016765594 2493.00003051758 133 138 134
-901.371240615845 328.720957040787 2523.9999294281 131 136 132
-904.469728469849 332.381933927536 2552.00004577637 50 52 49
-903.19687128067 334.480702877045 2568.00007820129 66 68 65
-896.951794624329 334.756433963776 2569.9999332428 96 96 94
-891.042947769165 335.162967443466 2572.99995422363 100 100 98
-884.774565696716 335.439652204514 2575.00004768372 104 104 102
-879.859387874603 336.237877607346 2581.00008964539 123 123 121
-875.250279903412 337.166845798492 2588.00005912781 130 130 128
-870.603561401367 338.096261024475 2595.00002861023 131 131 129
-865.253686904907 338.765621185303 2599.99990463257 119 118 116
-858.226597309113 338.783830404282 2599.99990463257 107 106 104
-850.54486989975 338.541865348816 2598.00004959106 142 141 139
-837.354242801666 336.08478307724 2578.9999961853 173 172 170
-1234.14444923401 286.038130521774 2236.99998855591 162 162 160
-1226.20916366577 285.610556602478 2233.99996757507 152 152 150
-1217.20600128174 284.92882847786 2229.00009155273 182 182 180
-1203.34851741791 283.098191022873 2214.99991416931 184 184 182
-1196.06220722198 282.802850008011 2213.00005912781 173 173 171
-1188.79365921021 282.508701086044 2210.99996566772 177 177 175
-1184.75246429443 282.982438802719 2214.99991416931 172 174 171
-1176.97072029114 282.563000917435 2211.99989318848 164 166 163
-1170.2709197998 282.40031003952 2210.99996566772 148 150 147
-1164.63589668274 282.494217157364 2211.99989318848 143 145 142
-1160.04860401154 282.844603061676 2214.99991416931 137 139 136
-1159.09731388092 284.089773893356 2224.99990463257 139 141 138
-1158.09631347656 285.335779190063 2234.99989509583 141 143 140
-1156.01480007172 286.327362060547 2243.00003051758 143 145 142
-1150.306224823 286.426275968552 2243.99995803833 139 141 138
-1143.57769489288 286.271005868912 2243.00003051758 134 136 133
-1138.38148117065 286.49964928627 2244.99988555908 128 133 129
-1133.68391990662 286.856919527054 2247.99990653992 133 138 134
-1130.47921657562 287.597924470901 2253.99994850159 129 134 130
-1131.23667240143 289.360493421555 2267.99988746643 129 134 130
-1131.42609596252 290.996193885803 2280.99989891052 107 112 108
-1130.56194782257 292.377591133118 2292.00005531311 71 73 70
-1124.24635887146 292.356610298157 2292.00005531311 80 82 79
-1117.93541908264 292.336642742157 2292.00005531311 88 90 87
-1112.59877681732 292.572617530823 2293.99991035461 95 97 94
-1108.70242118835 293.192207813263 2299.00002479553 104 106 103
-1102.86486148834 293.302536010742 2299.99995231628 106 106 104
-1097.02622890472 293.413788080215 2301.00011825562 101 103 100
