ply
format ascii 1.0
comment KinectMotionCapture
element vertex 755
property float x
property float y
property float z
property uchar red
property uchar green
property uchar blue
end_header
-1308.63432067672 190.675712689609 2642.68773847096 48 53 49
-1328.81958472385 187.713983920132 2632.81680345428 107 112 108
-1358.00110710562 183.433430622631 2621.92630680541 138 143 139
-1375.18076906152 180.911933130219 2612.66358958428 172 177 173
-1385.35990751104 179.416350911425 2604.33134839792 159 163 162
-1391.53902899175 178.50690898484 2596.52100727563 178 183 179
-1391.71966136448 178.476465107289 2589.42858011297 175 180 176
-1386.90275871936 179.178296499147 2582.89326059359 178 182 181
-1381.08693904092 180.026278338616 2576.43851762813 159 163 162
-1378.27018704794 180.434388107659 2569.63132976958 168 172 171
-1377.4526195054 180.549210406143 2562.59982702915 184 188 187
-1375.63578827989 180.810245430718 2555.66251598195 190 194 195
-1366.82496622981 182.096056733598 2549.39913816847 168 172 173
-1355.01827599812 183.820675105978 2543.37133882624 176 180 179
-1336.21972263385 186.569626477888 2537.92451439773 188 192 191
-1182.01509395602 201.588454560048 2909.80789883366 196 200 199
-1187.22018885502 200.839093058886 2901.12028612824 164 168 167
-1191.42268440195 200.233975158458 2892.67376990134 164 168 167
-1202.63962910969 198.619794238547 2882.76128468747 195 199 198
-1217.86346556366 196.429226441538 2872.06868175849 174 178 177
-1227.07320922841 195.103831997039 2862.69831960093 153 158 154
-1233.27580291933 194.211038367405 2853.9884788502 154 159 155
-1233.46614339694 194.183141544774 2846.51936014964 147 152 148
-1239.66754477049 193.290455277283 2837.85623456937 149 154 150
-1250.87683748424 191.677321221621 2828.24393983099 162 167 163
-1273.10342088918 188.479269110095 2816.5630754829 177 182 178
-1287.31385257602 186.434324281856 2806.52603835608 157 162 158
-1289.50386506485 186.118591957689 2798.81940311362 167 172 168
-1291.69339082955 185.80281229147 2791.12241511587 177 182 178
-1288.87570479958 186.207299499065 2784.34784303122 178 183 179
-1289.06252764278 186.179498904129 2777.01630899113 165 170 166
-1288.24817190538 186.295626814455 2769.86067964476 143 148 144
-1294.44241305563 185.403466364042 2761.47796497765 136 141 137
-1300.63585084885 184.511309723455 2753.12665237642 138 143 139
-1306.82848308117 183.619187488958 2744.80686082863 133 138 134
-1307.01426402515 183.591034077227 2737.51566899177 128 133 129
-1312.20460562672 182.842839447426 2729.40591915514 116 121 117
-1317.39451909054 182.094605617173 2721.32218512249 119 124 120
-1321.58280742274 181.490272264428 2713.42245366203 129 134 130
-1316.76399472017 182.181511779109 2706.94108827446 136 141 137
-1306.94275830546 183.592193586644 2701.19411857595 165 170 166
-1302.12597016684 184.282800940932 2694.64227223865 142 147 143
-1298.31034714762 184.829213287992 2687.91476116881 104 109 105
-1300.49778291584 184.511979400164 2680.29789604256 93 98 94
-1300.68435784766 184.482324196714 2672.97405990182 92 97 93
-1302.8716659945 184.164671007181 2665.37105723584 85 90 86
-1304.05831947194 183.990809978119 2657.91401181407 73 78 74
-1301.24423765643 184.392236974534 2650.99528872342 68 73 69
-1305.4312566214 183.786380972945 2643.14353362888 47 52 48
-1326.61843091465 180.735053078961 2633.13575738817 111 116 112
-1358.80194284081 176.101810880951 2621.8629052618 136 141 137
-1373.98318267364 173.91405767643 2612.84747273143 163 168 164
-1382.1634102783 172.733116887176 2604.75178120973 118 123 119
-1391.34246378426 171.408300626594 2596.58151758359 118 123 119
-1391.52309315743 171.377527442842 2589.48885407069 154 159 155
-1386.70580898137 172.065355932526 2582.95341086422 158 163 159
-1380.88953363222 172.896623741197 2576.49853084942 153 158 154
-1378.07255243672 173.296271825483 2569.69121551404 160 165 161
-1377.25490699812 173.408053890606 2562.65949285316 196 201 197
-1376.43718402859 173.519589646227 2555.62121111305 187 191 190
-1371.62285188066 174.205611898178 2548.96845302199 171 175 174
-1362.81227063976 175.466091071077 2542.6684638613 178 183 179
-1346.01006457363 177.875515387565 2537.05856178573 180 185 181
-1190.82575978748 192.679065214549 2907.89177125599 190 194 193
-1193.023398715 192.367397584147 2899.88210793695 161 165 164
-1197.225529518 191.772883257826 2891.4519076793 162 166 165
-1205.43633739649 190.61266715683 2882.19261048302 191 195 194
-1217.65451179747 188.886924401072 2872.13697575285 167 171 170
-1225.86288151215 187.727027303895 2862.97331296627 150 154 153
-1237.07609447559 186.143159186061 2853.23922479949 152 157 153
-1237.26614633406 186.114859049664 2845.78095328744 147 152 148
-1242.46588027172 185.379585673078 2837.32731705393 148 153 149
-1251.67201405332 184.07889295145 2828.11523965435 158 163 159
-1269.89315580892 181.505907232706 2817.21008652642 173 178 174
-1288.11159252674 178.933314702504 2806.40175303244 153 158 154
-1291.30323506746 178.481276135918 2798.50975223291 157 162 158
-1294.49448989607 178.029220751233 2790.63288650798 165 170 166
-1291.67636099987 178.425183119333 2783.86646985367 176 181 177
-1291.86296717979 178.396990063457 2776.54298237052 170 175 171
-1290.04703860536 178.651329593555 2769.572528274 147 152 148
-1293.23771064492 178.199039240079 2761.7181876726 134 139 135
-1298.43028207637 177.464175385526 2753.53560191925 130 135 131
-1305.62457083255 176.446693337503 2745.04116363041 134 139 135
-1306.81165697777 176.276855299081 2737.58085241866 133 138 134
-1311.00143398749 175.683169123075 2729.63437040226 116 121 117
-1315.19068391375 175.089443214536 2721.70844597142 113 118 114
-1319.37940511049 174.495617992648 2713.80307948725 130 135 131
-1317.56300297009 174.749123294695 2706.85023825934 136 141 137
-1309.74224594817 175.849700787435 2700.80096142562 153 158 154
-1303.92404036879 176.667528049381 2694.40709007127 150 155 151
-1299.10745153804 177.343827818052 2687.83209170863 134 139 135
-1300.2945134046 177.172829007122 2680.36215825475 94 99 95
-1300.48108300036 177.14281510999 2673.03814552838 96 101 97
-1301.66798880853 176.971437712899 2665.57390488032 85 90 86
-1301.85454096051 176.941068345503 2658.25019224084 70 75 71
-1297.04002405096 177.616126290721 2651.59288264555 70 75 71
-1301.22761752199 177.020800730031 2643.72998064023 60 65 61
-1330.41738806521 172.897552160539 2632.68601897025 87 92 88
-1363.60324039826 168.210367670322 2621.29779900723 171 176 172
-1377.78513166684 166.204411076369 2612.41808285905 118 123 119
-1381.96614947072 165.609275650123 2604.81238485701 120 125 121
-1389.14637284331 164.59085358636 2596.8759859555 188 193 189
-1389.32713776522 164.559744220431 2589.77766376194 163 168 164
-1387.50845667465 164.810468302868 2582.901580754 142 147 143
-1382.69120021445 165.484008015365 2576.34038733889 161 166 162
-1381.8730398864 165.593046244347 2569.32584222114 187 192 188
-1380.05563306769 165.842827753578 2562.40826898019 193 198 194
-1377.23894891851 166.23333387925 2555.57952811475 181 186 182
-1372.42392983864 166.905467680266 2548.92938056597 164 169 165
-1363.61259697211 168.141058994724 2542.63204487335 168 173 169
-1350.80578354737 169.939916003019 2536.65474962082 172 177 173
-1188.60971563459 185.344317551318 2908.40131791616 184 188 187
-1190.80786963162 185.037641288186 2900.38620803074 171 175 174
-1197.01508114138 184.176151723725 2891.5201740288 173 177 176
-1207.23099386209 182.759877425999 2881.83582166886 176 180 179
-1218.4479766582 181.205162108382 2871.9950222018 163 167 166
-1226.65663260391 180.066738782311 2862.83390460827 157 161 160
-1236.86854582335 178.651109132297 2853.3065587862 156 161 157
-1238.06080660024 178.48370466929 2845.64661802858 149 154 150
-1242.25868786251 177.900374882389 2837.39451364079 152 157 153
-1249.46180845612 176.901098072266 2828.5744439323 159 164 160
-1269.68798178253 174.099532378745 2817.27660333939 171 176 172
-1283.90071889895 172.130197972061 2807.23064668579 163 168 164
-1289.09636172551 171.408587756487 2798.95157569639 162 167 163
-1292.28797294238 170.964299986552 2791.06912135011 167 172 168
-1293.47596490229 170.797194872698 2783.56701737787 174 179 175
-1293.66242265746 170.768651207897 2776.24895439171 170 175 171
-1293.84890738976 170.739980322917 2768.92970044644 149 154 150
-1295.03670812271 170.572686042926 2761.43486717446 133 138 134
-1300.22974840302 169.851018461112 2753.25745111293 129 134 130
-1304.42073541388 169.267963624851 2745.27509317402 133 138 134
-1307.61011682194 168.823369207738 2737.47945822627 135 140 136
-1309.79786034023 168.517246940764 2729.86249596392 120 125 121
-1314.98865311431 167.795487490002 2721.7728215901 107 112 108
-1315.17394627439 167.766233549717 2714.49951237504 126 131 127
-1315.35926558857 167.736822598845 2707.22501238143 136 141 137
-1310.54047271042 168.399697834941 2700.71241680882 154 159 155
-1306.72330123391 168.923835224787 2694.02150768011 153 158 154
-1300.90528665833 169.724626245155 2687.60187903137 141 146 142
-1298.09018107786 170.109697385022 2680.71493135119 94 99 95
-1297.27619079571 170.217718592969 2673.52698960678 92 97 93
-1299.46399773645 169.910255886772 2665.91543410339 86 91 87
-1298.65036674326 170.017878211249 2658.7223465999 71 76 72
-1292.83519003449 170.817283510694 2652.19031640479 67 72 68
-1300.02412860138 169.817280930983 2643.9237501544 61 66 62
-1336.21738808062 164.804231057392 2631.97956188352 159 164 160
-1370.40535388081 160.068569542497 2620.48138707024 147 152 148
-1378.58776401922 158.930708423681 2612.35597498962 127 132 128
-1380.76897398635 158.622934497676 2604.99259311599 160 165 161
-1385.94989489302 157.89990198075 2597.28737859806 171 176 172
-1386.13086567344 157.868407704653 2590.18059745334 149 154 150
-1385.31192871915 157.975045000282 2583.18450285413 157 162 158
-1384.4933905365 158.081332920075 2576.18177253314 175 180 176
-1386.67390663605 157.772510195575 2568.85370807725 194 199 195
-1382.85655656644 158.293157143363 2562.15670642944 193 198 194
-1379.04002318357 158.813433482996 2555.43671269247 177 182 178
-1369.22753067573 160.162818697829 2549.28218526276 164 169 165
-1361.41523451457 161.235152285065 2542.88122733842 166 171 167
-1351.6054254065 162.583492997743 2536.62070184381 168 173 169
-1182.38296113625 178.542049126625 2909.79308173683 194 198 197
-1189.59426243448 177.560310637797 2900.67211305081 163 167 166
-1202.8195101255 175.762710275491 2890.29689693013 170 174 173
-1209.02618229791 174.917326229793 2881.47855975399 175 179 178
-1218.2390802942 173.664165204902 2872.06247407518 169 173 172
-1224.4439434788 172.819082706093 2863.31516218732 162 166 165
-1233.65437405124 171.566251610158 2853.98654144432 146 151 147
-1238.85536635569 170.857321687903 2845.51200944997 139 144 140
-1244.0554582024 170.148544599828 2837.06350977644 151 156 152
-1254.26494822013 168.760208532924 2827.66017681918 156 161 157
-1270.4846466935 166.556465566342 2817.149176476 172 177 173
-1283.69658222095 164.760818776009 2807.29634341863 152 157 153
-1288.89259432655 164.052464486299 2799.01707291764 149 154 150
-1292.08442338337 163.615951207091 2791.13445228044 153 158 154
-1293.27248105375 163.451169342162 2783.63227464147 168 173 169
-1293.4589279768 163.422178418309 2776.31415477944 171 176 172
-1294.64683692983 163.257256089022 2768.81763870989 163 168 164
-1294.8332706569 163.228118630691 2761.49987725499 148 153 149
-1300.02668021625 162.519706974741 2753.32226168188 135 140 136
-1304.21795996357 161.947137556368 2745.33972102226 131 136 132
-1309.40986976064 161.238708181751 2737.21137754119 131 136 132
-1309.59544567334 161.209258926574 2729.92680766011 127 132 128
-1310.78230622186 161.043892348532 2722.48011465873 123 128 124
-1311.9688153687 160.878382382701 2715.03767690531 110 115 111
-1315.15720623642 160.441253961522 2707.28877211697 119 124 120
-1315.34254636862 160.41132730638 2700.01290475917 148 153 149
-1307.52152506507 161.467137793364 2693.93521439274 156 161 157
-1297.70006404069 162.79403278662 2688.10705939024 151 156 152
-1291.88265515816 163.577677163329 2681.64534741342 105 110 106
-1292.06976800976 163.546798407442 2674.29917374815 87 92 88
-1295.25852989097 163.108640916653 2666.53466353185 90 95 91
-1295.44548606006 163.077443759813 2659.19427168741 80 85 81
-1291.63070175887 163.588704864895 2652.38691312656 63 68 64
-1302.82172315162 162.064788793247 2643.59384509605 55 60 56
-1340.01767676318 157.014180819967 2631.52873146922 159 164 160
-1370.20723987496 152.913625507409 2620.54194087243 136 141 137
-1379.39029401588 151.661627613547 2612.29350532709 212 217 213
-1382.57179356965 151.223362913315 2604.81271691157 179 184 180
-1382.75294721405 151.191699915527 2597.69860764909 142 147 143
-1382.93412227324 151.159791140318 2590.5833975258 144 149 145
-1383.11531970285 151.127726361838 2583.46714558411 192 197 193
-1388.29526080966 150.417591840661 2575.80474912533 211 216 212
-1391.4752734941 149.978402568276 2568.38107997979 194 199 195
-1389.65686236122 150.216747739923 2561.49047935737 173 178 174
-1380.84161891828 151.403474321676 2555.29351535105 172 177 173
-1370.0288107255 152.860696932479 2549.24241581002 171 176 172
-1364.21453514793 153.639936000814 2542.65351334039 172 177 173
-1354.40375869923 154.960685408258 2536.40116945017 180 185 181
-1174.150062315 171.972948284996 2911.62594904876 188 192 191
-1183.36752594822 170.743242722139 2902.04728234311 155 159 158
-1197.59687481768 168.847327365622 2891.44023734362 173 177 176
-1210.82166748013 167.085019307717 2881.12069947435 175 179 178
-1220.03485602893 165.855971741596 2871.70982438336 170 174 173
-1229.24706656091 164.627151406582 2862.34674234976 156 161 157
-1234.44901921855 163.931350058956 2853.84877287809 152 157 153
-1240.65220353428 163.10250266804 2845.17518422145 149 154 150
-1243.84839726884 162.673320082877 2837.12984799308 160 165 161
-1254.0586333846 161.311823965121 2827.7261736107 161 166 162
-1271.28169282603 159.018125660091 2817.02125032906 183 188 184
-1282.49058439198 157.523906109326 2807.55231507295 175 180 176
-1287.68679329526 156.82876677163 2799.27021744613 163 168 164
-1288.87547522349 156.66630636676 2791.75545904117 161 166 162
-1291.06545513702 156.370662222311 2784.06234130645 166 171 167
-1293.25542331444 156.07495804802 2776.37894259241 168 173 169
-1294.44339797793 155.912358967658 2768.88235285611 165 170 166
-1296.63293882793 155.616528483889 2761.2155199564 151 156 152
-1298.82199157295 155.320711044738 2753.55845310843 144 149 145
-1300.00973589839 155.157810037344 2746.07986638325 136 141 137
-1302.19836200642 154.86183609538 2738.4393059461 134 139 135
-1304.38697624573 154.565742139828 2730.80840530664 128 133 129
-1308.57752387624 154.003480841579 2722.86554637374 131 136 132
-1310.76550262046 153.707285987181 2715.25937474601 111 116 112
-1313.9541832177 153.277912917683 2707.50747342368 114 119 115
-1314.13958447366 153.247549856313 2700.22874855845 137 142 138
-1306.31778041944 154.28106472562 2694.14838669425 151 156 152
-1299.49809888251 155.181260099482 2687.87594374587 155 160 156
-1293.68009041755 155.948168739742 2681.41969598288 110 115 111
-1291.865845447 156.182823941301 2674.36230529867 87 92 88
-1293.05351475377 156.018415555535 2666.87570726767 90 95 91
-1291.23943124706 156.252700801334 2659.80228399906 80 85 81
-1291.42668499925 156.220824228913 2652.44953207216 64 69 65
-1305.61975703284 154.327784645903 2643.26339927272 47 52 48
-1343.81855532644 149.245040225791 2631.07729763834 178 183 179
-1369.00891886845 145.890677610282 2620.72761460201 193 198 194
-1376.19223993649 144.928692160078 2612.72141953232 165 170 166
-1379.37417168436 144.498234911977 2605.23212251519 123 128 124
-1379.55553043055 144.466187205485 2598.1095840936 128 133 129
-1381.73673256725 144.168228478708 2590.75704706488 161 166 162
-1384.91775987594 143.73726177994 2583.30255165516 216 221 217
-1391.09794673158 142.90763164142 2575.53626774097 216 221 217
-1392.27856901026 142.741975249235 2568.33307675513 179 184 180
-1388.46019098252 143.240148649075 2561.65212090726 171 176 172
-1381.6436989866 144.136373885796 2555.25075681999 169 174 170
-1373.82870732205 145.164890958215 2548.90810170644 168 173 169
-1371.012208889 145.529119316457 2542.04388736852 168 173 169
-1360.20059330287 146.955087736835 2535.90329349728 177 182 178
-1350.39005074014 148.247715971665 2529.61161418376 177 182 178
-1175.94333741685 164.053935177392 2911.25204315359 161 165 164
-1187.167050581 162.587156522862 2901.24261720451 162 166 165
-1201.39692784847 160.729095685199 2890.64624105919 183 187 186
-1210.61223991323 159.523967415502 2881.18737909495 172 176 175
-1222.83357891387 157.927503451976 2871.14687045786 150 154 153
-1231.04390678647 156.853272392122 2861.99865766935 144 149 145
-1236.24584669328 156.170771793812 2853.50614307628 147 152 148
-1240.44491945206 155.618814854624 2845.24115662501 150 155 151
-1241.63705390416 155.458316204009 2837.59356800754 149 154 150
-1252.85024092637 153.993202681359 2827.98800325204 155 160 156
-1270.07440553469 151.745487971683 2817.27993507465 172 177 173
-1286.29431488289 149.628566437972 2806.85391518034 143 148 144
-1291.49085201545 148.946720828997 2798.58258778632 141 146 142
-1291.6772912933 148.917011711924 2791.26399558491 146 151 147
-1292.86548176545 148.756815958173 2783.76155180543 163 168 164
-1293.05190867036 148.726990097031 2776.44331783059 175 180 176
-1295.24177118524 148.436235615151 2768.76936337309 176 181 177
-1296.4296311917 148.275887764574 2761.27967202781 159 164 160
-1295.61449226275 148.376139077589 2754.13760545328 141 146 142
-1295.80089636044 148.345929164557 2746.81985049807 138 143 139
-1298.99124709822 147.924577277337 2739.00196203695 142 147 143
-1301.18021162562 147.633491684312 2731.3627485195 135 140 136
-1305.37126249675 147.0817197808 2723.41148390389 135 140 136
-1308.56069042021 146.660220313915 2715.63882855195 119 124 120
-1312.75075661119 146.108290426939 2707.72587901753 117 122 118
-1312.93621981394 146.07752074975 2700.44429646431 120 125 121
-1306.11500181379 146.958468935225 2694.21123767284 133 138 134
-1301.29666309283 147.578576592 2687.64429631947 147 152 148
-1296.47880646388 148.198469008869 2681.04895724393 143 148 144
-1294.66419414771 148.427250112885 2673.99961654528 96 101 97
-1291.84903471808 148.786140409225 2667.0773377152 85 90 86
-1288.03377646575 149.274927386275 2660.27369660722 85 90 86
-1290.22218044499 148.982253609972 2652.64536119625 78 83 79
-1301.41468569599 147.51772460134 2643.84873931144 82 87 83
-1332.61405062916 143.449618605683 2632.54772360782 147 152 148
-1357.80682691664 140.163128528638 2622.16729363656 132 137 133
-1368.99269795223 138.699132211153 2613.63985662304 202 207 203
-1377.17620711846 137.625712179722 2605.53135781608 225 230 226
-1378.35799462373 137.463106637819 2598.28590150716 216 221 217
-1385.53982720797 136.51967322675 2590.35780129127 218 223 219
-1390.7206341091 135.83640680721 2582.69041548924 188 193 189
-1393.90107287381 135.41321921485 2575.26727502259 179 184 180
-1390.08218802183 135.900420886338 2568.60367181292 154 159 155
-1384.26422564697 136.647420941284 2562.12424638338 177 182 178
-1377.44747833545 137.524057911661 2555.71182854234 160 165 161
-1373.63067406027 138.010165502955 2548.96573444508 154 159 155
-1371.81344669957 138.235864741422 2542.00596488741 158 163 159
-1363.99969513594 139.241364463082 2535.59012807598 153 158 154
-1352.18915509124 140.766397228492 2529.48916832138 150 155 151
-1167.51433262885 157.454697189324 2920.7170520484 185 189 190
-1177.73714366588 156.145130814004 2910.87766433827 171 175 174
-1183.9475732001 155.347121805342 2901.96334411248 178 182 181
-1198.17870280578 153.526719617766 2891.35845720957 181 185 184
-1213.41072312767 151.578877637305 2880.61594544833 167 171 170
-1226.63523772426 149.886929050366 2870.37349714877 158 162 161
-1235.84830154505 148.706376937359 2861.02889233143 148 153 149
-1235.03591303771 148.803705314572 2853.77619132888 151 156 152
-1237.23078186556 148.517679933684 2845.91165056229 153 158 154
-1238.4229465816 148.359457085095 2838.25599791747 152 157 153
-1252.64383356741 146.540641412477 2828.05313155918 157 162 158
-1270.87158478895 144.211193919987 2817.1511501964 172 177 173
-1284.08636799782 142.520662598653 2807.29988477929 151 156 152
-1290.28510907679 141.724298057979 2798.83483079033 147 152 148
-1290.4716072745 141.694183130942 2791.51350006905 149 154 150
-1294.66580198075 141.153154790275 2783.46022388479 153 158 154
-1293.85011340627 141.250584626915 2776.32728508925 158 163 159
-1297.04170665108 140.837211452004 2768.47872686443 184 189 185
-1298.22949451013 140.679163532992 2760.99432477931 173 178 174
-1296.41261011023 140.903928063565 2754.02947229649 158 163 159
-1293.59434367601 141.256173161316 2747.22149086649 135 140 136
-1295.78390696488 140.97014981823 2739.56431113041 131 136 132
-1299.97584645225 140.428854740074 2731.5895655221 131 136 132
-1303.16601847609 140.01513970604 2723.79618647422 131 136 132
-1304.3532152494 139.856528922283 2716.33428170662 119 124 120
-1305.54030278805 139.697827181802 2708.87654854574 121 126 122
-1305.7262418038 139.666510696307 2701.57578245137 126 131 127
-1302.90907393425 140.01768307724 2694.7237135078 134 139 135
-1302.0943811426 140.113554263314 2687.55950729892 143 148 144
-1297.27630832194 140.719336605671 2680.96679222139 151 156 152
-1295.46122984706 140.942303063809 2673.92010251287 113 118 114
-1291.64508027152 141.420073764734 2667.13946897492 87 92 88
-1286.82865500414 142.025030492982 2660.47215053858 85 90 86
-1288.01696113642 141.864860830983 2652.97453916428 75 80 76
-1294.20755531116 141.067274151777 2644.82658217688 70 75 71
-1318.40639774928 137.975537435359 2634.40280430924 106 111 107
-1342.60169257516 134.884268177164 2624.10885655006 94 99 95
-1358.79102892133 132.81269785715 2614.92643012582 104 109 105
-1368.97647615087 131.50581648572 2606.55023239832 105 110 106
-1374.15942069317 130.835965403737 2598.81370453048 84 89 85
-1384.34248282383 129.529088813489 2590.53072986353 145 150 146
-1388.52397763758 128.98645996453 2582.97209097029 150 155 151
-1388.70476798842 128.953153133399 2575.87041545702 141 146 142
-1384.88568806046 129.429066274643 2569.19299095005 149 154 150
-1381.06742241643 129.904549428379 2562.49260450705 171 176 172
-1377.24973465058 130.3797586964 2555.76933850544 176 181 177
-1371.43309488677 131.109211177045 2549.21937962081 178 183 179
-1367.61670096144 131.583655854555 2542.44472489114 181 186 182
-1364.80038970958 131.930488874609 2535.55451708914 176 181 177
-1356.98709302404 132.913300332266 2529.09654115529 173 178 174
-1169.30759298335 149.52935599819 2920.33692792188 191 195 196
-1175.51940283715 148.747094623892 2911.38556862226 185 189 188
-1180.7276363259 148.090013960414 2902.68369780141 164 168 167
-1195.96272274673 146.182261814485 2891.85507286037 177 181 180
-1212.19863554153 144.149817872143 2880.89428836515 160 164 163
-1228.43236525758 142.117655032243 2870.01912797623 158 162 161
-1233.63573189733 141.461389910074 2861.5083461393 146 151 147
-1235.83067877588 141.180418494807 2853.63685665172 148 153 149
-1237.02325559953 141.02445354861 2845.97684656401 151 156 152
-1238.21548658386 140.868463771867 2838.32100162597 153 158 154
-1248.42830014232 139.587457229589 2828.90301536072 156 161 157
-1269.66412938727 136.931698796674 2817.40904229091 173 178 174
-1284.884354919 135.026219373674 2807.17299743996 144 149 145
-1292.08571889424 134.120799865943 2798.52235920523 145 150 146
-1293.2740120315 133.96525826566 2791.0209001895 150 155 151
-1297.46805167495 133.434807685543 2782.97571719301 155 160 156
-1297.65411322659 133.404118787048 2775.67083582615 156 161 157
-1299.843909549 133.123495137281 2768.01034610694 148 153 149
-1300.0298904892 133.0926476427 2760.7084450266 151 156 152
-1295.20767917268 133.686207541499 2754.26435318501 159 164 160
-1292.38924298625 134.029825079506 2747.45374265022 171 176 172
-1295.58047499933 133.623960427342 2739.62736468635 166 171 167
-1301.77548636104 132.8434135487 2731.32506475567 145 150 146
-1303.9644162135 132.562330358827 2723.69794626522 136 141 137
-1299.14363822874 133.155091665857 2717.18765259848 113 118 114
-1299.32995817339 133.123463699579 2709.87166403944 111 116 112
-1302.51987711189 132.717198387118 2702.09617538042 124 129 125
-1301.70500281817 132.810086932221 2694.935860371 131 136 132
-1299.88908470311 133.027605126318 2687.91613678307 137 142 138
-1295.07076560766 133.619258528892 2681.31787641021 154 159 155
-1292.25483250824 133.961099321494 2674.40752883152 155 160 156
-1288.4385819968 134.427463265548 2667.61859252094 75 80 76
-1283.62197944988 135.018332704565 2660.9430769373 78 83 79
-1283.8096998564 134.985191533546 2653.57072871394 80 85 81
-1286.99935335766 134.577706478475 2645.80430459626 82 87 83
-1305.19709856748 132.299371127076 2636.12994239848 89 94 90
-1330.39552412116 129.148490572555 2625.67432659496 77 82 78
-1347.58724702317 126.995450075383 2616.33584656244 87 92 88
-1361.77579694532 125.216690295865 2607.44915839494 102 107 103
-1366.95960208478 124.560054365456 2599.69318482101 107 112 108
-1375.14362491343 123.529348048336 2591.61979779218 107 112 108
-1379.3258079956 122.997222488782 2584.03621182017 107 112 108
-1381.50721809055 122.714213159907 2576.6915985746 103 108 104
-1383.68861164378 122.431025042482 2569.35676465595 88 93 89
-1382.86992859266 122.52144648234 2562.34266009248 113 118 114
-1377.05197453231 123.234533560916 2555.82649656111 144 149 145
-1370.23515769816 124.071846553428 2549.37457284621 144 149 145
-1366.41852682406 124.53501071314 2542.59706674417 143 148 144
-1366.60103976683 124.49965477421 2535.42586619651 163 168 164
-1355.78798191627 125.83390793539 2529.24316423403 183 188 184
-1166.0862185379 142.226263024833 2921.07341637429 190 194 195
-1174.304509171 141.215065864742 2911.67234747932 171 175 174
-1175.50130494293 141.060681706948 2903.83981881832 164 168 167
-1190.73809470709 139.193315910269 2892.99730985894 181 185 184
-1203.96718037587 137.57099972616 2882.66029892268 163 167 166
-1219.19978012844 135.704302422213 2871.97294311868 156 160 159
-1229.41723265327 134.44954957962 2862.40183917848 143 148 144
-1235.62308395981 133.684269426296 2853.70159367454 144 149 145
-1239.82302640499 133.163680981254 2845.43629793906 148 153 149
-1243.02007899384 132.765419631185 2837.39059555061 153 158 154
-1250.22616694834 131.87812861864 2828.57479282353 156 161 157
-1270.46144781712 129.401448987823 2817.27916034509 175 180 176
-1283.67817217582 127.781013288576 2807.4272913485 150 155 151
-1287.87362353638 127.26099029805 2799.33812989945 146 151 147
-1289.06225618854 127.107639033106 2791.82575327832 149 154 150
-1292.25491662577 126.709826770199 2783.95219358563 153 158 154
-1296.44907097469 126.189818976311 2775.91374016157 154 159 155
-1296.63521842334 126.158597047672 2768.60492931575 159 164 160
-1297.82313674766 126.005105852357 2761.12032085474 156 161 157
-1293.00067537269 126.584537818691 2754.67083267798 153 158 154
-1292.18558773942 126.675112408409 2747.51637117011 155 160 156
-1293.37373021646 126.521291451542 2740.02264797214 158 163 159
-1300.57102701819 125.634540322565 2731.55101363499 158 163 159
-1303.76156345651 125.236333223825 2723.76004323333 147 152 148
-1299.94196116549 125.692876106699 2717.09156098057 121 126 122
-1301.12945771317 125.538686943166 2709.62268758739 115 120 116
-1302.31684426946 125.384407024372 2702.15801559294 120 125 121
-1302.50300522246 125.352101157605 2694.84751310098 125 130 126
-1299.68581080409 125.68578505374 2687.97770398901 129 134 130
-1294.86710392492 126.263347190233 2681.37946943085 142 147 143
-1292.05093826452 126.596577144574 2674.46896548605 158 163 159
-1287.23353552753 127.173582014632 2667.81916218381 69 74 70
-1282.41661639602 127.750371241857 2661.14090157533 70 75 71
-1280.60276105612 127.960798190141 2654.03294355497 83 88 84
-1283.79284201216 127.561031820366 2646.25810075343 71 76 72
-1300.99135218122 125.453509379867 2636.70322459585 85 90 86
-1325.19168779436 122.492441736509 2626.36139066249 80 85 81
-1342.38503869794 120.3854975869 2617.00877739669 89 94 90
-1353.57345377998 119.0104055381 2608.46804400325 98 103 99
-1358.75842587322 118.366960082176 2600.68994953626 100 105 101
-1365.94315333613 117.479609016403 2592.70892433691 105 110 106
-1372.12678777018 116.714091674232 2584.87673649816 96 101 97
-1379.3096841948 115.826657901993 2576.96718581469 92 97 93
-1384.49138122043 115.182977145139 2569.30751489929 95 100 96
-1382.67261340665 115.392187998418 2562.39957241475 131 136 132
-1374.85423105845 116.332212528778 2556.08509569991 141 146 142
-1368.03701739979 117.149974928649 2549.62768934128 135 140 136
-1364.22021995301 117.601839834445 2542.84456120787 133 138 134
-1362.40331525594 117.809777560675 2535.85310989398 155 160 156
-1355.58852992567 118.626368303742 2529.29953801467 159 164 160
-1163.86720878598 134.786491304676 2921.5861021742 172 176 177
-1173.08946053577 133.676986429277 2911.95868631492 158 162 161
-1174.28638765495 133.524818017454 2904.12340324592 175 179 178
-1188.5212723366 131.817542343893 2893.49322150376 173 177 176
-1196.73729646426 130.828252219249 2884.21358236917 159 163 162
-1213.97717257864 128.762773826434 2873.0871254289 151 155 154
-1225.19836306407 127.415177528743 2863.29493855062 141 145 144
-1234.41290473672 126.306990061938 2853.97027374696 148 153 149
-1239.61571475518 125.677284645135 2845.50043957612 152 157 153
-1243.81566041368 125.167165533425 2837.25558420497 158 163 159
-1250.01958781642 124.418080689932 2828.6385960145 158 163 159
-1268.25152491881 122.234625486487 2817.72977120343 178 183 179
-1286.48076193534 120.051577158006 2806.91758718384 155 160 156
-1289.67413207478 119.661573490482 2799.02467413842 142 147 143
-1292.86711863098 119.271536900872 2791.14671750567 142 147 143
-1292.05137879453 119.359419216037 2784.01485560053 148 153 149
-1296.24582354341 118.849867452556 2775.97627922038 151 156 152
-1293.42606464482 119.176566652766 2769.19919925067 155 160 156
-1294.61449565583 119.025276573306 2761.70624139499 160 165 161
-1290.79336022631 119.471157241979 2755.07690645344 163 168 164
-1290.98000332297 119.439113138667 2747.74784117824 150 155 151
-1291.16667380829 119.40695671038 2740.41758485366 141 146 142
-1295.36001015821 118.897051694183 2732.43127403696 136 141 137
-1300.55405118174 118.26780523809 2724.30465536239 141 146 142
-1301.7415879099 118.116036148861 2716.83681006602 140 145 141
-1305.93348499621 117.60601914844 2708.9066304172 134 139 135
-1304.11656613804 117.812175078045 2701.91381941238 121 126 122
-1305.30377200268 117.660073940758 2694.4585488813 122 127 123
-1301.48501066951 118.104509164977 2687.74419881138 123 128 124
-1298.66788611782 118.429381669903 2680.86219807444 132 137 133
-1292.84801480004 119.111949328516 2674.38819820226 150 155 151
-1286.02808828479 119.913493591369 2668.01940589042 80 85 81
-1281.2110924792 120.476090586232 2661.33822823277 68 73 69
-1280.39792154117 120.561371513237 2654.09384691961 80 85 81
-1282.58751770846 120.288678650671 2646.44969542456 73 78 74
-1291.78179950757 119.181143433863 2637.9175569985 78 83 79
-1314.9837644334 116.404432957716 2627.67596995746 83 88 84
-1337.18182116123 113.747397894705 2617.6816046237 97 102 98
-1350.37250865492 112.16352835543 2608.88660843483 100 105 101
-1355.55806081027 111.533297713681 2601.10003218101 104 109 105
-1364.74434119245 110.42630219696 2592.8811963356 96 101 97
-1375.92983363689 109.081037457285 2584.48671601132 91 96 92
-1383.11297924536 108.212473355242 2576.58768715817 110 115 111
-1386.29460890982 107.820388683748 2569.15139812467 135 140 136
-1381.47503351666 108.381214792492 2562.55981345596 150 155 151
-1373.65634883556 109.298989590883 2556.24258769806 139 144 140
-1367.83854343038 109.978111325646 2549.68414483711 140 145 141
-1365.02124298002 110.299624578761 2542.80541192378 145 150 146
-1362.2043810365 110.620841031728 2535.90922196281 162 167 163
-1355.38906191318 111.417917647074 2529.35555979761 163 168 164
-1348.57473687075 112.214609571698 2522.76263245604 160 165 161
-1169.67371211839 126.399791268531 2920.31046522738 163 167 166
-1182.90872978269 124.846778315537 2909.81602382869 177 181 180
-1183.10202613312 124.813848207709 2902.22597502441 167 171 170
-1192.32220359465 123.728891317082 2892.69666248321 172 176 175
-1195.52375933798 123.345456185284 2884.49088046918 162 166 165
-1209.75659766961 121.67644414549 2873.99108650597 151 155 154
-1219.97615947245 120.475191911654 2864.39498950745 152 156 155
-1229.19147544841 119.391079143963 2855.05658701742 151 156 152
-1234.39523408396 118.774442271944 2846.57303438993 154 159 155
-1243.6086355012 117.690596002791 2837.31907042085 158 163 159
-1249.813000893 116.957419640289 2828.70204540231 157 162 158
-1266.04129561233 115.056269873698 2818.17997526097 175 180 176
-1278.2579332888 113.622595672162 2808.5073265558 159 164 160
-1286.46350531539 112.65630274437 2799.65155956938 143 148 144
-1289.65691320621 112.273956459893 2791.76539297754 142 147 143
-1288.84129649924 112.358624984879 2784.62526802541 146 151 147
-1291.03217836298 112.09295717162 2776.9384100158 149 154 150
-1289.21448847361 112.294216752487 2769.97047625892 156 161 157
-1291.40515241216 112.028441904731 2762.29202059542 157 162 158
-1291.59168450915 111.996022224108 2754.96689030587 160 165 161
-1291.77824674282 111.963534501195 2747.64050911205 159 164 160
-1290.9629145155 112.047650272486 2740.47934741683 150 155 151
-1291.14960417277 112.014918559112 2733.14772408916 125 130 126
-1296.34453148243 111.398802256363 2725.00988921782 129 134 130
-1299.53560274627 111.01595269131 2717.21450571892 136 141 137
-1304.72910066975 110.399799933775 2709.12317228062 131 136 132
-1301.91075365768 110.716625235077 2702.28030906269 126 131 127
-1303.0984038242 110.566788433913 2694.81942973308 131 136 132
-1302.28306554513 110.650050544902 2687.65758796671 136 141 137
-1302.46926546614 110.616533922753 2680.34426245356 141 146 142
-1295.64759252763 111.398901899318 2674.02313639334 139 144 140
-1288.82692082582 112.18086827532 2667.66244732669 137 142 138
-1283.00816944747 112.846002335635 2661.12595748704 88 93 89
-1283.19586856234 112.811621437787 2653.75311029183 71 76 72
-1283.38359527847 112.777053134551 2646.37898312252 72 77 73
-1287.57467833775 112.276255708674 2638.49051773886 73 78 74
-1306.77560322945 110.027982627567 2628.73953398352 59 64 60
-1335.98061119507 106.615219208383 2617.86290529517 116 121 115
-1352.17409902295 104.71706403618 2608.70442441445 101 106 102
-1358.36031999302 103.983748523489 2600.8057216322 100 105 101
-1368.54743187369 102.78457830126 2592.48011550855 116 121 117
-1381.73430594968 101.236204946076 2583.8722739622 134 139 135
-1388.91755875525 100.386503300857 2575.98930852819 139 144 140
-1385.09741618159 100.817171764509 2569.31416043436 152 157 153
-1377.27702565546 101.713121770647 2563.03084644026 130 135 131
-1369.4580091825 102.60856778659 2556.70261333096 133 138 134
-1367.64005673125 102.805455859258 2549.74024761305 142 147 143
-1364.82252543229 103.118447846801 2542.86138758399 152 157 153
-1362.0054313393 103.431068356711 2535.96504116663 157 162 158
-1359.18877692141 103.743406760213 2529.05120781931 163 168 164
-1351.37397069596 104.636951640815 2522.55638235962 172 177 173
-1172.47124080709 118.387869319978 2919.70457851598 178 183 179
-1183.70049238723 117.098236007271 2909.65957232019 187 192 188
-1186.90316868574 116.722305028194 2901.41805250923 168 173 169
-1198.12998773073 115.433139268421 2891.46862023634 166 171 167
-1204.34039083528 114.714962631557 2882.64105082586 153 158 154
-1215.56456986788 113.426259642014 2872.79529626975 145 150 146
-1220.77022733716 112.822561513443 2864.25142326785 143 148 144
-1227.98068230706 111.99075085483 2855.32451298205 149 154 150
-1233.18487585842 111.387262405723 2846.8380801017 152 157 153
-1240.39359022531 110.55569007373 2837.97945450803 157 162 158
-1243.59104043962 110.180595250783 2829.9430859716 164 169 165
-1257.81580238311 108.550708244953 2819.79162989522 170 175 171
-1273.04103927156 106.807104591066 2809.52420880894 164 169 165
-1284.25497233853 105.51995586241 2800.08989571724 146 151 147
-1287.4487341485 105.145287821459 2792.1981410457 150 155 151
-1287.63534275543 105.112712728852 2784.86985361318 154 159 155
-1287.8219830125 105.080069191027 2777.54025569234 158 163 159
-1288.00865106975 105.047328223431 2770.20946663185 157 162 158
-1290.19928698388 104.786575562464 2762.52817390891 161 166 162
-1292.38991336578 104.525732275391 2754.85648121906 160 165 161
-1293.57822670118 104.378813036114 2747.36349081728 155 160 156
-1293.76466804503 104.345757307017 2740.04122453486 157 162 158
-1291.94775737941 104.540489296137 2733.04515197763 130 135 131
-1295.13950085406 104.165443302982 2725.23187502585 126 131 127
-1296.32751579911 104.01815336084 2717.75014872048 127 132 128
-1300.52010723507 103.52909635015 2709.80601191621 128 133 129
-1298.70321426785 103.723331605576 2702.79938950153 124 129 125
-1301.89382778345 103.348001253949 2695.02996994196 125 130 126
-1302.07998955 103.314179689595 2687.71780821381 127 132 128
-1303.26762413879 103.166372678579 2680.25971714831 134 139 135
-1297.44648020049 103.815293358368 2673.79932816024 137 142 138
-1292.62726378777 104.350125676564 2667.16580316203 128 133 129
-1286.80801116226 104.998419661689 2660.64014701043 107 112 108
-1284.99332984647 105.191255855399 2653.54558339117 67 69 64
-1283.17895433049 105.383875593639 2646.43883564317 71 73 68
-1281.36512431221 105.576241936251 2639.31982066681 73 75 70
-1293.56238413231 104.175773707562 2630.43085494514 66 68 63
-1324.77202248413 100.614224277694 2619.27221987858 120 123 116
-1349.97318065631 97.735777920146 2609.00232273631 124 126 121
-1361.16302069695 96.4498217834525 2600.51092909002 130 135 131
-1374.35223864316 94.9365657671292 2591.84918726988 147 152 148
-1385.53869151246 93.650869322337 2583.48113006202 138 143 139
-1390.72158627906 93.0473193966503 2575.82706146452 151 156 152
-1382.89958913252 93.9214000540757 2569.58305813938 151 156 152
-1372.07823620327 95.1359747817701 2563.60537989141 140 145 141
-1368.25957111817 95.5545911956094 2556.85954586341 138 143 139
-1366.44153233419 95.7456503952103 2549.89429573302 140 145 141
-1366.62394094369 95.7091668660686 2542.72596217152 142 147 143
-1361.80646932389 96.2405187135124 2536.02050756028 152 157 153
-1359.98963683849 96.4307134553805 2529.01650770276 158 163 159
-1347.17494596432 97.8698878409272 2522.96089096438 161 166 162
-1170.25229769813 110.949130190931 2920.21576839513 183 188 184
-1178.47260319145 110.02338891049 2910.82770772515 166 171 167
-1185.68892009332 109.209265613525 2901.70000894587 172 177 173
-1199.92610831965 107.615277821485 2891.10143650025 174 179 175
-1210.14910215471 106.467339093976 2881.42844773014 144 149 145
-1217.36167234378 105.65387130433 2872.43856251152 137 142 138
-1225.57617938445 104.729163575077 2863.27823520572 147 152 148
-1231.7839985285 104.027384848164 2854.56926273553 152 157 153
-1237.99101691727 103.325759286048 2845.89175101253 155 160 156
-1244.19723441814 102.624226904983 2837.24564081377 160 165 161
-1246.39202384811 102.368217181919 2829.41643169286 168 173 169
-1259.61509441286 100.887481817232 2819.4665304393 181 186 182
-1270.8312399322 99.6296667021135 2809.96791843161 163 168 164
-1280.04111155375 98.5947003805921 2800.90439462934 141 146 142
-1280.22816460245 98.561601836355 2793.55817483076 143 148 144
-1283.42224084887 98.1945625312966 2785.66232204223 144 149 145
-1285.61350992264 97.9388479577353 2777.96169275744 149 154 150
-1284.79819273847 98.0168646553369 2770.80271919665 144 149 145
-1285.98713175248 97.8722846379128 2763.28778678341 146 151 147
-1289.18015231853 97.5051662707165 2755.43310875008 150 155 151
-1294.37683425133 96.9155313904572 2747.25513084011 156 161 157
-1294.56319555523 96.8820618321674 2739.93554845854 155 160 156
-1293.7475823708 96.9596503068213 2732.77835903194 148 153 149
-1294.93600927716 96.8147233393544 2725.29239381989 136 141 137
-1296.12408910962 96.6697268557279 2717.81059402834 116 121 117
-1293.30558771362 96.9692927674868 2710.95523286614 117 122 118
-1293.49223724092 96.9351912997193 2703.62370721973 119 124 120
-1293.67891567034 96.9009771040492 2696.29093093988 121 126 122
-1298.8726133996 96.3109844722786 2688.21987712786 127 132 128
-1301.06180545929 96.0543192474608 2680.60872880046 133 138 134
-1300.24687301714 96.130838072894 2673.43310988905 130 135 131
-1296.42844174438 96.5404794104248 2666.66850091913 128 133 129
-1289.60689934043 97.2831431787184 2660.29031700701 127 132 128
-1285.78984409941 97.6922081107682 2653.47130904994 81 83 78
-1281.97337210001 98.1010277387289 2646.62924260151 72 74 69
-1280.15921241373 98.2874980834656 2639.50745673622 74 76 71
-1282.34901586252 98.0296197561084 2631.87111066865 74 76 71
-1303.55354730178 95.6624676448492 2621.91024750722 94 97 90
-1341.76777360836 91.4087221308755 2610.02060564673 102 103 97
-1362.9653404317 89.0425539223595 2600.33300024141 150 152 149
-1376.15539802447 87.5645456263184 2591.67628841231 159 164 160
-1385.34164388235 86.5304674409924 2583.53709491056 150 155 151
-1388.52391629878 86.1621442465093 2576.10119814735 147 152 148
-1378.70082958782 87.2357565179637 2570.06462512859 135 140 136
-1369.87939548974 88.1979944555748 2563.86857475437 132 137 133
-1368.06113925845 88.3834516151658 2556.9151329669 132 137 133
-1368.24338263511 88.3468920376115 2549.7531756225 153 158 154
-1368.42564824958 88.3101164730435 2542.59011723673 157 162 158
-1363.60765380253 88.8274280116037 2535.89002112371 153 158 154
-1359.79050724319 89.2335463122533 2529.07141833723 156 161 157
-1346.97482605487 90.6367928609285 2523.01592996253 161 166 162
-1167.02968244008 103.60765840573 2920.95021910179 182 187 183
-1170.2340704153 103.246831668112 2912.65801880631 169 174 170
-1179.45790781187 102.233790398626 2903.07220556849 172 177 173
-1196.7062661201 100.351332609382 2891.81074853735 174 179 175
-1211.94612689346 98.6866738185789 2881.06586507079 152 157 153
-1220.16209332539 97.7831694107981 2871.87126619234 160 165 161
-1230.38312198065 96.662492356508 2862.30435494195 183 188 184
-1237.59391506468 95.8680285642426 2853.40433017305 185 190 186
-1245.80682221467 94.9650203890883 2844.3391562357 182 187 183
-1249.00422248671 94.6054119074121 2836.31204286834 168 173 169
-1249.19321773546 94.5716462466288 2828.88919886543 166 171 167
-1257.40379279676 93.668988854128 2819.91554767622 169 174 170
-1268.62089634545 92.4407181422712 2810.41121506726 163 168 164
-1277.83157414577 91.4297998936692 2801.34200397466 144 149 145
-1278.01875326458 91.396187633587 2793.9903053309 147 152 148
-1281.21318273973 91.0368567653906 2786.08892386618 149 154 150
-1285.40948307816 90.5689743732418 2778.02256597952 154 159 155
-1285.59626898882 90.5352567296893 2770.68612212013 147 152 148
-1286.78520244785 90.3929589150289 2763.17385726822 144 149 145
-1288.97631794612 90.1420386020071 2755.49370274199 144 149 145
-1295.17534830025 89.4571093062307 2747.14631824937 149 154 150
-1294.35971936451 89.5316228627823 2739.99576761706 148 153 149
-1294.5461009423 89.4975627212743 2732.6747587386 156 161 157
-1293.73049972771 89.5718319567484 2725.51353754607 153 158 154
-1294.91895486681 89.429058158693 2718.02878080795 123 128 124
-1290.09677561063 89.9368304312944 2711.48199900329 115 120 116
-1290.28362316391 89.9022261005072 2704.14219388011 120 125 121
-1291.47199562125 89.7591023309111 2696.65096807079 122 127 123
-1295.66501587402 89.2906495984511 2688.72151969585 122 127 123
-1299.85727127041 88.8222085658936 2680.81265233174 132 137 133
-1300.0436106859 88.7872293539269 2673.49230447495 132 137 133
-1297.22608659953 89.0771120873228 2666.5883496158 118 123 119
-1292.40647141939 89.5834664965594 2659.93983244424 117 122 118
-1289.58997540055 89.8729254814966 2652.99524215577 103 105 100
-1284.77190557397 90.3786852812134 2646.29501355647 71 73 68
-1277.95243870968 91.1007919983488 2639.82296257412 70 72 67
-1274.13682209866 91.4976951877436 2632.9346696306 66 68 63
-1285.33476320708 90.2702046912655 2624.18010930524 82 85 78
-1315.54654014941 86.9858613563692 2613.20151081695 95 96 90
-1352.75928891783 82.9444887710151 2601.56362350954 110 112 109
-1372.95564695764 80.7438639663624 2592.07631164661 149 154 150
-1383.14329970204 79.6258005387016 2583.81665292375 152 157 153
-1383.32433262502 79.5898783183731 2576.70268864764 135 140 136
-1376.50222276456 80.3110981714986 2570.33298286523 128 133 129
-1371.68197624882 80.8155768772862 2563.71645127858 135 140 136
-1373.86440493697 80.5626209945362 2556.3642969582 133 138 134
-1371.04546143988 80.8502407772912 2549.51338780468 139 144 140
-1368.22719428886 81.1375423193349 2542.64502778974 145 150 146
-1360.40846959013 81.965182294903 2536.22326144033 155 160 156
-1357.5911901219 82.251833899139 2529.30627671875 157 162 158
-1346.77469499545 83.4029356064891 2523.07058626822 157 162 158
-1168.82429380171 95.7191662132921 2920.56618334192 161 165 164
-1175.03910699643 95.0480407909733 2911.6167723005 159 163 162
-1185.2665661484 93.9531254752434 2901.82619593295 170 174 173
-1194.48919894093 92.9644906844135 2892.30434380256 174 178 177
-1205.7174246777 91.764075576075 2882.40455154424 154 158 157
-1213.93439632896 90.8818353842121 2873.19349708957 147 151 150
-1226.16287192234 89.5760011672466 2863.19544631243 163 168 164
-1233.37445788285 88.8000822415827 2854.28434523372 161 166 162
-1242.59111854593 87.8124640853191 2845.00632098309 157 162 158
-1247.79481561045 87.2486935133805 2836.57261373752 154 159 155
-1252.99809037849 86.6849572096925 2828.1647728844 161 166 162
-1261.2087399321 85.803724925835 2819.20189012107 174 179 175
-1273.4292346845 84.4991751691649 2809.51713741091 166 171 167
-1278.62959280866 83.9358433753005 2801.21439864753 145 150 146
-1278.81668872798 83.9017581081361 2793.86544384976 146 151 147
-1280.0064587414 83.7617402389167 2786.33225637254 143 148 144
-1287.21036051364 82.9868617437699 2777.72259712495 145 150 146
-1286.39449150215 83.0585014171857 2770.56901894192 153 158 154
-1287.58366013974 82.9184035751273 2763.05924944646 151 156 152
-1286.76798940577 82.9898254090393 2755.89768799178 152 157 153
-1291.96554432974 82.4265465524926 2747.71388963096 150 155 151
-1293.15401065451 82.2863237213657 2740.22210996172 141 146 142
-1293.34045019651 82.2517679957411 2732.89830352097 136 141 137
-1291.5232237525 82.4285033154768 2725.89524923967 137 142 138
-1289.70606546798 82.6051335959216 2718.88009347786 160 165 161
-1288.89116377398 82.6758674018336 2711.69706131369 146 151 147
-1290.07971069862 82.5351129508086 2704.2015607097 118 123 119
-1292.26995946277 82.2885797062333 2696.55999165155 117 122 118
-1295.46146213455 81.9363000270251 2688.78057082475 117 122 118
-1299.6540102674 81.4783444123553 2680.87152073994 114 119 115
-1298.83873959533 81.5485193764699 2673.69298468764 116 121 117
-1297.02257980061 81.7241304571175 2666.64703493515 115 120 116
-1293.20404236322 82.1107527437929 2659.86185916294 111 116 112
-1292.38955067486 82.1803452012175 2652.65225227779 111 113 108
-1288.57197038478 82.5664875966054 2645.82915260257 106 108 103
-1281.75168726741 83.2690653563452 2639.36803492794 75 77 72
-1275.93335135699 83.8657721244941 2632.74183520603 69 71 66
-1279.12448560964 83.5122701098598 2624.97550102548 69 72 65
-1299.3301509737 81.364775079733 2615.18147334864 84 85 79
-1336.54680616871 77.4239897475496 2603.49891220276 104 106 103
-1364.75184950334 74.4335150960098 2593.049624664 111 116 112
-1375.94140867015 73.236855187874 2584.6557631645 136 141 137
-1377.12369100044 73.0949745290732 2577.41322016265 136 141 137
-1374.30353988503 73.3747532234979 2570.60108975993 131 136 132
-1374.48524057944 73.3379479995798 2563.46007856134 140 145 141
