ply
format ascii 1.0
comment KinectMotionCapture
element vertex 782
property float x
property float y
property float z
property uchar red
property uchar green
property uchar blue
end_header
-1240.18740653992 -223.967373371124 2486.99998855591 19 22 11
-1213.99629116058 -220.439910888672 2447.99995422363 21 24 13
-1227.97095775604 -224.207162857056 2490.00000953674 23 26 15
-1208.86194705963 -221.94217145443 2464.99991416931 24 27 16
-1187.45696544647 -219.22804415226 2434.99994277954 25 28 17
-1181.25379085541 -219.305768609047 2436.00010871887 25 28 17
-1183.24661254883 -220.914587378502 2453.9999961853 24 27 16
-1174.59762096405 -220.543518662453 2450.00004768372 22 25 14
-1168.83492469788 -220.713227987289 2451.99990272522 21 24 13
-1173.96640777588 -222.953885793686 2476.99999809265 22 25 14
-1172.83916473389 -224.024921655655 2489.00008201599 24 27 16
-1162.28091716766 -223.296478390694 2480.99994659424 23 26 15
-1170.86553573608 -226.258724927902 2513.99993896484 22 25 14
-1160.75348854065 -225.621581077576 2506.99996948242 23 26 15
-1163.57100009918 -227.504938840866 2528.00011634827 19 22 13
-1172.68300056458 -230.648711323738 2562.99996376038 18 21 12
-1185.24599075317 -234.512865543365 2605.99994659424 16 19 10
-1168.1923866272 -232.528328895569 2584.00011062622 14 17 8
-1149.46460723877 -230.184510350227 2558.00008773804 10 13 4
-1181.79833889008 -238.099649548531 2645.99990844727 8 11 2
-1196.50650024414 -244.03303861618 2711.99989318848 10 11 6
-1155.80260753632 -237.192526459694 2635.99991798401 11 12 7
-1152.98986434937 -238.09115588665 2645.99990844727 11 12 6
-1158.35297107697 -240.699946880341 2674.99995231628 14 15 9
-1162.70053386688 -243.129327893257 2701.99990272522 14 15 9
-1154.07633781433 -242.85988509655 2698.99988174438 14 15 9
-1143.34666728973 -242.14106798172 2690.99998474121 15 16 8
-1136.88457012177 -242.322623729706 2693.00007820129 15 16 8
-1126.63888931274 -241.69485270977 2686.00010871887 14 15 7
-1121.01769447327 -242.0574426651 2690.00005722046 16 17 9
-1109.99464988709 -241.250738501549 2680.99999427795 16 19 8
-1122.87867069244 -245.663747191429 2730.00001907349 14 20 8
-1097.90778160095 -241.798475384712 2687.00003623962 18 21 12
-1100.77250003815 -244.052916765213 2711.99989318848 19 22 13
-1099.06876087189 -245.317995548248 2726.0000705719 19 22 13
-1088.4804725647 -244.603767991066 2717.99993515015 19 20 12
-1315.41609764099 -230.875223875046 2486.00006103516 8 13 6
-1310.0813627243 -231.128290295601 2489.00008201599 11 16 9
-1265.52963256836 -225.60228407383 2430.0000667572 13 16 7
-1266.99984073639 -228.250354528427 2459.00011062622 16 19 10
-1267.88699626923 -232.087776064873 2500.99992752075 21 23 12
-1252.91395187378 -230.58445751667 2484.99989509583 19 22 11
-1249.56750869751 -231.216222047806 2492.00010299683 18 21 10
-1225.24344921112 -227.952063083649 2457.00001716614 19 22 11
-1223.92988204956 -228.956565260887 2467.99993515015 21 24 13
-1223.05393218994 -230.054497718811 2480.00001907349 23 26 15
-1219.66505050659 -230.689272284508 2486.99998855591 24 27 16
-1195.272564888 -227.33636200428 2450.99997520447 25 28 17
-1191.93434715271 -227.972716093063 2457.99994468689 26 29 18
-1187.1155500412 -228.331476449966 2461.99989318848 26 29 18
-1173.64954948425 -227.021664381027 2447.99995422363 25 28 17
-1164.07823562622 -226.454555988312 2441.99991226196 25 28 17
-1167.81461238861 -228.484630584717 2463.99998664856 23 26 15
-1167.66464710236 -229.773372411728 2477.9999256134 24 27 16
-1164.63160514832 -230.506420135498 2486.00006103516 23 26 15
-1164.81864452362 -231.889083981514 2500.99992752075 21 24 13
-1170.48370838165 -234.384953975677 2528.00011634827 20 23 12
-1168.18010807037 -235.305160284042 2538.00010681152 22 25 16
-1163.99550437927 -235.855162143707 2543.99991035461 20 23 14
-1160.6912612915 -236.591205000877 2552.00004577637 16 19 10
-1178.22766304016 -243.071153759956 2621.99997901917 13 16 7
-1158.57660770416 -240.471631288528 2594.00010108948 9 12 3
-1188.56739997864 -249.735966324806 2694.00000572205 10 11 6
-1153.61201763153 -243.893817067146 2631.00004196167 10 11 6
-1144.27590370178 -243.428930640221 2625.99992752075 13 14 8
-1149.25980567932 -246.023714542389 2654.00004386902 14 15 9
-1157.10628032684 -249.267965555191 2688.99989128113 14 15 9
-1156.64112567902 -250.751495361328 2704.99992370605 13 14 8
-1146.31938934326 -250.103563070297 2697.99995422363 14 15 7
-1120.84054946899 -246.118977665901 2654.99997138977 13 14 6
-1124.95863437653 -248.623937368393 2681.99992179871 13 14 6
-1117.26415157318 -248.533844947815 2680.99999427795 15 16 8
-1114.95959758759 -249.649420380592 2693.00007820129 15 18 7
-1108.11817646027 -251.418679952621 2711.99989318848 18 21 12
-1106.85586929321 -252.814054489136 2726.99999809265 19 22 13
-1116.8030500412 -256.805807352066 2769.99998092651 18 21 12
-1088.47451210022 -251.990646123886 2717.99993515015 18 19 11
-1318.52865219116 -239.43880200386 2505.00011444092 11 16 9
-1303.19035053253 -237.88395524025 2489.00008201599 15 18 9
-1281.69775009155 -235.183537006378 2460.99996566772 14 17 8
-1259.84883308411 -232.389032840729 2431.99992179871 15 18 9
-1243.8348531723 -230.64698278904 2414.00003433228 16 19 10
-1267.90082454681 -236.357986927032 2473.99997711182 16 19 10
-1293.1694984436 -242.355391383171 2536.99994087219 16 19 10
-1250.16307830811 -235.552951693535 2466.00008010864 19 21 10
-1249.90737438202 -236.775517463684 2479.00009155273 21 24 13
-1245.57375907898 -237.234696745873 2483.99996757507 22 25 14
-1246.20473384857 -238.649606704712 2499.00007247925 23 26 15
-1232.37657546997 -237.295866012573 2484.99989509583 23 26 15
-1228.00099849701 -237.75739967823 2490.00000953674 22 25 14
-1200.06251335144 -233.636617660522 2447.00002670288 25 28 17
-1200.16288757324 -234.959125518799 2460.99996566772 25 28 17
-1193.88687610626 -235.04114151001 2461.99989318848 26 29 18
-1190.02068042755 -235.601231455803 2467.99993515015 26 29 18
-1174.61967468262 -233.87099802494 2450.00004768372 27 30 19
-1164.5655632019 -233.191668987274 2443.00007820129 27 30 19
-1166.40269756317 -234.899327158928 2460.99996566772 26 29 18
-1168.14541816711 -236.607566475868 2479.00009155273 25 28 17
-1168.85650157928 -238.12547326088 2494.99988555908 23 26 15
-1167.62113571167 -239.262238144875 2506.99996948242 22 25 14
-1165.39788246155 -240.208715200424 2516.99995994568 21 24 13
-1179.23355102539 -244.495958089828 2562.00003623962 21 24 15
-1142.95434951782 -238.38184773922 2497.99990653992 19 22 13
-1143.41354370117 -239.90286886692 2513.99993896484 18 21 12
-1167.7497625351 -246.481984853745 2582.99994468689 16 19 10
-1169.69406604767 -248.385742306709 2602.9999256134 11 14 5
-1233.638048172 -265.172183513641 2779.00004386902 9 10 5
-1195.18780708313 -258.489936590195 2709.00011062622 9 10 5
-1167.20628738403 -254.003018140793 2661.99994087219 10 11 6
-1147.3274230957 -251.234322786331 2632.99989700317 11 12 6
-1138.43464851379 -250.851720571518 2628.99994850159 13 14 8
-1145.05767822266 -253.904730081558 2661.00001335144 14 15 9
-1157.06825256348 -258.198738098145 2706.00008964539 14 15 9
-1145.8934545517 -257.34081864357 2697.00002670288 13 14 6
-1122.10536003113 -253.620952367783 2657.99999237061 13 14 6
-1110.27574539185 -252.573311328888 2647.0000743866 14 15 7
-1115.59438705444 -255.438417196274 2677.00004577637 16 17 9
-1129.03273105621 -260.212540626526 2726.99999809265 16 19 8
-1113.41059207916 -258.307784795761 2707.00001716614 16 19 8
-1113.01696300507 -259.934186935425 2723.99997711182 17 18 10
-1105.63313961029 -259.938955307007 2723.99997711182 18 19 11
-1118.00694465637 -264.620184898376 2773.00000190735 18 19 11
-1320.49429416656 -247.908532619476 2522.0000743866 14 17 8
-1293.70057582855 -244.147792458534 2483.99996757507 13 16 7
-1256.76393508911 -238.423213362694 2426.00011825562 15 18 9
-1249.52483177185 -238.301962614059 2424.99995231628 16 19 10
-1250.49734115601 -239.753782749176 2440.00005722046 16 19 10
-1261.07752323151 -243.073031306267 2473.99997711182 18 20 9
-1259.81521606445 -244.132950901985 2484.99989509583 19 21 10
-1274.12819862366 -248.238891363144 2526.99995040894 21 24 13
-1244.58920955658 -243.799299001694 2482.00011253357 22 25 14
-1250.21183490753 -246.236592531204 2506.99996948242 22 25 14
-1235.86487770081 -244.745925068855 2492.00010299683 22 25 14
-1202.37147808075 -239.426180720329 2437.99996376038 22 25 14
-1208.90498161316 -242.062151432037 2464.99991416931 22 25 14
-1194.81253623962 -240.57449400425 2450.00004768372 23 26 15
-1191.47551059723 -241.247892379761 2457.00001716614 23 26 15
-1184.72921848297 -241.234719753265 2457.00001716614 24 27 16
-1176.06985569 -240.829601883888 2453.00006866455 24 27 16
-1169.34359073639 -240.817993879318 2453.00006866455 25 28 17
-1166.88692569733 -241.690576076508 2461.99989318848 24 27 16
-1175.2233505249 -244.821637868881 2493.99995803833 24 27 16
-1174.01874065399 -245.989963412285 2506.00004196167 23 26 15
-1172.75261878967 -247.158914804459 2517.99988746643 22 25 14
-1164.94262218475 -246.954381465912 2516.00003242493 22 25 14
-1143.41831207275 -245.271518826485 2499.00007247925 19 22 13
-1142.05479621887 -246.443137526512 2510.99991798401 18 21 12
-1157.35673904419 -251.2466609478 2559.99994277954 16 19 10
-1168.35045814514 -255.167424678802 2599.99990463257 11 14 5
-1196.99513912201 -263.014316558838 2680.0000667572 9 12 3
-1190.77849388123 -264.872044324875 2698.99988174438 10 11 6
-1179.04710769653 -263.888269662857 2688.99989128113 11 12 7
-1156.04376792908 -260.353624820709 2653.00011634827 12 13 7
-1146.66295051575 -259.861767292023 2648.00000190735 14 15 9
-1144.62757110596 -261.038929224014 2660.00008583069 15 16 10
-1161.77117824554 -266.632705926895 2717.00000762939 13 14 8
-1145.04253864288 -264.474451541901 2694.9999332428 12 13 5
-1120.4149723053 -260.45224070549 2654.00004386902 12 13 5
-1104.40123081207 -258.393228054047 2632.99989700317 13 14 6
-1105.1732301712 -260.260283946991 2651.99995040894 16 17 9
-1114.95268344879 -264.286994934082 2693.00007820129 16 18 7
-1119.57621574402 -267.136633396149 2721.99988365173 16 18 7
-1105.24916648865 -265.47247171402 2704.99992370605 16 17 9
-1098.72817993164 -265.673518180847 2707.00001716614 16 17 9
-1120.01717090607 -272.647082805634 2778.00011634827 17 18 10
-1100.87692737579 -269.806772470474 2749.00007247925 18 19 11
-1303.76577377319 -251.546919345856 2490.00000953674 13 16 7
-1273.36513996124 -248.263150453568 2457.99994468689 14 17 8
-1248.51727485657 -244.704365730286 2423.00009727478 16 19 10
-1268.74530315399 -251.323908567429 2489.00008201599 18 20 9
-1263.0558013916 -252.896964550018 2505.00011444092 20 23 12
-1272.18794822693 -256.107449531555 2536.99994087219 21 24 13
-1245.74184417725 -252.15145945549 2497.99990653992 21 24 13
-1228.44302654266 -250.013768672943 2476.99999809265 23 26 15
-1216.19689464569 -248.886480927467 2466.00008010864 23 26 15
-1199.60236549377 -246.851906180382 2446.00009918213 22 25 14
-1197.26538658142 -247.744873166084 2454.99992370605 23 26 15
-1187.12484836578 -247.024044394493 2447.99995422363 23 26 15
-1181.36692047119 -247.21223115921 2450.00004768372 24 27 16
-1177.99985408783 -247.905656695366 2457.00001716614 24 27 16
-1173.16865921021 -248.297110199928 2460.99996566772 25 28 17
-1167.84572601318 -248.588398098946 2463.99998664856 24 27 16
-1168.63632202148 -250.191897153854 2480.00001907349 24 27 16
-1172.62291908264 -252.502202987671 2503.00002098084 24 27 16
-1164.37804698944 -252.190262079239 2500 23 26 15
-1159.39450263977 -252.585172653198 2503.99994850159 22 25 14
-1176.02622509003 -257.721692323685 2555.0000667572 21 24 15
-1154.40618991852 -254.486680030823 2523.00000190735 19 22 13
-1150.24757385254 -255.085349082947 2529.00004386902 18 21 12
-1177.70636081696 -262.745052576065 2605.00001907349 16 19 10
-1179.5893907547 -264.756977558136 2625 11 14 5
-1161.71479225159 -262.331783771515 2601.0000705719 9 12 3
-1162.61851787567 -264.143288135529 2618.99995803833 11 12 7
-1174.45707321167 -268.476784229279 2661.99994087219 11 12 7
-1169.84128952026 -269.079297780991 2667.99998283386 12 13 8
-1162.14573383331 -268.976509571075 2667.00005531311 12 13 7
-1162.68599033356 -270.790576934814 2684.99994277954 14 15 9
-1165.71307182312 -273.210376501083 2709.00011062622 15 16 10
-1165.61925411224 -274.92481470108 2726.0000705719 13 14 8
-1146.31628990173 -272.101551294327 2697.99995422363 12 13 5
-1118.72470378876 -267.261803150177 2650.00009536743 12 13 5
-1111.52970790863 -267.26359128952 2650.00009536743 13 14 6
-1112.25497722626 -269.182235002518 2668.99991035461 15 16 8
-1114.94934558868 -271.605730056763 2693.00007820129 16 18 7
-1112.1689081192 -272.718757390976 2703.9999961853 16 18 7
-1103.6102771759 -272.420346736908 2700.99997520447 16 17 9
-1077.27515697479 -269.505262374878 2671.99993133545 18 19 11
-1303.7930727005 -258.331269025803 2490.00000953674 12 15 6
-1294.79396343231 -257.889121770859 2486.00006103516 12 15 6
-1254.28056716919 -256.523758172989 2473.99997711182 20 22 11
-1248.13807010651 -258.037239313126 2489.00008201599 19 22 11
-1240.77367782593 -257.914006710052 2487.99991607666 20 23 12
-1230.94069957733 -257.273435592651 2482.00011253357 23 26 15
-1201.9110918045 -252.591490745544 2437.00003623962 25 28 17
-1206.48443698883 -254.958659410477 2460.00003814697 24 27 16
-1199.23138618469 -254.839181900024 2459.00011062622 24 27 16
-1191.50364398956 -254.616856575012 2457.00001716614 25 28 17
-1186.20252609253 -254.913538694382 2460.00003814697 25 28 17
-1178.97164821625 -254.796504974365 2459.00011062622 26 29 18
-1172.22726345062 -254.783868789673 2459.00011062622 26 29 18
-1164.06512260437 -254.461228847504 2456.00008964539 24 27 16
-1163.9347076416 -255.900651216507 2470.00002861023 24 27 16
-1156.70418739319 -255.786716938019 2469.00010108948 23 26 15
-1136.90757751465 -252.876430749893 2440.99998474121 22 25 14
-1170.05228996277 -261.776626110077 2526.99995040894 22 25 14
-1172.35159873962 -263.840079307556 2546.99993133545 21 24 15
-1167.68217086792 -264.350414276123 2552.00004577637 19 22 13
-1153.89239788055 -262.789756059647 2536.99994087219 18 21 12
-1175.45163631439 -269.309192895889 2599.99990463257 16 19 10
-1169.2590713501 -269.510805606842 2601.99999809265 11 14 5
-1166.63205623627 -270.541697740555 2611.99998855591 9 12 3
-1142.20190048218 -266.498118638992 2572.99995422363 12 13 8
-1168.72465610504 -274.366289377213 2648.9999294281 11 12 7
-1164.58201408386 -275.088459253311 2655.99989891052 11 12 7
-1180.44900894165 -280.575603246689 2709.00011062622 12 13 7
-1170.91464996338 -280.056208372116 2703.9999961853 13 14 8
-1159.68906879425 -279.123216867447 2694.9999332428 14 15 9
-1158.77747535706 -280.676603317261 2710.00003814697 13 14 8
-1148.4397649765 -279.952079057693 2703.00006866455 13 14 6
-1141.94214344025 -280.160337686539 2704.99992370605 13 14 6
-1129.14431095123 -278.815627098084 2691.99991226196 14 15 7
-1126.00433826447 -279.853671789169 2701.99990272522 14 15 7
-1121.15633487701 -280.478030443192 2707.99994468689 18 20 9
-1116.27793312073 -281.103044748306 2713.99998664856 17 19 8
-1107.28323459625 -280.692905187607 2710.00003814697 17 18 10
-1098.31237792969 -280.28330206871 2706.00008964539 18 19 11
-1085.33310890198 -278.838396072388 2691.99991226196 19 20 12
-1320.05333900452 -268.416702747345 2520.99990844727 12 15 6
-1369.25888061523 -281.347781419754 2642.99988746643 12 15 6
-1322.76809215546 -273.230731487274 2566.99991226196 15 18 9
-1213.74309062958 -254.747241735458 2394.00005340576 20 22 11
-1250.49209594727 -263.876497745514 2480.00001907349 20 23 12
-1229.10249233246 -260.769993066788 2450.99997520447 20 23 12
-1226.82917118073 -261.70751452446 2460.00003814697 20 23 12
-1216.0804271698 -260.837405920029 2451.99990272522 21 24 13
-1222.64277935028 -263.69121670723 2479.00009155273 22 25 14
-1210.91496944427 -262.610137462616 2469.00010108948 24 27 16
-1205.09946346283 -262.806326150894 2470.99995613098 24 27 16
-1195.3980922699 -262.152552604675 2464.99991416931 25 28 17
-1195.86050510406 -263.73291015625 2480.00001907349 25 28 17
-1192.40963459015 -264.463245868683 2486.99998855591 26 29 18
-1175.57668685913 -262.217015028 2466.00008010864 26 29 18
-1167.39463806152 -261.885672807693 2463.00005912781 25 28 17
-1164.41679000854 -262.724757194519 2470.99995613098 25 28 17
-1157.18269348145 -262.607634067535 2470.00002861023 23 26 15
-1129.46462631226 -257.813483476639 2424.99995231628 22 25 14
-1136.26039028168 -260.887444019318 2453.9999961853 20 23 12
-1180.64510822296 -272.679209709167 2565.00005722046 21 24 15
-1169.51990127563 -271.714419126511 2555.99999427795 19 22 13
-1189.37575817108 -277.978986501694 2615.00000953674 18 21 12
-1178.70116233826 -278.816789388657 2622.99990653992 11 14 5
-1163.95688056946 -277.004569768906 2605.99994659424 9 12 3
-1171.06056213379 -280.401557683945 2638.00001144409 11 12 7
-1169.6103811264 -281.779557466507 2651.00002288818 11 12 7
-1189.57769870758 -288.36652636528 2713.00005912781 11 12 7
-1179.14366722107 -287.620037794113 2706.00008964539 11 12 6
-1151.86262130737 -282.729059457779 2660.00008583069 12 13 7
-1157.5380563736 -285.916686058044 2690.00005722046 13 14 8
-1159.20495986938 -288.148373365402 2710.99996566772 13 14 8
-1143.34046840668 -286.022901535034 2690.99998474121 13 14 6
-1149.5395898819 -289.425104856491 2723.00004959106 13 14 6
-1146.75903320313 -290.595918893814 2733.99996757507 14 15 7
-1142.67110824585 -291.448533535004 2742.00010299683 15 16 8
-1129.43339347839 -289.963334798813 2727.9999256134 18 18 8
-1109.6932888031 -286.778032779694 2697.99995422363 18 18 8
-1123.62241744995 -292.309403419495 2750 17 18 10
-1122.66004085541 -294.014900922775 2766.00003242493 17 18 10
-1097.01955318451 -289.236843585968 2720.99995613098 19 20 12
-1108.46698284149 -294.238775968552 2767.99988746643 19 20 12
-1292.85395145416 -269.60825920105 2469.00010108948 13 19 9
-1328.46331596375 -281.423985958099 2578.00006866455 15 18 9
-1250.26941299438 -269.123733043671 2466.00008010864 21 23 12
-1253.53956222534 -271.283537149429 2486.00006103516 22 24 13
-1245.17047405243 -270.934343338013 2483.00004005432 22 24 13
-1219.36821937561 -266.76732301712 2444.9999332428 21 23 12
-1198.24457168579 -263.583809137344 2415.99988937378 22 24 13
-1201.45308971405 -265.747129917145 2436.00010871887 24 26 15
-1211.42280101776 -269.438236951828 2470.00002861023 26 28 17
-1210.96837520599 -270.839095115662 2483.00004005432 26 28 17
-1187.16931343079 -267.005264759064 2447.99995422363 27 29 18
-1187.67774105072 -268.626004457474 2463.00005912781 26 28 17
-1189.06736373901 -270.465552806854 2480.00001907349 24 26 15
-1173.68257045746 -268.488854169846 2461.99989318848 22 25 14
-1168.35463047028 -268.803209066391 2464.99991416931 22 28 18
-1170.08304595947 -270.754009485245 2483.00004005432 22 28 16
-1151.83103084564 -269.641935825348 2473.00004959106 21 27 15
-1142.28880405426 -268.978089094162 2467.00000762939 21 25 11
-1178.35223674774 -279.108732938766 2559.99994277954 23 26 15
-1166.7822599411 -278.010100126266 2549.99995231628 19 22 11
-1156.63504600525 -277.239352464676 2542.99998283386 17 20 11
-1186.34641170502 -287.801057100296 2640.00010490417 12 15 8
-1175.57466030121 -286.923378705978 2631.99996948242 10 11 5
-1171.5087890625 -287.681728601456 2638.99993896484 10 13 6
-1179.32033538818 -291.384041309357 2673.00009727478 9 12 5
-1178.61866950989 -293.015748262405 2687.99996376038 8 11 4
-1169.99495029449 -292.686104774475 2684.99994277954 9 12 5
-1160.09151935577 -292.0301258564 2678.99990081787 12 13 7
-1147.64177799225 -290.720850229263 2667.00005531311 12 13 7
-1158.34999084473 -295.298635959625 2709.00011062622 13 14 8
-1165.85838794708 -299.113988876343 2743.99995803833 14 15 7
-1159.24799442291 -299.332797527313 2746.00005149841 14 15 7
-1142.98212528229 -297.045171260834 2724.99990463257 15 16 8
-1137.66765594482 -297.592341899872 2730.00001907349 15 16 8
-1124.87626075745 -296.178042888641 2717.00000762939 16 17 9
-1116.27042293549 -295.854389667511 2713.99998664856 16 18 7
-1119.94075775146 -298.801749944687 2740.9999370575 16 17 9
-1117.78438091278 -300.223588943481 2753.99994850159 16 17 9
-1108.30271244049 -299.683839082718 2749.00007247925 17 18 10
-1114.46762084961 -303.396314382553 2782.99999237061 18 19 11
-1270.25997638702 -275.803476572037 2464.99991416931 18 21 12
-1266.51728153229 -279.418468475342 2497.99990653992 22 22 12
-1264.65582847595 -280.513226985931 2507.99989700317 22 24 13
-1264.75024223328 -282.056152820587 2522.0000743866 22 24 13
-1235.34798622131 -277.001857757568 2476.99999809265 22 24 13
-1201.23994350433 -270.831108093262 2421.99993133545 23 25 14
-1212.32235431671 -274.837166070938 2457.99994468689 24 26 15
-1211.44068241119 -276.160299777985 2470.00002861023 25 27 16
-1194.40317153931 -273.794770240784 2448.99988174438 27 29 18
-1182.82067775726 -272.660166025162 2438.99989128113 27 29 18
-1181.9064617157 -273.985862731934 2450.99997520447 27 29 18
-1173.25925827026 -273.523777723312 2447.00002670288 26 28 17
-1167.4987077713 -273.733258247375 2448.99988174438 25 28 17
-1170.26340961456 -275.955438613892 2469.00010108948 22 28 18
-1171.03743553162 -277.731150388718 2484.99989509583 22 28 16
-1166.57435894012 -278.278172016144 2490.00000953674 21 27 15
-1153.70428562164 -276.814460754395 2476.99999809265 21 27 15
-1161.33010387421 -281.935423612595 2523.00000190735 23 26 15
-1157.18150138855 -282.597213983536 2529.00004386902 19 22 11
-1141.63291454315 -280.466288328171 2509.99999046326 17 20 11
-1178.26354503632 -292.967140674591 2621.99997901917 12 15 8
-1178.25984954834 -294.749051332474 2638.00001144409 11 12 7
-1184.38696861267 -298.095852136612 2667.99998283386 10 13 6
-1178.88295650482 -298.538446426392 2671.99993133545 9 12 5
-1166.78309440613 -297.305792570114 2661.00001335144 8 11 4
-1164.76845741272 -298.64364862442 2673.00009727478 9 12 5
-1143.63813400269 -295.066326856613 2641.00003242493 12 15 8
-1144.6305513382 -297.187656164169 2660.00008583069 13 16 9
-1156.63981437683 -302.214562892914 2704.99992370605 11 14 7
-1161.18443012238 -305.342793464661 2733.00004005432 12 15 8
-1153.75888347626 -305.343449115753 2733.00004005432 12 15 8
-1141.72208309174 -304.115831851959 2721.99988365173 13 16 9
-1133.49795341492 -303.894400596619 2720.00002861023 13 16 9
-1123.21710586548 -303.115010261536 2713.00005912781 15 18 9
-1109.68589782715 -301.442384719849 2697.99995422363 15 18 9
-1113.39890956879 -304.462999105453 2724.99990463257 16 19 10
-1110.87965965271 -305.808365345001 2736.99998855591 17 18 10
-1117.56992340088 -309.724241495132 2772.0000743866 17 18 10
-1126.47497653961 -314.311295747757 2812.99996376038 18 19 13
-1149.08075332642 -322.809934616089 2888.99993896484 20 21 15
-1309.14759635925 -286.620020866394 2500 11 19 8
-1281.36479854584 -282.003611326218 2460.00003814697 10 16 6
-1288.00547122955 -284.954458475113 2486.00006103516 11 17 7
-1255.34284114838 -279.195249080658 2436.00010871887 17 20 11
-1252.69210338593 -280.085057020187 2444.00000572205 18 19 11
-1257.41577148438 -284.158974885941 2480.00001907349 20 20 10
-1228.37293148041 -279.093533754349 2436.00010871887 20 22 11
-1243.34931373596 -285.578191280365 2493.00003051758 23 25 14
-1218.61898899078 -281.433194875717 2457.00001716614 24 26 15
-1216.28749370575 -282.443881034851 2466.00008010864 24 26 15
-1200.17838478088 -280.248582363129 2447.00002670288 25 27 16
-1196.85924053192 -281.032025814056 2453.9999961853 27 29 18
-1184.29207801819 -279.640555381775 2441.99991226196 28 30 19
-1176.61774158478 -279.395192861557 2440.00005722046 28 30 19
-1171.83566093445 -279.837787151337 2444.00000572205 27 29 18
-1169.41964626312 -280.853629112244 2453.00006866455 26 29 18
-1165.53664207459 -281.526833772659 2459.00011062622 23 29 19
-1164.45219516754 -282.887667417526 2470.99995613098 23 29 17
-1159.55829620361 -283.333420753479 2474.99990463257 22 28 16
-1161.63301467896 -285.49712896347 2493.99995803833 21 27 15
-1152.49490737915 -284.91422533989 2489.00008201599 21 25 11
-1158.11741352081 -287.995040416718 2516.00003242493 22 25 14
-1155.81727027893 -289.130598306656 2526.00002288818 19 22 11
-1154.37614917755 -290.495902299881 2538.00010681152 18 21 12
-1154.68108654022 -292.319625616074 2553.99990081787 17 20 13
-1170.63057422638 -298.15000295639 2605.00001907349 14 17 10
-1197.47149944305 -306.842178106308 2680.99999427795 12 13 8
-1183.94827842712 -305.234432220459 2667.00005531311 10 13 6
-1178.44593524933 -305.687516927719 2671.0000038147 9 12 5
-1165.90940952301 -304.310262203217 2658.99991989136 8 11 4
-1162.59229183197 -305.337160825729 2667.99998283386 9 12 5
-1152.73368358612 -304.648131132126 2661.99994087219 10 13 6
-1151.94702148438 -306.363135576248 2677.00004577637 11 14 7
-1154.9299955368 -309.108793735504 2700.99997520447 11 14 7
-1158.63478183746 -312.084078788757 2726.99999809265 11 14 7
-1147.84789085388 -311.169058084488 2719.00010108948 12 15 8
-1142.55928993225 -311.742424964905 2723.99997711182 13 16 9
-1130.99527359009 -310.599893331528 2713.99998664856 13 16 9
-1121.14405632019 -309.915781021118 2707.99994468689 15 18 9
-1105.56948184967 -307.630062103271 2687.99996376038 15 18 9
-1104.40587997437 -309.350579977036 2703.00006866455 16 19 10
-1117.16103553772 -317.14278459549 2770.99990844727 17 18 10
-1133.67688655853 -324.015825986862 2831.00008964539 18 19 11
-1308.48157405853 -294.81053352356 2512.00008392334 11 17 7
-1269.6338891983 -290.614724159241 2476.99999809265 19 20 12
-1220.32845020294 -283.850580453873 2420.00007629395 20 22 11
-1233.39664936066 -290.020138025284 2473.00004959106 24 26 15
-1218.64008903503 -288.121908903122 2457.00001716614 24 26 15
-1203.48358154297 -286.107689142227 2440.00005722046 24 26 15
-1200.19721984863 -286.908715963364 2447.00002670288 26 28 17
-1191.51246547699 -286.420971155167 2443.00007820129 27 29 18
-1184.79406833649 -286.403089761734 2443.00007820129 28 30 19
-1180.00936508179 -286.855071783066 2447.00002670288 27 29 18
-1178.08413505554 -288.011252880096 2457.00001716614 26 28 17
-1177.06191539764 -289.402663707733 2469.00010108948 24 27 16
-1161.75830364227 -287.27850317955 2450.99997520447 23 29 19
-1155.51126003265 -287.382274866104 2451.99990272522 23 29 17
-1158.16473960876 -289.713740348816 2471.99988365173 22 28 16
-1161.17858886719 -292.163044214249 2493.00003051758 21 27 15
-1173.34198951721 -296.956747770309 2533.99991989136 22 26 12
-1145.23839950562 -291.555911302567 2487.99991607666 22 25 14
-1153.99587154388 -295.530736446381 2522.0000743866 19 22 11
-1154.38413619995 -297.396957874298 2538.00010681152 20 23 14
-1160.11381149292 -300.669938325882 2565.99998474121 19 22 15
-1175.58038234711 -306.521415710449 2615.9999370575 15 18 11
-1186.75780296326 -311.318874359131 2657.00006484985 13 14 9
-1205.70576190948 -318.226009607315 2716.00008010864 10 13 6
-1184.18598175049 -314.471632242203 2684.00001525879 10 13 6
-1161.52822971344 -310.366690158844 2648.9999294281 9 12 5
-1160.41648387909 -312.003612518311 2663.00010681152 9 12 5
-1164.42763805389 -315.047144889832 2688.99989128113 10 13 6
-1163.99705410004 -316.919803619385 2704.99992370605 10 13 6
-1154.50298786163 -316.332846879959 2700.00004768372 11 14 7
-1151.41201019287 -317.504048347473 2710.00003814697 11 14 7
-1144.46973800659 -317.621499300003 2710.99996566772 11 14 7
-1142.13836193085 -319.028437137604 2723.00004959106 12 15 8
-1133.91029834747 -318.795830011368 2720.99995613098 13 16 9
-1116.58716201782 -315.98636507988 2697.00002670288 15 18 9
-1110.0902557373 -316.223800182343 2698.99988174438 15 18 9
-1091.32719039917 -312.946915626526 2671.0000038147 16 19 10
-1093.41740608215 -315.646082162857 2694.00000572205 17 18 10
-1124.00925159454 -326.66489481926 2788.00010681152 17 18 10
-1124.05979633331 -328.896969556808 2806.99992179871 18 19 11
-1147.4757194519 -338.042944669724 2884.99999046326 17 18 10
-1240.73457717896 -293.7071621418 2447.00002670288 21 21 11
-1213.46938610077 -291.953653097153 2433.00008773804 22 24 13
-1193.86196136475 -288.81162405014 2407.00006484985 23 25 14
-1196.59888744354 -291.070163249969 2426.00011825562 24 26 15
-1192.8596496582 -291.769683361053 2431.99992179871 26 28 17
-1189.57996368408 -292.590081691742 2438.99989128113 28 30 19
-1180.44698238373 -291.971862316132 2434.00001525879 28 30 19
-1178.57944965363 -293.153882026672 2444.00000572205 26 28 17
-1180.49740791321 -295.296221971512 2461.99989318848 25 27 16
-1181.36751651764 -297.199428081512 2477.9999256134 23 26 15
-1166.51237010956 -295.145660638809 2460.99996566772 23 29 19
-1152.69696712494 -293.332874774933 2446.00009918213 23 29 17
-1156.77165985107 -296.077966690063 2469.00010108948 22 28 16
-1164.91639614105 -299.902975559235 2500.99992752075 22 28 16
-1162.23990917206 -300.970613956451 2509.99999046326 23 27 13
-1163.20049762726 -302.998334169388 2526.99995040894 22 25 14
-1154.00516986847 -302.388936281204 2522.0000743866 19 22 11
-1153.33998203278 -305.848628282547 2551.00011825562 19 22 15
-1181.87892436981 -315.312474966049 2630.00011444092 15 18 11
-1193.46392154694 -320.340901613235 2671.99993133545 12 13 8
-1205.26731014252 -325.489819049835 2714.99991416931 10 13 6
-1177.57260799408 -319.969773292542 2668.99991035461 10 13 6
-1164.16299343109 -318.286955356598 2654.99997138977 10 13 6
-1161.72683238983 -319.601982831955 2665.99988937378 10 13 6
-1164.86322879791 -322.476208209991 2690.00005722046 11 14 7
-1162.70780563354 -323.912560939789 2701.99990272522 11 14 7
-1171.60773277283 -328.466564416885 2740.00000953674 12 15 8
-1148.86283874512 -324.150294065475 2703.9999961853 11 14 7
-1139.40322399139 -323.550999164581 2698.99988174438 11 14 7
-1140.87879657745 -326.069325208664 2720.00002861023 12 15 8
-1127.65741348267 -324.392557144165 2706.00008964539 13 16 9
-1112.03038692474 -321.997225284576 2686.00010871887 15 18 9
-1104.32875156403 -321.880251169205 2684.99994277954 15 18 9
-1107.66649246216 -325.000822544098 2710.99996566772 16 19 10
-1097.4714756012 -324.165940284729 2703.9999961853 17 18 10
-1103.44278812408 -328.127086162567 2736.99998855591 18 19 11
-1122.45190143585 -336.045354604721 2802.99997329712 18 19 11
-1127.97963619232 -340.008199214935 2835.99996566772 22 23 15
-1243.96562576294 -299.54069852829 2440.00005722046 19 19 9
-1237.71870136261 -299.63606595993 2440.99998474121 21 21 11
-1238.0279302597 -301.328122615814 2454.99992370605 22 24 13
-1225.22568702698 -299.829989671707 2443.00007820129 22 24 13
-1212.99374103546 -298.455864191055 2431.99992179871 21 23 12
-1208.76407623291 -299.046367406845 2437.00003623962 22 24 13
-1201.05910301209 -298.778891563416 2434.99994277954 24 26 15
-1191.89894199371 -298.144429922104 2430.0000667572 26 28 17
-1187.16061115265 -298.615157604218 2434.00001525879 28 30 19
-1179.98015880585 -298.473417758942 2433.00008773804 29 31 20
-1176.18560791016 -299.191385507584 2438.99989128113 29 31 20
-1181.95247650146 -302.363455295563 2464.99991416931 29 31 20
-1185.67407131195 -305.045545101166 2486.99998855591 27 30 19
-1175.53317546844 -304.171413183212 2480.00001907349 24 30 20
-1161.66472434998 -302.317142486572 2464.99991416931 24 30 18
-1153.50484848022 -301.935613155365 2461.99989318848 23 29 17
-1151.88658237457 -303.271889686584 2473.00004959106 22 28 16
-1137.24672794342 -301.175385713577 2456.00008964539 23 27 13
-1135.1318359375 -302.390694618225 2466.00008010864 22 25 14
-1148.06640148163 -307.653248310089 2509.0000629425 20 23 12
-1148.033618927 -309.483051300049 2523.9999294281 20 23 14
-1175.14550685883 -320.624172687531 2615.00000953674 14 17 10
-1211.78364753723 -332.632452249527 2713.00005912781 11 12 7
-1199.50222969055 -331.277191638947 2701.99990272522 9 12 5
-1187.72530555725 -330.045431852341 2691.99991226196 10 13 6
-1164.60573673248 -325.626969337463 2655.99989891052 11 14 7
-1165.21644592285 -327.829837799072 2674.00002479553 12 15 8
-1173.09355735779 -332.117527723312 2709.00011062622 13 16 9
-1170.88568210602 -333.586245775223 2720.99995613098 13 16 9
-1156.21542930603 -331.500470638275 2703.9999961853 12 15 8
-1158.21051597595 -334.196716547012 2726.0000705719 11 14 7
-1143.20230484009 -331.989854574203 2707.99994468689 11 14 7
-1120.74446678162 -327.576994895935 2671.99993133545 12 15 8
-1115.9873008728 -328.31397652626 2677.99997329712 14 17 10
-1100.84962844849 -325.986713171005 2658.99991989136 15 18 9
-1110.11397838593 -333.103716373444 2717.00000762939 16 19 10
-1102.743268013 -333.1079185009 2717.00000762939 17 18 10
-1103.84070873261 -335.687458515167 2737.99991607666 18 20 9
-1112.8351688385 -340.719819068909 2779.00004386902 18 20 9
-1120.81360816956 -345.507830381393 2818.00007820129 18 18 8
-1246.67704105377 -302.012056112289 2405.99989891052 12 18 8
-1210.36446094513 -299.509912729263 2387.00008392334 19 21 10
-1199.22316074371 -298.354178667068 2378.00002098084 19 22 11
-1235.78298091888 -309.11785364151 2463.99998664856 21 24 13
-1232.96856880188 -310.096204280853 2471.99988365173 21 24 13
-1220.69132328033 -308.692246675491 2460.99996566772 21 24 13
-1204.04052734375 -306.160777807236 2440.99998474121 25 28 17
-1193.88163089752 -305.261075496674 2434.00001525879 24 27 16
-1180.35197257996 -303.484708070755 2420.00007629395 27 30 19
-1181.45418167114 -305.471539497375 2436.00010871887 28 31 20
-1184.40186977386 -307.960659265518 2456.00008964539 27 30 19
-1189.1622543335 -310.951948165894 2480.00001907349 25 28 17
-1189.50426578522 -312.815517187119 2494.99988555908 25 28 17
-1177.44445800781 -311.420261859894 2483.99996757507 25 31 21
-1160.73644161224 -308.772444725037 2463.00005912781 24 30 18
-1152.58121490479 -308.382272720337 2460.00003814697 24 30 18
-1140.72024822235 -306.990206241608 2448.99988174438 23 29 17
-1133.0908536911 -306.727260351181 2447.00002670288 21 25 11
-1130.9996843338 -307.969361543655 2457.00001716614 20 23 12
-1130.23066520691 -309.5882833004 2470.00002861023 20 23 14
-1157.13977813721 -318.853378295898 2543.99991035461 20 23 14
-1198.11618328094 -332.129538059235 2650.00009536743 17 20 13
-1214.69974517822 -338.763386011124 2703.00006866455 12 15 8
-1220.27766704559 -342.389971017838 2732.00011253357 11 12 7
-1209.7190618515 -341.505646705627 2724.99990463257 8 11 4
-1187.73090839386 -337.363928556442 2691.99991226196 8 11 4
-1187.84987926483 -339.489191770554 2709.00011062622 9 12 5
-1191.36559963226 -342.617750167847 2733.99996757507 10 13 6
-1168.76602172852 -338.228106498718 2698.99988174438 11 14 7
-1173.90012741089 -341.859549283981 2727.9999256134 11 14 7
-1151.5132188797 -337.471604347229 2693.00007820129 11 14 7
-1142.06576347351 -336.843907833099 2687.99996376038 10 13 6
-1148.69022369385 -340.978920459747 2720.99995613098 11 14 7
-1127.45475769043 -336.844027042389 2687.99996376038 13 16 9
-1114.31872844696 -335.090786218643 2674.00002479553 15 18 11
-1117.40756034851 -338.225573301315 2698.99988174438 14 17 8
-1122.00808525085 -341.862350702286 2727.9999256134 14 17 8
-1113.78741264343 -341.61514043808 2726.0000705719 15 18 9
-1109.23254489899 -342.496424913406 2733.00004005432 17 19 8
-1113.51120471954 -346.135586500168 2762.00008392334 18 20 9
-1108.82472991943 -347.018361091614 2769.00005340576 18 20 9
-1117.62499809265 -352.162897586823 2809.99994277954 20 20 8
-1291.28181934357 -322.996437549591 2519.00005340576 17 18 10
-1256.76929950714 -316.041767597198 2464.99991416931 18 18 8
-1216.39609336853 -309.190213680267 2411.99994087219 19 22 11
-1207.72254467011 -308.650970458984 2407.99999237061 21 24 13
-1221.52173519135 -313.880383968353 2448.99988174438 21 24 13
-1210.79480648041 -312.830448150635 2440.99998474121 22 25 14
-1198.14395904541 -311.269104480743 2428.99990081787 25 28 17
-1189.97919559479 -310.862332582474 2426.00011825562 25 28 17
-1189.15200233459 -312.37855553627 2437.99996376038 28 31 20
-1185.83858013153 -313.25501203537 2444.9999332428 28 31 20
-1184.90266799927 -314.772963523865 2457.00001716614 27 30 19
-1184.86452102661 -316.547930240631 2470.99995613098 25 28 17
-1181.89322948456 -317.555099725723 2479.00009155273 25 28 17
-1167.9801940918 -315.617054700851 2463.99998664856 21 27 17
-1158.86628627777 -314.960986375809 2459.00011062622 21 27 15
-1151.6580581665 -314.818233251572 2457.99994468689 22 28 16
-1166.35179519653 -320.695966482162 2503.99994850159 22 28 16
-1127.54595279694 -311.846226453781 2434.99994277954 20 24 10
-1118.58236789703 -311.194211244583 2430.0000667572 22 25 14
-1176.2535572052 -331.149965524673 2585.99996566772 18 21 12
-1185.01389026642 -335.622072219849 2621.00005149841 14 17 10
-1212.46123313904 -345.472872257233 2697.99995422363 10 13 6
-1214.47861194611 -348.153591156006 2719.00010108948 10 11 6
-1197.73948192596 -345.457255840302 2697.99995422363 9 12 5
-1179.35383319855 -342.249870300293 2673.00009727478 9 12 5
-1187.85488605499 -346.853673458099 2709.00011062622 9 12 5
-1196.16305828094 -351.458251476288 2744.99988555908 9 12 5
-1176.99694633484 -347.997397184372 2717.99993515015 9 12 5
-1166.5872335434 -347.098171710968 2710.99996566772 9 12 5
-1154.08039093018 -345.559567213058 2698.99988174438 10 13 6
-1140.79213142395 -343.765795230865 2684.99994277954 11 14 7
-1146.57950401306 -347.734153270721 2716.00008010864 12 15 8
-1145.07043361664 -349.526822566986 2730.00001907349 13 16 9
-1126.92749500275 -348.505288362503 2721.99988365173 12 15 6
-1123.650431633 -349.788159132004 2732.00011253357 12 15 6
-1115.4180765152 -349.535286426544 2730.00001907349 14 17 6
-1116.5337562561 -352.227985858917 2750.99992752075 15 17 6
-1111.49036884308 -353.000938892365 2756.99996948242 16 18 7
-1117.62857437134 -357.359677553177 2790.99988937378 17 19 8
-1106.48214817047 -356.213510036469 2782.00006484985 19 19 7
-1359.1845035553 -341.754525899887 2608.99996757507 13 21 10
-1272.60529994965 -326.817691326141 2496.00005149841 20 20 10
-1255.55121898651 -324.168533086777 2476.0000705719 19 21 10
-1214.91062641144 -315.368145704269 2408.99991989136 19 22 11
-1214.77055549622 -317.0425593853 2421.99993133545 20 23 12
-1199.60033893585 -314.791113138199 2404.99997138977 22 25 14
-1205.85894584656 -318.168997764587 2430.99999427795 23 26 15
-1189.28825855255 -315.527349710464 2411.00001335144 24 27 16
-1198.34017753601 -319.691985845566 2443.00007820129 26 29 18
-1196.48969173431 -320.978283882141 2453.00006866455 28 31 20
-1188.28403949738 -320.564597845078 2450.00004768372 27 30 19
-1185.4043006897 -321.591138839722 2457.99994468689 26 29 18
-1177.69014835358 -321.310311555862 2456.00008964539 25 28 17
-1176.18954181671 -322.731196880341 2467.00000762939 25 28 17
-1163.73014450073 -321.144223213196 2454.99992370605 20 26 16
-1151.34108066559 -319.558441638947 2443.00007820129 20 26 14
-1160.57479381561 -323.990553617477 2476.99999809265 22 28 16
-1146.80194854736 -322.014302015305 2461.99989318848 22 28 16
-1144.69182491302 -323.308914899826 2471.99988365173 21 25 11
-1131.48283958435 -321.46555185318 2457.99994468689 23 26 15
-1166.40150547028 -333.354949951172 2549.00002479553 20 23 12
-1185.02354621887 -342.749565839767 2621.00005149841 13 16 9
-1191.34843349457 -346.66320681572 2651.00002288818 9 12 5
-1212.69989013672 -355.02353310585 2714.99991416931 9 10 5
-1196.85876369476 -352.531343698502 2696.00009918213 9 12 5
-1181.56599998474 -350.170850753784 2677.99997329712 9 12 5
-1175.58252811432 -350.557208061218 2680.99999427795 9 12 5
-1189.63122367859 -356.959164142609 2730.00001907349 9 12 5
-1179.16584014893 -356.039673089981 2723.00004959106 9 12 5
-1171.75388336182 -356.036365032196 2723.00004959106 9 12 5
-1159.21342372894 -354.464828968048 2710.99996566772 10 13 6
-1152.68981456757 -354.724675416946 2713.00005912781 11 14 7
-1136.02590560913 -351.847380399704 2690.99998474121 13 16 9
-1137.52007484436 -354.593068361282 2711.99989318848 13 16 9
-1128.90148162842 -354.201555252075 2709.00011062622 12 15 8
-1130.2375793457 -356.948852539063 2730.00001907349 13 16 7
-1119.53461170197 -355.905145406723 2721.99988365173 13 16 7
-1127.67171859741 -360.876739025116 2759.99999046326 15 18 7
-1114.90595340729 -359.180808067322 2746.99997901917 17 19 8
-1110.27586460114 -360.10068655014 2753.99994850159 18 20 9
-1104.00795936584 -360.49821972847 2756.99996948242 20 20 8
-1108.86192321777 -364.55774307251 2788.00010681152 24 22 10
-1213.42587471008 -321.530342102051 2405.99989891052 19 22 11
-1218.30880641937 -324.575632810593 2428.99990081787 19 22 11
-1214.09165859222 -325.216442346573 2434.00001525879 22 25 14
-1219.27726268768 -328.396797180176 2457.99994468689 24 27 16
-1218.41609477997 -329.974710941315 2470.00002861023 23 26 15
-1202.28755474091 -327.412366867065 2450.99997520447 26 29 18
-1201.87723636627 -329.125851392746 2463.99998664856 26 29 18
-1190.72997570038 -327.901750802994 2454.99992370605 25 28 17
-1186.38896942139 -328.548729419708 2460.00003814697 24 27 16
-1180.10663986206 -328.662395477295 2460.99996566772 23 26 15
-1177.63793468475 -329.845517873764 2470.00002861023 24 27 16
-1170.85766792297 -329.827666282654 2470.00002861023 20 26 16
-1162.66787052155 -329.410254955292 2467.00000762939 21 27 15
-1148.87619018555 -327.391624450684 2451.99990272522 23 29 17
-1157.06384181976 -331.649392843246 2483.99996757507 23 29 17
-1144.70493793488 -330.033332109451 2471.99988365173 22 26 12
-1143.00346374512 -331.488966941834 2483.00004005432 20 23 12
-1145.82133293152 -334.280401468277 2503.99994850159 19 22 11
-1161.26418113709 -340.810388326645 2552.99997329712 16 19 10
-1179.1558265686 -348.141878843308 2608.00004005432 13 16 9
-1209.7829580307 -359.344959259033 2691.99991226196 8 11 4
-1211.36832237244 -362.005531787872 2711.99989318848 8 9 4
-1215.51179885864 -365.46778678894 2737.99991607666 8 11 4
-1179.80754375458 -356.917917728424 2674.00002479553 8 11 4
-1181.28859996796 -359.581172466278 2694.00000572205 8 11 4
-1176.56314373016 -360.376596450806 2700.00004768372 9 12 5
-1180.46903610229 -363.842368125916 2726.0000705719 8 11 4
-1168.31433773041 -362.37046122551 2714.99991416931 8 11 4
-1156.65018558502 -361.032962799072 2704.99992370605 10 13 6
-1140.79451560974 -358.361691236496 2684.99994277954 11 14 7
-1123.783826828 -355.290830135345 2661.99994087219 12 15 8
-1112.35344409943 -353.955864906311 2651.99995040894 12 15 8
-1124.31645393372 -360.095858573914 2697.99995422363 12 15 8
-1117.81573295593 -360.364139080048 2700.00004768372 11 17 7
-1125.29003620148 -365.171074867249 2736.00006103516 12 18 8
-1114.59398269653 -364.106178283691 2727.9999256134 15 18 7
-1117.3369884491 -367.446601390839 2753.00002098084 18 20 9
-1108.25538635254 -366.917133331299 2749.00007247925 20 20 8
-1105.20362854004 -368.390470743179 2759.99999046326 21 21 9
-1106.07147216797 -371.199369430542 2780.99989891052 29 27 14
-1213.014960289 -326.206594705582 2391.99995994568 21 23 12
-1225.55923461914 -331.358402967453 2430.0000667572 19 22 11
-1219.84195709229 -331.601858139038 2431.99992179871 19 22 11
-1215.11650085449 -332.119166851044 2436.00010871887 23 26 15
-1217.31925010681 -334.546089172363 2453.9999961853 24 27 16
-1222.8809595108 -337.927997112274 2479.00009155273 24 27 16
-1189.06676769257 -330.406010150909 2424.00002479553 25 28 17
-1196.04682922363 -334.198892116547 2451.99990272522 25 28 17
-1190.26684761047 -334.448903799057 2453.9999961853 24 27 16
-1187.37399578094 -335.517525672913 2461.99989318848 23 26 15
-1184.44216251373 -336.587190628052 2470.00002861023 22 25 14
-1183.37798118591 -338.202863931656 2482.00011253357 23 26 15
-1176.5638589859 -338.184326887131 2482.00011253357 21 27 17
-1175.40943622589 -339.801758527756 2493.99995803833 21 27 15
-1158.26272964478 -336.787849664688 2471.99988365173 23 29 17
-1149.1596698761 -336.091309785843 2467.00000762939 22 28 16
-1129.43720817566 -332.262456417084 2438.99989128113 21 25 11
-1129.20594215393 -334.156364202499 2453.00006866455 18 21 10
-1139.42694664001 -339.184075593948 2490.00000953674 17 20 11
-1180.07040023804 -355.506867170334 2609.99989509583 13 16 9
-1217.88215637207 -369.117259979248 2710.00003814697 9 12 5
-1205.1237821579 -367.473185062408 2697.99995422363 8 9 4
-1197.3180770874 -367.328375577927 2697.00002670288 7 10 3
-1184.66782569885 -365.686386823654 2684.99994277954 8 11 4
-1177.78670787811 -365.815877914429 2686.00010871887 8 11 4
-1173.95377159119 -366.89966917038 2694.00000572205 8 11 4
-1166.61584377289 -366.894781589508 2694.00000572205 9 12 5
-1163.58435153961 -368.252664804459 2703.9999961853 9 12 5
-1164.77715969086 -370.973318815231 2723.99997711182 11 14 7
-1143.34535598755 -366.476863622665 2690.99998474121 10 13 6
-1128.42845916748 -364.02416229248 2673.00009727478 10 13 6
-1124.09782409668 -364.976912736893 2680.0000667572 11 14 7
-1115.14782905579 -364.432394504547 2676.00011825562 11 14 7
-1110.77606678009 -365.386784076691 2683.00008773804 11 17 7
-1115.41676521301 -369.338005781174 2711.99989318848 12 18 8
-1115.40806293488 -371.792078018188 2730.00001907349 16 19 8
-1112.46275901794 -373.293548822403 2740.9999370575 18 20 9
-1107.04112052917 -373.978763818741 2746.00005149841 21 21 9
-1105.59856891632 -376.026540994644 2760.99991798401 22 22 10
-1094.13349628448 -374.67035651207 2750.99992752075 24 22 9
-1282.08744525909 -344.271868467331 2473.99997711182 11 16 9
-1314.38779830933 -354.809522628784 2549.99995231628 15 20 13
-1227.60713100433 -338.536143302917 2434.00001525879 19 22 11
-1219.36941146851 -338.088750839233 2430.99999427795 21 24 13
-1224.12323951721 -341.258257627487 2453.9999961853 25 28 17
-1218.83451938629 -341.647446155548 2457.00001716614 25 28 17
-1201.69484615326 -338.700771331787 2436.00010871887 23 26 15
-1197.92103767395 -339.5094871521 2441.99991226196 25 28 17
-1186.80238723755 -338.233947753906 2433.00008773804 24 27 16
-1187.863945961 -340.434968471527 2448.99988174438 24 27 16
-1183.53724479675 -341.107785701752 2453.9999961853 24 27 16
-1174.87180233002 -340.530693531036 2450.00004768372 25 28 17
-1177.19900608063 -343.151360750198 2469.00010108948 25 28 17
-1180.84836006165 -346.189677715302 2490.9999370575 24 28 14
-1170.24254798889 -345.059782266617 2483.00004005432 25 29 15
-1161.09037399292 -344.34786438942 2477.9999256134 25 29 15
-1144.0509557724 -341.274797916412 2456.00008964539 23 27 13
-1166.03446006775 -349.874794483185 2517.99988746643 22 26 12
-1222.58257865906 -375.664591789246 2703.9999961853 14 17 10
-1208.00542831421 -373.430669307709 2687.99996376038 9 12 5
-1204.23996448517 -374.532043933868 2696.00009918213 8 9 4
-1187.55960464478 -371.605664491653 2674.99995231628 7 10 3
-1190.85216522217 -374.931573867798 2698.99988174438 7 10 3
-1182.61647224426 -374.646663665771 2697.00002670288 8 11 4
-1167.42265224457 -372.140109539032 2678.99990081787 8 11 4
-1163.15615177155 -373.107254505157 2686.00010871887 9 12 5
-1165.30930995941 -376.158863306046 2707.99994468689 10 13 6
-1160.50398349762 -376.98882818222 2713.99998664856 11 14 7
-1157.79328346252 -378.514170646667 2724.99990463257 10 13 6
-1131.38461112976 -372.261792421341 2680.0000667572 10 13 6
-1130.38957118988 -374.34446811676 2694.9999332428 10 13 6
-1131.39927387238 -377.122551202774 2714.99991416931 11 14 7
-1133.13090801239 -380.179286003113 2736.99998855591 15 18 9
-1121.99521064758 -378.930777311325 2727.9999256134 15 18 7
-1118.26515197754 -380.18336892128 2736.99998855591 18 21 10
-1115.70596694946 -381.853520870209 2749.00007247925 20 22 11
-1107.03659057617 -381.440788507462 2746.00005149841 23 23 11
-1095.58260440826 -380.056530237198 2736.00006103516 24 24 12
-1303.89177799225 -356.977701187134 2516.00003242493 18 23 16
-1224.80618953705 -340.695977210999 2401.99995040894 15 22 14
-1218.6564207077 -340.804666280746 2403.00011634827 17 25 14
-1214.02025222778 -341.340065002441 2407.00006484985 18 21 10
-1208.68837833405 -343.548476696014 2423.00009727478 24 27 16
-1202.98779010773 -343.803524971008 2424.99995231628 24 27 16
-1188.62581253052 -343.466639518738 2423.00009727478 24 27 16
-1193.65572929382 -346.843481063843 2447.00002670288 23 26 15
-1188.37225437164 -347.244679927826 2450.00004768372 23 26 15
