ply
format ascii 1.0
comment KinectMotionCapture
element vertex 771
property float x
property float y
property float z
property uchar red
property uchar green
property uchar blue
end_header
-640.717267990112 -41.6516065597534 2151.00002288818 20 23 16
-631.659150123596 -41.4418280124664 2140.00010490417 19 22 15
-622.952282428741 -41.25140234828 2130.00011444092 17 20 13
-617.776036262512 -41.2933863699436 2131.99996948242 17 20 13
-618.616759777069 -41.7421720921993 2154.99997138977 18 21 14
-616.773247718811 -42.0166961848736 2168.99991035461 19 22 15
-612.600088119507 -42.136300355196 2174.99995231628 20 23 16
-607.278048992157 -42.1784482896328 2177.00004577637 19 22 15
-605.259358882904 -42.453121393919 2190.99998474121 21 24 17
-605.899631977081 -42.9216362535954 2214.99991416931 20 23 16
-603.430092334747 -43.17706823349 2227.9999256134 22 25 18
-599.548697471619 -43.3356426656246 2236.00006103516 23 26 19
-590.84552526474 -43.1453734636307 2226.0000705719 34 34 26
-594.54357624054 -43.8661277294159 2263.00001144409 28 28 20
-567.014694213867 -45.1134294271469 2325.99997520447 149 151 146
-559.508144855499 -45.020192861557 2321.00009918213 42 45 38
-553.219258785248 -45.0239144265652 2321.00009918213 50 51 46
-546.458065509796 -44.9888408184052 2319.00000572205 53 55 50
-540.405333042145 -45.0119525194168 2319.9999332428 75 77 74
-534.576416015625 -45.0544729828835 2322.00002670288 117 119 116
-529.645502567291 -45.1746210455894 2328.00006866455 111 113 110
-524.006485939026 -45.2365428209305 2331.00008964539 107 109 106
-519.238412380219 -45.3761070966721 2338.00005912781 122 124 121
-514.211893081665 -45.4962700605392 2344.00010108948 141 143 140
-509.584903717041 -45.6552654504776 2351.99999809265 136 138 135
-504.699349403381 -45.7948595285416 2358.99996757507 154 156 153
-1077.22616195679 -45.6451252102852 2069.00000572205 133 119 106
-1073.05359840393 -45.70721834898 2072.00002670288 143 124 107
-1065.26362895966 -45.6150732934475 2068.00007820129 148 118 94
-1055.45127391815 -45.4348847270012 2059.99994277954 150 114 90
-1049.76463317871 -45.4313270747662 2059.99994277954 137 102 72
-1044.58951950073 -45.4499870538712 2061.00010871887 140 107 76
-1039.91734981537 -45.490849763155 2062.99996376038 143 110 79
-1034.23619270325 -45.4877726733685 2062.99996376038 144 110 82
-1029.55615520477 -45.5289445817471 2065.00005722046 140 106 81
-1023.87797832489 -45.5261766910553 2065.00005722046 137 103 78
-1019.68288421631 -45.5896928906441 2068.00007820129 142 110 89
-1015.4755115509 -45.6533543765545 2071.00009918213 136 100 78
-1012.23063468933 -45.7612425088882 2075.99997520447 137 102 82
-1009.44709777832 -45.8913147449493 2082.00001716614 121 86 67
-1008.0806016922 -46.0876412689686 2091.00008010864 120 85 66
-874.72540140152 -44.5089042186737 2019.99998092651 9 19 11
-854.180455207825 -43.738029897213 1985.00001430511 20 28 17
-865.042388439178 -44.5757582783699 2023.00000190735 24 30 20
-860.404074192047 -44.6203611791134 2025.00009536743 20 26 14
-851.112544536591 -44.4226749241352 2016.00003242493 21 27 13
-838.515758514404 -44.048797339201 1998.99995326996 24 27 18
-832.264184951782 -44.0055355429649 1996.99997901917 27 30 21
-822.298586368561 -43.7640398740768 1985.99994182587 27 30 21
-815.273523330688 -43.6768867075443 1981.99999332428 26 29 20
-808.271408081055 -43.5898192226887 1978.00004482269 26 29 20
-799.262702465057 -43.3926396071911 1968.99998188019 28 31 22
-794.739365577698 -43.4379577636719 1970.99995613098 27 30 21
-794.211506843567 -43.7037535011768 1983.00004005432 28 31 22
-790.039598941803 -43.7712930142879 1985.99994182587 29 32 23
-783.87713432312 -43.7287129461765 1983.99996757507 30 33 24
-777.726531028748 -43.6862073838711 1981.99999332428 30 33 24
-773.92590045929 -43.7760353088379 1985.99994182587 27 30 23
-771.652281284332 -43.9541079103947 1993.99995803833 26 29 22
-767.415106296539 -44.0220609307289 1996.99997901917 25 28 21
-761.636137962341 -44.0019071102142 1996.00005149841 26 29 22
-753.590047359467 -43.8495427370071 1988.9999628067 26 29 22
-748.215675354004 -43.8515618443489 1988.9999628067 26 29 22
-742.842018604279 -43.8536554574966 1988.9999628067 25 28 21
-742.6598072052 -44.1645048558712 2003.00002098084 24 27 20
-741.298317909241 -44.4092974066734 2013.99993896484 25 28 21
-738.781690597534 -44.5880219340324 2022.0000743866 24 27 20
-733.321011066437 -44.5904098451138 2022.0000743866 21 24 17
-725.341022014618 -44.4384887814522 2015.00010490417 23 26 19
-723.829925060272 -44.6835905313492 2026.00002288818 22 25 18
-723.323523998261 -44.9949502944946 2039.99996185303 21 24 17
-718.871176242828 -45.0637675821781 2042.99998283386 21 24 17
-713.006317615509 -45.0444221496582 2042.00005531311 18 21 14
-707.146763801575 -45.025110244751 2040.99988937378 16 19 12
-705.762088298798 -45.2926643192768 2052.99997329712 11 14 7
-681.819260120392 -44.4600209593773 2015.00010490417 16 19 10
-682.757139205933 -44.8821894824505 2033.99991989136 20 23 14
-681.594789028168 -45.1720654964447 2046.99993133545 20 23 14
-679.371356964111 -45.3958101570606 2056.99992179871 17 20 11
-672.835290431976 -45.3327149152756 2053.99990081787 17 20 11
-665.665566921234 -45.225515961647 2049.00002479553 17 20 11
-659.489214420319 -45.1845563948154 2046.99993133545 22 25 16
-657.796084880829 -45.4526841640472 2059.00001525879 28 31 22
-659.839153289795 -45.9858067333698 2082.99994468689 24 27 18
-658.297419548035 -46.2761782109737 2095.99995613098 21 24 15
-651.08060836792 -46.1691953241825 2091.00008010864 23 26 17
-645.433723926544 -46.1726374924183 2091.00008010864 24 27 18
-646.517693996429 -46.6619357466698 2112.99991607666 20 23 14
-647.482454776764 -47.1513420343399 2134.99999046326 18 21 12
-645.322322845459 -47.4199913442135 2147.0000743866 20 23 14
-638.92650604248 -47.3794639110565 2144.99998092651 21 24 17
-629.294335842133 -47.0959767699242 2131.99996948242 19 22 15
-622.948825359344 -47.0554791390896 2130.00011444092 17 20 13
-618.062317371368 -47.1254549920559 2132.99989700317 17 20 13
-616.029679775238 -47.4164336919785 2145.99990844727 19 22 15
-613.0730509758 -47.6411767303944 2155.99989891052 20 23 16
-609.49832201004 -47.8217788040638 2164.00003433228 21 24 17
-609.505951404572 -48.2897385954857 2184.99994277954 20 23 16
-604.426980018616 -48.3599491417408 2187.99996376038 21 24 17
-602.066338062286 -48.6512295901775 2200.99997520447 24 27 20
-598.280429840088 -48.8320402801037 2209.00011062622 24 27 20
-597.131729125977 -49.2339693009853 2226.99999809265 27 28 20
-591.638028621674 -49.282219260931 2229.00009155273 27 28 20
-592.963337898254 -49.9053820967674 2256.99996948242 24 23 18
-566.035628318787 -51.3723269104958 2322.00002670288 177 178 173
-559.504151344299 -51.354456692934 2321.00009918213 161 157 154
-553.453624248505 -51.3808280229568 2322.00002670288 151 146 143
-546.689689159393 -51.3408146798611 2319.9999332428 138 135 130
-540.634334087372 -51.3671860098839 2321.00009918213 128 127 122
-534.57248210907 -51.3935536146164 2322.00002670288 116 115 110
-529.869019985199 -51.5527203679085 2328.9999961853 139 138 133
-524.227380752563 -51.6233667731285 2332.00001716614 144 145 139
-519.900739192963 -51.8268384039402 2341.00008010864 149 150 144
-515.085399150848 -51.9860498607159 2348.00004959106 152 152 150
-510.880887508392 -52.2117018699646 2358.00004005432 136 136 134
-506.192982196808 -52.393089979887 2365.9999370575 140 142 141
-1089.76662158966 -51.6026690602303 2082.00001716614 219 216 209
-1086.08150482178 -51.6969747841358 2085.99996566772 144 130 117
-1078.23669910431 -51.5932254493237 2082.00001716614 137 118 103
-1067.84331798553 -51.3657927513123 2072.99995422363 150 120 96
-1057.50453472137 -51.1385798454285 2063.99989128113 142 106 82
-1050.78756809235 -51.0850250720978 2062.00003623962 137 103 75
-1045.0998544693 -51.0811991989613 2062.00003623962 140 107 76
-1039.92068767548 -51.1023215949535 2062.99996376038 141 107 79
-1035.74323654175 -51.1731654405594 2065.99998474121 142 108 81
-1030.5563211441 -51.1946342885494 2066.99991226196 138 104 79
-1025.8641242981 -51.241047680378 2069.00000572205 132 100 77
-1020.67172527313 -51.2628592550755 2069.9999332428 118 87 67
-1015.96832275391 -51.3096004724503 2072.00002670288 115 84 64
-1012.23301887512 -51.4060258865356 2075.99997520447 104 73 55
-1008.47959518433 -51.5026114881039 2079.99992370605 103 71 56
-1006.63638114929 -51.6983941197395 2088.00005912781 106 77 63
-858.702898025513 -49.0832477807999 1983.00004005432 22 32 24
-873.974621295929 -50.2717047929764 2030.99989891052 23 30 22
-852.641403675079 -49.3563413619995 1993.99995803833 24 30 20
-858.703792095184 -50.0252470374107 2020.99990844727 21 27 15
-850.26741027832 -49.8526729643345 2013.99993896484 24 27 16
-840.612351894379 -49.6059432625771 2003.99994850159 23 26 17
-833.513617515564 -49.5078414678574 2000 23 26 17
-820.227384567261 -49.0385144948959 1980.99994659424 22 25 16
-806.223034858704 -48.5197715461254 1960.00003814697 22 25 16
-802.958071231842 -48.6447401344776 1965.0000333786 23 26 17
-796.419978141785 -48.5717616975307 1962.00001239777 25 28 19
-792.31870174408 -48.6474148929119 1965.0000333786 24 27 18
-791.406512260437 -48.9212311804295 1975.99995136261 23 26 17
-790.43585062027 -49.1951555013657 1986.99998855591 25 28 19
-786.641180515289 -49.2958761751652 1991.00005626678 28 31 22
-782.041192054749 -49.347173422575 1993.00003051758 30 33 24
-778.210639953613 -49.4480766355991 1996.99997901917 28 31 24
-771.263480186462 -49.35098066926 1993.00003051758 28 31 24
-760.496020317078 -49.0063242614269 1978.99997234344 28 31 24
-754.002392292023 -48.9341281354427 1975.99995136261 27 30 23
-750.178039073944 -49.0353666245937 1980.00001907349 27 30 23
-748.213529586792 -49.2605268955231 1988.9999628067 28 31 24
-742.466270923615 -49.2381006479263 1988.00003528595 27 30 23
-741.545081138611 -49.5377443730831 2000 26 29 22
-737.247109413147 -49.6145635843277 2003.00002098084 26 29 22
-738.413751125336 -50.0630252063274 2020.99990844727 25 28 21
-729.691803455353 -49.8427525162697 2012.00008392334 22 25 18
-725.698351860046 -49.9445758759975 2016.00003242493 25 28 21
-721.6836810112 -50.046481192112 2019.99998092651 24 27 20
-721.193253993988 -50.3962263464928 2033.99991989136 23 26 19
-715.349733829498 -50.3744147717953 2032.99999237061 23 26 19
-709.511637687683 -50.352655351162 2032.00006484985 19 22 15
-704.71853017807 -50.4052899777889 2033.99991989136 17 20 13
-711.603045463562 -51.3006187975407 2069.9999332428 10 13 6
-674.29530620575 -48.9989183843136 1976.99999809265 10 13 6
-678.770840167999 -49.7208759188652 2006.00004196167 14 17 10
-682.082712650299 -50.3686144948006 2032.00006484985 17 20 13
-682.25759267807 -50.7933907210827 2049.00002479553 18 21 14
-679.037809371948 -50.9703569114208 2055.99999427795 17 20 11
-671.849370002747 -50.8498959243298 2051.00011825562 18 21 12
-665.337443351746 -50.7790483534336 2048.00009727478 17 20 11
-659.485816955566 -50.7578179240227 2046.99993133545 18 21 12
-658.112049102783 -51.0838106274605 2059.99994277954 23 26 17
-658.251702785492 -51.5338927507401 2078.00006866455 28 31 22
-658.921957015991 -52.033681422472 2098.00004959106 22 25 16
-649.520039558411 -51.7398715019226 2085.99996566772 23 26 17
-646.356046199799 -51.9421622157097 2094.00010108948 23 26 17
-648.655772209167 -52.5910444557667 2119.99988555908 21 24 15
-649.904727935791 -53.1656295061111 2142.99988746643 19 22 13
-643.815517425537 -53.1448796391487 2141.99995994568 20 23 14
-635.944008827209 -52.9752857983112 2134.99999046326 23 26 19
-629.880785942078 -52.9545843601227 2134.0000629425 18 21 14
-629.671514034271 -53.4302368760109 2153.00011634827 17 20 13
-622.404813766479 -53.3103346824646 2148.00000190735 18 21 14
-615.451574325562 -53.2152764499187 2144.00005340576 20 23 16
-610.509812831879 -53.2939769327641 2147.0000743866 22 25 18
-608.649253845215 -53.6457821726799 2161.00001335144 22 25 18
-607.828140258789 -54.0969669818878 2178.99990081787 21 24 17
-602.212905883789 -54.1261658072472 2180.0000667572 23 26 19
-597.959041595459 -54.2795322835445 2186.00010871887 24 27 20
-593.671917915344 -54.4329360127449 2191.99991226196 24 27 20
-595.25054693222 -55.1327504217625 2220.00002861023 25 28 19
-590.041220188141 -55.2117750048637 2223.00004959106 26 27 19
-594.009876251221 -56.1601705849171 2260.99991798401 30 29 24
-559.740662574768 -57.7134303748608 2322.00002670288 158 153 149
-553.449153900146 -57.7181950211525 2322.00002670288 145 136 131
-546.685218811035 -57.6732456684113 2319.9999332428 147 140 132
-540.163934230804 -57.6531365513802 2319.00000572205 140 133 125
-534.337759017944 -57.7076114714146 2321.00009918213 139 132 124
-529.409527778625 -57.861540466547 2326.99990272522 160 156 147
-523.998081684113 -57.9657554626465 2331.00008964539 163 158 152
-519.007861614227 -58.119710534811 2336.99989318848 165 162 155
-514.422833919525 -58.3234243094921 2345.00002861023 171 170 165
-510.443031787872 -58.601763099432 2355.99994659424 171 170 166
-507.472157478333 -59.0045191347599 2371.99997901917 159 159 157
-509.060204029083 -59.9546246230602 2410.00008583069 141 141 141
-1089.73109722137 -57.5663931667805 2092.99993515015 131 117 104
-1076.16996765137 -57.1487061679363 2078.00006866455 143 124 109
-1064.24200534821 -56.8137988448143 2065.99998474121 147 116 95
-1055.45949935913 -56.6441342234612 2059.99994277954 140 105 83
-1048.24364185333 -56.5571933984756 2056.99992179871 140 106 78
-1043.58315467834 -56.607935577631 2059.00001525879 141 107 79
-1038.4122133255 -56.6313825547695 2059.99994277954 137 103 75
-1034.24286842346 -56.7100010812283 2062.99996376038 134 103 75
-1029.06394004822 -56.7338243126869 2063.99989128113 129 97 74
-1024.87564086914 -56.8128116428852 2066.99991226196 124 93 72
-1020.18177509308 -56.8645000457764 2069.00000572205 103 74 56
-1015.97118377686 -56.9438450038433 2072.00002670288 114 85 69
-1013.69857788086 -57.1332983672619 2078.9999961853 104 75 59
-1010.4216337204 -57.2679601609707 2084.00011062622 96 68 54
-1008.56721401215 -57.485219091177 2092.00000762939 100 72 60
-867.363214492798 -55.0222471356392 2003.00002098084 19 29 21
-867.519378662109 -55.3797408938408 2016.00003242493 18 25 17
-851.35805606842 -54.6935051679611 1991.00005626678 21 27 17
-845.106661319733 -54.6391978859901 1988.9999628067 17 20 9
-845.622718334198 -55.0245493650436 2003.00002098084 23 26 15
-843.967199325562 -55.2726797759533 2012.00008392334 20 23 14
-835.596442222595 -55.081382393837 2005.00011444092 20 23 14
-817.328035831451 -54.2308464646339 1973.99997711182 20 23 14
-808.689773082733 -54.0122725069523 1965.99996089935 21 24 15
-803.773939609528 -54.0410690009594 1967.00000762939 23 26 17
-798.854112625122 -54.0699698030949 1968.00005435944 24 27 18
-793.929994106293 -54.098978638649 1968.99998188019 23 26 17
-790.603935718536 -54.2380027472973 1973.99997711182 21 24 15
-787.251710891724 -54.3771311640739 1978.99997234344 22 25 16
-783.873736858368 -54.5163713395596 1983.99996757507 25 28 19
-780.862033367157 -54.6832010149956 1990.00000953674 25 28 19
-777.039527893066 -54.7951720654964 1993.99995803833 27 30 23
-769.713461399078 -54.6599254012108 1988.9999628067 27 30 23
-760.109603404999 -54.3598644435406 1978.00004482269 27 30 23
-753.237009048462 -54.2522482573986 1973.99997711182 27 30 23
-746.38694524765 -54.1447177529335 1970.00002861023 26 29 22
-747.834861278534 -54.6419471502304 1988.00003528595 28 31 24
-746.571898460388 -54.9468956887722 1998.99995326996 27 30 23
-744.137942790985 -55.1695004105568 2006.99996948242 26 29 22
-740.188896656036 -55.2822351455688 2010.99991798401 27 30 23
-735.122740268707 -55.3126037120819 2012.00008392334 26 29 22
-728.600919246674 -55.2330762147903 2009.0000629425 23 26 19
-723.535597324371 -55.2635826170444 2009.99999046326 26 29 22
-718.822538852692 -55.321678519249 2012.00008392334 25 28 21
-716.580808162689 -55.5723160505295 2020.99990844727 23 26 19
-709.716618061066 -55.4655753076077 2016.99995994568 23 26 19
-708.111822605133 -55.7714067399502 2028.00011634827 19 22 15
-704.022407531738 -55.8848232030869 2032.00006484985 17 20 13
-697.848916053772 -55.8332838118076 2029.99997138977 10 13 6
-712.150573730469 -57.4321560561657 2088.00005912781 9 12 5
-682.750582695007 -55.9541061520576 2033.99991989136 15 18 11
-684.58479642868 -56.5630756318569 2055.99999427795 17 20 13
-679.364442825317 -56.594405323267 2056.99992179871 16 19 10
-671.845674514771 -56.4331896603107 2051.00011825562 17 20 11
-665.008723735809 -56.3270337879658 2046.99993133545 17 20 11
-660.770773887634 -56.4410760998726 2051.00011825562 14 17 8
-658.74719619751 -56.7478165030479 2062.00003623962 16 19 10
-656.66389465332 -57.0546537637711 2072.99995422363 29 32 23
-653.892815113068 -57.3065243661404 2082.00001716614 22 25 16
-652.318298816681 -57.6685890555382 2095.00002861023 22 25 16
-650.67321062088 -58.0307431519032 2108.00004005432 21 24 15
-650.793373584747 -58.5581809282303 2127.00009346008 20 23 14
-647.777676582336 -58.8104017078877 2135.99991798401 19 22 13
-642.609000205994 -58.8699616491795 2138.00001144409 19 22 13
-636.535406112671 -58.8469505310059 2137.00008392334 22 25 18
-632.828116416931 -59.044286608696 2144.00005340576 15 18 11
-632.006764411926 -59.5170930027962 2161.00001335144 14 17 10
-623.26967716217 -59.2463240027428 2151.00002288818 15 18 11
-614.585995674133 -58.9755512773991 2141.00003242493 20 23 16
-608.799159526825 -58.9802339673042 2141.00003242493 20 23 16
-604.138314723969 -59.0951479971409 2144.99998092651 21 24 17
-604.4762134552 -59.7060397267342 2167.00005531311 21 24 17
-601.931989192963 -60.041505843401 2178.99990081787 23 26 19
-599.595665931702 -60.4046024382114 2191.99991226196 24 27 20
-593.396425247192 -60.3819526731968 2190.99998474121 24 27 20
-590.419411659241 -60.6900453567505 2201.99990272522 24 29 22
-584.727942943573 -60.7225708663464 2203.00006866455 28 31 24
-587.174296379089 -61.609648168087 2234.99989509583 29 30 24
-566.757380962372 -64.1275718808174 2325.00004768372 154 144 135
-559.976637363434 -64.0776976943016 2322.99995422363 123 106 99
-553.444027900696 -64.055398106575 2322.00002670288 126 103 95
-547.151446342468 -64.0606805682182 2322.00002670288 116 97 83
-541.090667247772 -64.0935450792313 2322.99995422363 99 80 66
-535.253643989563 -64.1540065407753 2325.00004768372 95 76 62
-529.85954284668 -64.2696470022202 2328.9999961853 90 72 58
-524.442672729492 -64.3853023648262 2332.99994468689 93 77 64
-519.447028636932 -64.5561665296555 2338.99998664856 95 81 70
-514.637172222137 -64.7546350955963 2345.99995613098 169 159 150
-510.654747486115 -65.063551068306 2357.00011253357 185 178 170
-508.536875247955 -65.620943903923 2377.00009346008 189 188 183
-1091.81928634644 -63.3833184838295 2096.99988365173 135 123 111
-1074.62155818939 -62.7127140760422 2075.00004768372 134 116 102
-1063.73202800751 -62.4051131308079 2065.00005722046 134 107 88
-1057.00135231018 -62.3395219445229 2062.99996376038 140 107 88
-1049.26753044128 -62.2137486934662 2059.00001525879 136 104 79
-1043.58756542206 -62.2090697288513 2059.00001525879 136 105 77
-1036.90421581268 -62.1441900730133 2056.99992179871 128 96 71
-1033.24413299561 -62.2607879340649 2061.00010871887 125 93 70
-1029.06775474548 -62.3473785817623 2063.99989128113 111 83 62
-1026.36659145355 -62.5247806310654 2069.9999332428 102 75 56
-1023.14364910126 -62.6721829175949 2075.00004768372 84 58 43
-1020.38741111755 -62.8499612212181 2081.00008964539 60 34 21
-1017.60220527649 -63.0279332399368 2086.99989318848 101 77 65
-1012.84861564636 -63.0852952599525 2088.99998664856 75 53 42
-1010.01596450806 -63.2636398077011 2095.00002861023 85 63 52
-857.115924358368 -59.3791678547859 1967.00000762939 16 23 16
-871.260225772858 -60.7378967106342 2012.00008392334 20 27 20
-866.227984428406 -60.7684999704361 2013.00001144409 22 29 21
-857.343971729279 -60.5275556445122 2005.00011444092 22 28 18
-852.329134941101 -60.5584383010864 2006.00004196167 19 25 15
-847.732782363892 -60.6196410953999 2007.99989700317 16 19 8
-842.707812786102 -60.6507956981659 2009.0000629425 18 21 12
-829.343974590302 -60.0782781839371 1990.00000953674 21 24 15
-821.053147315979 -59.8681531846523 1983.00004005432 22 25 16
-816.092491149902 -59.8996728658676 1983.99996757507 21 24 15
-810.31060218811 -59.8709434270859 1983.00004005432 22 25 16
-800.070285797119 -59.5101937651634 1970.99995613098 23 26 17
-794.734835624695 -59.5118775963783 1970.99995613098 22 25 16
-789.400577545166 -59.5136657357216 1970.99995613098 22 25 16
-782.87410736084 -59.4249926507473 1968.00005435944 23 26 17
-780.710935592651 -59.6685707569122 1975.99995136261 22 25 16
-778.897941112518 -59.9424801766872 1985.00001430511 21 24 15
-772.750794887543 -59.8843321204185 1983.00004005432 22 25 18
-768.16314458847 -59.9470734596252 1985.00001430511 24 27 20
-761.259973049164 -59.8287172615528 1980.99994659424 25 28 21
-755.905568599701 -59.831265360117 1980.99994659424 26 29 22
-747.899889945984 -59.62248519063 1973.99997711182 26 29 22
-745.951354503632 -59.8970614373684 1983.00004005432 28 31 24
-749.183475971222 -60.5946481227875 2006.00004196167 27 30 23
-746.359646320343 -60.8090609312058 2013.00001144409 27 30 23
-740.922093391418 -60.8121231198311 2013.00001144409 28 31 24
-734.023571014404 -60.6944262981415 2009.0000629425 28 31 24
-727.509737014771 -60.6070123612881 2006.00004196167 25 28 21
-723.532378673553 -60.7311762869358 2009.99999046326 26 29 22
-715.603828430176 -60.5230554938316 2003.00002098084 24 27 20
-714.450061321259 -60.8891323208809 2015.00010490417 24 27 20
-706.194519996643 -60.6509298086166 2006.99996948242 23 26 19
-707.759082317352 -61.2589828670025 2026.99995040894 19 22 15
-703.672230243683 -61.3836012780666 2030.99989891052 17 20 13
-699.564158916473 -61.5083165466785 2035.00008583069 10 13 6
-709.216713905334 -63.3601248264313 2095.99995613098 10 13 6
-683.91489982605 -62.0986819267273 2053.99990081787 16 19 12
-678.699970245361 -62.1331036090851 2055.0000667572 15 18 9
-673.806965351105 -62.19781935215 2056.99992179871 16 19 10
-666.629016399384 -62.0509311556816 2052.00004577637 18 21 12
-662.37735748291 -62.1762461960316 2055.99999427795 15 18 9
-657.465040683746 -62.2411519289017 2058.00008773804 14 17 8
-653.491914272308 -62.3968504369259 2062.99996376038 25 28 19
-649.491429328918 -62.5526160001755 2068.00007820129 23 26 17
-651.691079139709 -63.3134618401527 2092.99993515015 23 26 17
-652.520656585693 -63.9534592628479 2114.00008201599 21 24 15
-649.870812892914 -64.2607882618904 2124.00007247925 20 23 14
-642.920672893524 -64.1446113586426 2119.99988555908 19 22 13
-645.008742809296 -64.9362355470657 2145.99990844727 19 22 13
-640.402913093567 -65.0622770190239 2150.00009536743 21 24 17
-637.840867042542 -65.4001981019974 2161.00001335144 14 17 10
-630.247175693512 -65.2237012982368 2154.99997138977 13 16 9
-625.293076038361 -65.319612622261 2157.99999237061 15 18 11
-616.877496242523 -65.052330493927 2148.9999294281 19 22 15
-609.931647777557 -64.9363920092583 2144.99998092651 19 22 15
-604.978322982788 -65.0324001908302 2148.00000190735 20 23 16
-604.192197322845 -65.5826181173325 2165.99988937378 20 23 16
-603.031933307648 -66.1026686429977 2183.00008773804 23 26 19
-600.958108901978 -66.5319710969925 2197.00002670288 24 27 20
-592.308044433594 -66.2345141172409 2187.00003623962 25 28 21
-587.19676733017 -66.3307681679726 2190.00005722046 29 34 27
-581.006765365601 -66.3058832287788 2188.99989128113 25 30 23
-584.804654121399 -67.4321576952934 2226.0000705719 23 24 18
-566.2642121315 -70.4111307859421 2322.99995422363 126 109 101
-559.489011764526 -70.3563168644905 2321.00009918213 129 106 98
-552.961826324463 -70.331797003746 2319.9999332428 132 104 93
-546.910345554352 -70.3679099678993 2321.00009918213 136 108 94
-540.852248668671 -70.404015481472 2322.00002670288 134 107 90
-535.478293895721 -70.5310925841331 2325.99997520447 149 123 106
-530.081450939178 -70.6581696867943 2329.99992370605 148 125 109
-525.111496448517 -70.8459168672562 2335.99996566772 124 102 88
-519.885659217834 -71.0033476352692 2341.00008010864 96 77 62
-515.509128570557 -71.2821260094643 2349.99990463257 58 44 33
-512.815654277802 -71.8036070466042 2367.00010299683 20 10 0
-512.168228626251 -72.628527879715 2394.00005340576 21 14 6
-1098.59395027161 -69.5186331868172 2109.99989509583 174 164 152
-1075.14524459839 -68.3922618627548 2075.99997520447 109 93 78
-1063.73739242554 -68.0240020155907 2065.00005722046 135 109 92
-1055.98199367523 -67.8866282105446 2061.00010871887 128 99 81
-1049.78203773499 -67.8483173251152 2059.99994277954 130 98 75
-1043.59233379364 -67.8102672100067 2059.00001525879 130 98 73
-1038.42091560364 -67.8383260965347 2059.99994277954 126 96 72
-1033.74993801117 -67.8995549678802 2062.00003623962 124 93 72
-1030.06899356842 -68.0268406867981 2065.99998474121 108 81 62
-1027.36222743988 -68.2202130556107 2072.00002670288 98 72 55
-1026.10576152802 -68.5125514864922 2081.00008964539 70 47 33
-1026.2748003006 -68.9038410782814 2092.99993515015 62 38 26
-1022.4814414978 -69.0319612622261 2096.99988365173 248 226 213
-1015.2759552002 -68.9298808574677 2094.00010108948 82 62 51
-1011.46531105042 -69.058433175087 2098.00004959106 89 69 60
-880.646109580994 -66.5021538734436 2020.99990844727 17 24 17
-868.228614330292 -65.9759640693665 2005.00011444092 16 23 16
-864.936530590057 -66.1409348249435 2009.99999046326 22 29 21
-860.764026641846 -66.2402510643005 2013.00001144409 17 23 13
-856.577217578888 -66.3397237658501 2016.00003242493 16 22 12
-846.887469291687 -66.0115405917168 2006.00004196167 23 26 15
-838.931500911713 -65.8151358366013 2000 22 25 16
-830.176174640656 -65.5530393123627 1991.99998378754 25 28 19
-821.879982948303 -65.3240010142326 1985.00001430511 25 28 19
-823.906421661377 -65.9178048372269 2003.00002098084 23 26 17
-813.169419765472 -65.4915645718575 1990.00000953674 23 26 17
-802.910089492798 -65.098337829113 1978.00004482269 23 26 17
-796.345829963684 -65.0014206767082 1975.00002384186 23 26 17
-791.801691055298 -65.0691986083984 1976.99999809265 24 27 18
-785.656630992889 -65.0054514408112 1975.00002384186 25 28 19
-780.313670635223 -65.0076419115067 1975.00002384186 24 27 18
-774.579346179962 -64.9770274758339 1973.99997711182 22 25 16
-770.020544528961 -65.0452896952629 1975.99995136261 21 24 17
-770.48259973526 -65.541610121727 1991.00005626678 23 26 19
-767.405807971954 -65.7417997717857 1996.99997901917 25 28 21
-762.771308422089 -65.8104345202446 1998.99995326996 26 29 22
-752.822399139404 -65.4182508587837 1986.99998855591 26 29 22
-749.33397769928 -65.5858591198921 1991.99998378754 27 30 23
-747.686624526978 -65.9182220697403 2002.00009346008 27 30 23
-745.985746383667 -66.2506967782974 2012.00008392334 27 30 23
-740.18269777298 -66.2210807204247 2010.99991798401 29 32 25
-731.097280979156 -65.8951997756958 2000.99992752075 29 32 25
-725.692987442017 -65.8986940979958 2000.99992752075 27 30 23
-719.209372997284 -65.8034682273865 1998.00002574921 29 32 23
-716.672122478485 -66.070631146431 2006.00004196167 27 30 21
-711.609899997711 -66.1073327064514 2006.99996948242 26 29 20
-711.116909980774 -66.5723532438278 2020.99990844727 25 28 21
-712.643504142761 -67.2351568937302 2040.99988937378 21 24 17
-707.825899124146 -67.3051327466965 2042.99998283386 18 21 14
-701.966464519501 -67.2763511538506 2042.00005531311 17 20 13
-692.360758781433 -66.8852180242538 2029.99997138977 9 12 5
-679.581940174103 -67.2607868909836 2040.99988937378 15 18 11
-676.0533452034 -67.4630478024483 2046.99993133545 13 16 7
-673.474967479706 -67.7642896771431 2055.99999427795 14 17 8
-666.949331760406 -67.6700845360756 2052.99997329712 18 21 12
-662.694931030273 -67.806676030159 2056.99992179871 19 22 13
-655.863046646118 -67.6796212792397 2052.99997329712 14 17 8
-651.269853115082 -67.7833706140518 2055.99999427795 16 19 10
-647.288262844086 -67.9531469941139 2061.00010871887 27 30 21
-647.015750408173 -68.5186684131622 2078.00006866455 25 28 19
-649.429142475128 -69.3811178207397 2104.00009155273 23 26 17
-646.194279193878 -69.6501210331917 2111.99998855591 22 25 16
-642.309129238129 -69.8532536625862 2118.00003051758 22 25 16
-645.604729652405 -70.8480626344681 2148.00000190735 22 25 16
-643.376290798187 -71.2493285536766 2160.00008583069 21 24 17
-639.016211032867 -71.4197605848312 2164.99996185303 15 18 11
-634.628653526306 -71.5902671217918 2170.00007629395 15 18 11
-626.736521720886 -71.3649168610573 2163.00010681152 18 21 14
-616.010963916779 -70.8095952868462 2145.99990844727 20 23 16
-610.210597515106 -70.815198123455 2145.99990844727 19 22 15
-606.662750244141 -71.0848569869995 2154.00004386902 21 24 17
-607.534050941467 -71.8826428055763 2177.99997329712 21 24 17
-605.236172676086 -72.3174959421158 2190.99998474121 22 25 18
-602.046608924866 -72.6534202694893 2200.99997520447 27 30 23
-593.385756015778 -72.329193353653 2190.99998474121 28 31 24
-584.778010845184 -72.004921734333 2180.99999427795 19 24 17
-583.12451839447 -72.5390687584877 2197.00002670288 30 35 28
-584.798872470856 -73.5025703907013 2226.0000705719 26 27 21
-565.283179283142 -76.6175016760826 2319.00000572205 108 85 71
-558.759808540344 -76.5907764434814 2318.00007820129 124 95 81
-552.002429962158 -76.5309855341911 2315.99998474121 128 89 74
-545.490503311157 -76.5042454004288 2315.00005722046 136 98 79
-539.681553840637 -76.5766128897667 2316.99991226196 150 112 91
-534.551441669464 -76.7481625080109 2322.00002670288 158 120 99
-529.620468616486 -76.9527778029442 2328.00006866455 163 127 105
-525.10541677475 -77.2235170006752 2335.99996566772 168 133 113
-520.990073680878 -77.5604248046875 2345.99995613098 156 125 105
-518.13542842865 -78.0957415699959 2361.99998855591 152 129 113
-518.442511558533 -79.1271179914474 2392.99988746643 121 103 89
-1076.18725299835 -74.1130188107491 2078.00006866455 160 148 136
-1062.71314620972 -73.5716670751572 2062.99996376038 117 98 83
-1057.01243877411 -73.5655650496483 2062.99996376038 123 102 85
-1050.80676078796 -73.524072766304 2062.00003623962 117 89 68
-1045.62497138977 -73.5541731119156 2062.99996376038 122 94 72
-1039.93821144104 -73.54886084795 2062.99996376038 117 90 69
-1035.75992584229 -73.6507698893547 2065.99998474121 107 80 59
-1031.56924247742 -73.7529098987579 2069.00000572205 103 77 60
-1027.86231040955 -73.8909319043159 2072.99995422363 92 69 53
-1027.58920192719 -74.2786973714828 2084.00011062622 159 137 123
-1026.38578414917 -75.0191658735275 2105.00001907349 255 237 226
-1016.24894142151 -74.6947899460793 2095.99995613098 72 54 44
-1010.02216339111 -74.6557638049126 2095.00002861023 92 73 66
-878.902852535248 -71.852520108223 2016.99995994568 20 27 20
-882.085263729095 -72.5653022527695 2036.99994087219 19 26 19
-858.911573886871 -71.1051970720291 1996.00005149841 22 27 20
-860.763370990753 -71.7114210128784 2013.00001144409 24 27 18
-853.177130222321 -71.5340971946716 2007.99989700317 22 25 16
-853.219032287598 -71.9981715083122 2020.99990844727 25 28 17
-841.027736663818 -71.4292973279953 2005.00011444092 27 30 21
-831.008434295654 -71.0386633872986 1993.99995803833 29 32 23
-823.120653629303 -70.8263143897057 1988.00003528595 27 30 21
-815.266847610474 -70.6140920519829 1981.99999332428 25 28 19
-811.533093452454 -70.7582905888557 1985.99994182587 27 30 21
-806.561470031738 -70.7957670092583 1986.99998855591 26 29 20
-795.537531375885 -70.2989175915718 1973.00004959106 26 29 20
-791.399121284485 -70.4079046845436 1975.99995136261 26 29 20
-787.643432617188 -70.5526620149612 1980.00001907349 26 29 20
-781.891703605652 -70.5193877220154 1978.99997234344 26 29 20
-776.538848876953 -70.5218836665154 1978.99997234344 26 29 20
-771.576702594757 -70.5601349473 1980.00001907349 26 29 22
-770.092844963074 -70.9192603826523 1990.00000953674 24 27 20
-772.014379501343 -71.5992823243141 2009.0000629425 24 27 20
-766.965687274933 -71.637935936451 2009.99999046326 26 29 22
-758.881330490112 -71.3915899395943 2003.00002098084 25 28 21
-752.340137958527 -71.2878927588463 2000 24 27 20
-747.683346271515 -71.3625475764275 2002.00009346008 25 28 21
-741.533160209656 -71.2947100400925 2000 26 29 22
-738.338887691498 -71.5121626853943 2006.00004196167 27 30 23
-731.824457645416 -71.4088827371597 2003.00002098084 27 30 23
-727.502703666687 -71.5196207165718 2006.00004196167 25 28 21
-723.165094852448 -71.6304630041122 2009.0000629425 26 29 20
-722.384393215179 -72.0979794859886 2022.0000743866 26 29 20
-716.569781303406 -72.0664113759995 2020.99990844727 24 27 18
-713.575899600983 -72.3202377557755 2028.00011634827 22 25 16
-712.290108203888 -72.752483189106 2039.99996185303 20 23 16
-709.900438785553 -73.077879846096 2049.00002479553 20 23 16
-700.243294239044 -72.6543813943863 2036.99994087219 15 18 11
-693.720579147339 -72.5519359111786 2033.99991989136 12 14 9
-692.289590835571 -72.9846358299255 2046.0000038147 10 12 7
-680.243253707886 -72.8871747851372 2042.99998283386 11 13 8
-677.039444446564 -73.1418207287788 2049.99995231628 14 17 8
-676.09053850174 -73.6463218927383 2063.99989128113 13 16 7
-669.543385505676 -73.5443606972694 2061.00010871887 15 18 9
-663.334310054779 -73.4781175851822 2059.00001525879 19 22 13
-654.899656772614 -73.1621086597443 2049.99995231628 16 19 10
-649.364173412323 -73.1673464179039 2049.99995231628 11 14 5
-644.142508506775 -73.2083395123482 2051.00011825562 15 18 9
-645.453691482544 -73.9990174770355 2072.99995422363 26 29 20
-645.719766616821 -74.6827647089958 2092.00000762939 20 23 14
-646.800696849823 -75.4737854003906 2114.00008201599 19 22 13
-644.123256206512 -75.8364945650101 2124.00007247925 27 30 21
-644.096195697784 -76.5206813812256 2142.99988746643 24 27 18
-639.010488986969 -77.3181095719337 2164.99996185303 15 18 11
-633.453011512756 -77.3598179221153 2165.99988937378 15 18 11
-627.889633178711 -77.4015858769417 2167.00005531311 17 20 13
-618.014454841614 -76.9075751304626 2153.00011634827 22 25 18
-613.048195838928 -77.0208165049553 2155.99989891052 23 26 19
-608.909964561462 -77.2413089871407 2161.99994087219 22 25 18
-607.249140739441 -77.783428132534 2177.00004577637 22 25 18
-602.191567420959 -77.8968557715416 2180.0000667572 23 26 19
-602.587699890137 -78.7250474095345 2203.00006866455 24 27 20
-592.837929725647 -78.2310739159584 2188.99989128113 26 29 22
-587.453126907349 -78.3089026808739 2190.99998474121 24 29 22
-584.445416927338 -78.7084475159645 2201.99990272522 26 31 24
-584.792613983154 -79.5728042721748 2226.0000705719 29 30 24
-571.064949035645 -82.8665494918823 2316.99991226196 98 80 66
-564.057767391205 -82.7660635113716 2313.99989128113 113 87 72
-557.788968086243 -82.7728658914566 2313.99989128113 122 90 75
-551.280856132507 -82.7439054846764 2312.99996376038 126 84 68
-545.012652873993 -82.7507078647614 2312.99996376038 138 97 77
-539.209187030792 -82.829050719738 2315.00005722046 150 109 87
-533.854246139526 -82.9789638519287 2319.00000572205 157 116 94
-528.931438922882 -83.2004472613335 2325.00004768372 166 125 103
-524.424493312836 -83.4935382008553 2332.99994468689 166 128 107
-520.761370658875 -83.9298218488693 2345.00002861023 157 121 99
-517.909526824951 -84.5093429088593 2361.00006103516 150 123 106
-520.385682582855 -85.9838351607323 2401.99995040894 139 117 103
-1079.30159568787 -79.9983143806458 2084.00011062622 169 159 147
-1066.84076786041 -79.4923827052116 2071.00009918213 99 83 68
-1060.60528755188 -79.4473886489868 2069.9999332428 97 79 65
-1053.87043952942 -79.3643221259117 2068.00007820129 102 77 57
-1048.16484451294 -79.3582946062088 2068.00007820129 110 83 62
-1043.47217082977 -79.4292911887169 2069.9999332428 110 83 64
-1037.77027130127 -79.4238299131393 2069.9999332428 95 68 49
-1033.56850147247 -79.5337408781052 2072.99995422363 103 77 60
-1028.36275100708 -79.5671716332436 2073.99988174438 88 65 49
-1028.08654308319 -79.9845010042191 2085.00003814697 220 198 184
-1026.38971805573 -80.7430744171143 2105.00001907349 255 238 227
-1017.22228527069 -80.4706364870071 2098.00004959106 84 66 56
-1010.98954677582 -80.4286003112793 2096.99988365173 87 69 59
-1005.72514533997 -80.4635509848595 2098.00004959106 51 34 26
-888.053476810455 -78.1396701931953 2038.00010681152 16 23 16
-869.526922702789 -76.9897326827049 2007.99989700317 20 27 20
-865.36568403244 -77.105239033699 2010.99991798401 22 27 20
-850.072622299194 -76.2240439653397 1988.00003528595 23 26 17
-856.150507926941 -77.2601217031479 2015.00010490417 21 24 15
-865.46117067337 -78.6031410098076 2049.99995231628 24 26 15
-844.382166862488 -77.1856307983398 2013.00001144409 26 29 20
-831.007063388824 -76.4584392309189 1993.99995803833 31 34 25
-819.392681121826 -75.8847668766975 1978.99997234344 27 30 21
-810.32919883728 -75.5413025617599 1970.00002861023 26 29 20
-804.176092147827 -75.4663944244385 1968.00005435944 26 29 20
-803.718090057373 -75.9285092353821 1980.00001907349 26 29 20
-798.357844352722 -75.9306102991104 1980.00001907349 26 29 20
-792.197942733765 -75.856164097786 1978.00004482269 27 30 21
-786.447584629059 -75.8202001452446 1976.99999809265 28 31 22
-780.308783054352 -75.7460221648216 1975.00002384186 29 32 23
-774.574339389801 -75.7103338837624 1973.99997711182 30 33 24
-770.794570446014 -75.8665502071381 1978.00004482269 26 29 22
-768.929004669189 -76.2146934866905 1986.99998855591 25 28 21
-766.631424427032 -76.524630188942 1995.00000476837 25 28 21
-768.870413303375 -77.2950500249863 2015.00010490417 26 29 22
-756.225943565369 -76.5695497393608 1996.00005149841 26 29 22
-747.07043170929 -76.1893838644028 1985.99994182587 25 28 21
-744.692027568817 -76.4998719096184 1993.99995803833 25 28 21
-741.529524326324 -76.7337679862976 2000 26 29 22
-737.967073917389 -76.9294276833534 2005.00011444092 26 29 22
-731.820583343506 -76.8566355109215 2003.00002098084 24 27 20
-728.223979473114 -77.052541077137 2007.99989700317 22 25 18
-723.161101341248 -77.095091342926 2009.0000629425 21 24 15
-724.523782730103 -77.8285190463066 2028.00011634827 21 24 13
-718.338310718536 -77.7561664581299 2026.00002288818 18 21 10
-716.034471988678 -78.1061127781868 2035.00008583069 17 20 11
-714.380621910095 -78.5329416394234 2046.0000038147 15 18 11
-710.935235023499 -78.7680074572563 2052.00004577637 15 18 11
-700.926125049591 -78.2738104462624 2039.00003433228 13 16 9
-695.080101490021 -78.2403275370598 2038.00010681152 10 12 7
-696.006715297699 -78.9747834205627 2056.99992179871 9 11 6
-691.795885562897 -79.1334956884384 2061.00010871887 6 8 3
-682.901859283447 -78.7547156214714 2051.00011825562 9 11 8
-680.667221546173 -79.1440084576607 2061.00010871887 15 18 11
-677.068054676056 -79.3797820806503 2066.99991226196 14 17 8
-671.162366867065 -79.3468430638313 2065.99998474121 16 19 10
-664.939761161804 -79.2755484580994 2063.99989128113 20 23 14
-655.533194541931 -78.8202062249184 2052.00004577637 17 20 11
-648.091673851013 -78.5953477025032 2046.0000038147 14 17 8
-643.508911132813 -78.7162631750107 2049.00002479553 14 17 8
-644.202649593353 -79.4904083013535 2069.00000572205 26 29 20
-646.948635578156 -80.5336683988571 2095.99995613098 25 28 19
-647.712767124176 -81.3465937972069 2117.00010299683 23 26 17
-645.027101039886 -81.7369893193245 2127.00009346008 24 27 18
-641.685783863068 -82.050621509552 2134.99999046326 20 23 14
-640.087902545929 -82.5949534773827 2148.9999294281 14 17 10
-638.118803501129 -83.1009894609451 2161.99994087219 15 18 11
-633.154332637787 -83.2227468490601 2164.99996185303 16 19 12
-626.144886016846 -83.0754637718201 2161.00001335144 18 21 14
-618.582308292389 -82.8512981534004 2154.99997138977 22 25 18
-613.894939422607 -83.011619746685 2158.99991989136 23 26 19
-609.466850757599 -83.2104757428169 2164.00003433228 21 24 17
-608.637273311615 -83.9092954993248 2181.99992179871 21 24 17
-606.32848739624 -84.4159722328186 2194.9999332428 21 24 17
-601.486921310425 -84.5766067504883 2198.99988174438 24 27 20
-594.997942447662 -84.5065042376518 2197.00002670288 25 28 21
-589.591443538666 -84.590271115303 2198.99988174438 27 30 21
-582.050085067749 -84.3663290143013 2193.00007820129 24 27 18
-580.845296382904 -85.0657299160957 2210.99996566772 27 28 22
-570.81151008606 -89.1492813825607 2315.99998474121 93 77 64
-564.294576644897 -89.1181081533432 2315.00005722046 101 78 62
-558.02309513092 -89.1254246234894 2315.00005722046 116 85 67
-551.273822784424 -89.0557169914246 2312.99996376038 121 83 64
-544.770002365112 -89.0245214104652 2312.00003623962 123 82 62
-538.969218730927 -89.1088247299194 2313.99989128113 138 96 74
-533.386766910553 -89.2316475510597 2316.99991226196 150 108 86
-528.24193239212 -89.4315093755722 2322.00002670288 167 122 99
-523.51838350296 -89.7084176540375 2328.9999961853 168 123 102
-520.754337310791 -90.33203125 2345.00002861023 158 120 99
-517.68296957016 -90.9172147512436 2359.99989509583 150 119 101
-517.995417118073 -92.1189039945602 2391.00003242493 142 119 103
-1073.5445022583 -85.6622532010078 2084.00011062622 118 111 95
-1066.76042079926 -85.5729058384895 2082.00001716614 77 65 51
-1058.46309661865 -85.3605940937996 2076.99990272522 85 64 47
-1052.73258686066 -85.3541046380997 2076.99990272522 82 56 39
-1045.99857330322 -85.265725851059 2075.00004768372 90 67 49
-1039.78109359741 -85.2187424898148 2073.99988174438 86 63 47
-1034.07227993011 -85.2131471037865 2073.99988174438 92 69 53
-1029.35945987701 -85.2900147438049 2075.99997520447 89 66 50
-1027.59826183319 -85.6136605143547 2084.00011062622 76 54 40
-1024.44350719452 -86.3027423620224 2101.0000705719 95 73 60
-1016.74139499664 -86.1341953277588 2096.99988365173 74 55 41
-1011.47556304932 -86.1713290214539 2098.00004959106 64 42 31
-902.798891067505 -84.5408514142036 2059.00001525879 56 63 56
-873.237788677216 -82.2827070951462 2003.99994850159 24 31 24
-889.879047870636 -84.3770503997803 2055.0000667572 21 28 21
-860.201299190521 -82.078218460083 1998.99995326996 22 27 20
-856.485903263092 -82.2431519627571 2003.00002098084 24 27 18
-845.952272415161 -81.7513093352318 1991.00005626678 23 25 14
-853.63906621933 -83.0252543091774 2022.0000743866 25 27 16
-833.47475528717 -81.5893411636353 1986.99998855591 26 29 20
-826.421320438385 -81.4265012741089 1983.00004005432 28 31 22
-815.664827823639 -80.8942690491676 1970.00002861023 24 27 18
-813.618063926697 -81.2245160341263 1978.00004482269 25 28 19
-803.765535354614 -80.7747095823288 1967.00000762939 26 29 20
-804.527819156647 -81.392765045166 1981.99999332428 23 26 17
-796.742737293243 -81.148587167263 1975.99995136261 23 26 17
-794.598519802094 -81.4795270562172 1983.99996757507 25 28 19
-786.047220230103 -81.1535194516182 1975.99995136261 26 29 20
-781.49139881134 -81.2383517622948 1978.00004482269 28 31 22
-776.925802230835 -81.3233330845833 1980.00001907349 29 32 23
-773.129642009735 -81.4906135201454 1983.99996757507 26 29 22
-765.056133270264 -81.2062248587608 1976.99999809265 25 28 21
-767.78107881546 -82.0721164345741 1998.00002574921 25 28 21
-765.051186084747 -82.3630914092064 2005.00011444092 26 29 22
-757.358968257904 -82.1201875805855 1998.99995326996 26 29 22
-745.938301086426 -81.4665630459785 1983.00004005432 25 28 21
-743.941307067871 -81.8401202559471 1991.99998378754 26 29 22
-740.784108638763 -82.0905789732933 1998.00002574921 26 29 22
-738.331139087677 -82.4233517050743 2006.00004196167 25 28 21
-731.08571767807 -82.2221115231514 2000.99992752075 23 26 19
-727.857172489166 -82.4729800224304 2006.99996948242 20 23 14
-722.436785697937 -82.4774205684662 2006.99996948242 18 21 12
-723.090171813965 -83.1806212663651 2023.9999294281 18 21 10
-719.042837619781 -83.3497196435928 2028.00011634827 16 19 8
-717.085361480713 -83.7655514478683 2038.00010681152 14 17 8
-710.884213447571 -83.6882814764977 2036.00001335144 12 15 8
-707.119107246399 -83.8988572359085 2040.99988937378 12 15 8
-700.92111825943 -83.8217809796333 2039.00003433228 11 14 7
-697.803378105164 -84.1148048639297 2046.0000038147 10 12 7
-690.5876994133 -83.914577960968 2040.99988937378 9 11 6
-683.399021625519 -83.7144181132317 2036.00001335144 6 8 3
-678.235113620758 -83.7610438466072 2036.99994087219 7 9 6
-679.670870304108 -84.6302062273026 2058.00008773804 15 18 11
-677.717566490173 -85.088312625885 2069.00000572205 14 17 8
-673.105776309967 -85.2175280451775 2072.00002670288 15 18 9
-667.833387851715 -85.264578461647 2072.99995422363 19 22 13
-658.72198343277 -84.8181173205376 2062.00003623962 17 20 11
-649.986386299133 -84.4127759337425 2052.00004577637 15 18 9
-642.874777317047 -84.2131525278091 2046.99993133545 13 16 7
-642.639815807343 -84.9187076091766 2063.99989128113 24 27 18
-645.707905292511 -86.0770493745804 2092.00000762939 25 28 19
-650.154054164886 -87.4413326382637 2125 24 27 18
-647.143483161926 -87.8182575106621 2134.0000629425 23 26 17
-643.783152103424 -88.1541296839714 2141.99995994568 17 20 11
-642.762124538422 -88.8193696737289 2157.99999237061 14 17 10
-639.29283618927 -89.1554728150368 2165.99988937378 15 18 11
-631.100535392761 -88.8330489397049 2157.99999237061 16 19 12
-626.427829265594 -89.0046283602715 2161.99994087219 18 21 14
-620.584845542908 -89.0115946531296 2161.99994087219 22 25 18
-615.594208240509 -89.1421213746071 2164.99996185303 23 26 19
-608.896732330322 -89.0256464481354 2161.99994087219 21 24 17
-611.140787601471 -90.2269706130028 2190.99998474121 21 24 17
-603.83552312851 -90.0282636284828 2186.00010871887 22 25 18
-600.385785102844 -90.4061645269394 2194.9999332428 23 26 19
-594.44922208786 -90.4134437441826 2194.9999332428 24 27 20
-588.780045509338 -90.4619544744492 2196.00009918213 27 30 21
-579.123437404633 -89.8925140500069 2181.99992179871 23 26 17
-578.736484050751 -90.765044093132 2203.00006866455 28 29 23
-570.803880691528 -95.4675152897835 2315.99998474121 70 56 43
-563.799440860748 -95.3516736626625 2312.99996376038 101 79 65
-558.015465736389 -95.4419448971748 2315.00005722046 121 92 74
-551.266193389893 -95.3672900795937 2312.99996376038 115 78 59
-544.998049736023 -95.3750982880592 2312.99996376038 112 75 56
-539.194643497467 -95.4653769731522 2315.00005722046 126 85 65
-533.609449863434 -95.5968871712685 2318.00007820129 141 99 77
-528.461813926697 -95.8108901977539 2322.99995422363 161 116 95
-523.061215877533 -95.983661711216 2326.99990272522 165 120 99
-519.192278385162 -96.4452177286148 2338.00005912781 158 115 96
-515.920519828796 -97.0305800437927 2351.99999809265 153 120 101
-516.904473304749 -98.4411612153053 2385.99991798401 147 119 105
-1084.37013626099 -92.2536179423332 2105.00001907349 95 89 75
-1072.4036693573 -91.7200222611427 2092.99993515015 75 67 54
-1065.09506702423 -91.5812328457832 2089.99991416931 87 66 49
-1056.28728866577 -91.3113430142403 2084.00011062622 83 57 40
-1048.02107810974 -91.0856276750565 2078.9999961853 85 62 44
-1041.79251194 -91.035507619381 2078.00006866455 91 68 52
-1036.5709066391 -91.0733193159103 2078.9999961853 87 64 48
-1032.83560276031 -91.2428498268127 2082.99994468689 90 67 51
-1027.11009979248 -91.2374556064606 2082.99994468689 96 74 60
-1022.98521995544 -91.8845161795616 2098.00004959106 104 82 69
-1018.68510246277 -92.0113772153854 2101.0000705719 61 39 26
-1014.85431194305 -92.1823009848595 2105.00001907349 75 53 40
-874.298632144928 -87.2914865612984 1993.99995803833 31 36 29
-875.852048397064 -87.9920125007629 2009.99999046326 23 28 21
-870.825171470642 -88.0360975861549 2010.99991798401 21 26 19
-867.94638633728 -88.2992744445801 2016.99995994568 25 30 23
-856.912612915039 -87.7308920025826 2003.99994850159 30 33 24
-851.899743080139 -87.7755880355835 2005.00011444092 27 29 18
-845.616638660431 -87.689146399498 2003.00002098084 26 28 17
-838.506996631622 -87.5153318047524 1998.99995326996 27 30 21
-821.418762207031 -86.2909704446793 1970.99995613098 29 32 23
-816.905200481415 -86.3801911473274 1973.00004959106 25 28 19
-810.325562953949 -86.2506777048111 1970.00002861023 25 28 19
-808.258414268494 -86.6029560565948 1978.00004482269 23 26 17
-802.901983261108 -86.6051465272903 1978.00004482269 22 25 16
