ply
format ascii 1.0
comment KinectMotionCapture
element vertex 759
property float x
property float y
property float z
property uchar red
property uchar green
property uchar blue
end_header
-726.155493320591 147.827710810923 1895.37702136033 129 131 128
-718.42627340968 148.608924892832 1885.40724929225 155 157 154
-718.654565234627 148.536203321551 1876.40673110422 161 163 160
-707.943748972358 149.636258035827 1865.98593422006 151 156 152
-702.206291281537 150.202444867681 1856.1659635415 170 175 171
-700.447133613833 150.341708640349 1846.85314625927 138 143 139
-694.710986770535 150.906946296796 1836.980923967 156 158 155
-688.975630673453 151.471613319802 1827.07718387112 177 179 176
-669.32342742701 153.527203580624 1815.14131442963 170 172 167
-644.973017792967 149.568397698561 2410.58758550081 162 165 158
-672.169949354222 146.677515842406 2400.52824678845 182 184 179
-723.32928162913 141.266446208624 2389.8997771114 189 191 186
-750.517031216479 138.377078559958 2380.20092758681 156 158 153
-760.727526788813 137.273190150559 2371.06371205941 145 147 144
-765.944890319189 136.694194364713 2362.0888491113 146 148 145
-770.163093655154 136.220030628442 2353.15970178147 142 144 141
-776.377306900138 135.535770710415 2344.21963604446 139 141 138
-776.601659361433 135.480963262676 2335.39231664084 136 138 135
-781.816366489874 134.901327393293 2326.511263022 135 137 134
-787.030615882238 134.321450136705 2317.65716491999 135 137 134
-789.250045598703 134.056092717657 2308.84556641987 132 134 131
-794.463114264644 133.475914608789 2300.03729216475 129 131 128
-798.67750335085 133.000395581905 2291.25576372217 127 129 126
-806.882505840917 132.105388723756 2282.50812247559 126 128 125
-812.093102554452 131.524776506596 2273.78666978352 137 139 136
-809.322248688181 131.782322979688 2265.0239608621 137 139 136
-809.544441175917 131.725104630679 2256.27847206762 124 126 123
-806.774206749686 131.981825981663 2247.49066733103 115 117 114
-806.996599022157 131.923894234731 2238.73660426528 114 116 113
-805.224475034233 132.075087701538 2229.94336488183 108 110 107
-813.424956895203 131.178901741576 2221.36181466377 106 108 105
-818.632966061607 130.596664534423 2212.74907227645 122 124 121
-827.828456747795 129.595719544185 2204.27480994355 121 123 120
-829.046630288094 129.431859680705 2195.60591454327 115 117 114
-832.258467928349 129.058471272829 2187.0090677773 116 118 115
-825.500551248819 129.730944161209 2178.06880458202 101 103 100
-826.71869105242 129.566117969848 2169.40019016032 103 105 102
-830.926772334805 129.087326688286 2160.86167904744 99 101 98
-840.117899635035 128.085619610707 2152.56645947093 105 107 104
-846.317605838303 127.39752757224 2144.17993975527 114 116 113
-848.530504214935 127.127348765316 2135.62775659493 116 118 115
-848.750031117274 127.065918508961 2126.98192569017 121 123 120
-845.980253822539 127.317581591733 2118.17082349229 120 122 119
-843.210876677322 127.568808038544 2109.34361323896 119 121 118
-843.43076771625 127.506320533879 2100.68241542304 119 121 118
-839.665838004885 127.861145355955 2091.76792234177 116 118 115
-833.909065162797 128.424281830523 2082.69957944737 109 111 108
-828.153105012158 128.986841829205 2073.59885478043 111 113 110
-817.418063232231 130.070628855555 2064.1074080578 108 110 107
-808.676253072615 130.944972466373 2054.70500417695 112 114 111
-800.931702629197 131.714329779459 2045.33099633019 109 111 108
-799.162816980489 131.857356924248 2036.39309827605 109 111 108
-793.41133221464 132.417044914761 2027.11437632676 113 115 112
-778.699925812154 133.914362520251 2017.03507902397 113 115 112
-757.021267021251 136.140364289455 2006.25743854642 85 87 84
-736.341324556587 138.260946955594 1995.45080002356 67 69 66
-722.632374193469 139.651027713315 1985.18506718877 37 39 36
-716.888264032944 140.206981812073 1975.61411095093 69 71 68
-718.112082920908 140.033339502878 1966.70474738236 84 86 81
-715.354827885493 140.275951989424 1957.39451407754 85 88 81
-713.593292616232 140.413988156762 1948.17330359253 81 84 77
-708.846443887364 140.863908303003 1938.62022666347 76 78 73
-709.075525085047 140.793077244959 1929.59088694191 91 93 88
-731.1937784126 138.433132533085 1923.04383247148 105 107 102
-736.395592689441 137.842104402542 1914.65444402383 132 134 129
-728.664221015265 138.602941561606 1904.75621593608 135 137 132
-718.9443266421 139.571071336883 1894.57326989778 135 137 132
-710.220392795834 140.434503811822 1884.4604822269 134 136 133
-715.422439776852 139.842330250638 1876.07009380689 160 162 159
-704.710780296894 140.912603064127 1865.64095049154 153 155 152
-702.951181439567 141.047182770091 1856.34034703805 157 159 156
-700.197249071606 141.285249506002 1846.89537150187 157 159 156
-699.432222616374 141.315264529036 1837.70999674801 152 154 151
-688.724877256284 142.383125265732 1827.11897756916 140 142 137
-665.09444491004 144.799535595458 1814.61153129079 177 179 174
-656.379082854708 145.658075187074 1804.15847473459 170 171 166
-668.690655279997 137.937360516642 2409.80212094077 158 161 154
-697.885272649089 134.91601985848 2399.74254758638 172 174 169
-724.080098937036 132.202158644247 2389.93086371695 190 192 187
-744.279734166931 130.102453665817 2380.42382784958 115 117 112
-751.495829696233 129.332446421941 2371.34282470906 139 141 138
-757.712578954538 128.664556754978 2362.32121990101 140 142 139
-762.930191755585 128.098818835114 2353.35084986694 135 137 134
-771.141826791355 127.226327045243 2344.35883591597 133 135 132
-776.357847449411 126.660337784847 2335.45042247538 131 133 130
-778.578403301294 126.400727475714 2326.60098150604 132 134 131
-786.787569427271 125.527944544584 2317.71447328571 132 134 131
-791.003310659241 125.063649214518 2308.89214944381 129 131 128
-795.218495753555 124.599186844115 2300.09138203301 125 127 124
-793.445970275904 124.747171146443 2291.31038850528 123 125 122
-798.658207779342 124.180166561836 2282.53941888757 124 126 123
-800.876707544372 123.919224910967 2273.77823221113 136 138 135
-804.092535926703 123.555967606663 2265.03629141887 137 139 136
-805.312624298043 123.396582677034 2256.28803783924 120 122 119
-805.535097678801 123.338884417727 2247.53105548167 114 116 113
-805.757567800098 123.280931945223 2238.7739275606 111 113 110
-803.9851304197 123.426570190678 2229.97764708364 109 111 108
-806.202487607697 123.16398210723 2221.25934846325 90 92 89
-808.419558945092 122.9011700301 2212.55198136742 103 105 102
-819.610918915493 121.72086604011 2204.10529995059 120 122 119
-823.820891328461 121.253905200385 2195.50557952058 117 119 116
-827.033314042878 120.888688672197 2186.89464036457 112 114 111
-823.266440002614 121.236303677369 2178.04839704612 107 109 106
-822.490641179069 121.277919383069 2169.29649968305 100 102 99
-826.699551910181 120.810052681764 2160.74662560171 97 99 96
-834.894707353942 119.934820966164 2152.3957492737 107 109 106
-842.092098418815 119.161345701829 2144.04205770563 114 116 113
-847.295369010341 118.591353524166 2135.62766300942 113 115 112
-846.518243687199 118.631761886528 2126.9263134936 115 117 114
-845.741479109905 118.671830996602 2118.21982530561 112 114 111
-839.9825808575 119.220063405943 2109.21854797184 111 113 110
-837.213595474844 119.462692858947 2100.36679549067 113 115 112
-831.456360331781 120.009909185006 2091.30875187878 114 116 113
-828.688379977377 120.251625866109 2082.41673934772 110 112 109
-823.928405152637 120.696217752374 2073.37095464143 109 111 108
-814.188827257989 121.648281078745 2063.94005789474 110 112 109
-803.454682778734 122.701264517304 2054.38046703324 110 112 109
-791.725939162677 123.855059831553 2044.68401330523 115 117 114
-787.96594539156 124.195711484572 2035.56138852266 116 118 115
-783.210514435875 124.637413130209 2026.3349103551 114 116 113
-774.473115517758 125.484605964174 2016.74027225021 126 128 125
-759.762690579933 126.940102219533 2006.56838657545 126 128 125
-742.067762854909 128.699022744664 1996.04251676286 77 79 76
-722.384172097053 130.659811513389 1985.23158945889 65 67 64
-710.666859570896 131.808117769947 1975.08247541071 49 51 48
-700.942045430576 132.752784464679 1965.06661806702 88 90 85
-711.124858983621 131.669109873118 1957.03301579 88 91 84
-693.439280331309 133.42372896808 1946.12780849622 76 79 72
-687.698594905043 133.961137574128 1936.41241384612 76 79 72
-683.948539997822 134.295410168206 1926.88516970195 86 88 83
-701.095153848554 132.502006182015 1919.70518243534 85 87 82
-713.264184720057 131.215482081814 1912.04184624485 99 101 96
-716.477612700304 130.84046989919 1903.38109999849 114 116 111
-714.716569848464 130.97142776605 1894.13304400098 133 135 130
-707.981624776536 131.608120543685 1884.25655287531 112 114 109
-710.200117452564 131.333526446411 1875.48098431611 126 128 125
-698.493443495609 132.475084170135 1864.90883207468 144 146 141
-697.728605152082 132.503305424773 1855.72350404162 142 144 139
-693.980402956925 132.834560838828 1846.12993466452 158 160 155
-691.227055257721 133.06429432382 1836.65316064489 148 150 145
-685.491039621612 133.596921710213 1826.74079592475 150 152 147
-675.778776541168 134.53323536502 1816.22543083086 154 156 151
-663.085228565071 135.771954678189 1805.21989675547 163 165 160
-653.37586643912 136.706820802051 1794.58959806328 182 183 178
-710.620051292328 124.590408197084 2399.37983920219 165 167 162
-720.836159968563 123.54052803546 2390.08123402635 189 191 186
-734.046899755931 122.192101425688 2380.75532521992 85 87 82
-741.264224901441 121.440912899688 2371.64647050828 137 139 136
-749.47927215285 120.590106717663 2362.55370447331 136 138 135
-755.696207574155 119.938267598766 2353.54205761265 131 133 130
-766.904117255581 118.789013858061 2344.48189552383 129 131 128
-771.122317293652 118.335962700347 2335.57554614798 128 130 127
-776.338375782035 117.783317606895 2326.67998210596 130 132 129
-783.549948635818 117.031694880788 2317.79548067137 129 131 128
-786.768171807621 116.677568115638 2308.96974688025 126 128 125
-790.983943700951 116.223887994358 2300.1576224798 122 124 121
-790.20944550479 116.266849838896 2291.36566226144 121 123 120
-796.420339972342 115.614068184208 2282.58910477813 122 124 121
-797.641142046884 115.457794294184 2273.81629759972 136 138 135
-800.857412523187 115.102626896865 2265.06576456257 139 141 138
-799.084705817155 115.243745387203 2256.27515729944 119 121 118
-799.307604826627 115.185918808658 2247.50140211797 113 115 112
-798.533021780744 115.226997637793 2238.71073628373 108 110 107
-798.755980995879 115.168554840295 2229.93396640793 107 109 106
-795.986682886525 115.407411326133 2221.09038524789 91 93 90
-799.201878329244 115.050699552346 2212.38021001486 93 95 92
-811.391903594371 113.801169662532 2203.93606172684 118 120 117
-820.588862955708 112.849271225692 2195.46638568119 117 119 116
-821.807375186933 112.690515976087 2186.78040921924 106 108 105
-819.037782201006 112.927962359712 2177.95616358628 107 109 106
-818.262195599398 112.966805703915 2169.19299510648 103 105 102
-819.480911694582 112.807152777954 2160.50741186731 102 104 101
-825.683372818365 112.151907959288 2152.04848912919 113 115 112
-838.862666771029 110.80324039203 2143.95133375584 116 118 115
-844.06653624535 110.247013194144 2135.52831242052 112 114 111
-844.28636305545 110.185698155718 2126.87088379364 111 113 110
-838.526691160363 110.718006411279 2117.88274496607 109 111 108
-836.753800755602 110.853907135877 2109.09371485063 108 110 107
-831.992085145826 111.286265304467 2100.11215521833 111 113 110
-829.223631809831 111.52030543033 2091.23038595257 114 116 113
-827.451798051089 111.655009555187 2082.39877363364 112 114 111
-821.695612135875 112.184916141717 2073.28113669751 108 110 107
-810.959108491717 113.208596291589 2063.77296177024 110 112 109
-799.228338798327 114.330367535797 2054.13063397133 105 107 104
-785.506853662182 115.649064825805 2044.26883263118 113 115 112
-782.742860424249 115.879996937065 2035.20941013582 117 119 116
-775.995804711152 116.505686262075 2025.80375494886 117 119 116
-774.228847070924 116.63694340913 2016.78719071556 123 125 122
-765.491769301295 117.459070950269 2007.14376304604 116 118 115
-749.786270425077 118.971628426751 1996.81592010065 92 94 91
-724.12699019792 121.470243975289 1985.46549446199 76 78 75
-702.453363651192 123.57279726224 1974.35862697683 56 58 55
-697.705776023863 123.996847716873 1964.81597666509 126 129 122
-677.032580167573 125.998657116931 1953.61812772989 131 134 127
-667.310717438041 126.914524170895 1943.45599619214 89 92 85
-669.533071062769 126.646542738497 1934.52730376472 73 76 69
-667.774673956162 126.772609904001 1925.1705916197 82 84 79
-681.938107864354 125.321476718391 1917.6079796999 79 81 76
-687.144116094291 124.757480972269 1909.08370232904 79 81 76
-697.324373865404 123.700895184248 1901.17907473458 94 96 91
-702.528811106728 123.13690941614 1892.72553254282 119 121 116
-702.758233791658 123.065222201595 1883.68192704174 119 121 116
-704.977003337937 122.796394381398 1874.89240403001 106 108 105
-696.254130564912 123.610055527078 1864.6940301092 136 138 133
-695.489135411441 123.635905897535 1855.5029602909 137 139 134
-690.746305083219 124.054968642711 1845.7690228316 157 159 154
-686.998542695746 124.37521351001 1836.14644196957 152 154 149
-680.268022460196 124.990048572542 1826.08286856693 145 147 142
-672.543921636235 125.702678472696 1815.83938443515 162 164 159
-665.815331255155 126.316399562556 1805.69918953638 164 166 161
-644.174427590928 128.403684005837 1793.29700393642 177 178 173
-622.536768848162 130.489726304343 1780.77598663351 187 188 183
-704.378011209169 116.174815891567 2399.63675369983 174 176 171
-711.599083623759 115.442402877338 2390.41092721802 140 142 137
-726.80877314219 113.935692248684 2381.00550869657 80 82 77
-736.02455340853 113.00981299978 2371.82818388425 133 135 132
-746.237614805264 111.987152492337 2362.67790331595 120 122 119
-751.45651954709 111.448277390412 2353.67655819751 124 126 123
-759.670376585608 110.619079834641 2344.6535114841 123 125 122
-763.889371046227 110.176710636472 2335.72758278851 123 125 122
-770.104549051737 109.540794296847 2326.8017184792 126 128 125
-777.317074468016 108.808109062486 2317.90032122256 123 125 122
-782.532406136191 108.268681602938 2309.04735590936 121 123 120
-786.748764038653 107.82576893631 2300.22388950555 120 122 119
-784.97626429479 107.96242092731 2291.42039766084 117 119 116
-790.190065530749 107.422485621871 2282.62670165458 118 120 117
-792.409198621115 107.172196930676 2273.8428759694 136 138 135
-799.617336087004 106.438864317341 2265.11227990902 138 140 137
-800.83810459098 106.284726905724 2256.35240355883 116 118 115
-801.060870377563 106.226875775854 2247.58382882807 116 118 115
-798.290736145342 106.45825741833 2238.76490033504 108 110 107
-795.521015040689 106.689228979244 2229.92938507149 109 111 108
-790.756642696443 107.112769557371 2221.032867388 104 106 103
-793.972420342195 106.764140399075 2212.30861613358 84 86 83
-806.163949982391 105.547442415034 2203.85024881649 103 105 102
-818.353797254574 104.330877225226 2195.45777685359 111 113 110
-819.572532659382 104.17483844149 2186.76599472676 108 110 107
-815.805558161486 104.500453200277 2177.90005547037 102 104 101
-814.033119577154 104.632917584949 2169.08967697022 100 102 99
-812.260947233892 104.764995988663 2160.26847841008 100 102 99
-819.461690882708 104.029772460652 2151.8341528042 108 110 107
-832.64239763725 102.716725190101 2143.72002657045 110 112 109
-839.840506756088 101.981636003255 2135.3794869796 109 111 108
-841.057269107824 101.824081854721 2126.7631915198 110 112 109
-836.293938820065 102.243743864803 2117.82178215126 108 110 107
-833.524777503003 102.470436949416 2108.96911933936 107 109 106
-824.776678695186 103.274011784933 2099.73651155479 108 110 107
-822.008497185486 103.499831956969 2090.83529242242 111 113 110
-823.22614254451 103.340542250536 2082.18262247053 117 119 116
-817.46955459967 103.854083775061 2073.05380191348 114 116 113
-806.732747619576 104.847696978838 2063.53452362257 109 111 108
-793.008944938415 106.128911038507 2053.73237815241 108 110 107
-783.271383692351 107.024934859865 2044.16249288851 110 112 109
-777.519228482179 107.536005854716 2034.85777304028 110 112 109
-775.751642839903 107.662391728933 2025.85119811666 110 112 109
-771.992688707754 107.980454518925 2016.66368646036 116 118 115
-764.251062355846 108.682112115752 2007.10270424646 122 124 121
-749.540107371129 110.05505823961 1996.86289866703 114 116 113
-726.865917636302 112.194767360644 1985.79323993405 101 103 100
-712.15987285594 113.565727898784 1975.3687193777 87 89 86
-700.442273604433 114.648044521356 1965.15995696283 77 78 72
-682.753477615457 116.305013898357 1954.27564558487 130 131 123
-660.787686185672 118.22757316846 1915.28616827766 114 115 109
-656.044614183047 118.635101572977 1905.54929160455 99 100 94
-668.217989183898 117.414023946515 1897.7957679615 81 82 77
-678.399608912018 116.384744348474 1889.86722965289 89 90 85
-685.595052825265 115.642832324524 1881.6235296923 104 105 100
-685.82563495655 115.570896451414 1872.5343420207 99 100 95
-680.087516677309 116.072888720411 1862.67126224849 129 130 125
-679.323810390419 116.096007065418 1853.43621040903 145 146 141
-674.581491540438 116.501432489736 1843.65831511514 96 97 92
-672.823536371658 116.619567652932 1834.26648894748 83 84 79
-662.11555544472 117.597734074159 1823.60400307483 105 106 101
-654.392352821926 118.288469840312 1813.31123068323 162 164 159
-641.698333775134 119.45641706401 1802.24811806345 173 175 170
-621.05166399476 121.387847506135 1789.92864589718 126 128 123
-609.356102803866 122.458471986762 1778.85533039617 133 135 130
-606.609306550022 122.669010751998 1769.10189338462 160 162 157
-710.893020187123 106.556922266904 2408.46578751595 139 142 135
-695.138392933364 108.00764033738 2399.99165336353 171 173 168
-700.362520922986 107.482229372933 2390.80062238074 133 135 130
-715.574353206193 106.016193235616 2381.36445511329 79 81 76
-727.78760653569 104.832532242641 2372.08319855165 126 128 125
-736.004776366312 104.024974875558 2362.95391201462 111 113 110
-743.222066264393 103.311442682053 2353.88686736423 116 118 115
-748.4414577709 102.785819102215 2344.89005104782 120 122 119
-754.658314214193 102.166129340889 2335.90668563734 118 120 117
-759.876252003134 101.640277586783 2326.96644064348 125 127 124
-768.088265013104 100.832580766397 2318.02922599926 118 120 117
-773.304606851975 100.306553709123 2309.15116803575 118 120 117
-774.527312278536 100.156015073746 2300.31012934161 117 119 116
-774.751832888827 100.099092202761 2291.47396671415 113 115 112
-780.964692402656 99.4787528596197 2282.65544247058 116 118 115
-785.180662023634 99.0460117600795 2273.85807289757 138 140 137
-792.389822716755 98.3316428398122 2265.10784732535 133 135 132
-794.608928875993 98.0862797452067 2256.3396877165 109 111 108
-796.82775264545 97.8406767307884 2247.58230727108 111 113 110
-793.059810223285 98.1575044421709 2238.73543820522 109 111 108
-792.285571056199 98.1925798446358 2229.92488637917 104 106 103
-788.518763237102 98.5086071999571 2221.04213852247 105 107 104
-791.734914918454 98.1681610915325 2212.31205498979 87 89 86
-796.945340228118 97.640186198844 2203.65381925982 99 101 98
-807.141933974002 96.6437117683204 2195.17526812644 110 112 109
-811.353388855566 96.2092917065289 2186.55254746927 108 110 107
-808.584055330803 96.4301637756712 2177.70036497281 102 104 101
-804.81758248495 96.7442895106239 2168.79315859965 99 101 98
-806.037373620601 96.5899621593994 2160.07127724686 100 102 99
-813.238836268778 95.8738764824271 2151.62007461745 108 110 107
-828.414680241888 94.4093820400906 2143.58278574409 110 112 109
-833.620022544221 93.8805215437409 2135.13158544435 110 112 109
-835.834011337728 93.6321875964953 2126.55091555475 109 111 108
-827.084050566396 94.4121273466191 2117.37502700841 108 110 107
-820.328494262466 95.0045334889142 2108.26586744069 107 109 106
-814.570406426467 95.5028693743507 2099.17934118187 108 110 107
-816.785161005865 95.2532061959355 2090.56731450079 111 113 110
-820.992840457965 94.8164570683958 2082.09897472274 116 118 115
-813.243101906143 95.5004562079699 2072.82676030409 117 119 116
-802.505751792754 96.4639944180024 2063.2964173319 112 114 111
-791.769676329434 97.4268813151843 2053.70623250154 110 112 109
-784.023867961135 98.1089607165663 2044.28767641713 109 111 108
-780.263491642344 98.4171688852213 2035.14516760811 109 111 108
-772.519346944986 99.0981783053175 2025.65111584831 108 110 107
-769.756198745872 99.3121701379866 2016.54047714204 116 118 115
-760.022247421804 100.178603808899 2006.79773199648 121 123 120
-747.302182195958 101.324105942083 1996.7284944736 117 119 116
-731.596862430453 102.748429610843 1986.3082373821 115 117 114
-721.867628789671 103.612677004947 1976.37876137505 106 108 105
-708.157125268002 104.848955445971 1965.99926548638 84 85 79
-690.466663009404 106.457014632859 1955.13688649059 109 110 102
-643.087394346498 110.595315688897 1894.88642296892 85 86 80
-645.31118644032 110.337301445801 1885.92153697462 81 82 76
-650.519405694483 109.800220791416 1877.33974447017 86 87 82
-658.71189935449 108.984213156113 1869.16581491659 84 85 80
-655.95977684783 109.19069318318 1859.61618835581 103 104 98
-658.181794871843 108.932224087971 1850.71082598195 111 112 106
-658.414224837931 108.85940614483 1841.54847142615 69 70 64
-658.646617605211 108.786373033637 1832.38733969777 99 100 95
-643.960572221887 110.105989557155 1821.12604417491 118 119 114
-630.27075685469 111.331898679732 1809.92684976617 135 136 131
-617.577437633555 112.464143317546 1798.79805084843 149 151 146
-613.835191480718 112.76050249132 1788.93422980939 111 113 110
-610.09345545906 113.056425758411 1779.05000303369 121 123 120
-602.375395139944 113.722985258282 1768.5302929877 150 152 149
-602.611519982066 113.647188000607 1759.22033091824 163 165 162
-586.942237708136 115.054448227214 1747.36395761696 159 161 156
-722.633400802547 96.4653862533524 2408.10144460428 141 144 137
-686.896114743947 99.6990017867842 2400.31399246964 159 161 156
-689.124511627501 99.4608583134216 2391.19047104289 148 150 145
-701.341551523033 98.3094666563251 2381.80519547901 90 92 87
-712.557941053168 97.2495294029301 2372.50951269201 114 116 113
-726.769083912005 95.9158460452089 2363.20837828757 101 103 100
-732.98892293332 95.3123895066738 2354.13519816839 104 106 103
-739.207932736112 94.7088836439859 2345.09437382121 114 116 113
-744.427403467906 94.1965513315674 2336.09940745722 110 112 109
-753.640264011005 93.3192845783105 2327.08839189746 118 120 117
-761.853303723237 92.5332363782942 2318.13429479344 116 118 115
-766.072184386562 92.1118559938646 2309.24467465024 118 120 117
-769.292079906867 91.7815016883136 2300.3791047226 118 120 117
-769.516953522998 91.7243948085546 2291.5289478296 112 114 111
-772.736224269298 91.3936516594178 2282.68737872409 117 119 116
-775.954838040401 91.0627414415219 2273.86198231137 135 137 134
-782.167248638538 90.4584116557952 2265.07819307788 118 120 117
-785.385052622454 90.1272337386191 2256.29348330706 88 90 87
-785.608875298706 90.0689811965443 2247.48317066123 92 94 91
-785.832695221607 90.0104893112927 2238.67270863762 112 114 111
-788.052016585983 89.7696753849831 2229.901022613 102 104 101
-786.280319594293 89.89263938396 2221.0514593209 102 104 101
-785.50662743627 89.9242531045757 2212.21581159832 93 95 92
-786.72791850426 89.773685883117 2203.43002024321 87 89 86
-795.92861966729 88.8954099551311 2194.89315180487 110 112 109
-800.141151398512 88.4717467103732 2186.23989397435 111 113 110
-800.364013907293 88.4115590969067 2177.46503026888 107 109 106
-797.595187803674 88.6237014825791 2168.57431794629 101 103 100
-801.806781217577 88.1994777874295 2159.95713103864 103 105 102
-811.003314654815 87.3209309885217 2151.58286092174 110 112 109
-820.198580474959 86.4424665843986 2143.25822214129 110 112 109
-824.40776360916 86.0180743171325 2134.73505631433 108 110 107
-825.625742553175 85.8659130915508 2126.07700271907 108 110 107
-819.866230605619 86.3488399707849 2117.03891545748 108 110 107
-812.113744725629 87.0127589219816 2107.85251558113 107 109 106
-806.355771777382 87.4946490110661 2098.74384088146 106 108 105
-807.574963237755 87.3410965057208 2090.04622888577 106 108 105
-807.797309882433 87.2780452774976 2081.28845220751 107 109 106
-805.030257989697 87.4866993605192 2072.32465210665 118 120 117
-799.274433788604 87.9669070395522 2063.13019048221 117 119 116
-791.526704953815 88.6278639918008 2053.75468843375 115 117 114
-782.784132988847 89.3788130544881 2044.25889177106 111 113 110
-775.038654106252 90.0385708149417 2034.79416619682 110 112 109
-767.294503707122 90.6977616933389 2025.28623500059 110 112 109
-761.543365036089 91.1752814937484 2015.90576059274 108 110 107
-751.809227211676 92.0143811251515 2006.1409553403 112 114 111
-743.072278109511 92.7623358807959 1996.41285787608 124 126 123
-731.349291588732 93.781082982168 1986.3557173392 119 121 118
-722.614998803956 94.5277303600381 1976.52239802784 112 114 111
-703.925073167995 96.1781474583764 1965.65050417247 109 110 104
-685.237758186055 97.8274944072631 1954.67542787007 100 101 93
-587.339387350829 106.36496242359 1878.95384536783 128 129 123
-620.41385340896 103.313781963003 1873.67560201875 109 110 104
-630.598889527371 102.338960397552 1865.67201218376 87 88 83
-628.843353190449 102.446833546235 1856.17463112696 76 75 70
-633.05745057919 102.013297343357 1847.45890594301 78 77 72
-632.296685630313 102.030519131815 1838.09324036816 78 79 73
-634.520418462226 101.77703709938 1829.13553687333 95 96 90
-617.845540553174 103.235727045788 1817.52838398637 90 91 85
-617.085975703693 103.251909105043 1808.11469798858 80 81 76
-610.359670952659 103.808303693625 1797.82361996786 96 98 93
-614.573249266254 103.373555254715 1789.12688043311 106 108 105
-606.853506279799 104.019184077511 1778.64113631857 124 126 123
-600.129295607805 104.574255919782 1768.26679417153 146 151 147
-591.417462762821 105.30881688426 1757.54268514773 140 145 141
-592.64865070439 105.143082721605 1748.36312938335 136 141 135
-679.651880546767 91.2570492172943 2400.60365926006 155 157 152
-681.880916464371 91.0240322959763 2391.46066666567 147 149 144
-691.102192136931 90.1709067031952 2382.13735482559 100 102 97
-700.322460917902 89.3177909573695 2372.86273115798 99 101 98
-713.536747312108 88.1106352770656 2363.54989451399 98 100 97
-722.754245538593 87.2576719459581 2354.38371736461 99 101 98
-729.973025866625 86.581780030031 2345.29883677971 108 110 107
-741.185262624653 85.5519675730495 2336.19780439889 106 108 105
-750.39901616391 84.6991459127959 2327.17813471393 112 114 111
-759.611520375393 83.8464167829526 2318.20739243839 112 114 111
-761.833694948832 83.6126938771604 2309.32248212298 115 117 114
-764.055832137254 83.3787827271337 2300.44815560963 116 118 115
-763.282859846833 83.4098446842125 2291.58378052622 114 116 113
-765.504413689364 83.1755067870128 2282.72247019461 120 122 119
-764.731512473357 83.2060096506171 2273.85471696538 131 133 130
-770.945150135172 82.6178884336813 2265.04037334542 109 111 108
-770.172037637874 82.6479073749349 2256.18035812243 84 86 83
-777.382335333853 81.971257819834 2247.42619468902 84 86 83
-780.600295828807 81.6477056685042 2238.64355588471 107 109 106
-785.813254174025 81.1474904342361 2229.91612653355 104 106 103
-784.041789045244 81.264882821662 2221.06084365664 100 102 99
-782.270358779049 81.381953962947 2212.19452851147 94 96 93
-780.499199928173 81.4986677552662 2203.31722182159 81 83 80
-787.705907866035 80.8213533816036 2194.70264474005 109 111 108
-789.924585292489 80.5848822138148 2185.96078895975 112 114 111
-790.148153175147 80.5245518240357 2177.1582034974 109 111 108
-789.374486585548 80.5520324279753 2168.31711864988 101 103 100
-798.573187381244 79.6981166172421 2159.88458751442 105 107 104
-806.773299704462 78.9323604041358 2151.45752552869 113 115 112
-809.986981338115 78.6070514883262 2142.84023316841 111 113 110
-815.1941174194 78.1054903872812 2134.33891297315 107 109 106
-818.406793581309 77.7799089852202 2125.760625357 108 110 107
-813.64412887714 78.1583376330596 2116.75825425556 107 109 106
-806.888436834416 78.7122926975695 2107.61311402421 107 109 106
-803.123697512281 79.0018292613878 2098.61175358068 105 107 104
-806.336375359469 78.6752120820584 2090.03228796012 105 107 104
-802.572462934168 78.9640302099714 2081.00716291088 105 107 104
-802.795148741169 78.9007836537499 2072.23592086593 114 116 113
-798.035644353825 79.2767504209857 2063.10739025725 118 120 117
-795.269448937214 79.4765487473637 2054.10060747302 118 120 117
-782.540467115083 80.5545475541659 2044.30738154881 114 116 113
-771.805625401401 81.4560966285481 2034.6031176786 113 115 112
-761.072529508996 82.3569677136716 2024.83921788061 113 115 112
-757.31368191025 82.6425618453336 2015.61268018519 107 109 106
-747.579079141193 83.4544165717861 2005.8367930995 109 111 108
-741.829673514754 83.9145796240493 1996.36994896591 126 128 125
-730.105624291312 84.9006773291311 1986.30996133513 121 123 120
-719.37921593033 85.7983575554206 1976.28126354376 115 117 114
-702.679692027273 87.2214905990101 1965.59918321725 117 118 112
-686.978122639467 88.5560057576903 1954.92659412369 109 110 102
-621.622982601422 93.8048763428271 1855.31687587052 84 83 78
-615.888375281661 94.257003364616 1845.2630341772 79 78 73
-608.164990935641 94.8835221137074 1834.90841287172 79 80 74
-605.416498540703 95.0724554393811 1825.19806867286 77 78 72
-602.668384804458 95.2610778886629 1815.47259138542 82 83 77
-607.877984404615 94.7504851361407 1806.874615635 91 92 87
-613.08661173747 94.2399292926888 1798.30535430077 108 110 105
-615.311187901657 93.9913393651492 1789.31994322466 105 107 104
-602.618700053307 95.0520000183406 1778.08179000887 114 116 113
-579.9842552534 96.9846405442474 1765.23642722558 149 154 150
-569.284683426087 97.8690841880691 1754.14465230872 141 146 142
-567.534530912538 97.9678415714577 1744.42706497719 139 144 140
-563.796426556049 98.2407559901038 1734.37619501652 162 165 158
-668.409887882668 83.1192963692972 2401.02422996577 156 158 153
-674.636243858152 82.5480005901534 2391.73087644818 116 118 113
-683.858689769765 81.7192012661405 2382.38794728583 116 118 113
-691.08208870394 81.0620660892143 2373.14269511483 61 63 60
-698.304758878768 80.4048817172884 2363.93519735017 88 90 87
-703.528462250671 79.9192713944614 2354.80349676244 88 90 87
-714.744106213425 78.9190415196259 2345.60106251605 95 97 94
-727.955707961275 77.7474716361806 2336.43136043976 100 102 99
-743.162846339592 76.4046588627098 2327.31095499378 100 102 99
-756.370694036574 75.233533238232 2318.28845124119 111 113 110
-762.587362631021 74.6623857441085 2309.37387335054 114 116 113
-762.812659104426 74.6051812924717 2300.50708496523 114 116 113
-765.0345060373 74.3764371664336 2291.64032580835 114 116 113
-768.254518261218 74.0618818152925 2282.78715839967 117 119 116
-768.479470811673 74.0040036828546 2273.9330883681 114 116 113
-764.711925818246 74.2882371417245 2265.04501400061 103 105 102
-758.948709314728 74.7432392374956 2256.11240534926 98 100 97
-765.162383731766 74.1710582976044 2247.31374064964 87 89 86
-772.373074906565 73.5133450306103 2238.5645310286 97 99 96
-778.584998976747 72.9411049161829 2229.83421241064 113 115 112
-777.81159287925 72.9673758077767 2220.98164773345 97 99 96
-777.038082281462 72.9933625555936 2212.1235374097 96 98 95
-778.260333454453 72.8480883536339 2203.31522985004 72 74 71
-786.46522541052 72.1045121097298 2194.72517839772 106 108 105
-787.686456164607 71.9589725361586 2185.94714261993 110 112 109
-783.920461343416 72.2402274807102 2176.99528405206 108 110 107
-784.144444094311 72.1795465650034 2168.1761077341 98 100 97
-791.349489197878 71.5210257094509 2159.64669900947 106 108 105
-801.545259482153 70.606456433836 2151.28827505568 117 119 116
-802.765347200803 70.4599876430371 2142.56324012881 115 117 114
-811.961673333309 69.6308498330531 2134.2407989777 109 111 108
-817.168931719048 69.1429373790248 2125.75867835491 106 108 105
-815.396607107059 69.251948987056 2116.91866363547 106 108 105
-806.646635692368 69.9573779211328 2107.66318709278 107 109 106
-800.888122033626 70.4065215237639 2098.54048457729 108 110 107
-802.10759824363 70.2587031882557 2089.82857570124 108 110 107
-798.343672532603 70.536631395773 2080.79227714641 109 111 108
-799.563178797453 70.3882798921291 2072.07862114803 107 109 106
-795.799977854589 70.6655049838174 2063.01324119097 117 119 116
-791.040683594513 71.0274945250551 2053.85216562372 121 123 120
-778.311244727177 72.0699455550155 2044.04795893262 120 122 119
-765.583356338801 73.1116718386253 2034.17305118757 118 120 117
-755.846040365817 73.897390372647 2024.47514247989 118 120 117
-752.087013129897 74.1721720162075 2015.23469122233 116 118 115
-747.332709475131 74.5315543762137 2005.88509090897 113 115 112
-739.590677232945 75.1455753178984 1996.23655001423 118 120 117
-725.874062981695 76.2689761325976 1985.98400809289 126 128 125
-709.171626576769 77.6465498610669 1975.36684034515 124 126 123
-694.463057192597 78.8532683133611 1964.85531476089 114 115 109
-685.731433829593 79.5495061071518 1954.87286405854 114 115 107
-588.246623164431 87.1922369305315 1822.90973092806 86 85 80
-597.437107824021 86.357028732342 1814.81840164745 84 85 79
-604.636761978634 85.6913003577272 1806.49195100435 99 100 94
-604.872832078185 85.6177983979528 1797.18659297831 113 116 109
-607.097894169631 85.3750091191396 1788.17909368321 118 120 115
-586.448956789714 87.0768070526892 1775.71101024862 110 115 111
-574.752755977653 88.0167484218824 1764.51305111017 109 114 110
-561.069560363652 89.1250102632059 1752.93813801296 131 137 135
-563.29725680102 88.8806762445711 1743.83534551889 139 145 141
-549.616507796888 89.9877046782723 1732.1541613061 104 109 102
-540.908867170422 90.6717357373261 1721.22127552746 172 177 170
-660.16377249704 74.6711747952974 2401.34677386464 144 147 140
-667.390495454921 74.0328227767697 2392.00110002932 107 112 106
-675.615064403219 73.3114516678275 2382.66584571946 95 100 94
-682.83955134522 72.6731278946715 2373.39826867017 45 50 44
-684.069151056366 72.5331177286811 2364.29908211084 81 83 78
-691.292123818264 71.8947019162026 2355.09058564062 96 98 93
-700.51190313306 71.0902418814999 2345.88733476206 89 91 86
-715.72310322897 69.7879409643305 2336.65168183315 106 108 103
-731.930845492097 68.4029199220199 2327.48705215127 91 93 90
-747.13756557249 67.1011996524985 2318.41779241493 105 107 104
-755.352535875365 66.380325188408 2309.46754446697 108 110 107
-755.578323202749 66.3228700193751 2300.58130260676 110 112 109
-757.800812840193 66.0993715062833 2291.69505666404 116 118 115
-766.01342085929 65.3783757112446 2282.8370046737 117 119 116
-767.236726712096 65.2375053446241 2273.98288028427 107 109 108
-763.468952422996 65.5106663148963 2265.09187880051 98 100 99
-754.710904476367 66.1976170387248 2256.12289583736 95 97 94
-758.929077256959 65.8074130822659 2247.28509226264 84 86 83
-762.148758327866 65.4999081031901 2238.45243760731 87 89 86
-766.365878866073 65.1094891264425 2229.65552843795 102 104 99
-765.593239225681 65.1327650795545 2220.76979222766 112 114 109
-767.814137674964 64.9075113602178 2211.95317561336 99 101 96
-772.030056947057 64.5166919661045 2203.2027861478 79 81 78
-784.226787167741 63.4641269725388 2194.71739549353 115 117 114
-783.452976114064 63.4866976006462 2185.86736006051 106 108 105
-781.682089507061 63.591617059258 2176.97607407806 105 107 106
-778.913860346694 63.7788876781309 2168.0353257576 100 102 99
-787.117095353491 63.0568792666027 2159.53319150007 104 106 103
-796.316676518287 62.2523498255078 2151.11927977052 115 117 114
-801.525856066027 61.7782885962898 2142.56762107161 110 112 109
-809.72608460031 61.0564322532428 2134.19247824255 107 109 106
-815.93089601623 60.4997700730135 2125.75687317872 104 106 103
-814.158498296688 60.603369420401 2116.91390448707 105 107 104
-806.404810190699 61.2017193918054 2107.71341363518 107 109 106
-802.639484783366 61.4695800590265 2098.71168552311 105 107 104
-800.868667045764 61.5720654159126 2089.81509433494 104 106 103
-798.101195428404 61.756718588548 2080.84192819736 106 108 105
-790.350610727162 62.3532101519734 2071.50882533354 113 115 112
-785.59120841967 62.7018860895379 2062.34700229961 117 119 116
-784.818590180699 62.7205648877167 2053.45549357673 118 120 117
-779.063621355271 63.1508340638856 2044.17398078984 119 121 118
-769.323913982678 63.9100756510501 2034.54110735679 118 120 117
-757.592819270175 64.8333485307551 2024.68902538649 118 120 117
-752.837410546917 65.1797308720387 2015.3686565591 118 120 117
-748.082434642301 65.5257010247168 2006.02160431522 117 119 116
-738.347638789581 66.2825846921584 1996.19423991845 116 118 115
-720.645887572627 67.696876868138 1985.56502042941 121 123 120
-703.942287143404 69.0279937841727 1974.93414024811 125 127 124
-690.229023559147 70.1115651977818 1964.50787691002 121 124 117
-675.521905463143 71.2765110061445 1953.90410249695 117 120 113
-588.225374766978 77.7525010202924 1813.60453051041 91 91 83
-598.41062442509 76.8605689305247 1805.68159513925 86 87 79
-595.662913708174 77.033013984162 1795.92299641877 97 100 91
-590.926396612395 77.3688000697807 1785.85289990203 97 102 95
-581.217210529846 78.11330205607 1775.00199768603 106 113 106
-571.5096087394 78.8571840615256 1764.09783494688 101 108 101
-568.764741292803 79.0280587632463 1754.235750038 130 139 134
-563.03683350107 79.4438912267164 1743.88109727949 133 142 137
-550.349529166093 80.4313740935022 1732.36178173333 123 130 123
-545.617856208841 80.7645232382644 1722.09020336973 142 149 142
-539.89272643577 81.1789559045689 1711.62547302392 196 201 197
-655.913956008136 65.8569241657902 2401.53828874674 136 139 132
-664.140680758748 65.1571230148061 2392.15126316219 79 81 76
-667.370212178955 64.8590744260837 2382.94377627638 93 95 90
-672.597442651324 64.4002538894807 2373.70298919305 70 75 69
-672.828831509169 64.3428529241493 2364.5978783174 46 48 43
-679.054188686092 63.8035431211211 2355.3779053853 84 86 81
-687.276406077524 63.1036846926669 2346.15765672348 84 86 81
-702.489650437173 61.8420876258946 2336.88581154564 97 99 94
-716.701866958587 60.661061970827 2327.70662677216 94 96 93
-731.911009615225 59.4000317274407 2318.59569896834 97 99 96
-744.121894745591 58.3799379303494 2309.58262569009 96 98 95
-751.338395637941 57.7609207237164 2300.64790103055 98 100 97
-755.558646119272 57.3823893701932 2291.75075164367 106 108 105
-762.773408838786 56.7633397574775 2282.88392600476 108 110 107
-762.998717033908 56.705186885161 2274.01566115308 98 100 99
-758.232468205875 57.0473610535306 2265.1051179723 95 97 96
-748.475943533574 57.7895180410271 2256.11117874287 97 99 96
-746.706142968117 57.8905472215194 2247.17326941351 89 91 88
-750.924899926986 57.5109461547519 2238.32401869431 82 84 79
-754.145158082788 57.2112850775638 2229.47723173992 89 91 86
-756.366887934133 56.9915299650574 2220.62470024522 95 97 92
-759.586370225208 56.6916253022697 2211.80797522862 101 103 98
-763.803156217795 56.3116186675529 2203.03532123192 77 79 74
-775.003701971785 55.3718081317809 2194.49717570835 114 116 113
-777.223453537828 55.1516493998565 2185.72152908096 109 111 108
-779.44315533687 54.9313207248965 2176.9569698369 102 104 103
-776.67484481659 55.110345380063 2168.01054746295 100 102 99
-783.881454720363 54.4902252502507 2159.46121266731 100 102 99
-794.079244850506 53.6305308213816 2151.08276652398 112 114 111
-802.281146957451 52.9306460405512 2142.66580604905 113 115 112
-808.487341774344 52.3905259267331 2134.19389447968 108 110 107
-810.703806861713 52.1696516441533 2125.54592652069 108 110 107
-807.934583576356 52.3475688747511 2116.63398910074 109 111 108
-802.174640610376 52.764457641628 2107.53251610502 110 112 109
-800.403558908728 52.8618516350216 2098.64077483217 108 110 107
-794.644974951963 53.2779134473398 2089.48529912837 108 110 107
-788.887209059813 53.69351739138 2080.29735900176 109 111 108
-779.143289123673 54.4274120821333 2070.80191160005 107 109 106
-778.370976351387 54.4436688134677 2061.89586355207 109 111 108
-777.59878072051 54.4596542822288 2052.98494595118 111 113 110
-774.833517087472 54.6346567501704 2043.91512195397 115 117 114
-766.089746416812 55.2869866750595 2034.35096043924 117 119 116
-754.357964532978 56.1775370555911 2024.49060060563 118 120 117
-751.594928296462 56.3512413033633 2015.33232830739 121 123 120
-747.836087535597 56.604138237522 2006.07041563146 120 122 119
-737.104423133519 57.4134142691249 1996.15222051846 121 123 120
-720.397448343266 58.6990916948116 1985.61375741879 126 128 125
-701.70060065368 60.1428454638062 1974.79050223196 128 130 127
-684.002285515946 61.5061701059415 1963.96293906307 126 128 123
-672.282244329761 62.3918210814119 1953.64777627771 121 124 117
-669.526319933047 62.5619514216633 1944.20771125659 127 130 123
-754.399538481505 55.74369008655 1944.18359150642 137 140 133
-609.096427295314 66.6509701349458 1807.29887519252 93 95 84
-567.550434364058 69.9014025428843 1791.89557086521 87 89 78
-566.794166023184 69.9070289060501 1782.34171199783 85 90 83
-558.080978706347 70.5450015649416 1771.57615613087 94 101 93
-565.282391384611 69.9176223413732 1763.2221526565 99 106 99
-565.521108519743 69.8435807177836 1753.81275986067 122 131 126
-566.754171983623 69.6904045162029 1744.56406117039 133 142 137
-554.065626508814 70.6428965992639 1733.05568325977 117 124 117
-545.356079621103 71.2788378694798 1722.13634087447 127 133 129
-541.619113561337 71.5195041021952 1712.0063567162 194 200 196
-660.890397322715 56.2642775633184 2392.3013365517 72 74 69
-664.120363439285 55.9741407938876 2383.08535532838 85 87 82
-668.349053739881 55.6063447749722 2373.86055055471 79 84 78
-670.578839582226 55.3935678238878 2364.70065563653 47 49 44
-676.804791397565 54.8704699068671 2355.47484924978 80 82 77
-684.028835459232 54.2698509706362 2346.26506604815 87 89 84
-697.245488548997 53.2042053219487 2337.01167331626 92 94 89
-707.463756433988 52.3712593518958 2327.86160600958 95 97 94
-717.680637143065 51.5384726208751 2318.76592532169 94 96 93
-732.889808710071 50.3185177199204 2309.69797113976 91 93 90
-745.100940898921 49.3311704287128 2300.71972742428 90 92 89
-749.321677497757 48.9634062495903 2291.80581505566 97 99 96
-752.543426932599 48.6729361945966 2282.91061236205 102 104 101
-749.774112258926 48.8466764219192 2273.99776176968 94 96 95
-748.003508772219 48.9427008408952 2265.07653486852 92 94 93
-742.240056033817 49.3478299801605 2256.09960935516 96 98 95
-738.473982284019 49.5978360131077 2247.11728291611 89 91 88
-736.704868595968 49.692860479513 2238.14608063875 79 81 76
-736.932057583867 49.6330215104135 2229.20249748902 83 85 80
-743.147141732061 49.1093239013197 2220.39146849062 88 90 85
-751.35760862073 48.4311215372624 2211.66304758509 101 103 98
-758.568912187042 47.8302483262209 2202.9509340567 78 80 75
-769.770408215071 46.9205425698823 2194.39864793709 109 111 108
-772.988568693289 46.6285822210197 2185.64211393838 106 108 105
-776.206302714427 46.3365253404958 2176.90214371146 102 104 103
-774.43574500562 46.4301636843676 2167.98589045594 102 104 101
-781.643031411849 45.8292496032493 2159.4307375767 101 103 100
-790.84410232572 45.0741424946917 2151.00234239856 111 113 110
-799.046828520799 44.3962603711237 2142.57679846336 114 116 113
-802.261718057923 44.1038804303061 2133.94765364827 109 111 108
-800.489816584973 44.1967392957782 2125.07375761842 105 107 104
-795.726857447652 44.5204189286355 2116.02410870889 105 107 104
-791.961379648455 44.7666983044246 2107.00516427019 106 108 105
-795.175930171653 44.4735533473102 2098.38844787817 106 108 105
-789.417249340498 44.8731957308602 2089.21912844306 106 108 105
-781.665729329019 45.4262993164219 2079.88531886269 108 110 107
-770.924792657139 46.2097749179299 2070.30181365972 111 113 110
-772.146348921662 46.0694453653112 2061.51664992568 110 112 109
-770.377650222529 46.1596960040596 2052.51477788708 111 113 110
-771.599332191508 46.0189697357621 2043.73360001296 114 116 113
-766.841258423039 46.3393112320105 2034.48010494259 120 122 119
-761.087447087859 46.7360817171145 2025.11738511252 122 124 121
-752.34542601682 47.3628997652259 2015.46677528348 117 119 116
-743.604394374114 47.9891724441542 2005.76758480394 116 118 115
-734.864589998965 48.6148783133367 1996.01981986011 120 122 119
-724.133747210657 49.3935359595407 1986.03663757066 125 127 124
-710.415983076668 50.4018112693279 1975.70542414965 126 128 125
-694.707916983015 51.562800412252 1965.10042995522 129 131 126
-682.985977449209 52.4160994877121 1954.81539940433 129 131 126
-679.233220035381 52.6552079995405 1945.30092350636 136 139 132
-534.700099407536 62.9238538831388 1777.64591738521 120 121 113
-532.951416436317 63.0026838320168 1767.84949870424 80 81 75
-539.160507985443 62.4707653735026 1759.27317911016 88 90 85
-549.347099007825 61.6338137377785 1751.35685235369 97 99 96
-552.570533312953 61.3309963458584 1742.38254147316 115 117 112
-546.843235646225 61.7143911329689 1731.96921383722 128 129 123
-540.122401335261 62.1736139559769 1721.35999650991 114 115 110
-535.391006934336 62.4800104737372 1711.04880628956 126 127 122
-528.671884246378 62.9383874901721 1700.37178464385 133 134 128
-658.638991151604 47.2794475741403 2392.42122206801 95 98 91
-661.869323546577 46.9972708483332 2383.1994722976 65 68 61
-662.101397539659 46.9394774138321 2374.06716256029 86 89 82
-662.333483275771 46.8815158006166 2364.93421328729 59 61 56
-663.564643888145 46.7485174356412 2355.78155003264 49 51 46
-670.790125355316 46.1666919073868 2346.53576695852 88 90 85
-681.011654850644 45.3605763950607 2337.28703310009 84 86 81
-689.234085672838 44.7041118016223 2328.114360571 91 93 90
-702.449577845225 43.6740964326464 2318.94459756208 89 91 88
-718.659650708866 42.4201667216774 2309.82963571373 89 91 88
-733.868612467406 41.2413388474187 2300.804715819 86 88 85
-735.094689857285 41.108235183705 2291.85993423528 90 92 89
-735.321884618954 41.0495950584482 2282.91741265282 95 97 94
-733.551968483993 41.1400647799236 2273.96335745797 91 93 92
-734.777674687038 41.0063878576845 2265.02314283247 93 95 94
-734.006644796338 41.021717863703 2256.06596028172 97 99 96
-730.240829214154 41.2605366362158 2247.06153173934 92 94 91
-726.475570661995 41.4990270543363 2238.03497997225 76 78 73
-721.712539276706 41.8116855518815 2228.96699632906 79 82 75
-731.921683639524 41.0060614237323 2220.20284396411 84 87 80
-744.125565725223 40.0515541266562 2211.54322045201 99 102 95
-755.329650480337 39.1717688926021 2202.92188426247 79 81 76
-763.538526990754 38.5156299350198 2194.2699860468 103 105 102
-767.755318238973 38.1573606664055 2185.5297913396 101 103 100
-768.978055363596 38.0223585258506 2176.70419566692 102 104 103
-768.205442226636 38.0360243751187 2167.80710502132 101 103 100
-776.411215664146 37.3798562723994 2159.27645435069 100 102 99
-785.613562356824 36.6494043139392 2150.83399490678 109 111 108
-793.817012994164 35.9934644829067 2142.39437241395 112 114 111
-796.035164506989 35.7836617480496 2133.70170566953 106 108 105
-794.263537834119 35.8710157299656 2124.81115878061 102 104 101
-787.506023082463 36.3295906250898 2115.63484444852 102 104 101
-783.74104594456 36.5648401178804 2106.59381418143 102 104 101
-783.965022358082 36.5027054274189 2097.77332459857 104 106 103
-781.197821902866 36.663083727375 2088.76349601631 106 108 105
-772.449122246075 37.2685155873512 2079.34162082442 107 109 106
-768.686304667966 37.5023498771791 2070.21466794349 108 110 107
-769.908086949146 37.3649310954309 2061.42379605712 110 112 109
-768.139623367515 37.4498193228353 2052.41630185599 111 113 110
-766.371179528199 37.5344503485943 2043.39843510522 114 116 113
-764.603230040855 37.6188115856496 2034.3702824768 119 121 118
-758.849115475464 37.9993226131136 2025.00195578044 120 122 119
