ply
format ascii 1.0
comment KinectMotionCapture
element vertex 752
property float x
property float y
property float z
property uchar red
property uchar green
property uchar blue
end_header
-497.468831849126 50.9567024946777 2082.33704683202 187 185 186
-489.645280491627 50.3283243291499 2091.85899984837 177 177 177
-485.66754572484 49.8673263295004 2100.1791806212 178 182 181
-483.612831219504 49.4901967726655 2107.89853907628 178 187 184
-479.619194295315 49.0318466664871 2116.16134999673 188 194 192
-477.55145757888 48.6570030397497 2123.83380275088 190 194 193
-470.637984207698 48.0782802281685 2132.86972636672 188 192 191
-466.617571093714 47.6241244836017 2141.0357706428 192 196 195
-464.527360664811 47.2530353818764 2148.62715331782 193 197 196
-460.490975848101 46.801535574045 2156.73557461147 193 197 196
-458.387677589321 46.4327111083589 2164.27979451194 191 195 194
-460.164791760712 46.227265626903 2170.74816360357 188 192 191
-459.997400102241 45.9411658329432 2177.73868351963 187 191 190
-456.907735191556 45.5345925436496 2185.4941341399 185 189 188
-456.732018569493 45.2501993993931 2192.45575160957 184 188 187
-460.451372147142 45.127468248961 2198.3939266555 177 179 176
-467.099094842195 45.1253071690768 2203.59079374495 171 173 170
-464.970487006095 44.7619733499619 2211.04543967468 169 171 168
-466.742702908201 44.5596649824019 2217.49760306198 170 172 169
-465.582736565135 44.2380073979024 2224.67768779277 171 173 170
-473.221041777538 44.2756710232541 2229.68121647003 165 167 164
-474.016354619333 44.0345264575041 2236.37813150401 164 166 163
-476.76897973085 43.8732771554565 2242.59996429111 166 168 165
-477.562587961347 43.6330518164577 2249.29113078908 163 165 162
-482.278402629863 43.5513428927122 2255.05854946647 156 158 155
-488.961620564621 43.5483910417121 2260.38763319508 150 152 149
-493.687233752991 43.4663287165342 2266.19120873707 141 145 146
-496.450911642155 43.3056567672441 2272.45351380909 150 154 155
-497.247849130953 43.066830004084 2279.15885320069 153 157 158
-501.981625996389 42.9849210703821 2284.99283571893 137 141 142
-506.719545271111 42.9029374111199 2290.84215101315 130 134 135
-508.503564353159 42.7040007912434 2297.34026603919 128 132 133
-513.24760360541 42.6220314059488 2303.21231262233 139 143 144
-519.970776350516 42.6174695711548 2308.68779524885 150 154 155
-526.700706357811 42.6125234529423 2314.18905267155 143 147 148
-533.437885854735 42.6071215136683 2319.71600922433 144 148 149
-541.171351615538 42.6398376806808 2325.07065582314 142 146 147
-551.884513261017 42.7873392742629 2329.86997954868 144 148 149
-560.628208695936 42.857037327796 2335.10150994821 144 148 149
-568.39007218379 42.8876605039809 2340.55934131441 151 155 156
-585.092848051672 43.2617143132794 2344.36018157354 154 158 157
-597.843942200152 43.481173431351 2348.97873870423 144 148 147
-612.598603547822 43.7753875189187 2353.28977474026 138 142 141
-627.371732181183 44.0678990206112 2357.66830126498 144 148 147
-647.14006578748 44.5482955563505 2361.22913465144 130 134 133
-670.918600972688 45.1775295811588 2364.18588913906 132 136 135
-674.792294268645 45.0486170831625 2370.69319473006 128 133 129
-667.695538071104 44.5053890287967 2379.07103466562 145 150 146
-535.643486479053 61.6211629082989 1685.28023769603 157 143 132
-531.987950881834 61.1201281782557 1694.77140374052 131 112 98
-538.539718426248 61.094917714261 1699.59838501038 108 89 75
-551.605101606241 61.3704131693072 1701.52196471898 165 146 132
-554.456330199256 61.171245106694 1708.08595298677 180 160 149
-548.000887613989 60.5433973490811 1718.7905111974 125 108 98
-539.669314082146 59.8317677188445 1730.27096624026 95 81 72
-531.322384830874 59.1222677896949 1741.69482406578 162 153 146
-633.075038250697 55.5400139393799 1895.11478040142 193 197 198
-616.952201753402 54.5362538633821 1908.65578834843 165 169 168
-608.416295313691 53.8584303772418 1919.39800975964 171 175 174
-601.769472780001 53.2632807799114 1929.41358466037 179 183 184
-593.203511539936 52.589857543886 1940.04699657601 179 183 186
-579.852049562367 51.7185859772067 1952.27133107377 177 180 185
-569.341555748722 50.9702521409823 1963.43134982141 175 178 183
-555.946275901798 50.1049725920976 1975.49678020468 173 178 181
-548.264573716968 49.4814468946 1985.54845499174 175 180 183
-541.525495700199 48.8996892623579 1995.22902932856 177 186 185
-538.603366739188 48.4782164992262 2003.59710134603 177 186 183
-536.632511214372 48.0975114702853 2011.62555439395 182 188 186
-533.696801232811 47.6784181495532 2019.94470499929 186 188 187
-525.955555828761 47.0638585130176 2029.78096818506 172 176 175
-514.358261482023 46.2944532298729 2040.78892653622 168 174 170
-497.93496446182 45.3319994000758 2053.24046205179 180 186 182
-484.369895080253 44.4903427402801 2064.69041142627 184 189 185
-472.707011008636 43.7298518635433 2075.46047607373 192 192 190
-463.913885801588 43.0888533961253 2085.27094400433 191 190 188
-450.284619574546 42.2559500492767 2096.48806945736 187 187 187
-447.244491726304 41.8522547441416 2104.42925849001 187 187 187
-446.128194969735 41.5271062464927 2111.76927585665 182 188 186
-445.007801931063 41.2027852397606 2119.09367794263 179 188 185
-440.014955121611 40.72547272942 2127.53189593639 179 183 182
-437.915175902125 40.3648773453387 2135.09437675137 178 182 181
-435.809592630865 40.0053575936038 2142.63598735763 182 186 185
-433.69820578177 39.6468845362043 2150.15671124488 183 187 186
-436.429942320282 39.4801948722256 2156.29755409474 181 185 184
-437.222151800804 39.2376184674588 2162.98204296836 180 184 183
-441.897851330612 39.1474360881873 2168.59517230185 177 181 180
-445.605683058148 39.0192716919823 2174.48806773209 172 176 175
-446.398453456764 38.7777279757441 2181.17529117014 173 177 176
-446.216120749928 38.4990390415272 2188.11594575336 170 174 173
-445.056764123736 38.1833475285205 2195.30206090862 168 172 171
-452.66683844489 38.2066574469398 2200.19171164063 178 180 177
-460.285494200005 38.2293214780261 2205.11281577558 182 184 181
-460.102101787394 37.9522281471524 2212.05054325938 188 190 187
-461.869878152306 37.750462117443 2218.48656591893 193 195 192
-462.6598629444 37.5118689414939 2225.1653097626 191 193 190
-469.319179111272 37.4967270900555 2230.39702576105 179 181 178
-471.089488999224 37.2958522568518 2236.84301754991 174 176 173
-471.879598056961 37.0583062502124 2243.52381291794 165 167 164
-471.687798312681 36.7844164125153 2250.43141912242 159 161 158
-476.399659453791 36.6953373874183 2256.17950603126 153 155 152
-483.079722341346 36.6796663448823 2261.4888454563 150 152 149
-489.767071256073 36.6635930219306 2266.82405347091 151 155 156
-495.477795291226 36.6104927153841 2272.40711722864 145 149 150
-498.241356050215 36.447632052709 2278.66853460273 146 150 151
-503.9611322915 36.3941780100472 2284.28498409719 139 143 144
-507.715245996665 36.2678599251961 2290.34995208117 134 138 139
-510.485484352277 36.1053534098211 2296.63638565281 132 136 137
-511.28285894756 35.8707001770181 2303.3450538612 117 121 122
-517.017744316316 35.8170294977624 2309.01746381164 122 126 127
-527.70116201117 35.9432182274838 2313.69289825168 122 126 127
-536.418681080583 35.9964475500764 2318.81684344194 134 138 139
-543.166180862042 35.9772300609996 2324.37339477358 139 143 144
-550.911335098315 35.9933512061719 2329.76003214039 140 144 145
-560.647671695417 36.0803380438483 2334.79163947169 147 151 152
-570.395315311318 36.1663637666902 2339.86462075009 146 150 151
-584.126010489699 36.3937091137143 2344.22797405357 139 143 142
-594.892879057769 36.5131057696512 2349.2089570701 136 140 139
-611.638290355192 36.8437490223096 2353.14161619241 138 142 141
-628.405288407249 37.1723938103809 2357.15223195536 127 131 130
-651.168069165665 37.7104934880978 2360.17740128972 127 131 130
-665.988956310541 37.9644102181354 2364.70887908892 121 125 124
-669.859016044392 37.8308345169727 2371.19974987361 172 177 173
-533.937079963336 54.3760605463838 1686.06039657962 151 137 126
-530.276942972834 53.8909816179684 1695.54455221055 118 99 85
-538.686877888302 53.9332826363152 1699.51959816288 104 85 71
-551.756398682524 54.1764125054755 1701.4381060856 179 159 148
-551.815630626038 53.8534664061357 1709.24770121302 175 155 146
-540.697240267751 53.0487473068025 1722.01144091581 100 83 76
-528.626823557497 52.2066691194707 1735.11415620022 129 116 110
-619.905153850831 47.7396490876054 1899.74136069263 161 165 166
-614.229549963004 47.2025361322392 1909.50320098499 175 173 176
-605.686228860809 46.5544533864366 1920.23666995413 178 176 179
-592.362634579045 45.7209440389017 1932.58831283278 182 181 186
-581.876912204814 45.0029609391904 1943.85946494605 182 183 187
-568.509517887103 44.1755570797179 1956.05234156135 180 184 187
-558.939524435463 43.5003152581282 1966.85315088491 174 179 182
-547.440442911024 42.753192959613 1978.24075152855 176 184 186
-543.573334252162 42.3055686749875 1986.98010882152 174 182 184
-536.826206216394 41.7483396400802 1996.64628108782 173 182 181
-529.108061157855 41.1561500654988 2006.58243461496 173 182 179
-523.292741691794 40.6396150438996 2015.83853017896 175 181 177
-518.425468245219 40.1616793019681 2024.74165495907 179 179 177
-502.02680676488 39.245448801619 2037.3138403961 175 175 173
-475.031727018853 37.9306596747457 2053.15428389655 173 175 172
-453.762712242777 36.8402655378602 2067.01637525109 185 191 187
-442.081775187632 36.1183420573952 2077.74376214397 188 193 189
-432.306509145222 35.4717151596487 2087.80142955776 186 186 184
-424.441452662906 34.9000114919939 2097.20506349145 185 185 183
-419.455301135542 34.4388284464798 2105.67739403256 183 183 183
-423.145323407634 34.3036833619161 2111.49975920412 184 184 184
-424.906614215614 34.096630830968 2117.90836464178 180 186 184
-428.601203554196 33.9617156425465 2123.74690255798 177 186 183
-423.592666379215 33.5046813016708 2132.13873885188 173 177 176
-424.382345055005 33.2634373922261 2138.81467261134 169 173 172
-424.201621252382 32.987132984785 2145.76280620595 172 176 175
-425.957054756386 32.7826641713409 2152.15129584593 176 180 179
-426.742306257422 32.5431164978723 2158.81186328783 178 182 181
-429.467810287714 32.3748369987957 2164.92856231756 174 178 177
-434.138106011158 32.2774522501784 2170.51708117818 171 175 174
-438.812691665587 32.1798601815893 2176.12139682077 164 168 167
-439.599175165829 31.9417008307303 2182.78741494848 161 165 164
-441.357901265819 31.7391329847221 2189.18932952334 152 156 155
-442.141847685837 31.5019531195479 2195.84747538792 148 152 151
-448.776143646951 31.4746857171442 2200.97864082812 139 141 138
-454.441423558499 31.4121397029276 2206.38701593637 141 143 140
-456.205589727773 31.2104157288088 2212.8096611988 146 148 145
-459.924602191775 31.0784236402521 2218.74072288511 165 167 164
-461.689987689903 30.8773962573906 2225.16833506784 177 179 176
-467.370726428459 30.8145931620816 2230.63394346339 182 184 181
-468.159010108154 30.5795689253376 2237.30955367401 178 180 177
-469.926196152077 30.3794597450664 2243.74443063543 169 171 168
-469.731311867886 30.111270041371 2250.64418331398 162 164 161
-475.4237855719 30.0486694313572 2256.1534891749 148 150 147
-480.139471206982 29.9517539858466 2261.91082817467 147 149 146
-488.792118968466 29.9905925354814 2266.78483333234 141 145 146
-492.535174727238 29.8592857034923 2272.80559569489 134 138 139
-497.265532218632 29.7617998292154 2278.61704828268 136 140 141
-502.9853528118 29.6979427059069 2284.22709448646 135 139 140
-507.724735439584 29.6001928758585 2290.07188898893 133 137 138
-510.494537582103 29.4352239725169 2296.355148364 134 138 139
-513.265596230277 29.2704852295883 2302.64321820953 136 140 141
-519.002923806173 29.2061701660035 2308.3170462669 130 134 135
-529.69032804888 29.3082931220681 2312.99301713064 132 136 137
-539.401118600452 29.3761170952286 2317.9167495498 140 144 145
-546.151725637204 29.3434778941896 2323.47729276755 137 141 142
-553.90060418942 29.3435713769243 2328.86763876251 135 139 140
-562.649693821292 29.376079436494 2334.09571694282 144 148 149
-574.386402130786 29.5066503659162 2338.78825930288 136 140 141
-587.130720323007 29.6689605998833 2343.34464879989 131 135 134
-600.884374048852 29.8625652185516 2347.77286958332 134 138 137
-618.634188819381 30.1855464499724 2351.53259513768 130 134 133
-635.411407495665 30.4737569062817 2355.55562995489 132 136 135
-648.225061331317 30.6298028647313 2360.36642319342 123 127 126
-666.038894238561 30.9467664723386 2364.36003632954 146 150 149
-528.515939656612 46.9960171476304 1688.54949281836 115 95 84
-528.563470714428 46.6788434434006 1696.31928923858 108 88 77
-536.044630171235 46.6645822398349 1700.70658390635 102 82 71
-550.976433520754 46.9509985242508 1701.77406996743 154 134 123
-551.033413737805 46.6332807583087 1709.57860577182 150 130 121
-538.044700404967 45.7909420027742 1723.16709253045 116 101 94
-517.573756192895 44.6521712250661 1739.96265001557 161 150 144
-620.004284934831 40.8185820880149 1891.84349521303 170 174 175
-615.283001703353 40.3367304041648 1901.28618072776 163 167 168
-607.696190709952 39.7514181518574 1911.71429387923 176 175 180
-598.189864524291 39.0983532669926 1922.7664176623 178 176 181
-581.9933353573 38.2038895927258 1936.10282319642 183 182 187
-571.493613274817 37.5216655687493 1947.34457354522 183 184 188
-560.975240017565 36.8420318942656 1958.51871114871 180 186 186
-551.3938281054 36.1995644768417 1969.29781800933 181 187 187
-539.882738108715 35.4906642321042 1980.66403593042 176 182 180
-537.920281809336 35.1285923448858 1988.73636666891 177 181 180
-530.206603832104 34.561592175886 1998.70500886542 180 180 178
-522.478557960069 33.9968025064456 2008.62170147826 182 181 177
-508.022723142071 33.1950765849548 2020.68594393457 178 173 169
-490.663018496366 32.2944689624309 2033.5961483094 176 168 165
-455.024766529859 30.7522666419168 2052.27228111151 199 196 191
-433.748811021796 29.7254384237044 2066.14873508187 186 188 183
-423.98153269259 29.1087060788466 2076.25493316492 190 195 189
-419.010448938853 28.6629369894096 2084.79293896125 176 181 177
-413.065960470492 28.1851190168273 2093.59297023152 179 181 180
-410.966134314039 27.843238236216 2101.16802122216 176 176 176
-410.790559574682 27.5692915370993 2108.13583179059 175 175 175
-414.474076037144 27.4295554903646 2113.93114367291 173 175 174
-417.194496050954 27.2566143782882 2120.02509462497 165 171 169
-420.883063208507 27.1170740397714 2125.83928230818 164 170 168
-420.70387461428 26.8450761104946 2132.79490569303 161 165 164
-421.48992756957 26.6068438844611 2139.46020830465 159 163 162
-420.336531079601 26.3033232119109 2146.67520728655 158 162 161
-420.148367734962 26.0335403313926 2153.59983667046 155 159 158
-421.898609739343 25.8300185391838 2159.96964918947 157 161 160
-425.591580266411 25.6922867218517 2165.80039850375 148 152 151
-428.315167213077 25.5219760536611 2171.90869740387 150 154 153
-432.98579611482 25.4169853735425 2177.49365130324 152 156 155
-435.713583961157 25.2470264630504 2183.61776940188 150 154 153
-439.417150548767 25.1095710846612 2189.48803434125 150 154 153
-442.148399289012 24.9399917508352 2195.6252417055 152 156 155
-448.783656349219 24.8993775509691 2200.75247807155 151 153 150
-454.449954418618 24.8262074348491 2206.15699687609 148 150 147
-457.190319300189 24.6567291016448 2212.32811445287 141 143 140
-458.954265797839 24.4554926648082 2218.75025192312 119 121 118
-462.675309098755 24.3184133226238 2224.68564188323 109 111 108
-465.419681233789 24.1495979752451 2230.87205618125 103 105 102
-469.145309334222 24.0127033209756 2236.82551422816 104 106 103
-469.931725058949 23.7810794113472 2243.49540685412 119 121 118
-472.679321711914 23.6130464602658 2249.6942871193 124 126 123
-477.392640761273 23.5081730109045 2255.43781518309 127 129 126
-481.127329312812 23.3718261831308 2261.42432975562 129 131 128
-486.831819018063 23.2981599913607 2266.97126244503 126 130 129
-489.589142968081 23.1305977427105 2273.20562641203 124 128 127
-496.287664058872 23.0878079508573 2278.56637616935 127 131 130
-500.036123626215 22.9514281289859 2284.60399899376 128 132 131
-507.73298542722 22.9389874589279 2289.79423260109 128 132 131
-508.528065994057 22.7097407511437 2296.49779692834 128 132 131
-513.273214223667 22.6043054834307 2302.35914579735 133 137 136
-519.011072700844 22.5294950470748 2308.02924778069 136 140 139
-528.712183184393 22.5770938854426 2312.90427091322 145 149 148
-536.444337175632 22.5626582245752 2318.22334895054 140 144 143
-545.175676528036 22.5780985158325 2323.37474812674 138 142 141
-553.916876828231 22.5928604703811 2328.56233080311 139 143 144
-564.652557788067 22.667513656246 2333.39927165822 137 141 142
-579.372833086445 22.8621872820429 2337.51979439617 132 136 137
-597.09248066516 23.1457299312226 2341.14354464624 134 138 137
-611.851886468699 23.336859947349 2345.40711403084 131 135 134
-629.615213361305 23.6163400314646 2349.18954309907 120 124 123
-639.434544602717 23.6541363971195 2354.4973079668 122 126 125
-532.373850516713 40.0073607302176 1686.77099773549 100 83 73
-534.28121049453 39.7654203380315 1693.6999030028 89 72 62
-539.908449851437 39.6640646403966 1698.94253858502 81 64 54
-552.986713168286 39.8423443894266 1700.85349183237 95 78 70
-555.837903592968 39.6344073861652 1707.41087311605 103 86 78
-549.369845372373 39.0780821900744 1718.1146765689 69 56 50
-622.003205479773 33.9594040386254 1883.24467930551 169 173 174
-610.630458132147 33.2673439711203 1895.13516837443 160 164 165
-605.898116766721 32.8049604931185 1904.55001743365 167 171 172
-601.156031286067 32.3442598885294 1913.92882195849 177 178 182
-590.686090276047 31.6916627959913 1925.29984848594 179 178 183
-570.660580379557 30.720153620676 1939.95756709481 186 187 191
-560.146153706356 30.0736835460195 1951.16729535215 178 182 183
-552.478496090698 29.5258827270687 1961.31892359596 179 183 184
-546.70831862016 29.0439061083224 1970.76351188565 183 187 186
-538.056926680671 28.4683415792713 1981.14151922291 184 186 183
-533.218681599585 28.0219034442914 1990.17323559729 185 186 181
-519.748577698761 27.2923997606271 2002.04565168437 187 179 176
-502.420280393599 26.4398317627581 2015.10279506306 187 177 175
-482.184758155682 25.4966552114544 2028.99866674509 178 164 161
-444.632514163309 23.9931314900404 2048.38651172105 153 142 136
-417.591326996889 22.8412038762723 2064.15858963986 191 184 176
-412.624470620419 22.4125357368659 2072.72308750403 179 180 174
-407.647551650828 21.9854357513852 2081.25121498245 186 191 185
-407.475829984784 21.7150510524985 2088.23650913988 179 184 180
-404.41005289413 21.3525995842287 2096.10757773953 174 176 175
-406.159576888927 21.1456659665073 2102.47257038167 173 173 173
-406.943703753696 20.9083496992059 2109.13130008507 173 173 173
-408.692528850924 20.7022478756166 2115.49422300879 171 173 172
-411.408200725803 20.5271697721505 2121.56919586712 166 170 169
-415.092428336593 20.3827879323411 2127.36421499327 164 170 168
-414.907275178995 20.1167365765727 2134.30144747854 153 157 156
-416.6567824867 19.912144427801 2140.6678564457 151 155 154
-416.467019387512 19.6473989440815 2147.58972660313 149 153 152
-419.18526347166 19.4738936225491 2153.67617156502 144 148 147
-421.905136755997 19.3006691440965 2159.767913715 148 152 151
-425.597856377491 19.1576446998336 2165.595319001 146 150 149
-427.348619444489 18.9548424904648 2171.96752043032 148 152 151
-429.099322730869 18.7524515597895 2178.33975956576 143 147 146
-433.771716058177 18.6397183004713 2183.92637617225 138 142 141
-438.448368196875 18.5268968531083 2189.52874923342 137 141 140
-445.080067220122 18.4732128417769 2194.63359468835 140 144 143
-447.814418840745 18.3010217549243 2200.78067351515 148 150 147
-452.503807955273 18.1879403069806 2206.43017232044 145 147 144
-455.242302235936 18.0160499471353 2212.59282189532 142 144 141
-458.960541713087 17.8736626576466 2218.51445064728 135 137 134
-463.660452179074 17.7605196907532 2224.20297432856 129 131 128
-466.405112122977 17.5891004522562 2230.38881324397 110 112 109
-471.111995417732 17.4759597724172 2236.10322711576 108 110 107
-472.879670348286 17.2759384659529 2242.53997469634 110 112 109
-476.610776754194 17.1339910890594 2248.51058259321 113 115 112
-480.344845578244 16.9921992451272 2254.49135854088 120 122 119
-484.081662907141 16.8504361212509 2260.4823572807 124 126 123
-488.805149136157 16.7373681697621 2266.25846051019 121 125 124
-488.609025385759 16.4815322720441 2273.16233986251 122 126 125
-493.337233819185 16.3686980203614 2278.95612325727 125 129 128
-496.097155130346 16.1990085954142 2285.19971675187 126 130 129
-504.779752068915 16.1993769376448 2290.16062925917 127 131 130
-505.571442492054 15.9732084542892 2296.85355007708 135 139 138
-511.303053931272 15.8883470863801 2302.49411240085 126 130 129
-517.040238618543 15.8032166260626 2308.15519721146 134 138 137
-525.75257123051 15.8017993684484 2313.22445608928 139 143 142
-533.483903098666 15.7717103104811 2318.53152803176 130 134 133
-546.180117903122 15.880171204103 2322.87532142356 140 144 143
-557.899851729836 15.9595313504997 2327.47250904849 143 147 148
-570.62635705909 16.0653483524891 2331.92802502982 136 140 141
-583.368488673554 16.1697913445005 2336.4406908675 141 145 146
-597.120479218885 16.3004279022473 2340.8220528279 131 135 134
-609.894533247667 16.402103169905 2345.45149293706 124 128 127
-619.69776012936 16.4204462853905 2350.68718370975 144 148 147
-540.87843205442 33.1667482058283 1682.85561637593 98 85 76
-540.932245993342 32.8586392589948 1690.65446291555 103 89 80
-549.356405077335 32.843059595504 1694.64577758534 72 58 49
-565.239340164307 33.0851123358029 1695.31937114477 85 70 63
-569.96292966779 32.9376036685869 1701.07411374719 121 106 99
-568.163786159008 32.5646227409392 1709.7449764492 77 66 62
-619.287450787014 26.6393302224795 1884.12631356747 167 171 172
-606.003572274431 25.9252519982709 1896.70081587198 171 175 176
-597.456296091706 25.3631138050757 1907.47479031606 176 182 182
-587.940936989853 24.7736328819162 1918.53259121396 174 183 182
-579.361464366791 24.2160848638028 1929.18992458165 179 188 187
-564.087803272873 23.4546055112225 1942.139468326 181 190 187
-552.607516673008 22.8141485113469 1953.66326470393 176 181 175
-541.106897763084 22.1765269219952 1965.11429035191 184 185 179
-534.3678236937 21.6878304958314 1974.85363331829 196 189 181
-519.959840722528 20.9680574747028 1987.14728107416 194 184 175
-508.400325798325 20.3387205466793 1998.38486786589 179 160 153
-483.402957075167 19.306802810389 2014.02744125002 171 146 141
-459.324309869329 18.3090413953216 2029.20629169228 174 145 139
-434.246724324271 17.2875204428343 2044.55852874629 180 151 145
-414.892371598467 16.4434113550691 2057.89223574823 165 146 139
-404.158231619257 15.8609112905487 2068.32659887854 157 143 134
-403.025962805563 15.566327076547 2075.62568279364 183 180 173
-399.963564373462 15.2157241882551 2083.51770528592 171 172 166
-400.748089481511 14.9797842758691 2090.17785352451 162 167 163
-400.566833490248 14.7161056096515 2097.13198243904 167 169 168
-403.277506119542 14.5377282083752 2103.18724009692 174 174 174
-405.989868084416 14.359566928825 2109.24797735215 171 171 171
-406.770621729591 14.1255579941757 2115.89627102904 160 162 161
-410.451455863016 13.9759435405046 2121.67445821787 146 151 147
-412.199447430379 13.7707179651426 2128.03483962582 140 145 141
-415.884602241027 13.6213258835073 2133.82920903641 139 144 140
-417.634002024756 13.4167461704206 2140.19522663936 136 141 137
-416.47342349108 13.1297325763303 2147.39491082831 135 140 136
-419.191244089652 12.9536189788425 2153.47813674236 134 139 135
-421.910463035865 12.7777769034288 2159.56672587195 141 146 142
-426.57546298469 12.6568582844204 2165.12072450561 135 140 136
-428.326126874031 12.454009779048 2171.49252847885 134 139 135
-431.05047578497 12.2787946289453 2177.59963094734 130 135 131
-434.750209631965 12.1309153068038 2183.45001356213 130 135 131
-440.402921416889 12.0370981963502 2188.79198274643 128 133 129
-444.109958558219 11.8891900783278 2194.66853385896 126 131 127
-449.772615845314 11.7950025672027 2200.04719489195 117 119 116
-452.509333974332 11.620313775619 2206.20148318059 122 124 121
-457.203335686018 11.4991892264012 2211.863029662 127 129 126
-458.965605281373 11.2982622644819 2218.27913650896 134 136 133
-465.624704128903 11.2302604123361 2223.47667260609 134 136 133
-470.330630999651 11.1090275195975 2229.18242646341 131 133 130
-475.04077864527 10.9876241883345 2234.90374362461 128 130 127
-476.810502014768 10.7874526192667 2241.34800178956 120 122 119
-479.562276357973 10.6138241714681 2247.5588602961 117 119 116
-481.332440701988 10.4143814478293 2254.00521586785 114 116 113
-486.05356823695 10.293354579779 2259.76753688534 114 116 113
-487.825602421331 10.0944465628986 2266.22117239376 114 118 117
-489.597474110103 9.89596170421346 2272.67447174775 119 123 122
-492.354962858641 9.72366529752665 2278.90738770232 120 124 123
-496.100456657618 9.57731718004416 2284.92770575006 119 123 122
-501.823117853965 9.48225538857199 2290.52859756282 121 125 124
-506.5634227374 9.36137898657695 2296.36221531292 118 122 121
-512.296518757911 9.26594796829554 2302.00161647216 129 133 132
-519.024821923797 9.19557451456791 2307.45459733458 123 127 126
-525.75988140399 9.12487465344407 2312.93338601379 126 130 129
-534.483841506121 9.10416901575255 2318.03456683274 126 130 129
-547.184352816319 9.18330756583539 2322.3757997156 140 144 143
-559.900249979786 9.26112165923419 2326.774250086 141 147 147
-569.652567059919 9.26258565082309 2331.81119517086 136 142 142
-576.43503938452 9.18854675108414 2337.462981332 119 125 125
-583.224477836577 9.11407766547594 2343.14035976223 111 117 115
-584.049255818802 8.89074732221461 2349.95884907762 165 171 169
-537.308679988637 25.8949675380742 1684.49426494326 106 97 88
-540.148335417796 25.6819525448015 1691.00561307231 106 96 87
-550.435190620125 25.7070119781525 1694.14576998071 117 107 98
-571.912899419571 26.0866576275327 1692.29875039787 87 74 68
-580.370615738307 26.0485672397759 1696.40044441036 116 103 97
-577.643985184884 25.6555784857683 1705.51234701075 113 104 99
-609.884908856451 19.4421903659962 1879.74229142294 180 184 185
-603.255632158933 18.9605154122018 1889.89465252394 169 173 174
-599.468380446884 18.5622592806684 1898.96167147629 172 176 177
-589.006281309123 17.975995320405 1910.40369260561 172 178 178
-580.431766638573 17.4463309769953 1921.09610914921 172 182 181
-569.933851782814 16.8651335457495 1932.40835227848 180 189 186
-554.644906490654 16.1526747982903 1945.33209783418 183 189 185
-537.419549702817 15.3903033188356 1958.82838453779 185 186 178
-518.253451891523 14.5785776052956 1972.88149030754 189 185 176
-494.272482914785 13.6383478749463 1988.45932336395 194 180 171
-474.082130767901 12.8090903670094 2002.59482526113 177 159 149
-456.733028172949 12.0632258313051 2015.64208965657 167 139 128
-437.437368395219 11.2686797293939 2029.22500354582 176 146 136
-423.867394565888 10.6354626664871 2040.78834151652 176 142 133
-412.195023125203 10.0575999481852 2051.63848328064 171 138 129
-404.34644146046 9.58661288659528 2061.16687217549 164 141 133
-399.368657174479 9.19551479387347 2069.71451661412 153 136 128
-397.267923653052 8.88354641445969 2077.30508386063 184 181 174
-396.124783338781 8.59835746846559 2084.57066472772 172 173 167
-397.869016851917 8.39114034225046 2090.91583585594 166 171 167
-398.64873446829 8.15873140964239 2097.56036409596 156 160 159
-402.323042765304 8.00334409889646 2103.31067745349 165 167 166
-406.966229618656 7.87345276070332 2108.77802343373 160 162 161
-409.680113870228 7.69279762822737 2114.84376717543 151 153 152
-411.428018794563 7.48709105920546 2121.20352322059 133 138 134
-413.175919530588 7.28176045615107 2127.5635010806 129 134 130
-414.923797886689 7.07689457260811 2133.92368924791 132 137 133
-419.580659865471 6.9474145784814 2139.44206798974 130 135 131
-419.389805801221 6.69322210464861 2146.3665502257 127 132 128
-423.080635434762 6.53907228734173 2152.17898535623 131 136 132
-422.886810736172 6.28608987813699 2159.09320218058 135 140 136
-426.580436305863 6.1324543095778 2164.91634274378 130 135 131
-428.330260264369 5.92976071279737 2171.28512601963 128 133 129
-433.00203246113 5.8008958164855 2176.85925181905 124 129 125
-438.652701910299 5.69642594687512 2182.18691261652 123 128 124
-442.358351990308 5.54298825949943 2188.05482276161 126 131 127
-446.066573049243 5.38965045327598 2193.93327052979 129 134 130
-448.801017132944 5.21225683409986 2200.07647902482 119 121 118
-451.536579369527 5.03510223946778 2206.22491893243 117 119 116
-455.251736554367 4.88220421313172 2212.12939683065 116 118 115
-457.990938644316 4.70547340106413 2218.29068933205 119 121 118
-463.670566448034 4.60042714006408 2223.72550292092 122 124 121
-469.355835642596 4.49521943839153 2229.18115996313 126 128 125
-475.046758974808 4.38973328902452 2234.65763391295 124 126 123
-479.76146061975 4.26043804960784 2240.39087664342 116 118 115
-480.549799178185 4.03705453154805 2247.07311092592 113 115 112
-481.336544876184 3.8142596005205 2253.74980283285 112 114 111
-484.089754819581 3.63870324333603 2259.96477426047 112 114 111
-488.813975370248 3.50989567079001 2265.73366670956 107 111 110
-492.556885132818 3.35792535452144 2271.7408411746 106 110 109
-494.329919652265 3.15973925662387 2278.1986465129 105 109 108
-498.076590521503 3.00804889246241 2284.22089099946 104 108 107
-504.789324274864 2.92523670265792 2289.60821251791 104 108 107
-511.508838491476 2.84206642931355 2295.02141151479 103 107 106
-517.24631628332 2.73567291976438 2300.67016018908 91 95 94
-521.999541667818 2.60645687945303 2306.54648401624 100 104 103
-530.719204569035 2.5675030392812 2311.62018921069 100 104 103
-542.42267163908 2.59548390099999 2316.12454336569 111 115 114
-556.124463007608 2.66725676491252 2320.28236216667 115 119 118
-567.857757728057 2.69268328899051 2324.89584786649 124 130 130
-570.663971662908 2.51631126378175 2331.30709775578 127 133 133
-562.535459396257 2.09569380671958 2339.82795992209 120 126 126
-531.875547544226 18.5964330800438 1686.99029720329 97 96 91
-528.197491497776 18.1909201990747 1696.45815672855 104 101 96
-533.822585654685 18.0574705603005 1701.67163614684 163 160 155
-569.272742828688 18.787185842018 1693.47407263888 86 81 77
-578.662892966546 18.7573462269191 1697.14659939137 75 67 64
-596.706860827476 11.9094699881321 1884.50846749127 158 162 163
-591.014511505813 11.4776160606502 1894.27366128713 181 185 186
-589.118784892813 11.1454396121824 1902.61169166496 175 179 180
-576.737130113392 10.5460747073641 1914.71207745995 183 187 186
-567.194369498422 10.0226633733514 1925.71078381251 182 188 184
-554.772066192608 9.42907548902898 1937.6629678817 187 190 183
-531.824106322185 8.57324053443047 1953.2331233446 188 188 180
-502.149373460086 7.55406174782579 1971.00106309154 182 169 160
-465.732697450705 6.37343804947725 1990.91166218684 168 150 138
-445.528552278344 5.60579505841417 2005.03485346417 169 141 127
-431.03810742903 4.98512596111571 2017.08490545794 176 143 126
-422.274101266738 4.50992148190087 2027.10908936178 180 144 128
-416.372252066108 4.10781395266384 2036.11523148652 176 139 121
-413.338589435055 3.77791844582757 2044.12701793262 168 133 114
-409.337394405957 3.42590216367121 2052.42797167823 171 138 121
-407.250021963584 3.12197773032057 2060.07322451901 163 135 124
-402.270758893952 2.7493914967802 2068.62706594256 151 129 118
-398.244218361685 2.40151250591251 2076.83745789412 163 156 146
-396.136270004798 2.10127466080694 2084.4077148934 149 149 141
-395.951243825014 1.84809052554212 2091.35354251183 151 156 150
-396.7280656616 1.61855108866053 2097.99005996095 148 154 152
-400.400918816506 1.45798868081524 2103.73170337564 116 117 119
-407.942438510862 1.38848269110113 2108.30822510927 119 120 122
-412.591069507311 1.2503943127971 2113.79060894381 133 135 134
-415.30814340903 1.06705962554181 2119.86650350074 110 112 109
-417.058104344345 0.861461866950727 2126.23396180891 105 107 104
-419.777321374013 0.678688045775075 2132.31816748135 114 119 115
-423.468187382421 0.518439666843049 2138.12688735208 120 125 121
-423.278579785727 0.269388657968703 2145.0592435296 122 127 123
-425.029159836753 0.0653656378152706 2151.42999470047 130 135 131
-424.835377369185 -0.182357776599598 2158.34675955182 124 129 125
-427.557308756558 -0.363423702972057 2164.44212137779 115 120 116
-427.35958142468 -0.60988928164997 2171.34596287527 118 123 119
-433.005558812299 -0.724756085729708 2176.64870986518 118 123 119
-439.632060754137 -0.818167109519943 2181.71010704201 112 117 113
-445.289938617744 -0.933637553817215 2187.05758608251 118 123 119
-447.047312345136 -1.13558686001765 2193.45487007663 127 132 128
-450.759260724249 -1.29417210637651 2199.3429146726 128 130 127
-453.495832344805 -1.47404292908977 2205.49338734086 122 124 121
-457.212631719028 -1.63232272133763 2211.39963557863 115 117 114
-457.993618378028 -1.85422766221478 2218.0564362182 109 111 108
-464.654344611611 -1.94867255628973 2223.24331972842 109 111 108
-470.341111134271 -2.06456691535679 2228.69778906036 111 113 110
-476.033528361267 -2.1807104418405 2234.17308103873 111 113 110
-480.749315308823 -2.31795854847085 2239.90533226107 110 112 109
-483.503330698877 -2.49692249024826 2246.12021376123 109 111 108
-485.274704518168 -2.69638956295405 2252.57104450491 109 111 108
-489.014780818532 -2.85410478371552 2258.56500087068 109 111 108
-491.772674787081 -3.03230420817176 2264.79476544882 104 108 107
-496.503346048183 -3.16923019004468 2270.58341160532 104 108 107
-497.291826348108 -3.38792214000984 2277.26913415668 104 108 107
-502.028171994657 -3.52471740951145 2283.07800169664 101 105 104
-509.732982975398 -3.60077572680863 2288.25665517578 98 102 101
-519.423754093315 -3.63699147670356 2293.0413031494 94 98 97
-524.178286937487 -3.77461932576613 2298.91717054239 92 96 95
-529.927129987586 -3.89226310417341 2304.60101336226 99 103 102
-537.663589213328 -3.97021982404334 2309.8959720202 94 98 97
-551.358770692145 -3.9296273098945 2314.00956395565 97 101 100
-565.071037940813 -3.89054871921525 2318.18563619381 114 118 117
-575.820677021739 -3.91208058572469 2323.01460363261 121 127 127
-565.712163367772 -4.34657057800648 2331.96799109355 110 116 116
-517.166446188803 10.800220815871 1701.49089890275 123 124 119
-541.499799335816 10.5626542794602 1713.75390103538 117 114 109
-601.56528445205 5.15609563406387 1874.90333481009 166 170 171
-593.026612415877 4.67791494949075 1885.76133211716 150 154 155
-577.81008987675 4.04892158012975 1899.00759385317 174 178 179
-571.139845592155 3.61967802869238 1909.04002375291 173 177 178
-553.972011339446 2.95356461369954 1922.81065265806 186 190 189
-544.406281386005 2.46435025017959 1933.74566853568 187 192 188
-528.141256634004 1.82692601162686 1946.99004463095 186 186 178
-494.65345271254 0.807250689390401 1966.18669594901 191 184 176
-444.859624294259 -0.568559651462755 1990.86044986489 159 141 129
-426.56106705274 -1.23278596266453 2004.33043773107 171 142 128
-416.849385549229 -1.70228974699162 2014.73600833685 178 145 128
-409.995327365221 -2.10611512231369 2024.10202096036 169 132 114
-406.004899061875 -2.44494216835268 2032.4522054642 168 131 112
-403.925250105345 -2.74051010113664 2040.13048092863 169 134 112
-406.641591255651 -2.93086530863625 2046.19922253423 164 132 109
-405.515148708121 -3.20397708393556 2053.53442382988 160 127 108
-404.384424214282 -3.47618926598876 2060.85429505421 163 133 122
-399.399364119624 -3.82979309735955 2069.39859775501 153 129 117
-396.330592967863 -4.14081104804005 2077.29195144552 147 138 129
-396.146802076683 -4.38934343980364 2084.24530231575 139 139 131
-396.924775799833 -4.61687160444081 2090.88643728342 138 143 137
-396.735754484667 -4.86402636226681 2097.82216740298 141 147 145
-399.442288451987 -5.05001240193544 2103.85725532415 108 109 111
-404.084087087927 -5.19565782771876 2109.30950081906 103 104 106
-411.632984505149 -5.28152736503813 2113.90308350439 121 123 122
-416.285612510076 -5.42764541510556 2119.39523793362 105 107 104
-419.004421548172 -5.61346255215929 2125.476007423 99 101 98
-418.815620660271 -5.85812282825145 2132.41320180847 107 112 108
-421.535117287509 -6.04323964208948 2138.49696632898 115 120 116
-423.284898037107 -6.24757458380622 2144.86455291936 124 129 125
-425.03465287702 -6.45155993056741 2151.23226402811 129 134 130
-426.78435771617 -6.65507736332922 2157.60008491023 120 125 121
-429.507300441144 -6.83888862692718 2163.6974683723 105 110 106
-431.257622437885 -7.04163982431734 2170.0680644005 110 115 111
-434.957577345248 -7.2057410499803 2175.90809708594 117 122 118
-441.586703102528 -7.31262626923092 2180.97072907363 108 113 109
-446.270630745508 -7.45785849996557 2186.57965218434 90 95 91
-449.005004027297 -7.64081838768051 2192.71908355519 93 98 94
-451.740522512421 -7.82365791216179 2198.86377185512 103 105 102
-455.455715336338 -7.98744902582389 2204.76150474917 105 107 104
-459.173923334637 -8.15111959124505 2210.66957948008 105 107 104
-461.914902261616 -8.33326201601432 2216.83498144267 102 104 101
-467.59918328401 -8.45975074299006 2222.27260484748 99 101 98
-470.344987519602 -8.64164250927164 2228.45608048786 94 96 93
-476.038166215232 -8.7683298209318 2233.92754285604 98 100 97
-479.771650438264 -8.93165868462827 2239.89255094791 106 108 105
-486.458050245511 -9.04051773904487 2245.16658408152 104 106 103
-489.215081784749 -9.22196787016295 2251.39109430265 97 99 96
-492.9580054782 -9.38521138172345 2257.39213220748 96 98 95
-497.68944438082 -9.53045071942517 2263.17745082631 93 98 94
-502.425038555266 -9.67570850390882 2268.97818550869 96 101 97
-504.2035870581 -9.8742723727507 2275.45622468181 93 98 94
-507.957623113493 -10.037089838763 2281.49786056891 83 88 84
-516.656752004145 -10.1119101716404 2286.47268278083 81 86 82
-524.37664561547 -10.2049631988302 2291.69660554107 79 84 80
-529.134892976672 -10.350768484353 2297.58203042499 92 97 93
-534.888341024886 -10.4793356678669 2303.27514521166 81 86 82
-545.603921308551 -10.5217968974599 2307.96444530738 105 110 106
-557.32453950733 -10.5481360034742 2312.4981834579 91 96 92
-569.059334448419 -10.5755948229965 2317.08385014556 106 111 107
-575.840716752245 -10.6893664690528 2322.70650409721 136 142 142
-604.543621801555 -1.94154647002089 1873.68666820126 162 166 165
-584.585150858209 -2.62209900573825 1888.77698409435 184 188 189
-566.49772852617 -3.2598013004146 1903.0485493961 201 203 202
-553.144615002775 -3.7977359195865 1915.47627450364 215 217 216
-534.046994696575 -4.44673946733144 1929.88635808545 199 199 197
-523.506271511468 -4.92102821398134 1941.10715882476 194 191 186
-502.442046618528 -5.59992418584206 1955.98939327685 195 185 176
-452.671682236758 -6.83718054034706 1980.83774029505 135 113 102
-416.21376353622 -7.80305346901607 2000.73079575507 156 128 117
-407.455830939827 -8.22254436452764 2010.8117752363 154 117 101
-402.513575175529 -8.56570398621105 2019.52159595354 164 125 108
-401.395663190557 -8.83365024259743 2026.89173079426 158 120 99
-400.273502798866 -9.10070078475857 2034.24665764056 150 114 90
-402.027219065875 -9.31207625777165 2040.62441101286 166 134 109
-405.702410446239 -9.48683793136469 2046.36670014984 166 139 112
-405.534860001667 -9.73372486179848 2053.38138747344 159 131 107
-404.402111570663 -9.99790450206091 2060.69881554213 158 126 113
-398.450315286945 -10.3506289103486 2069.55162087655 151 127 115
-399.232778079659 -10.5769143832522 2076.21020745018 135 126 117
-398.084995370835 -10.8381132566888 2083.4736980921 136 136 128
-398.863184417529 -11.0630379535893 2090.11727620712 129 136 129
-398.673982068026 -11.3050305647202 2097.05559329085 121 127 125
-400.415071137237 -11.5113063563364 2103.38968402445 116 117 119
-405.057970308031 -11.6649930606109 2108.84093874731 95 96 98
-410.673127724517 -11.8015753160195 2114.01647624831 119 119 119
-415.325414061972 -11.9555678466745 2119.50239059837 109 111 108
-418.043306140595 -12.1439290499041 2125.57722038424 102 104 101
-416.881843015926 -12.4001663807938 2132.79305078164 108 113 109
-418.628659149109 -12.6046205809745 2139.14955503877 117 122 118
-421.346977920061 -12.7918540592608 2145.22761005862 125 130 126
-425.039168673186 -12.9619604059248 2151.03502464209 126 131 127
-429.707174386706 -13.1153158891495 2156.57970415296 115 120 116
-433.405540642259 -13.285363754241 2162.41101311129 105 110 106
-436.132326973925 -13.4718435563666 2168.52098235615 105 110 106
-440.810984964406 -13.6251312847414 2174.10525446046 117 122 118
-444.518059293204 -13.7949082842507 2179.96813677585 115 120 116
-450.181091170668 -13.9320017838365 2185.32109999451 91 96 92
-453.895222215783 -14.1017284319104 2191.21021430377 88 93 89
-458.590172051325 -14.2552540512861 2196.85482464375 94 96 93
-462.310375078592 -14.4248235955578 2202.76751124228 95 97 94
-465.05414293922 -14.6102852899252 2208.94024333332 95 97 94
-470.739792531481 -14.7478572845873 2214.37687959733 91 93 90
-477.412002121929 -14.8698633667101 2219.58992689214 88 90 87
-476.237845778436 -15.1179317615979 2226.76378729439 88 90 87
-479.971433232327 -15.2869625543827 2232.72557876267 93 95 92
-480.758331285932 -15.5024676571085 2239.40743875207 100 102 99
-492.366015934535 -15.5472570024771 2243.51022824992 97 99 96
-497.095959498187 -15.7009883560325 2249.284633554 92 94 91
-503.800536528029 -15.824138406422 2254.61713256575 89 91 88
-508.540260932437 -15.9781055839436 2260.42770332766 83 88 84
-515.257729355271 -16.1018440721448 2265.80676502361 86 91 87
-518.032199628516 -16.2862424793428 2272.09508948155 83 88 84
-519.819819989497 -16.4852778899438 2278.60651297914 77 82 78
-522.596093101086 -16.6690183084742 2284.9019464421 80 85 81
-529.332303419841 -16.7931913987042 2290.35031873933 84 89 85
-535.085034229289 -16.9325139661241 2296.03490919519 99 104 100
-541.834324292805 -17.0573982016983 2301.53232406372 86 91 87
-547.599129233667 -17.1971858033484 2307.26052078228 96 101 97
-554.36168628228 -17.3227090528959 2312.80678992624 81 86 82
-561.131480035139 -17.4486288784164 2318.3787481349 119 124 120
-607.499370777626 -8.77758970536964 1864.75865445145 201 205 204
-592.306306113568 -9.31602511310593 1878.14825521367 198 200 197
-572.328360926342 -9.93387282269838 1893.20585560065 115 117 116
-554.222277114987 -10.5142499166892 1907.44432661795 1 0 0
-537.992587704899 -11.0576735250505 1920.87924298911 1 0 0
-518.873963681774 -11.6463299398016 1935.24851488465 57 52 49
-500.678098071952 -12.2145036788697 1949.16134824045 209 194 187
-471.942993116088 -12.9565452888371 1966.69566273941 209 192 184
-431.688094290958 -13.8855306216654 1988.10170366366 155 131 119
-409.550044476924 -14.5024576154648 2002.93248100058 151 123 111
-402.696797746143 -14.8600842107386 2012.33160290456 155 122 105
-397.747300781574 -15.1840944041714 2021.02662841095 151 116 97
-395.664825671371 -15.4593194222407 2028.70725437209 156 119 100
-396.455619882575 -15.6865178359734 2035.39712650912 150 114 92
-399.166251709165 -15.8820400005191 2041.44047934606 165 133 110
-402.839257020251 -16.0618344694378 2047.17147459278 160 128 105
-399.782233708488 -16.3493066631222 2055.12238224651 158 127 109
-398.643126367725 -16.6049235171618 2062.42160702453 155 126 110
-397.499734633796 -16.8596116117663 2069.70551106054 135 112 98
-401.172215204095 -17.0377856991223 2075.43558107165 108 94 85
-401.953484415139 -17.2609292757949 2082.09171973927 123 116 106
-403.698771234488 -17.4686148205061 2088.4405058521 95 97 92
-404.477930912308 -17.6907634559865 2095.0894403901 86 91 87
-404.288549336064 -17.9271031151208 2102.03066101802 124 128 127
-405.064111504454 -18.1479403015401 2108.66706668889 113 117 116
-408.743181815973 -18.3243636871959 2114.422708419 81 83 82
-415.332713839818 -18.457134329786 2119.32106491092 129 129 127
-415.140438126623 -18.6914640420652 2126.2528091508 98 100 97
-416.886444581275 -18.896257846843 2132.60609282167 120 122 117
-419.603867370147 -19.0863844158163 2138.67806566716 129 131 126
-425.238483421637 -19.2337088196531 2143.91906723598 119 121 118
-426.988009403178 -19.4376676978004 2150.28594534935 112 114 111
-430.684460370141 -19.6131480198669 2156.10578442508 107 109 106
-434.383515609003 -19.78853231128 2161.93628230318 104 106 103
-439.060455124572 -19.9500262999438 2167.50899304381 100 102 99
-447.644014082839 -20.0563937650822 2172.03480954008 98 100 97
-449.403361666833 -20.259380087191 2178.43876735935 109 111 110
-455.070777230679 -20.4075229491225 2183.80103035742 102 104 103
-457.81078114035 -20.5964196722359 2189.95761893895 84 86 85
-463.487400220114 -20.7447315876321 2195.35394605628 82 84 81
-467.211178115034 -20.9199713251654 2201.27632557456 81 83 80
-472.89793291597 -21.068552971162 2206.70918532177 80 82 79
-478.590122138244 -21.2173659074249 2212.16300500823 76 78 75
-488.213424756535 -21.3139718178099 2216.65902848034 73 75 72
-487.045142690882 -21.5547189565429 2223.85932118274 70 72 69
-490.786626232465 -21.7298619468772 2229.84657035549 79 81 78
-491.580204935782 -21.9433957963435 2236.55447883401 83 85 82
-501.230400082643 -22.0413500869399 2241.14949769723 82 84 81
-507.937237227051 -22.1782139638841 2246.48080085673 83 85 82
-516.622409426643 -22.2902391532752 2251.38031541148 79 81 78
-524.331165248603 -22.4155085486854 2256.54254601441 81 86 82
-529.086942837653 -22.5786398061889 2262.4069333842 74 79 75
-533.8466430811 -22.741856393758 2268.28675995051 72 77 73
-531.690650426506 -22.9912199388326 2275.71075725856 81 86 82
-532.496650405903 -23.2028110368075 2282.46601005225 88 93 89
-534.290979301929 -23.4016980606746 2289.00243470924 79 84 80
-541.038750582851 -23.5398950947266 2294.48580563165 80 85 81
-544.819314215575 -23.7143011508559 2300.61861678498 66 71 67
-549.594693716027 -23.8767533811762 2306.55621091215 104 109 105
-549.409513747848 -24.0983864153425 2313.52231628043 191 196 192
-598.102356599415 -15.8171178344666 1860.49466356159 204 210 208
-591.465098915083 -16.1816077399382 1870.69044830507 182 187 183
-589.572042022584 -16.4740390969285 1879.06441282446 120 122 119
-562.916516734758 -17.1277107348572 1896.58295044991 3 3 1
-536.217855104669 -17.7756424761893 1913.94495516126 10 6 3
-518.058848810292 -18.2940893458686 1928.02510585066 9 4 1
-497.006349769177 -18.8494287785776 1943.02981224542 7 0 0
-473.054322851442 -19.4409196240845 1958.9352769696 155 137 127
-440.461180872333 -20.1486879740781 1977.75423408012 156 136 127
-417.381423923427 -20.7157271738805 1993.01738334308 141 115 102
-406.708425527177 -21.1045603446846 2003.80102432559 138 110 96
-402.722719109947 -21.3982042616072 2012.19633750696 126 93 76
-397.769359790829 -21.7034918274312 2020.88977235734 152 117 98
-395.684452625231 -21.9680087318178 2028.56812911588 159 122 103
-396.474261811412 -22.1925732472381 2035.25507793105 163 128 108
-397.262686318479 -22.4165154864405 2041.9372785767 163 128 108
-399.011234171195 -22.6270910241401 2048.29634767699 154 122 101
-398.835163910083 -22.8626884307536 2055.28745922844 157 128 110
-399.619427358865 -23.0849363284815 2061.95528039872 141 114 97
-401.365964632826 -23.2940662384063 2068.30779730786 124 101 87
-404.076924712523 -23.4903555840614 2074.35281354878 87 73 62
-404.85913717633 -23.7110954144381 2081.01397192861 108 99 90
-406.605762581286 -23.9189935396566 2087.36759373524 86 87 82
-408.352415364606 -24.1265193497509 2093.72155225264 78 80 77
-407.197007309811 -24.3698818768542 2100.96799241482 111 115 114
-408.941502339172 -24.5762338696021 2107.31468070151 119 123 122
-411.654725040587 -24.7703009437692 2113.36950063928 74 76 73
-416.308487874693 -24.9403211141107 2118.85077791938 106 106 104
-418.055849888644 -25.1457627104517 2125.20868553457 111 111 109
-423.686971190268 -25.3040917920547 2130.42976400465 122 124 119
-431.267281854138 -25.4394320628305 2135.10874468667 113 115 110
