ply
format ascii 1.0
comment KinectMotionCapture
element vertex 788
property float x
property float y
property float z
property uchar red
property uchar green
property uchar blue
end_header
-617.885172367096 -491.744220256805 1705.00004291534 19 22 13
-618.276178836823 -495.773941278458 1718.99998188019 18 21 10
-617.521286010742 -498.939156532288 1730.00001907349 17 20 11
-614.228129386902 -500.08636713028 1733.99996757507 16 19 10
-605.993211269379 -497.196793556213 1723.99997711182 15 18 7
-597.465097904205 -494.019776582718 1713.00005912781 16 19 8
-591.420292854309 -492.862284183502 1708.99999141693 15 18 9
-591.578423976898 -496.896624565125 1723.00004959106 15 18 7
-591.661274433136 -500.931620597839 1736.99998855591 14 17 6
-588.627874851227 -502.371907234192 1741.99998378754 13 16 7
-582.216262817383 -500.929117202759 1736.99998855591 11 14 7
-574.170410633087 -498.044967651367 1726.99999809265 12 14 9
-565.520167350769 -494.584798812866 1715.0000333786 12 14 9
-566.092789173126 -499.200165271759 1730.99994659424 12 14 9
-564.309000968933 -501.797556877136 1740.00000953674 13 16 9
-558.939397335052 -501.223266124725 1738.00003528595 13 16 9
-553.900241851807 -500.937938690186 1736.99998855591 13 16 9
-552.345037460327 -503.825724124908 1746.99997901917 13 16 9
-549.795567989349 -505.848824977875 1753.99994850159 14 17 10
-544.72291469574 -505.565464496613 1753.00002098084 15 18 9
-540.88830947876 -506.436228752136 1756.00004196167 16 19 10
-535.816609859467 -506.15394115448 1754.99999523163 20 20 10
-529.237866401672 -504.430174827576 1748.99995326996 11 11 1
-524.491369724274 -504.437446594238 1748.99995326996 22 22 14
-524.500012397766 -509.059846401215 1764.99998569489 20 21 15
-607.101738452911 -655.149281024933 2270.99990844727 10 12 7
-598.825633525848 -652.857899665833 2263.00001144409 20 23 16
-584.569275379181 -643.93150806427 2232.00011253357 17 20 13
-584.736526012421 -650.872766971588 2256.00004196167 15 18 9
-571.436762809753 -642.812132835388 2227.9999256134 10 13 2
-564.886927604675 -642.253041267395 2226.0000705719 12 15 6
-556.841373443604 -639.962911605835 2217.99993515015 11 14 5
-552.564442157745 -642.001271247864 2224.99990463257 9 12 3
-544.810593128204 -640.000343322754 2217.99993515015 8 10 5
-536.365866661072 -637.133955955505 2207.99994468689 9 11 6
-530.857801437378 -637.730479240417 2210.00003814697 10 12 7
-528.901040554047 -642.655789852142 2226.99999809265 11 14 7
-527.321636676788 -648.158967494965 2246.00005149841 10 13 6
-519.372880458832 -645.870625972748 2237.99991607666 10 13 6
-511.238098144531 -643.293857574463 2229.00009155273 10 13 6
-500.658810138702 -637.542366981506 2209.00011062622 11 14 7
-493.994623422623 -636.697232723236 2206.00008964539 11 14 7
-486.903995275497 -635.27500629425 2200.99997520447 11 14 7
-483.991831541061 -639.336884021759 2214.99991416931 11 14 7
-482.298225164413 -645.131230354309 2234.99989509583 11 14 7
-477.938920259476 -647.46218919754 2243.00003051758 11 14 7
-472.063183784485 -647.772669792175 2243.99995803833 10 13 6
-464.520484209061 -645.773887634277 2236.99998855591 11 14 7
-459.474742412567 -647.239327430725 2242.00010299683 10 13 6
-452.581405639648 -646.106541156769 2237.99991607666 9 12 5
-449.500203132629 -650.459349155426 2253.00002098084 10 13 6
-448.698759078979 -658.276975154877 2279.99997138977 13 16 9
-444.06270980835 -660.609483718872 2288.00010681152 14 17 10
-691.062152385712 -512.852489948273 1761.0000371933 20 23 16
-679.622292518616 -507.881760597229 1743.99995803833 27 30 23
-674.855589866638 -507.86304473877 1743.99995803833 26 29 22
-673.548579216003 -510.4660987854 1753.00002098084 18 21 12
-664.945721626282 -507.537484169006 1743.00003051758 23 26 17
-656.399250030518 -504.610121250153 1733.00004005432 19 22 13
-646.780729293823 -500.810384750366 1720.00002861023 19 22 13
-641.71439409256 -500.505805015564 1718.99998188019 18 21 12
-640.360832214355 -503.113687038422 1728.00004482269 18 21 12
-631.60252571106 -499.899506568909 1717.00000762939 18 21 12
-621.445059776306 -495.521783828735 1702.00002193451 17 20 11
-613.907516002655 -493.183165788651 1694.00000572205 15 18 11
-617.205083370209 -499.579340219498 1715.99996089935 16 19 10
-615.029811859131 -501.609325408936 1723.00004959106 16 19 10
-613.525986671448 -504.222333431244 1731.99999332428 15 18 11
-604.944229125977 -501.013815402985 1720.99995613098 14 17 8
-602.003991603851 -502.46399641037 1725.99995136261 12 15 6
-595.230877399445 -500.712692737579 1720.00002861023 14 17 10
-596.044957637787 -505.366623401642 1735.99994182587 15 18 11
-592.34493970871 -506.236851215363 1738.9999628067 13 16 7
-591.670691967011 -509.727895259857 1751.00004673004 11 14 7
-587.58008480072 -510.308504104614 1753.00002098084 10 12 7
-582.149803638458 -509.725511074066 1751.00004673004 10 12 7
-572.774112224579 -505.64980506897 1736.99998855591 10 12 7
-566.901683807373 -508.853852748871 1748.00002574921 13 16 9
-560.866475105286 -507.691323757172 1743.99995803833 13 16 9
-557.723701000214 -509.149491786957 1748.99995326996 12 15 8
-554.870545864105 -510.899364948273 1754.99999523163 12 15 6
-550.418138504028 -511.194288730621 1756.00004196167 14 17 8
-544.407188892365 -510.034263134003 1751.99997425079 17 20 11
-543.038904666901 -513.241648674011 1763.00001144409 17 20 9
-538.252949714661 -513.247311115265 1763.00001144409 13 16 5
-533.164799213409 -512.962341308594 1761.99996471405 21 24 13
-528.382539749146 -512.969195842743 1761.99996471405 24 27 20
-529.246807098389 -518.507957458496 1781.00001811981 18 20 15
-619.185984134674 -667.696535587311 2292.99998283386 6 8 7
-612.699329853058 -667.421221733093 2292.00005531311 18 20 17
-594.839930534363 -654.62452173233 2247.99990653992 16 18 13
-589.790523052216 -655.805826187134 2252.00009346008 14 16 11
-581.349849700928 -653.201699256897 2243.00003051758 12 15 8
-579.626381397247 -658.169627189636 2259.99999046326 11 14 7
-574.004411697388 -658.769845962524 2262.00008392334 11 14 7
-561.342120170593 -651.215612888336 2236.00006103516 10 13 6
-547.330856323242 -641.913771629334 2203.9999961853 8 10 5
-539.388120174408 -639.602065086365 2196.00009918213 8 10 5
-539.747595787048 -647.193491458893 2221.99988365173 9 11 6
-534.681618213654 -648.377656936646 2226.0000705719 9 11 6
-530.543744564056 -650.727331638336 2233.99996757507 10 13 6
-526.127576828003 -652.786076068878 2240.9999370575 10 13 6
-520.976960659027 -653.971195220947 2244.99988555908 10 13 6
-512.364387512207 -650.787115097046 2233.99996757507 10 13 6
-501.998066902161 -645.272374153137 2214.99991416931 10 13 6
-493.97400021553 -642.670929431915 2206.00008964539 10 13 6
-486.662030220032 -640.94340801239 2200.00004768372 10 13 6
-482.659906148911 -643.586277961731 2209.00011062622 10 13 6
-481.197953224182 -649.725556373596 2230.00001907349 9 12 5
-477.9172539711 -653.534591197968 2243.00003051758 9 12 5
-470.358580350876 -651.516437530518 2236.00006103516 8 11 4
-466.159850358963 -654.160439968109 2244.99988555908 15 16 8
-460.272580385208 -654.473602771759 2246.00005149841 9 10 2
-456.199377775192 -657.409429550171 2256.00004196167 18 19 11
-451.672524213791 -659.762680530548 2263.99993896484 4 5 0
-446.511626243591 -661.242008209229 2269.00005340576 13 14 9
-691.083192825317 -517.656564712524 1761.0000371933 15 18 9
-683.539092540741 -515.577912330627 1753.99994850159 9 12 3
-676.035165786743 -513.50063085556 1746.99997901917 18 21 12
-672.41358757019 -514.363765716553 1750 11 14 5
-669.15887594223 -515.521824359894 1753.99994850159 18 21 12
-652.626931667328 -506.394326686859 1723.00004959106 16 19 10
-648.299217224121 -506.672918796539 1723.99997711182 15 18 9
-641.354501247406 -504.895329475403 1718.00005435944 15 18 9
-641.484975814819 -508.702456951141 1730.99994659424 15 18 9
-631.246030330658 -504.281997680664 1715.99996089935 15 18 9
-623.646199703217 -501.919746398926 1707.99994468689 15 18 11
-619.353055953979 -502.203226089478 1708.99999141693 14 17 10
-620.091259479523 -506.601631641388 1723.99997711182 14 17 10
-618.96425485611 -509.531378746033 1733.99996757507 15 18 11
-612.824559211731 -508.348166942596 1730.00001907349 14 17 10
-606.00483417511 -506.578147411346 1723.99997711182 13 16 9
-601.31174325943 -506.572008132935 1723.99997711182 11 14 7
-595.581471920013 -505.685269832611 1720.99995613098 13 16 9
-592.958569526672 -507.443726062775 1726.99999809265 13 16 9
-590.644776821136 -509.496808052063 1733.99996757507 12 15 8
-588.29391002655 -511.550664901733 1741.00005626678 9 12 5
-585.905730724335 -513.605177402496 1748.00002574921 10 12 7
-584.477782249451 -516.541957855225 1758.00001621246 10 12 7
-579.698920249939 -516.541182994843 1758.00001621246 10 12 7
-570.996463298798 -513.015270233154 1746.00005149841 11 13 8
-565.927386283875 -512.722074985504 1745.00000476837 12 15 8
-565.045297145844 -516.249299049377 1756.99996948242 13 16 9
-560.909807682037 -516.838908195496 1758.99994373322 13 16 9
-555.183470249176 -515.960156917572 1756.00004196167 13 16 7
-549.78734254837 -515.375792980194 1753.99994850159 14 17 8
-546.888589859009 -517.142653465271 1759.99999046326 17 20 11
-545.18985748291 -520.085453987122 1769.99998092651 16 19 8
-539.773762226105 -519.502937793732 1768.00000667572 17 20 9
-533.461153507233 -518.039405345917 1763.00001144409 16 19 8
-529.275417327881 -518.633306026459 1764.99998569489 8 10 5
-616.470456123352 -670.974791049957 2282.99999237061 16 18 17
-604.664146900177 -664.817988872528 2262.00008392334 18 20 17
-589.796602725983 -655.134320259094 2229.00009155273 15 17 12
-583.750605583191 -655.15011548996 2229.00009155273 14 16 11
-585.220694541931 -663.690090179443 2257.99989700317 12 14 9
-580.891489982605 -665.764510631561 2265.00010490417 11 13 8
-577.539205551147 -669.015049934387 2276.00002288818 10 12 7
-569.608569145203 -666.975140571594 2269.00005340576 9 11 6
-553.521156311035 -655.234813690186 2229.00009155273 8 10 5
-545.510351657867 -652.901113033295 2220.99995613098 8 10 5
-539.486050605774 -652.919471263886 2220.99995613098 9 11 6
-536.343932151794 -656.465768814087 2233.00004005432 10 12 7
-528.624534606934 -654.42681312561 2226.0000705719 10 13 6
-526.342630386353 -659.150063991547 2242.00010299683 10 13 6
-518.172442913055 -656.523585319519 2233.00004005432 10 13 6
-513.720393180847 -658.601522445679 2240.00000953674 10 13 6
-507.190406322479 -658.033490180969 2237.99991607666 10 13 6
-498.432010412216 -654.525279998779 2226.0000705719 10 13 6
-488.8536632061 -649.840891361237 2210.00003814697 10 13 6
-484.824120998383 -652.507781982422 2219.00010108948 10 13 6
-481.824278831482 -656.64529800415 2233.00004005432 9 12 5
-481.73114657402 -664.900302886963 2260.99991798401 9 12 5
-474.75454211235 -663.745164871216 2256.99996948242 9 12 5
-469.668209552765 -665.237128734589 2262.00008392334 5 6 0
-463.939487934113 -665.846824645996 2263.99993896484 17 18 10
-459.412932395935 -668.221414089203 2272.0000743866 2 3 0
-451.650649309158 -665.890276432037 2263.99993896484 17 18 12
-701.45708322525 -526.638448238373 1774.99997615814 12 15 8
-678.939342498779 -513.264417648315 1730.00001907349 13 16 7
-683.559954166412 -520.362973213196 1753.99994850159 12 15 6
-677.602648735046 -519.452273845673 1751.00004673004 21 24 15
-672.816395759583 -519.432663917542 1751.00004673004 10 13 4
-667.650282382965 -519.117593765259 1750 16 19 10
-656.809747219086 -514.354109764099 1733.99996757507 14 17 8
-646.058082580566 -509.591996669769 1718.00005435944 14 17 8
-640.9952044487 -509.280323982239 1717.00000762939 13 16 7
-635.568797588348 -508.673131465912 1715.0000333786 13 16 7
-631.626129150391 -509.253144264221 1717.00000762939 13 16 7
-628.039121627808 -510.130822658539 1720.00002861023 12 15 8
-624.79954957962 -511.305868625641 1723.99997711182 10 13 6
-624.057292938232 -514.557898044586 1735.00001430511 11 14 7
-616.474151611328 -512.175858020782 1726.99999809265 13 16 9
-613.540828227997 -513.650119304657 1731.99999332428 13 16 9
-607.06627368927 -512.159585952759 1726.99999809265 12 15 8
-599.573850631714 -509.780287742615 1718.99998188019 11 14 7
-594.894528388977 -509.774327278137 1718.99998188019 10 13 6
-592.963099479675 -512.141525745392 1726.99999809265 10 13 6
-589.285969734192 -513.026773929596 1730.00001907349 10 13 6
-586.269378662109 -514.505863189697 1735.00001430511 10 13 6
-584.231972694397 -516.875326633453 1743.00003051758 12 14 9
-583.481848239899 -520.431697368622 1754.99999523163 11 13 8
-578.050911426544 -519.837200641632 1753.00002098084 11 13 8
-571.32351398468 -518.057286739349 1746.99997901917 11 13 8
-566.575288772583 -518.057286739349 1746.99997901917 12 15 8
-565.365493297577 -521.319985389709 1758.00001621246 13 16 9
-560.270071029663 -521.024823188782 1756.99996948242 13 16 9
-553.599953651428 -519.247651100159 1751.00004673004 14 17 8
-546.963036060333 -517.471015453339 1745.00000476837 17 20 11
-547.816872596741 -522.812187671661 1763.00001144409 18 21 12
-544.569313526154 -524.298906326294 1768.00000667572 17 20 11
-541.295111179352 -525.786161422729 1773.00000190735 14 17 6
-536.178708076477 -525.494754314423 1771.99995517731 24 27 18
-530.768513679504 -524.907350540161 1769.99998092651 24 26 21
-600.37225484848 -666.205167770386 2246.00005149841 15 17 12
-599.042177200317 -671.55921459198 2263.99993896484 13 15 10
-593.162715435028 -671.871304512024 2265.00010490417 12 14 9
-583.390176296234 -667.734146118164 2250.99992752075 10 12 7
-577.284276485443 -667.750477790833 2250.99992752075 10 12 7
-573.208391666412 -670.140385627747 2259.0000629425 7 9 4
-566.82962179184 -669.860661029816 2257.99989700317 7 9 4
-556.731641292572 -665.131449699402 2242.00010299683 8 10 5
-548.685312271118 -662.775754928589 2233.99996757507 9 11 6
-540.925204753876 -660.716831684113 2226.99999809265 10 12 7
-535.12442111969 -661.031782627106 2227.9999256134 11 13 8
-527.893245220184 -659.566700458527 2223.00004959106 10 13 6
-524.914860725403 -663.442730903625 2236.00006103516 10 13 6
-516.992807388306 -661.088109016418 2227.9999256134 10 13 6
-512.095332145691 -662.591099739075 2233.00004005432 10 13 6
-507.397055625916 -664.390981197357 2239.00008201599 10 13 6
-502.666115760803 -666.191279888153 2244.99988555908 10 13 6
-493.921011686325 -662.650406360626 2233.00004005432 10 13 6
-489.391773939133 -664.747953414917 2240.00000953674 10 13 6
-489.571213722229 -673.374772071838 2269.00005340576 10 13 6
-483.414500951767 -673.39563369751 2269.00005340576 9 12 5
-477.888524532318 -674.30704832077 2272.0000743866 9 12 5
-472.345978021622 -675.21858215332 2275.00009536743 9 10 2
-465.762257575989 -674.646198749542 2273.00000190735 12 13 5
-459.795653820038 -674.964427947998 2273.9999294281 11 12 6
-457.613497972488 -680.922448635101 2293.99991035461 19 20 15
-682.116627693176 -516.811728477478 1725.99995136261 20 23 16
-679.354310035706 -518.28521490097 1730.99994659424 19 22 13
-677.73574590683 -520.657956600189 1738.9999628067 22 25 16
-676.075220108032 -523.031532764435 1746.99997901917 8 11 2
-669.761776924133 -521.813571453094 1743.00003051758 22 25 16
-668.050229549408 -524.189233779907 1751.00004673004 11 14 5
-655.311763286591 -517.884492874146 1730.00001907349 13 16 7
-650.210678577423 -517.568051815033 1728.99997234344 13 16 7
-642.876863479614 -515.456736087799 1722.00000286102 13 16 7
-638.918101787567 -516.04038476944 1723.99997711182 13 16 7
-633.110642433167 -515.128433704376 1720.99995613098 12 15 6
-633.163213729858 -519.006550312042 1733.99996757507 12 15 8
-630.247056484222 -520.491003990173 1738.9999628067 11 14 7
-621.549785137177 -517.187476158142 1728.00004482269 12 15 8
-616.840541362762 -517.177283763886 1728.00004482269 13 16 9
-612.132370471954 -517.167925834656 1728.00004482269 13 16 9
-609.886109828949 -519.254446029663 1735.00001430511 12 15 8
-599.929451942444 -514.757692813873 1720.00002861023 12 15 8
-594.90042924881 -514.451622962952 1718.99998188019 11 14 7
-593.311607837677 -517.139196395874 1728.00004482269 10 13 6
-589.971601963043 -518.331170082092 1731.99999332428 11 14 7
-583.231747150421 -516.531229019165 1725.99995136261 11 14 7
-583.899617195129 -521.31587266922 1741.99998378754 12 14 9
-581.82168006897 -523.707211017609 1750 12 14 9
-574.754774570465 -521.61031961441 1743.00003051758 12 14 9
-567.726790904999 -519.514203071594 1735.99994182587 12 15 8
-563.007831573486 -519.513547420502 1735.99994182587 13 16 9
-563.435196876526 -524.301767349243 1751.99997425079 14 17 10
-558.036506175995 -523.703992366791 1750 13 16 9
-554.230272769928 -524.603307247162 1753.00002098084 14 17 8
-549.154460430145 -524.306058883667 1751.99997425079 15 18 9
-546.881318092346 -526.702880859375 1759.99999046326 19 22 13
-543.333292007446 -527.903318405151 1764.00005817413 18 21 12
-541.290581226349 -530.600726604462 1773.00000190735 21 24 15
-537.081360816956 -531.203806400299 1774.99997615814 13 16 7
-617.5217628479 -684.553444385529 2286.99994087219 24 26 23
-605.971157550812 -678.580939769745 2266.99995994568 14 16 11
-597.439765930176 -675.901293754578 2257.99989700317 12 14 9
-592.885375022888 -677.712261676788 2263.99993896484 11 13 8
-582.078695297241 -672.3393201828 2246.00005149841 9 11 6
-575.729370117188 -672.055542469025 2244.99988555908 9 11 6
-568.624377250671 -670.874178409576 2240.9999370575 7 9 4
-562.54518032074 -670.890510082245 2240.9999370575 7 9 4
-558.452606201172 -673.302412033081 2249.00007247925 9 11 6
-551.369369029999 -672.122120857239 2244.99988555908 9 11 6
-542.850375175476 -669.14564371109 2234.99989509583 11 13 8
-537.267804145813 -669.762253761292 2236.99998855591 11 13 8
-534.523785114288 -673.972129821777 2250.99992752075 9 12 5
-529.591023921967 -675.487756729126 2256.00004196167 9 12 5
-521.846532821655 -673.410594463348 2249.00007247925 9 12 5
-514.140009880066 -671.33367061615 2242.00010299683 9 12 5
-505.791306495667 -668.358504772186 2232.00011253357 9 12 5
-503.318011760712 -673.169016838074 2247.99990653992 10 13 6
-496.555238962173 -672.29038476944 2244.99988555908 10 13 6
-493.085622787476 -675.903916358948 2256.99996948242 10 13 6
-484.804004430771 -672.929346561432 2246.99997901917 10 13 6
-482.115507125854 -677.741348743439 2263.00001144409 10 13 6
-476.395338773727 -678.360998630524 2265.00010490417 10 13 6
-471.079230308533 -679.579675197601 2269.00005340576 17 18 12
-463.896989822388 -678.102970123291 2263.99993896484 19 20 14
-462.200671434402 -684.713542461395 2286.00001335144 24 25 19
-459.786176681519 -690.425872802734 2305.0000667572 2 3 0
-696.419894695282 -528.802096843719 1750 15 17 16
-689.650356769562 -527.265250682831 1745.00000476837 17 20 13
-686.049997806549 -528.146862983704 1748.00002574921 23 26 17
-677.758276462555 -525.404036045074 1738.9999628067 23 26 17
-674.161732196808 -526.287972927094 1741.99998378754 11 14 5
-670.934915542603 -527.47505903244 1746.00005149841 19 22 13
-663.87265920639 -525.642216205597 1740.00000953674 17 20 11
-655.329704284668 -522.602260112762 1730.00001907349 15 18 9
-650.603771209717 -522.584319114685 1730.00001907349 15 18 9
-648.119509220123 -524.379849433899 1735.99994182587 15 18 9
-641.897976398468 -523.155689239502 1731.99999332428 14 17 8
-636.067628860474 -522.234678268433 1728.99997234344 14 17 8
-630.254983901978 -521.314680576324 1725.99995136261 14 17 10
-625.910043716431 -521.60382270813 1726.99999809265 13 16 9
-619.762361049652 -520.383775234222 1723.00004959106 13 16 9
-614.708781242371 -520.070791244507 1722.00000286102 14 17 10
-613.55859041214 -523.080825805664 1731.99999332428 13 16 9
-610.246062278748 -524.279534816742 1735.99994182587 12 15 8
-604.471325874329 -523.365199565887 1733.00004005432 12 15 8
-600.444376468658 -523.961663246155 1735.00001430511 12 15 8
-596.064269542694 -524.256944656372 1735.99994182587 12 15 8
-592.020511627197 -524.855136871338 1738.00003528595 12 15 8
-586.27724647522 -523.944079875946 1735.00001430511 11 14 7
-585.914254188538 -527.865588665009 1748.00002574921 12 15 8
-583.486795425415 -529.975950717926 1754.99999523163 13 16 9
-577.394843101501 -528.765320777893 1751.00004673004 14 17 10
-570.671439170837 -526.951432228088 1745.00000476837 15 18 11
-565.278589725494 -526.346147060394 1743.00003051758 17 20 13
-562.470316886902 -528.157472610474 1748.99995326996 18 21 14
-556.441307067871 -526.949644088745 1745.00000476837 16 19 12
-554.861068725586 -529.970288276672 1754.99999523163 16 19 12
-550.719559192657 -530.575692653656 1756.99996948242 17 20 13
-548.121511936188 -532.691717147827 1764.00005817413 18 21 14
-543.02191734314 -532.392501831055 1763.00001144409 17 20 13
-542.813003063202 -536.925554275513 1777.99999713898 20 23 16
-540.707647800446 -539.647459983826 1786.99994087219 16 19 12
-620.441019535065 -687.118232250214 2275.00009536743 16 18 17
-620.748341083527 -694.379866123199 2299.00002479553 18 20 17
-612.372279167175 -691.977024078369 2290.99988937378 12 14 9
-600.07119178772 -685.04399061203 2267.99988746643 11 13 8
-587.371349334717 -677.507042884827 2243.00003051758 10 12 7
-586.987555027008 -684.16702747345 2265.00010490417 8 10 5
-576.996088027954 -679.651200771332 2250 8 10 5
-568.608462810516 -676.948130130768 2240.9999370575 6 8 3
-565.038979053497 -679.984748363495 2250.99992752075 7 9 4
-559.925675392151 -681.20950460434 2255.00011444092 9 11 6
-556.018471717834 -683.945119380951 2263.99993896484 10 12 7
-548.176407814026 -681.847631931305 2256.99996948242 10 12 7
-543.494403362274 -683.677732944489 2263.00001144409 10 12 7
-537.117719650269 -683.393537998199 2262.00008392334 9 12 5
-534.267365932465 -687.641322612762 2276.00002288818 9 12 5
-523.684024810791 -681.919276714325 2256.99996948242 9 12 5
-516.643524169922 -680.729389190674 2253.00002098084 9 12 5
-506.905198097229 -675.91381072998 2236.99998855591 9 12 5
-499.492555856705 -674.119889736176 2230.99994659424 10 13 6
-495.429813861847 -676.85854434967 2240.00000953674 10 13 6
-491.754978895187 -680.201888084412 2250.99992752075 10 13 6
-487.157195806503 -682.336926460266 2257.99989700317 11 14 7
-483.160346746445 -685.378789901733 2267.99988746643 11 14 7
-475.323259830475 -682.981491088867 2259.99999046326 11 14 7
-468.15213561058 -681.49071931839 2255.00011444092 14 15 9
-461.827337741852 -681.208789348602 2253.99994850159 4 5 0
-701.243937015533 -533.610641956329 1750 19 21 18
-708.386123180389 -542.729437351227 1779.99997138977 23 25 22
-703.509271144867 -542.701900005341 1779.99997138977 23 26 19
-686.467170715332 -533.22446346283 1748.99995326996 22 25 16
-674.274027347565 -527.407467365265 1730.00001907349 19 22 13
-671.087920665741 -528.603494167328 1733.99996757507 19 22 13
-668.266236782074 -530.105471611023 1738.9999628067 8 11 2
-658.932626247406 -526.426494121552 1726.99999809265 20 23 14
-652.318179607391 -524.882674217224 1722.00000286102 16 19 10
-649.117290973663 -526.082992553711 1725.99995136261 16 19 10
-651.86995267868 -532.161116600037 1746.00005149841 16 19 10
-647.843658924103 -532.753765583038 1748.00002574921 15 18 9
-638.657629489899 -529.08056974411 1735.99994182587 15 18 9
-628.8081407547 -524.799168109894 1722.00000286102 15 18 11
-623.385846614838 -524.175941944122 1720.00002861023 13 16 9
-619.054794311523 -524.467945098877 1720.99995613098 13 16 9
-617.575585842133 -527.198851108551 1730.00001907349 14 17 10
-614.985764026642 -529.016315937042 1735.99994182587 13 16 9
-612.716019153595 -531.139373779297 1743.00003051758 12 15 8
-605.526030063629 -528.99706363678 1735.99994182587 12 15 8
-600.797891616821 -528.988778591156 1735.99994182587 12 15 8
-594.010829925537 -527.153074741364 1730.00001907349 12 15 8
-591.345012187958 -528.974711894989 1735.99994182587 11 14 7
-588.985621929169 -531.101942062378 1743.00003051758 10 13 6
-587.259352207184 -533.839225769043 1751.99997425079 12 15 8
-580.830514431 -532.311499118805 1746.99997901917 13 16 9
-575.748801231384 -532.003402709961 1746.00005149841 14 17 10
-570.346295833588 -531.391263008118 1743.99995803833 16 19 12
-564.631283283234 -530.475258827209 1741.00005626678 18 21 14
-561.50609254837 -531.997561454773 1746.00005149841 19 22 15
-557.716727256775 -532.911062240601 1748.99995326996 18 21 14
-555.80872297287 -535.653471946716 1758.00001621246 17 20 13
-553.852438926697 -538.396537303925 1766.99995994568 17 20 13
-549.362301826477 -538.702785968781 1768.00000667572 17 20 13
-545.48317193985 -539.618968963623 1771.00002765656 16 19 12
-543.420195579529 -542.364060878754 1779.99997138977 14 17 10
-634.314239025116 -701.809585094452 2302.99997329712 11 13 12
-615.792453289032 -688.108026981354 2257.99989700317 11 13 8
-617.225289344788 -696.653127670288 2286.00001335144 15 17 12
-608.616888523102 -693.923234939575 2276.99995040894 11 13 8
-597.940802574158 -688.755691051483 2259.99999046326 9 11 6
-594.951212406158 -692.426562309265 2272.0000743866 8 10 5
-585.15864610672 -688.173890113831 2257.99989700317 7 9 4
-581.853270530701 -691.541135311127 2269.00005340576 7 9 4
-573.1600522995 -688.508450984955 2259.0000629425 7 9 4
-567.784249782562 -689.438283443451 2262.00008392334 8 10 5
-562.88880109787 -690.978169441223 2266.99995994568 9 11 6
-555.264949798584 -689.165592193604 2260.99991798401 10 12 7
-550.830841064453 -691.315889358521 2267.99988746643 10 12 7
-544.4375872612 -691.028237342834 2266.99995994568 9 11 6
-540.186762809753 -693.484246730804 2275.00009536743 9 12 5
-533.545017242432 -692.892253398895 2273.00000190735 9 12 5
-528.538227081299 -694.434523582459 2278.00011634827 9 12 5
-519.605994224548 -690.79464673996 2266.00003242493 9 12 5
-510.965287685394 -687.459707260132 2255.00011444092 9 12 5
-500.145316123962 -681.076109409332 2233.99996757507 10 13 6
-492.977917194366 -679.570555686951 2229.00009155273 10 13 6
-490.643322467804 -684.772491455078 2246.00005149841 10 13 6
-486.490398645401 -687.53582239151 2255.00011444092 11 14 7
-483.779519796371 -692.433655261993 2270.99990844727 11 14 7
-476.354837417603 -690.624117851257 2265.00010490417 12 15 8
-468.962401151657 -688.814461231232 2259.0000629425 16 17 12
-705.280721187592 -541.469693183899 1759.99999046326 18 20 15
-698.86326789856 -540.209591388702 1756.00004196167 24 26 21
-705.117762088776 -548.794746398926 1784.00003910065 20 23 14
-687.278032302856 -538.616299629211 1751.00004673004 19 22 13
-673.908531665802 -531.823575496674 1728.99997234344 18 21 12
-671.111166477203 -533.3371758461 1733.99996757507 17 20 11
-664.445459842682 -531.776249408722 1728.99997234344 15 18 9
-657.045781612396 -529.601454734802 1722.00000286102 15 18 9
-650.064945220947 -527.735471725464 1715.99996089935 15 18 9
-647.631645202637 -529.560923576355 1722.00000286102 15 18 9
-648.154139518738 -533.847570419312 1735.99994182587 15 18 9
-646.748602390289 -536.597371101379 1745.00000476837 15 18 9
-639.409184455872 -534.428179264069 1738.00003528595 14 17 8
-630.648672580719 -531.030178070068 1726.99999809265 15 18 11
-622.312068939209 -527.94075012207 1717.00000762939 14 17 10
-617.988348007202 -528.234720230103 1718.00005435944 13 16 9
-616.159439086914 -530.681848526001 1725.99995136261 13 16 9
-614.996671676636 -533.744633197784 1735.99994182587 13 16 9
-612.726032733917 -535.88593006134 1743.00003051758 13 16 9
-609.372138977051 -537.105739116669 1746.99997901917 13 16 9
-603.228807449341 -535.866856575012 1743.00003051758 13 16 9
-596.078276634216 -533.706545829773 1735.99994182587 12 15 8
-593.736112117767 -535.851240158081 1743.00003051758 12 15 8
-592.70840883255 -539.226293563843 1753.99994850159 12 15 8
-586.258709430695 -537.683486938477 1748.99995326996 15 18 11
-579.504787921906 -535.834014415741 1743.00003051758 15 18 11
-576.081931591034 -537.059485912323 1746.99997901917 16 19 12
-573.292315006256 -538.90061378479 1753.00002098084 17 20 13
-569.173574447632 -539.512753486633 1754.99999523163 18 21 14
-563.115298748016 -538.281261920929 1751.00004673004 18 21 14
-559.949398040771 -539.817094802856 1756.00004196167 20 23 16
-554.86011505127 -539.509177207947 1754.99999523163 23 26 19
-554.165065288544 -543.505668640137 1768.00000667572 20 23 16
-548.117816448212 -542.276859283447 1764.00005817413 22 25 18
-546.713054180145 -545.660018920898 1774.99997615814 20 23 16
-547.691464424133 -551.503002643585 1794.0000295639 15 18 11
-625.764846801758 -698.526322841644 2272.0000743866 6 8 7
-620.962381362915 -700.07461309433 2276.99995040894 19 21 18
-613.703072071075 -698.85641336441 2273.00000190735 8 11 4
-602.456510066986 -693.026661872864 2253.99994850159 10 12 7
-594.752788543701 -691.194474697113 2247.99990653992 9 11 6
-593.890011310577 -697.356998920441 2267.99988746643 9 11 6
-589.290857315063 -699.215531349182 2273.9999294281 8 10 5
-579.017817974091 -694.309830665588 2257.99989700317 8 10 5
-575.682282447815 -697.706818580627 2269.00005340576 9 11 6
-571.533858776093 -700.181841850281 2276.99995040894 8 10 5
-564.362764358521 -698.967158794403 2273.00000190735 8 10 5
-558.932483196259 -699.905633926392 2276.00002288818 11 13 8
-552.028596401215 -698.999106884003 2273.00000190735 12 14 9
-546.341955661774 -699.630856513977 2275.00009536743 8 10 5
-538.982152938843 -698.109984397888 2269.99998092651 9 11 6
-531.649649143219 -696.589529514313 2265.00010490417 9 11 6
-526.200115680695 -697.52961397171 2267.99988746643 9 11 6
-520.046353340149 -697.547316551209 2267.99988746643 9 11 6
-510.946929454803 -693.567097187042 2255.00011444092 9 11 6
-504.828274250031 -693.585276603699 2255.00011444092 9 11 6
-496.276617050171 -690.220236778259 2243.99995803833 12 14 9
-490.624397993088 -690.854072570801 2246.00005149841 6 8 3
-488.19699883461 -696.10208272934 2263.00001144409 12 14 9
-482.268929481506 -696.428835391998 2263.99993896484 8 10 5
-480.120569467545 -702.292919158936 2282.99999237061 12 14 9
-709.333419799805 -545.691907405853 1758.00001621246 135 137 136
-701.304018497467 -543.176889419556 1750 23 25 20
-701.678693294525 -547.181189060211 1763.00001144409 22 24 19
-699.612677097321 -549.324214458466 1769.99998092651 19 22 13
-683.772265911102 -540.606558322906 1741.99998378754 18 21 12
-674.323678016663 -536.856055259705 1730.00001907349 16 19 10
-671.522498130798 -538.382351398468 1735.00001430511 15 18 9
-667.927265167236 -539.288997650146 1738.00003528595 15 18 9
-655.922830104828 -533.370614051819 1718.99998188019 15 18 9
-652.358591556549 -534.279704093933 1722.00000286102 14 17 8
-648.403465747833 -534.879624843597 1723.99997711182 14 17 8
-645.185947418213 -536.101043224335 1728.00004482269 14 17 8
-643.060028553009 -538.254082202911 1735.00001430511 13 16 7
-639.057874679565 -538.856983184814 1736.99998855591 13 16 7
-633.585631847382 -538.2199883461 1735.00001430511 15 18 11
-627.038478851318 -536.653459072113 1730.00001907349 13 16 9
-621.239364147186 -535.70830821991 1726.99999809265 13 16 9
-617.95699596405 -536.935567855835 1730.99994659424 12 15 8
-616.071164608002 -539.404392242432 1738.9999628067 12 15 8
-613.791525363922 -541.563928127289 1746.00005149841 12 15 8
-611.126184463501 -543.414056301117 1751.99997425079 12 15 8
-606.69881105423 -543.714284896851 1753.00002098084 12 15 8
-598.146677017212 -540.293455123901 1741.99998378754 12 15 8
-594.084084033966 -540.905654430389 1743.99995803833 11 14 7
-589.335739612579 -540.898263454437 1743.99995803833 11 14 7
-584.253191947937 -540.58164358139 1743.00003051758 16 19 10
-575.519919395447 -536.854267120361 1730.99994659424 17 20 11
-574.107527732849 -539.950847625732 1741.00005626678 17 20 11
-572.968661785126 -543.358206748962 1751.99997425079 18 21 12
-569.500505924225 -544.59536075592 1756.00004196167 19 22 15
-562.473952770233 -542.421758174896 1748.99995326996 19 22 15
-558.993935585022 -543.660461902618 1753.00002098084 26 29 22
-552.963674068451 -542.418777942657 1748.99995326996 19 22 15
-550.403594970703 -544.589161872864 1756.00004196167 19 22 15
-545.941889286041 -544.899523258209 1756.99996948242 14 16 11
-546.711504459381 -550.48269033432 1774.99997615814 11 13 8
-630.436539649963 -709.963142871857 2289.00003433228 12 14 11
-622.042238712311 -707.492232322693 2280.99989891052 8 10 5
-613.421559333801 -704.711735248566 2272.0000743866 6 9 2
-602.711915969849 -699.450194835663 2255.00011444092 9 11 6
-599.23791885376 -702.563881874084 2265.00010490417 9 11 6
-598.328411579132 -708.780229091644 2285.00008583069 9 11 6
-591.350376605988 -707.862675189972 2282.00006484985 9 11 6
-584.132492542267 -706.635594367981 2278.00011634827 9 11 6
-577.95113325119 -706.649482250214 2278.00011634827 10 12 7
-573.777854442596 -709.145605564117 2286.00001335144 9 11 6
-567.823350429535 -709.470748901367 2286.99994087219 10 12 7
-558.916687965393 -706.073641777039 2276.00002288818 11 13 8
-550.555408000946 -703.297197818756 2266.99995994568 11 13 8
-544.164180755615 -703.002989292145 2266.00003242493 8 10 5
-535.641372203827 -699.916779994965 2256.00004196167 8 10 5
-527.172923088074 -696.830809116364 2246.00005149841 8 10 5
-519.454658031464 -694.675743579865 2239.00008201599 8 10 5
-516.818642616272 -699.346840381622 2253.99994850159 8 10 5
-512.74174451828 -702.156841754913 2263.00001144409 8 10 5
-507.944226264954 -704.036295413971 2269.00005340576 8 10 5
-500.902533531189 -702.81320810318 2265.00010490417 4 6 1
-489.950597286224 -696.004807949066 2243.00003051758 9 11 6
-486.452430486679 -699.746966362 2255.00011444092 9 11 6
-486.723065376282 -709.075093269348 2285.00008583069 9 11 6
-482.835054397583 -712.507605552673 2296.0000038147 2 4 0
-514.828205108643 -779.890835285187 2513.00001144409 7 9 6
-703.717410564423 -546.115875244141 1743.99995803833 23 25 20
-697.728872299194 -545.143842697144 1741.00005626678 19 21 16
-700.117230415344 -550.74816942215 1758.99994373322 16 19 12
-694.108247756958 -549.778461456299 1756.00004196167 20 23 14
-684.97759103775 -546.305596828461 1745.00000476837 18 21 12
-676.299035549164 -543.147325515747 1735.00001430511 14 17 8
-676.192462444305 -546.877384185791 1746.99997901917 13 16 7
-671.410322189331 -546.852052211761 1746.99997901917 13 16 7
-665.485262870789 -545.888841152191 1743.99995803833 13 16 7
-660.71492433548 -545.865774154663 1743.99995803833 13 16 7
-657.826960086823 -547.408819198608 1748.99995326996 13 16 7
-651.552975177765 -546.136081218719 1745.00000476837 12 15 6
-643.078625202179 -542.986869812012 1735.00001430511 12 15 6
-640.17915725708 -544.53307390213 1740.00000953674 12 15 6
-635.428011417389 -544.515550136566 1740.00000953674 13 16 9
-630.315959453583 -544.186174869537 1738.9999628067 13 16 9
-624.851107597351 -543.544888496399 1736.99998855591 12 15 8
-618.684530258179 -542.278707027435 1733.00004005432 12 15 8
-617.500901222229 -545.394361019135 1743.00003051758 13 16 9
-616.26410484314 -548.510730266571 1753.00002098084 13 16 9
-614.625215530396 -551.315009593964 1761.99996471405 13 16 9
-608.439147472382 -550.052583217621 1758.00001621246 13 16 9
-599.185824394226 -545.975267887115 1745.00000476837 15 18 11
-592.048346996307 -543.776214122772 1738.00003528595 17 20 13
-586.977601051331 -543.455243110657 1736.99998855591 18 21 14
-582.583665847778 -543.76083612442 1738.00003528595 17 20 11
-578.517854213715 -544.380128383636 1740.00000953674 17 20 11
-577.080309391022 -547.503113746643 1750 18 21 12
-575.262010097504 -550.313889980316 1758.99994373322 19 22 13
-571.125447750092 -550.935506820679 1761.0000371933 19 22 15
-561.833381652832 -546.552300453186 1746.99997901917 20 23 16
-557.082533836365 -546.549677848816 1746.99997901917 24 27 20
-551.067888736725 -545.296430587769 1743.00003051758 16 19 12
-547.583103179932 -546.546638011932 1746.99997901917 18 20 15
-543.766617774963 -547.484695911407 1750 13 15 10
-555.334866046906 -564.065873622894 1802.99997329712 14 16 11
-622.990608215332 -707.726299762726 2262.00008392334 12 14 9
-616.305112838745 -707.110166549683 2259.99999046326 9 12 3
-608.280897140503 -704.930126667023 2253.00002098084 9 12 3
-603.769600391388 -706.818222999573 2259.0000629425 8 11 4
-600.548803806305 -710.271298885345 2269.99998092651 9 11 6
-597.792267799377 -714.350998401642 2282.99999237061 9 11 6
-592.373907566071 -715.302109718323 2286.00001335144 10 12 7
-584.118902683258 -712.811768054962 2278.00011634827 10 12 7
-578.190922737122 -713.138043880463 2279.00004386902 10 12 7
-572.006583213806 -713.15199136734 2279.00004386902 10 12 7
-565.822303295136 -713.166236877441 2279.00004386902 11 13 8
-559.14705991745 -712.55499124527 2276.99995040894 11 13 8
-550.29708147049 -709.12778377533 2266.00003242493 10 12 7
-542.467355728149 -706.952512264252 2259.0000629425 8 10 5
-535.862684249878 -706.342279911041 2256.99996948242 9 11 6
-525.044143199921 -700.099050998688 2236.99998855591 9 11 6
-517.814040184021 -698.550462722778 2232.00011253357 9 11 6
-513.133108615875 -700.44481754303 2237.99991607666 9 11 6
-511.138379573822 -706.095397472382 2256.00004196167 9 11 6
-506.35951757431 -707.990527153015 2262.00008392334 5 7 2
-499.778926372528 -707.382082939148 2259.99999046326 11 13 8
-494.738072156906 -708.964884281158 2265.00010490417 12 14 9
-495.494067668915 -718.99938583374 2296.99993133545 10 12 7
-516.645967960358 -779.159367084503 2489.00008201599 14 16 13
-513.782680034637 -785.127878189087 2507.99989700317 65 67 66
-709.804356098175 -555.625140666962 1758.99994373322 11 13 10
-703.372359275818 -554.327487945557 1754.99999523163 14 17 10
-696.168541908264 -552.399694919586 1748.99995326996 22 25 16
-693.348050117493 -553.947329521179 1753.99994850159 19 22 13
-685.399055480957 -551.390767097473 1746.00005149841 18 21 12
-679.83478307724 -550.730228424072 1743.99995803833 14 17 8
-675.444781780243 -551.018476486206 1745.00000476837 13 16 7
-660.674154758453 -542.782485485077 1718.99998188019 12 15 6
-659.785330295563 -545.915126800537 1728.99997234344 13 16 7
-659.980177879334 -549.995720386505 1741.99998378754 13 16 7
-661.233961582184 -555.024266242981 1758.00001621246 13 16 7
-655.681014060974 -554.370999336243 1756.00004196167 13 16 7
-647.175371646881 -551.193296909332 1746.00005149841 13 16 7
-639.461874961853 -548.648357391357 1738.00003528595 12 15 6
-635.080337524414 -548.945605754852 1738.9999628067 13 16 9
-628.882527351379 -547.665476799011 1735.00001430511 13 16 9
-621.269106864929 -545.124053955078 1726.99999809265 12 15 8
-615.128815174103 -543.846189975739 1723.00004959106 13 16 9
-612.554430961609 -545.725703239441 1728.99997234344 13 16 9
-613.112688064575 -550.446689128876 1743.99995803833 14 17 10
-610.799849033356 -552.643537521362 1751.00004673004 13 16 9
-604.642868041992 -551.369428634644 1746.99997901917 14 17 10
-597.135305404663 -548.833847045898 1738.9999628067 17 20 13
-590.353965759277 -546.930611133575 1733.00004005432 18 21 14
-584.282159805298 -545.659303665161 1728.99997234344 19 22 15
-582.590937614441 -548.491656780243 1738.00003528595 17 20 11
-580.851674079895 -551.324665546417 1746.99997901917 17 20 11
-580.053746700287 -555.105149745941 1758.99994373322 17 20 11
-575.593948364258 -555.415153503418 1759.99999046326 18 21 12
-570.156633853912 -554.77911233902 1758.00001621246 18 21 14
-562.479913234711 -551.934897899628 1748.99995326996 18 21 14
-556.447327136993 -550.669312477112 1745.00000476837 11 14 7
-551.385819911957 -550.351142883301 1743.99995803833 22 24 19
-549.151539802551 -552.873849868774 1751.99997425079 23 25 20
-552.778124809265 -561.393022537231 1779.00004386902 15 17 12
-638.022661209106 -723.954916000366 2293.99991035461 6 8 7
-626.561999320984 -717.96715259552 2275.00009536743 8 10 5
-617.113709449768 -714.188992977142 2263.00001144409 1 4 0
-607.190847396851 -709.780097007751 2249.00007247925 13 16 7
-603.758931159973 -712.946176528931 2259.0000629425 10 13 6
-601.066648960114 -717.059671878815 2272.0000743866 10 12 7
-595.94738483429 -718.333303928375 2276.00002288818 10 12 7
-586.919903755188 -714.873313903809 2265.00010490417 10 12 7
-581.541895866394 -715.8322930336 2267.99988746643 10 12 7
-574.625909328461 -714.898228645325 2265.00010490417 9 11 6
-569.482922554016 -716.173887252808 2269.00005340576 11 13 8
-563.573718070984 -716.503143310547 2269.99998092651 12 14 9
-556.431353092194 -715.254664421082 2266.00003242493 11 13 8
-548.096537590027 -712.428152561188 2256.99996948242 10 12 7
-542.212009429932 -712.758541107178 2257.99989700317 10 12 7
-535.847067832947 -712.45801448822 2256.99996948242 10 12 7
-527.140736579895 -709.001064300537 2246.00005149841 10 12 7
-518.261969089508 -705.228686332703 2233.99996757507 10 12 7
-515.638709068298 -709.979951381683 2249.00007247925 10 12 7
-512.480854988098 -714.100360870361 2262.00008392334 10 12 7
-504.775524139404 -711.907207965851 2255.00011444092 10 12 7
-498.213589191437 -711.292684078217 2253.00002098084 11 13 8
-494.501918554306 -714.78283405304 2263.99993896484 8 10 5
-497.417271137238 -728.060722351074 2305.99999427795 18 20 15
-500.956535339355 -742.602527141571 2351.99999809265 8 10 5
-515.172779560089 -783.687353134155 2482.00011253357 135 137 134
-510.279655456543 -786.549210548401 2490.9999370575 103 105 104
-697.201728820801 -546.77414894104 1715.99996089935 25 27 24
-711.857616901398 -562.031626701355 1764.00005817413 30 32 27
-698.196053504944 -554.987192153931 1741.99998378754 20 23 16
-690.628349781036 -552.723407745361 1735.00001430511 11 14 5
-687.845051288605 -554.283916950226 1740.00000953674 14 17 8
-688.96222114563 -559.030830860138 1754.99999523163 14 17 8
-682.202517986298 -557.408213615417 1750 15 18 9
-672.375559806824 -553.238928318024 1736.99998855591 16 19 10
-654.166102409363 -542.064547538757 1702.00002193451 15 18 9
-655.994117259979 -547.452986240387 1718.99998188019 15 18 9
-656.594216823578 -551.886677742004 1733.00004005432 15 18 9
-655.990958213806 -555.365800857544 1743.99995803833 15 18 9
-651.968836784363 -555.97996711731 1746.00005149841 14 17 8
-644.971966743469 -554.047822952271 1740.00000953674 14 17 8
-639.48130607605 -553.390502929688 1738.00003528595 14 17 8
-634.003102779388 -552.734375 1735.99994182587 14 17 10
-631.074726581573 -554.30793762207 1741.00005626678 14 17 10
-621.645092964172 -550.151765346527 1728.00004482269 13 16 9
-615.501046180725 -548.862099647522 1723.99997711182 14 17 10
-612.21444606781 -550.12035369873 1728.00004482269 14 17 10
-609.962105751038 -552.334606647491 1735.00001430511 14 17 10
-605.579793453217 -552.639544010162 1735.99994182587 14 17 10
-601.193368434906 -552.945554256439 1736.99998855591 14 17 10
-596.802651882172 -553.252398967743 1738.00003528595 16 19 12
-592.067003250122 -553.241789340973 1738.00003528595 16 19 12
-588.68420124054 -554.505348205566 1741.99998378754 17 20 13
-587.627112865448 -557.99788236618 1753.00002098084 16 19 10
-588.173687458038 -563.082754611969 1769.00005340576 16 19 8
-584.676921367645 -564.348638057709 1773.00000190735 16 19 10
-576.907813549042 -561.477422714233 1764.00005817413 17 20 11
-571.783125400543 -561.153531074524 1763.00001144409 17 20 13
-564.735174179077 -558.920621871948 1756.00004196167 17 20 13
-559.639513492584 -558.598279953003 1754.99999523163 10 13 6
-554.233908653259 -557.958424091339 1753.00002098084 22 24 19
-557.929754257202 -566.54942035675 1779.99997138977 16 18 13
-570.490598678589 -584.371566772461 1835.99996566772 16 18 13
-726.799786090851 -800.499498844147 2515.00010490417 125 126 131
-718.823909759521 -799.231708049774 2510.99991798401 105 106 111
-644.411683082581 -737.502217292786 2316.99991226196 8 10 9
-635.091304779053 -734.008610248566 2305.99999427795 7 9 4
-624.194860458374 -728.605687618256 2289.00003433228 8 11 2
-610.961198806763 -720.338523387909 2263.00001144409 10 13 4
-605.886995792389 -721.621155738831 2266.99995994568 10 13 6
-600.262403488159 -722.267866134644 2269.00005340576 10 12 7
-594.62708234787 -722.914934158325 2270.99990844727 10 12 7
-585.094332695007 -718.787670135498 2257.99989700317 10 12 7
-577.17090845108 -716.570913791656 2250.99992752075 10 12 7
-572.330057621002 -718.174576759338 2256.00004196167 8 10 5
-564.701318740845 -716.276943683624 2250 10 12 7
-558.346629142761 -715.97146987915 2249.00007247925 12 14 9
-552.97976732254 -716.939866542816 2252.00009346008 11 13 8
-544.682562351227 -714.088320732117 2243.00003051758 10 12 7
-539.315819740295 -715.057551860809 2246.00005149841 11 13 8
-534.407615661621 -716.663837432861 2250.99992752075 11 13 8
-527.594804763794 -715.72357416153 2247.99990653992 11 13 8
-523.813903331757 -718.92261505127 2257.99989700317 11 13 8
-519.061744213104 -720.848500728607 2263.99993896484 11 13 8
-513.37069272995 -721.501290798187 2266.00003242493 11 13 8
-505.20658493042 -718.651831150055 2256.99996948242 13 15 10
-498.639076948166 -718.031585216522 2255.00011444092 6 8 3
-492.519080638886 -718.048214912415 2255.00011444092 12 14 9
-494.164079427719 -729.528725147247 2290.99988937378 15 17 12
-504.132986068726 -753.747642040253 2367.00010299683 16 18 13
-512.848019599915 -776.694059371948 2438.99989128113 28 30 25
-511.001825332642 -784.037530422211 2461.99989318848 94 96 93
-505.138695240021 -785.330951213837 2466.00008010864 102 103 107
-707.274854183197 -555.689036846161 1728.99997234344 36 38 33
-710.280120372772 -565.574824810028 1759.99999046326 21 24 17
-700.635969638824 -561.682343482971 1748.00002574921 15 18 9
-689.069509506226 -556.185007095337 1730.99994659424 16 19 10
-685.900688171387 -557.43682384491 1735.00001430511 15 18 11
-687.030553817749 -562.223792076111 1750 14 17 10
-680.673122406006 -560.90772151947 1746.00005149841 14 17 10
-670.468509197235 -556.380569934845 1731.99999332428 14 17 10
-661.495745182037 -552.818775177002 1720.99995613098 15 18 11
-652.966856956482 -549.579858779907 1710.99996566772 16 19 12
-651.314556598663 -552.123785018921 1718.99998188019 13 16 9
-651.124835014343 -555.953323841095 1730.99994659424 13 16 9
-646.390199661255 -555.929660797119 1730.99994659424 15 18 11
-642.398715019226 -556.549549102783 1733.00004005432 12 15 8
-637.661933898926 -556.528151035309 1733.00004005432 15 18 11
-636.213660240173 -559.39793586731 1741.99998378754 18 21 14
-632.180511951447 -560.020804405212 1743.99995803833 16 19 12
-627.778112888336 -560.323596000671 1745.00000476837 16 19 12
-620.872497558594 -558.379769325256 1738.9999628067 17 20 13
-616.126894950867 -558.363616466522 1738.9999628067 15 18 11
-608.921587467194 -556.100845336914 1731.99999332428 13 16 9
-604.895412921906 -556.728780269623 1733.99996757507 13 16 9
-601.551830768585 -557.999789714813 1738.00003528595 13 16 9
-599.904596805573 -560.876846313477 1746.99997901917 13 16 9
-594.121515750885 -559.902250766754 1743.99995803833 13 16 9
-591.059446334839 -561.496794223785 1748.99995326996 13 16 9
-588.306427001953 -563.413262367249 1754.99999523163 14 17 10
-585.189342498779 -565.009593963623 1759.99999046326 14 17 10
-582.705557346344 -567.248642444611 1766.99995994568 15 18 11
-576.914250850677 -566.278338432312 1764.00005817413 15 18 9
-574.059009552002 -568.197965621948 1769.99998092651 15 18 9
-569.5641040802 -568.513333797455 1771.00002765656 15 18 9
-560.919106006622 -564.656376838684 1758.99994373322 15 18 11
-559.295833110809 -567.862331867218 1769.00005340576 14 16 11
-568.589508533478 -582.304239273071 1814.00001049042 9 11 8
-721.593499183655 -801.551878452301 2496.99997901917 121 122 127
-711.661875247955 -798.02531003952 2486.00006103516 117 118 123
-652.662575244904 -746.032536029816 2323.99988174438 1 3 2
-644.126653671265 -743.470728397369 2315.99998474121 11 13 10
-633.706629276276 -738.662481307983 2301.00011825562 7 10 3
-627.458989620209 -738.67005109787 2301.00011825562 12 15 6
-618.781745433807 -735.789000988007 2292.00005531311 10 13 4
-606.144964694977 -728.093087673187 2267.99988746643 9 14 7
-600.516974925995 -728.744387626648 2269.99998092651 9 14 7
-594.878435134888 -729.396283626556 2272.0000743866 9 14 7
-584.047019481659 -723.627924919128 2253.99994850159 8 13 6
-579.467117786407 -725.565016269684 2259.99999046326 7 12 5
-575.616061687469 -728.465795516968 2269.00005340576 6 11 4
-570.712268352509 -730.082869529724 2273.9999294281 9 14 7
-559.823393821716 -723.995089530945 2255.00011444092 10 15 8
