ply
format ascii 1.0
comment KinectMotionCapture
element vertex 752
property float x
property float y
property float z
property uchar red
property uchar green
property uchar blue
end_header
-1127.51937728161 223.999115424616 2854.38876795202 164 168 171
-1134.54838311887 222.310953326696 2860.57032551821 172 176 179
-1141.55094738509 220.972792630827 2864.73864665478 166 170 173
-1148.56066870357 220.330934286246 2864.87349255332 158 162 165
-1155.54125721374 219.342164526212 2867.02826182935 153 157 158
-1162.53308690652 218.70087611616 2867.16509872736 150 154 155
-1169.51863722452 218.059629405169 2867.3027191444 140 144 145
-1176.43925720604 216.899445272079 2870.47311065012 136 140 141
-1183.47082233874 216.777447681491 2867.58055997168 132 136 137
-1190.58701853586 217.172413293369 2861.65254460047 122 126 127
-1197.89486011427 218.600066046771 2849.65153061595 111 115 114
-1205.35195680593 220.540358556041 2834.60723889382 96 100 101
-1212.6525173467 221.270674222258 2826.63995861366 95 99 100
-1219.81134509218 221.138595936598 2823.73131259192 88 92 93
-1226.82636846729 220.318537331608 2824.87365320737 72 76 77
-1234.03514759418 220.356899069584 2820.95063760261 96 100 101
-1241.0839834089 219.708395710852 2821.08037947393 103 107 108
-1247.84771383823 218.032892903281 2827.29500850494 117 121 122
-1254.47460164288 216.017641528595 2835.5432238674 153 157 158
-1261.41492683276 215.201443289953 2836.69463593988 147 151 152
-1268.67068713286 215.409657882377 2831.75762296281 126 130 131
-1276.00410023968 215.786816508523 2825.80278736825 105 109 110
-1283.06396841228 215.310456150098 2824.92301203587 105 109 110
-1289.99771889716 214.493840647207 2826.07524569152 128 130 129
-1297.05024702458 214.017619419731 2825.19638598698 135 136 138
-1304.03392866655 213.371597038251 2825.33449244905 144 145 147
-1310.86994508716 212.386662352772 2827.50729336762 159 160 162
-1317.39547726185 210.725139697285 2833.75161131637 147 151 152
-1324.11052435677 209.573721877991 2836.94763401723 143 147 148
-1331.35415172952 209.606877473087 2833.0202832676 143 147 148
-1338.69431755775 209.807714255495 2828.07275640882 162 166 169
-1346.05495168763 210.007008200844 2823.12267929001 159 164 167
-1353.00239641529 209.362455704204 2823.26506376512 169 174 177
-1360.39087750349 209.559736749715 2818.31151681145 170 175 178
-1367.98409933918 210.091724195918 2811.31592352038 167 171 172
-1375.98791142599 211.293325063133 2800.23633892874 165 169 170
-1383.65448249358 211.820251548037 2793.23160541502 163 167 168
-1391.1520678358 212.009925082262 2788.26446292957 165 169 170
-1399.39018503746 213.369830884082 2776.14729418745 169 173 174
-1408.31979750561 215.728997882821 2757.89483654746 164 168 169
-1416.90680286096 217.413921933497 2743.71789850599 156 160 161
-1424.23179611706 217.092113938908 2741.79694302425 155 159 160
-1431.90211182382 217.27000716905 2736.80827583349 155 159 160
-1439.47676152078 217.279954604411 2732.83967657264 155 159 160
-1447.18567679078 217.455299237548 2727.84619909622 153 157 158
-1455.15847640786 217.961522762446 2720.80330459045 160 164 165
-1464.03295200325 219.627147892763 2706.59054278555 175 179 180
-1474.50035175611 223.277378932645 2680.08056082077 158 162 163
-1483.67445762554 225.09729921937 2664.82231350007 147 151 150
-1493.84950811589 228.069998518278 2642.38182818087 119 123 122
-1504.81152624818 231.86138618684 2614.80206193735 125 127 126
-1516.60081044088 236.468596373551 2582.07799331222 127 129 128
-1105.7963747407 221.412616379745 2838.96667231733 135 137 132
-1112.90035723013 220.940881099085 2838.08137959903 175 180 176
-1120.0276069296 218.579687554971 2848.28367824663 172 176 175
-1127.09371732341 215.87911603467 2860.50987465434 157 161 164
-1134.10803780263 214.211090163149 2866.69321183836 168 172 175
-1141.12510844541 213.743607638805 2865.81875400522 165 169 172
-1148.1498683073 213.44692581101 2863.93495943851 157 161 164
-1155.14522358659 212.636959061059 2865.0797279395 153 157 158
-1162.1150017334 211.656821034784 2867.23582355361 150 154 155
-1169.08437838877 210.84794191145 2868.38383116906 147 151 152
-1176.06144611942 210.209893227513 2868.52250174096 138 142 143
-1183.18665473698 210.762677750783 2861.58525896429 132 136 135
-1190.36803026554 211.482938278516 2853.63287874889 125 129 128
-1197.69600779278 212.879506882479 2841.629433776 116 120 119
-1205.20283937155 214.950206973528 2825.57066464333 97 101 100
-1212.69098944854 216.507085822221 2812.53888154491 82 86 85
-1219.81642704824 216.028728174979 2811.65092879546 76 80 79
-1226.74969113086 214.704958408537 2815.82810055599 81 85 84
-1233.69608254856 213.55176234383 2818.995257536 92 96 95
-1240.70714370622 212.737062402268 2820.13807850092 113 117 116
-1247.42862506818 210.911979573178 2827.36606097762 129 133 134
-1254.20415832912 209.426188729027 2832.57103038714 158 162 163
-1261.04974226341 208.278698013277 2835.75075252028 141 145 146
-1268.30776000614 208.476078521238 2830.81348635889 116 120 121
-1275.6432874378 208.839632594518 2824.85818246746 107 111 112
-1282.76585100632 208.530899699423 2822.96245458117 112 116 117
-1289.70546412556 207.719437519746 2824.11418331235 125 127 126
-1296.6984218791 207.075807802445 2824.2508856008 131 132 134
-1303.68511325099 206.43242798414 2824.38836923852 155 156 158
-1310.38341807932 205.121834804946 2828.59482782485 156 157 159
-1317.05395334676 203.813067924465 2832.80450680997 152 156 157
-1323.6965861645 202.505901927485 2837.01790390873 146 150 151
-1330.86133747055 202.364756698047 2834.10854253912 144 148 149
-1338.1170922279 202.389017490995 2830.17970178773 160 164 165
-1345.47186727806 202.577994420938 2825.23038301692 163 168 171
-1352.5008774486 202.102405450505 2824.35445654935 176 181 184
-1359.9753311741 202.454752598812 2818.38208525955 160 166 166
-1367.75160151019 203.301477682621 2809.34720528231 168 172 173
-1375.75927880935 204.475748299441 2798.26721030826 169 173 176
-1383.23566117829 204.656142034537 2793.30273826654 166 170 171
-1390.9326186328 205.16476885152 2786.29426090291 162 166 167
-1399.27718797743 206.659384714759 2773.15576571034 168 172 173
-1408.52832984347 209.465570802785 2751.83870433018 154 158 159
-1416.80516160867 210.621440569305 2740.72516892797 149 153 154
-1424.35954462323 210.624765918179 2736.7591162683 151 155 156
-1431.81575028553 210.463114906125 2733.81367738808 154 158 159
-1439.51401768165 210.628328153145 2728.82155538402 157 161 162
-1446.87665582295 210.301491682964 2726.89567501673 157 161 162
-1455.33709047228 211.445067670077 2715.75925943527 161 165 166
-1464.71944077625 213.727644777545 2697.45050448668 154 158 159
-1475.08007224723 217.145512754343 2671.96238585906 157 161 162
-1483.88478983151 218.437640236875 2659.77468723069 159 163 162
-1493.80532361677 221.02729375846 2639.38258729415 117 121 120
-1504.77121788139 224.747842863913 2611.80252388306 123 125 124
-1516.15073479627 228.783729591489 2582.154397915 131 133 132
-1105.36942160207 214.271570037636 2839.03875923628 166 168 163
-1112.49905552593 212.953953570344 2843.19140899705 174 176 175
-1119.60797455624 211.13076511368 2850.37103655449 174 175 177
-1126.67149183424 208.634708070971 2861.58933088793 154 158 161
-1133.69071858689 207.323286559574 2865.75550222802 160 164 167
-1140.69936340789 206.518773880824 2866.89859790967 170 174 177
-1147.73005259058 206.387960843843 2864.00593949103 152 156 157
-1154.73725066762 205.751727824815 2864.14108546109 153 154 156
-1161.76587751419 205.451485066232 2862.25681769513 148 149 151
-1168.74938274607 204.647260035365 2863.40304989137 145 147 146
-1175.77879146383 204.34625330468 2861.51892683315 135 137 136
-1182.85651307323 204.379466943262 2857.61227998911 132 134 131
-1190.09708521703 205.41462116062 2847.63606865964 123 125 122
-1197.41243037613 206.613408429255 2836.64240807992 115 117 114
-1205.02064473828 209.143303328366 2817.54671640749 104 106 103
-1212.56137517269 210.832979044202 2803.50033477729 82 84 81
-1219.71125645179 210.35315377758 2802.60933546609 43 45 42
-1226.47956644982 208.209886728987 2811.8479263978 84 86 83
-1233.23385850353 206.236205332476 2820.07989272138 110 112 109
-1240.15598014505 205.095337751391 2823.2502862281 128 130 127
-1247.05545292144 203.955731362542 2826.42326258924 145 147 146
-1253.98133723309 202.983047956485 2828.584816263 148 150 149
-1260.94156508045 202.176660270994 2829.73371876575 126 128 127
-1268.16113437042 202.197045038999 2825.80940395414 111 113 112
-1275.39570989993 202.216205073554 2821.88321967784 116 118 117
-1282.5264055926 201.904356200115 2819.98648515635 112 114 113
-1289.47459853852 201.097901600115 2821.1371299886 133 137 136
-1296.41103908505 200.292103608231 2822.28899945292 137 141 140
-1303.2004624131 199.158256338706 2825.47593443692 157 161 160
-1309.82678673498 197.697436504243 2830.69921821091 160 164 163
-1316.63886580657 196.730629534726 2832.87495863043 148 152 151
-1323.43390751391 195.764788498711 2835.05282266854 144 148 147
-1330.60378678268 195.617973956298 2832.14307655817 144 148 147
-1337.70238670563 195.307002680963 2830.25010481913 165 169 168
-1345.14043093692 195.648560301821 2824.28230563279 168 172 173
-1352.4314911577 195.662121243915 2820.34908714597 159 163 164
-1359.91606138421 196.000413776999 2814.37525012024 163 167 168
-1367.79371866111 196.987578966962 2804.31990097871 169 174 177
-1375.52982633114 197.646460997653 2796.29845510968 167 172 176
-1383.10815320577 197.978123750032 2790.31293526784 164 169 172
-1390.91217941638 198.632290785628 2782.28302598325 164 169 172
-1399.26558878498 200.093824754927 2769.14351472794 170 174 177
-1408.73475377656 203.168836116464 2745.78316321248 150 154 157
-1416.70245120799 203.811827324634 2737.73261788955 149 153 156
-1424.26439427415 203.806670784959 2733.76588438563 152 153 157
-1431.38844523042 203.155466066751 2733.88624696588 158 159 161
-1438.97012800388 203.148959907252 2729.91681334862 158 159 161
-1446.09252985337 202.497919968803 2730.03738129371 163 164 166
-1454.54325298677 203.615030621036 2718.90224734754 157 161 162
-1464.03883829645 206.012804442215 2699.57137087503 156 160 161
-1474.89693225843 210.007554675185 2669.98842374037 140 144 145
-1483.96398009152 211.589991745426 2655.75184913147 147 151 152
-1494.55232660697 214.92750925 2630.23552461265 116 120 121
-1505.13387953311 218.09670469055 2605.72817826197 115 117 116
-1517.34928136626 223.013511859195 2569.92705606729 136 138 137
-1097.67755010236 210.103272950612 2824.89336883974 112 114 109
-1104.95805435397 206.796024966306 2841.12539648386 178 180 175
-1112.09396623209 205.159520366218 2847.29347676999 175 177 176
-1119.18621584271 203.857752848593 2851.4507501344 171 172 174
-1126.24951937603 201.560651341593 2861.66061983265 150 154 157
-1133.27284345222 200.428951433967 2864.81811946235 156 160 163
-1140.27370856971 199.298234374468 2867.97841924901 174 178 181
-1147.31002247895 199.327934535402 2864.07694909377 151 155 156
-1154.33971836652 199.025356733355 2862.19279433581 155 157 156
-1161.37387820343 198.722136218961 2860.30808419593 147 149 148
-1168.3797692663 198.088223542558 2860.44314689435 141 143 142
-1175.43651357689 197.949002036666 2857.54725909319 128 130 127
-1182.59010647927 198.467551671584 2850.60680455068 126 128 125
-1189.84841310129 199.477299029748 2840.62844697123 110 112 109
-1197.26273399518 201.140866664862 2826.59790925907 109 110 105
-1204.86541162333 203.456104593158 2808.511160928 103 104 99
-1212.36354711833 204.781152906767 2796.4864293241 30 32 27
-1219.53264984405 204.300222568061 2795.59303420015 58 60 57
-1226.35957768761 202.346611485233 2803.81612342086 85 87 84
-1233.0558948905 200.069069397336 2814.07197960326 115 117 114
-1239.86518493318 198.448415540812 2820.28077862112 145 147 144
-1246.68170831528 196.993156703495 2825.48031203215 155 157 154
-1253.61100107294 196.028557544587 2827.64141906242 114 116 115
-1260.52313469551 195.064872354489 2829.8046650444 109 111 110
-1267.85045233832 195.402285983488 2823.85069479475 108 110 109
-1275.09023045212 195.413171531995 2819.92388305726 114 116 115
-1282.2857065181 195.260573130443 2817.01071758077 125 127 126
-1289.18040590922 194.297192351355 2819.17613845012 132 136 137
-1296.05792221912 193.334816649872 2821.34370101957 140 144 145
-1302.85086386503 192.211761483888 2824.52992824894 160 164 165
-1309.55118078798 190.928661636632 2828.73606333504 154 158 159
-1316.36926188041 189.96971396647 2830.91103404066 142 146 147
-1323.24587830194 189.172982667619 2832.07034532529 151 155 156
-1330.345357185 188.85947943039 2830.1775108338 158 162 163
-1337.28751300853 188.224192335038 2830.32053093277 162 166 167
-1344.47410834186 188.070788580591 2827.40871610883 155 159 160
-1351.84300705246 188.237276179806 2822.45769401355 158 162 163
-1359.58839039064 189.042998825334 2813.42677652951 165 169 170
-1367.55907435819 190.165786573387 2802.35153368285 169 174 178
-1375.20511232618 190.645735742153 2795.34948629166 168 173 177
-1382.78540597151 190.963808349487 2789.36399706637 166 171 175
-1390.79051992215 191.917887437566 2779.2925889478 164 169 172
-1399.25246456445 193.505727237275 2765.13151341189 167 171 174
-1408.30865669722 195.884342254885 2745.85552106423 152 156 159
-1416.27518103528 196.508535983086 2737.80517163891 151 155 158
-1423.83662293814 196.495348874436 2733.83852182542 153 154 158
-1430.96091482739 195.847055194835 2733.95884667255 154 155 157
-1438.5420982937 195.83254820921 2729.98949643576 150 151 153
-1445.54612324789 195.026179843569 2731.13317353636 149 150 152
-1453.87145196877 195.958605246917 2721.02186153177 154 158 159
-1463.48262028449 198.465988977328 2700.66834496271 163 167 168
-1475.21919034148 203.488647320401 2663.91877202063 149 153 154
-1485.20448053812 206.136980668644 2642.51050896862 138 142 143
-1495.42816245606 208.935507646815 2620.06441341138 108 112 113
-1505.89823454965 211.883716203579 2596.57924826882 127 129 128
-1097.3550062517 201.277679236782 2835.0344540805 146 148 143
-1104.51488494927 199.98602376371 2839.18302083623 183 185 180
-1111.67380133244 197.876908233584 2848.37277646351 173 175 174
-1118.7592004288 196.916189892453 2850.51439212561 169 170 172
-1125.82746876381 195.139131100424 2857.69921143741 154 158 161
-1132.86260292128 194.01766770621 2860.85521028128 153 157 160
-1139.8644270487 192.571151085927 2866.03183650121 183 187 190
-1146.88979820624 192.266696291195 2864.14798611825 158 162 163
-1153.91966098107 191.961569664301 2862.26381724599 151 153 152
-1160.98095561894 191.980839524996 2858.35925711132 145 147 146
-1168.02520649838 191.674079626952 2856.47329698983 143 145 144
-1175.07383463943 191.366712400164 2854.58679221135 129 131 128
-1182.19166727724 191.544682819774 2849.66683116933 128 130 127
-1189.5243507992 193.015345415772 2836.65491669403 109 111 108
-1197.10957958744 195.612913974546 2816.55398790223 111 112 107
-1204.73674765059 197.880426466968 2798.46430899289 103 104 99
-1212.06619705944 198.206414292013 2792.50986253215 33 35 30
-1219.14115356319 197.24170287297 2794.6527918837 67 69 66
-1225.97253283095 195.312413752077 2802.87526154196 91 93 90
-1232.79486710983 193.546928896873 2810.09050122173 128 130 127
-1239.53004521604 191.623559314432 2818.32496062733 142 144 141
-1246.39899789659 190.344736532904 2822.51003970435 142 144 141
-1253.33710583592 189.387964260452 2824.66978577149 108 110 109
-1260.4116082467 188.912015366389 2823.78818308913 110 112 111
-1267.59285457655 188.75551834811 2820.8770439352 113 115 114
-1274.78386095754 188.598247749188 2817.96444855304 117 119 118
-1281.86608487961 188.121150006424 2817.08188529717 126 128 127
-1288.76145342493 187.166117566384 2819.24720067496 134 138 139
-1295.7042882202 186.371142500186 2820.3984839418 143 147 148
-1302.56805569719 185.417794757512 2822.56773850951 156 160 161
-1309.27466084807 184.148087636567 2826.77281332394 149 153 154
-1316.09875138596 183.197118237153 2828.9470130758 148 152 153
-1322.90583778656 182.247172376685 2831.12333214801 162 166 167
-1330.08613351856 182.089210497154 2828.21207521199 156 160 161
-1336.95310068998 181.298351967721 2829.37281546901 150 154 155
-1343.97530987113 180.823942786748 2828.49773461776 149 153 154
-1351.34100767458 180.979973890804 2823.54713951358 162 166 167
-1359.17136021981 181.92183490626 2813.49757276109 165 169 170
-1367.32352164032 183.332286779186 2800.38331058282 168 173 177
-1375.16247812725 184.109923709749 2791.34102995449 167 172 176
-1382.65592414798 184.257010269574 2786.37451618317 167 172 176
-1390.66761233563 185.186333747684 2776.30235283171 166 171 174
-1399.13563451648 186.738610002074 2762.14061251025 167 171 174
-1408.09215606514 188.911700330482 2743.88528680238 152 156 159
-1416.17052184287 189.672920932414 2734.81317254175 152 156 159
-1423.62937402976 189.495272436721 2731.86720525097 155 156 160
-1430.75909400163 188.849439900138 2731.98684622414 157 158 160
-1438.11390226484 188.515370718123 2730.06220229518 154 155 157
-1445.11821529177 187.71456802557 2731.205828789 151 152 154
-1453.3210828523 188.467526173431 2722.11795893206 149 153 154
-1462.80281222456 190.768626496316 2702.78906618485 161 165 166
-1475.16025252538 196.471637280235 2660.92130459452 151 155 156
-1486.31171040746 200.45807265248 2630.29432244441 133 137 138
-1497.09090475288 203.815928224098 2603.74620031818 107 111 112
-1507.06265563965 206.084228726001 2584.3562421601 130 132 131
-1096.93709053417 193.957985642435 2836.1135707421 187 189 184
-1104.07081437981 193.163958869344 2837.24102968668 163 165 160
-1111.22607095537 191.403811467531 2844.41470857605 182 184 183
-1118.32882730462 190.128906540978 2848.57060001991 166 167 169
-1125.40427033512 188.212673583825 2856.76233731179 153 157 160
-1132.44055584878 186.94146573127 2860.92651418686 144 148 151
-1139.44902001299 185.671729143503 2865.09391885859 176 180 181
-1146.46929679705 185.20434098052 2864.21906066948 174 178 179
-1153.50998333758 185.056619260968 2861.32543943684 145 147 146
-1160.54722551212 184.748183215939 2859.44011810562 146 148 147
-1167.60492510287 184.598631140041 2856.54437856507 139 141 140
-1174.70992412169 184.767059838371 2851.62628447935 124 126 123
-1181.92125044039 185.570882082554 2842.66201915867 121 123 120
-1189.36767919958 187.644335119794 2825.6030935928 106 108 103
-1197.03331039572 190.506297577164 2803.47606058752 102 103 98
-1204.51608291049 191.773202134353 2791.45363958098 74 75 70
-1211.70290387697 191.291770125037 2790.55803464647 45 47 44
-1218.67941869236 189.859912648308 2795.73754044584 52 54 51
-1225.62254133747 188.430005781786 2800.92144852252 123 125 122
-1232.37127226783 186.369954741031 2810.16226365974 128 130 127
-1239.0651945364 184.313395326599 2819.40990939884 138 140 137
-1245.93246464899 183.048445699619 2823.59516191594 130 132 131
-1253.01366520781 182.572518011525 2822.71272328845 116 118 117
-1260.14478805161 182.253744012904 2820.8159536981 111 113 112
-1267.33409355404 182.091535244463 2817.90358358002 116 118 117
-1274.42011576609 181.614524000885 2817.02054609222 121 123 122
-1281.56435572939 181.294167839064 2815.12214372947 125 127 126
-1288.46582226406 180.347108029018 2817.28667711861 149 153 154
-1295.22104705168 179.08821882896 2821.4856560012 156 160 161
-1302.14999733039 178.299622727842 2822.63865517484 154 158 159
-1308.99728225114 177.355656264417 2824.80994196286 152 156 157
-1315.75487383547 176.256830866989 2828.00051686269 160 164 165
-1322.49000293272 175.159406597811 2831.19389125829 148 152 153
-1329.51430226782 174.685252456285 2830.31854889655 139 143 144
-1336.69880728731 174.521617562585 2827.40678160602 150 154 155
-1343.89300963534 174.357158369614 2824.49404658572 166 170 171
-1351.35495806304 174.656788589024 2818.52313444257 169 173 174
-1359.10872353165 175.418770742534 2809.49152637598 160 164 165
-1366.81304990234 176.023269813822 2801.47418984081 164 169 173
-1374.55413850478 176.625217892282 2793.4522723144 164 169 172
-1382.0416424609 176.762079802716 2788.48628673513 166 171 174
-1390.14604904213 177.821613263602 2777.39452267475 169 173 176
-1398.60934826431 179.339043887429 2763.23346351533 169 173 176
-1407.56052652887 181.466398942386 2744.97892505995 151 155 158
-1415.52756946465 182.05284757242 2736.92885058581 150 154 157
-1422.98069380012 181.870310924707 2733.98385123855 153 154 156
-1430.3307676569 181.533972793399 2732.05956384197 155 156 158
-1437.80094587813 181.350260131996 2729.11243936757 151 152 154
-1445.04461388856 180.860488586527 2728.20976221993 148 149 151
-1453.49578355477 181.896438193893 2717.07478628382 147 151 152
-1462.98802902129 184.148102907362 2697.7444711084 159 163 164
-1475.22622518272 189.589773899089 2656.90020607767 153 157 158
-1486.89930204911 194.105238060153 2622.17550685336 132 136 135
-1498.09068843139 197.849633966402 2592.551866363 111 115 114
-1507.82032291033 199.764076757496 2575.20842896931 134 136 135
-1096.44166389179 187.753558949283 2830.14513306837 179 181 176
-1103.62587585356 186.329882882086 2835.29893821505 166 168 163
-1110.81668955684 183.799488483623 2847.50912423158 179 181 180
-1117.91553575345 182.380623622594 2852.67356985094 164 165 167
-1124.98144430431 180.805643190917 2858.85022411675 150 154 155
-1132.02072299996 180.021933113778 2859.98944208904 147 151 152
-1139.04826396155 179.23863982172 2861.12988349481 160 164 165
-1146.06412809348 178.455794303656 2862.27202118944 175 179 180
-1153.07877382999 177.830640566286 2862.40596828999 148 150 149
-1160.11352287255 177.519767936599 2860.5212047723 145 147 146
-1167.21617993356 177.835956525795 2854.59508646173 141 143 140
-1174.38190431631 178.463539862807 2846.64490347888 126 128 125
-1181.64828026262 179.558066249693 2835.65762853473 121 123 120
-1189.18318029231 182.056178590773 2815.56324238886 109 111 106
-1196.87271296879 184.859553831976 2793.43338090749 98 99 94
-1204.2928943346 185.626958322563 2784.44314761653 56 57 52
-1211.37075058075 184.521050780818 2787.59401429926 50 52 49
-1218.25234592409 182.638129523378 2795.80985491131 64 66 63
-1225.12189844762 180.913714076751 2803.01933414721 129 131 128
-1231.74676214391 178.415462138337 2815.30006273273 128 130 127
-1238.47191141362 176.542211286616 2823.53564169193 134 136 135
-1245.51148811353 175.911527639101 2823.66649211847 134 136 135
-1252.83383016642 176.209570341099 2817.71300620622 118 120 119
-1260.08026214819 176.196501456284 2813.78542718848 113 115 114
-1267.07401427301 175.41022710241 2814.93033336059 117 118 120
-1274.11217575912 174.778707918157 2815.06136259779 125 126 128
-1281.20289265298 174.301427457499 2814.17773995043 131 132 134
-1288.10768465826 173.3625467639 2816.34183680109 155 159 160
-1294.80231655411 171.963550037827 2821.55667365346 160 164 165
-1301.66467562305 171.027044093753 2823.7260596299 158 162 163
-1308.50991249619 170.09156920963 2825.89757963988 157 161 162
-1315.41039617659 169.310251174795 2827.05411211017 147 151 152
-1322.14901594272 168.223653135542 2830.24702238044 138 142 143
-1329.02065268638 167.443991145676 2831.40691014801 149 153 154
-1336.12184047476 167.122734600762 2829.51388281329 163 167 168
-1343.39363759429 167.105869951075 2825.58314837234 171 175 176
-1350.85212395753 167.392285734493 2819.61294334285 162 166 167
-1358.5135934756 167.980968788684 2811.6007564717 160 164 165
-1366.02919602606 168.263357748917 2805.62343428421 166 170 173
-1374.04004393316 169.30230491986 2794.54340000651 165 169 172
-1381.71741324137 169.731614376848 2787.53757600718 166 170 173
-1389.62450411902 170.461462860815 2778.48691845886 169 173 176
-1398.08307667022 171.943988368384 2764.32654108142 168 172 175
-1407.23812982586 174.327600162351 2744.0302709368 150 154 155
-1415.31405328117 175.045886792533 2734.95857452865 149 153 154
-1422.66225937213 174.707159316553 2733.03452651047 150 154 155
-1430.12762839819 174.518557197759 2730.0880150714 151 155 156
-1437.48740422282 174.179092663342 2728.16252515987 147 151 152
-1445.20577628081 174.289454321568 2723.16803866257 146 150 151
-1453.66878753323 175.297684982131 2712.03165796338 150 154 153
-1463.54155264811 177.948777182145 2689.6297430128 159 163 162
-1474.91264129839 182.237026299032 2655.95101559345 153 157 156
-1487.09792838074 187.260382267371 2617.13006938585 129 133 132
-1499.21809678282 191.972235282436 2580.33344413288 123 127 126
-1509.51362415188 194.437136074384 2558.88694837897 157 159 158
-1088.76488698999 182.30077688181 2823.05553182556 151 154 147
-1096.02279038823 180.423268463975 2831.22463743128 169 171 166
-1103.23133604032 178.548752608483 2839.39965444238 166 168 163
-1110.40215444411 176.365771591446 2849.59604665692 166 168 167
-1117.50648005307 174.497357651129 2857.78405364408 156 157 159
-1124.5594612801 173.252946588492 2861.94607642443 154 158 159
-1131.59353468097 172.630467000992 2862.07759202504 152 156 157
-1138.62625215609 172.163002960893 2861.20118151106 129 133 134
-1145.6504582069 171.540524897205 2861.33392849461 155 159 158
-1152.67864491092 171.072632826923 2860.45808452128 154 156 155
-1159.73196690572 170.913236717426 2857.56291720273 145 147 146
-1166.87367220181 171.523925911805 2849.61577615002 137 139 136
-1174.10730983883 172.593842096957 2838.63265156341 122 124 119
-1181.43614491243 173.967698794917 2825.62123201787 111 113 108
-1188.99525658519 176.412668741275 2805.5239643507 103 105 100
-1196.5232503892 178.083069136343 2790.47153583936 51 52 46
-1203.8921103948 178.521700467298 2783.50418742828 46 47 42
-1210.8779646426 176.967317863074 2789.69077775419 55 57 54
-1217.72135361232 174.956390006473 2798.91965076355 100 102 99
-1224.50987303484 172.948927793848 2808.15536204136 121 123 122
-1231.28343028871 171.09734792439 2816.38484290057 134 136 135
-1238.00757634516 169.248856109604 2824.62048185282 138 140 139
-1245.22625253793 169.230239459298 2820.6963812033 121 123 122
-1252.50807692965 169.36229018467 2815.75631615653 114 115 117
-1259.75964875414 169.340891088613 2811.82811765412 116 117 119
-1266.81270713351 168.711618024045 2811.95728193204 112 113 115
-1273.85928139186 168.082429563144 2812.08725516712 122 123 125
-1280.95830860127 167.604888437555 2811.20259612796 137 138 140
-1287.81038887264 166.522561338821 2814.38157621932 156 160 161
-1294.44736668789 164.988761805395 2820.61165005669 158 162 163
-1301.1793943666 163.758912186033 2824.81344732663 151 155 156
-1308.09218785361 162.982543276322 2825.96843057248 146 150 151
-1315.06534234598 162.357285548494 2826.10755580886 134 138 139
-1321.80742883484 161.281604847959 2829.3000047022 145 149 150
-1328.60458579573 160.357255426148 2831.47749550248 160 164 165
-1335.62542096648 159.883620582734 2830.60258408042 172 176 177
-1342.89418608946 159.85900603706 2826.67224842379 168 172 173
-1350.26373798506 159.982780518282 2821.72125729836 154 158 159
-1358.00709589436 160.70239585354 2812.69105960515 161 165 166
-1365.70141155619 161.26993754442 2804.67506967321 167 171 174
-1373.61970235545 162.132827675211 2794.61473671352 165 169 172
-1380.91063270427 161.950946216307 2791.68973622274 166 170 173
-1389.00395237149 162.957226976554 2780.59949598278 168 172 175
-1397.35338118948 164.256692115138 2767.46114854789 167 171 174
-1406.81071037426 167.034262075733 2744.10281710374 151 155 156
-1414.99255157281 167.879168089632 2734.00964197284 149 153 154
-1422.78242599091 168.129243392975 2727.99817737462 150 154 155
-1430.03597230443 167.639171014962 2727.09426826538 153 157 158
-1437.28850955216 167.149073336942 2726.19048514821 150 154 155
-1444.89368165452 167.101116625766 2722.21822936013 150 154 155
-1453.47832136126 168.2294116437 2710.05842659675 150 154 153
-1463.59957009191 171.11749514807 2685.60926378665 159 163 162
-1475.10205193268 175.465287697657 2650.90629537022 151 155 154
-1487.42337551695 180.534274633277 2611.06056534569 125 129 128
-1500.86640485752 186.614716494628 2564.01765895012 124 128 127
-1512.13900481718 190.046449122644 2535.39239397124 165 167 166
-1516.9986170898 186.457357428232 2555.95826550905 160 162 159
-1088.40341192874 174.336183956517 2828.16029200787 150 153 146
-1095.58119948183 173.403890339886 2830.29030328126 169 171 166
-1102.81175426906 171.247472507131 2840.4791707951 170 172 167
-1109.97600702949 169.247607241915 2849.66797276737 163 165 164
-1117.08546764965 167.251023522834 2858.86360383297 153 154 156
-1124.13636134648 166.173168633121 2862.01752113806 158 162 163
-1131.16884308992 165.401146690198 2863.15731628078 156 160 161
-1138.21358292491 165.390657039539 2859.25514072699 123 127 128
-1145.23616409134 164.618579014984 2860.39617155087 134 138 137
-1152.25725550454 163.99889728695 2860.52929985874 161 163 162
-1159.32341145369 163.985908585253 2856.62445828167 131 133 132
-1166.5292479666 165.183557261594 2844.63653936509 123 125 122
-1173.79331480738 166.376991197098 2832.64160501596 111 113 108
-1181.17862074259 168.019692757925 2817.60705605098 118 120 115
-1188.63835494826 169.657053084941 2802.56299267507 85 87 82
-1196.11984703873 170.987593425522 2789.53287677715 39 40 34
-1203.40369266443 170.958195944968 2785.60067175861 52 53 48
-1210.41727304399 169.573758130192 2790.77566738545 61 63 60
-1217.32870721425 167.890836639572 2797.97957049784 102 104 101
-1224.08467070765 165.760440077647 2808.22735540456 124 126 125
-1231.05892051368 164.682812016558 2811.39107708551 135 137 136
-1237.88319677857 163.157475625567 2817.59775489627 130 132 131
-1245.1204382569 163.129613764065 2813.67136175581 120 122 121
-1252.22927025873 162.65249315529 2812.78547802911 112 113 115
-1259.43806048175 162.473455606143 2809.87072065109 115 116 118
-1266.44370213487 161.697741176508 2811.01411527118 116 117 119
-1273.54927249455 161.220111686751 2810.12863991825 129 130 132
-1280.41935181245 160.147952796992 2813.30510678865 144 145 147
-1287.2055534557 158.928659343133 2817.50035593754 156 160 161
-1293.89982919301 157.562888341405 2822.71490946889 159 163 164
-1300.89425203517 156.939413616608 2822.85161611422 145 149 150
-1307.81282887448 156.168347378539 2824.00562339876 137 141 142
-1314.86380423152 155.6933597931 2823.12695422204 143 147 148
-1321.61469217539 154.628139637723 2826.3185174671 162 166 167
-1328.57540912043 154.006331890598 2826.45918575045 154 158 159
-1335.36948316561 153.09051011403 2828.63703882314 156 160 161
-1342.47770268312 152.763696856288 2826.74290833486 159 163 164
-1349.67564546259 152.583202856519 2823.82974875792 163 167 168
-1357.67710631275 153.721595561609 2811.74269667623 164 168 169
-1365.8273085413 155.00236856535 2798.62926076696 166 170 173
-1373.57332647153 155.547505423475 2790.60687769991 168 172 175
-1380.77853625299 155.21364735747 2788.70066195235 173 177 180
-1388.58161134117 155.754761152912 2780.6711690839 170 174 177
-1396.92914613981 157.021977523202 2767.53314293741 163 167 168
-1406.38306371858 159.740132213724 2744.17539370952 145 149 150
-1414.77738932618 160.851528850513 2732.03962579062 145 149 150
-1422.68160817258 161.233151289961 2725.0056178921 146 150 151
-1429.94313085995 160.742690215538 2724.10071440218 150 154 153
-1437.20365005002 160.252293069654 2723.19593597444 153 157 156
-1444.81641356527 160.195879829241 2719.22275509287 153 157 156
-1453.4073782412 161.294002901391 2707.06248273622 151 155 154
-1463.65597397323 164.263683700211 2681.58928552271 159 163 162
-1475.79253895513 169.241927676211 2641.76685124783 146 150 149
-1488.77398708683 174.926087887481 2596.79820551704 136 140 139
-1502.90268957164 181.600904608522 2544.62924987324 123 127 126
-1513.4192218223 184.095034510927 2522.14740994465 145 147 144
-1088.0575898381 166.246722723862 2834.27135499517 174 177 170
-1095.19696508927 165.625029939259 2834.38972747539 172 174 169
-1102.40110992726 163.800127475565 2842.56540329571 161 163 162
-1109.54342477264 162.278568384035 2848.73238182447 152 154 153
-1116.66104034388 160.158997495988 2858.93524644966 150 151 153
-1123.71294919327 159.092186262988 2862.08900798663 164 168 169
-1130.74809475262 158.475491147679 2862.22037455501 165 169 170
-1137.78615242671 158.157808436931 2860.33521607377 157 161 160
-1144.81405372545 157.54088801739 2860.46748727637 132 136 135
-1151.85561046305 157.222295591002 2858.5818945284 146 148 145
-1158.92699850162 157.201028019723 2854.67618155087 156 158 155
-1166.15212218758 158.517439677131 2841.67785585284 127 129 126
-1173.45909504168 159.977922492749 2827.66124935806 119 121 116
-1180.9389778536 162.175516630163 2808.58244780664 114 116 111
-1188.35059120649 163.328734354824 2796.56920643304 79 82 75
-1195.68958122289 163.737436647059 2789.60566443708 51 52 46
-1202.85781975564 163.108649552844 2789.72045363301 48 50 47
-1209.92503223165 162.036832143019 2792.87231855144 78 80 79
-1216.79834225116 160.228646036011 2801.0892365793 106 108 107
-1223.58522443913 158.276142958201 2810.32500744138 131 133 132
-1230.67398528278 157.651553077146 2810.44970392983 139 141 140
-1237.62929092907 156.586120751133 2813.61575761288 127 129 128
-1244.92208294678 156.696388338031 2808.67414096759 119 120 122
-1251.90147948342 155.778734061227 2810.82887171478 111 112 114
-1259.11558218156 155.59413488899 2807.91370628636 115 116 118
-1266.12715476011 154.823713729741 2809.05610655363 124 125 127
-1273.18250821633 154.199880984469 2809.18521036138 138 139 141
-1280.05617231547 153.138631912424 2812.36120114166 154 155 157
-1286.84606861181 151.932956132672 2816.55571308928 155 159 162
-1293.60800899766 150.728974225466 2820.75394957725 155 159 162
-1300.54161655771 149.962773357962 2821.90606830392 138 142 145
-1307.2557911406 148.761655239974 2826.11025814002 132 136 139
-1314.44524856414 148.577190276676 2823.19792767399 155 159 162
-1321.27158540721 147.667913170397 2825.37173730507 157 161 164
-1328.38990172917 147.338130026653 2823.47659488513 147 151 154
-1335.11260928182 146.285721364515 2826.67140086906 157 161 164
-1342.14349798726 145.811744664203 2825.79523572557 165 169 172
-1349.51461516161 145.914068744458 2820.84410575148 162 166 169
-1357.52246001021 147.022285743261 2808.75657671991 162 166 169
-1365.7696547423 148.413912700133 2794.62281742274 172 173 177
-1373.43193092303 148.796047589018 2787.61900118903 172 173 175
-1380.74121903532 148.602545251576 2784.69174036107 173 174 176
-1388.6527269405 149.267373489145 2775.64070282234 165 166 168
-1397.41759198561 151.073367993404 2758.41794854504 160 164 165
-1406.47575779566 153.159305613844 2739.14224038089 151 155 156
-1414.45458308818 153.669604372422 2731.09089607626 147 151 152
-1422.14151716944 153.750077159542 2726.10041156388 143 147 146
-1429.62470880669 153.54460033658 2723.1514801385 146 152 150
-1436.77313191422 152.912151021707 2723.26899209542 149 155 153
-1444.15032399406 152.564022114556 2721.34135155552 149 155 153
-1452.85429573583 153.774639061747 2708.15899323832 150 154 153
-1463.46500972511 157.104338391708 2679.61659641657 159 163 162
-1476.35437327462 162.827727060319 2633.65141162356 146 150 149
-1489.86325284256 168.958848318757 2584.58477985014 136 141 137
-1503.62324991125 175.073135840451 2535.48685442827 123 128 124
-1513.49248436212 176.804834010491 2518.12647703484 139 141 138
-1080.41215218829 160.288698076804 2830.20247490065 131 132 124
-1087.64130558544 158.928955750376 2835.35026298591 180 183 176
-1094.80195529062 158.014535849038 2837.48236589161 168 170 165
-1101.98178705573 156.510115871261 2843.64461739535 159 161 160
-1109.12293982007 155.007923582946 2849.81193021191 155 157 156
-1116.22908385511 153.360584737895 2856.99144097866 156 157 159
-1123.28740346526 152.30438384711 2860.14437454863 167 171 170
-1130.3266982307 151.543247734902 2861.28353106777 165 169 168
-1137.36760676692 151.222815353607 2859.39802405695 160 164 163
-1144.39876134672 150.608643929907 2859.52988202993 153 157 156
-1151.46282867099 150.580228150633 2855.62510145882 127 129 126
-1158.56730431844 150.842939106664 2849.69889703085 146 148 145
-1165.77382201087 151.833928167311 2838.71936470477 117 119 114
-1173.05118994899 152.967001582002 2826.72292941461 104 106 101
-1180.61371372936 155.698686466578 2803.60117931967 113 115 110
-1188.01402019657 156.675837015239 2792.59749974339 68 71 64
-1195.28512242666 156.631693731045 2788.66692385784 47 48 42
-1202.42776499027 155.860450161599 2789.79320980038 52 54 51
-1209.527319251 154.9446966989 2791.93294056824 93 95 94
-1216.40511949014 153.160979387817 2800.14923380554 127 129 128
-1223.15978913867 151.091044387597 2810.39702095308 140 142 141
-1230.24893663226 150.469326401045 2810.52166162687 135 137 136
-1237.37379173195 149.992080861858 2809.63377864128 117 118 120
-1244.54237870389 149.658736856035 2807.73237211882 120 121 123
-1251.57274521955 148.893182721528 2808.87265446545 113 114 116
-1258.74195180521 148.559318961328 2806.97093171887 117 118 120
-1265.70378469746 147.650816224334 2809.12783020479 134 135 137
-1272.70391691447 146.886531244061 2810.27188227088 148 149 153
-1279.45911073343 145.550117314772 2815.47899654372 159 160 164
-1286.42493766392 144.787865968773 2816.62708408251 148 152 155
-1293.12419012831 143.454836658262 2821.84117059241 145 149 152
-1300.05561211043 142.694451136767 2822.99378702051 151 155 158
-1306.76808388204 141.507354264536 2827.1979121642 159 163 166
-1313.95471145605 141.317906113152 2824.28618823845 145 149 152
-1320.77900396383 140.417180071871 2826.46023047157 140 144 147
-1327.89457264016 140.08515071625 2824.56519658813 158 162 165
-1334.69523859729 139.185690933077 2826.74218394045 158 162 165
-1341.72620303743 138.711978157895 2825.86600865069 159 163 166
-1349.0116568175 138.662292127699 2821.93365637317 173 177 180
-1356.75159014443 139.317536077596 2812.90405556734 177 181 184
-1364.80494423054 140.392900693477 2800.81069349882 174 175 177
-1372.54354688289 140.900884966247 2792.78933365462 168 169 171
-1380.31867564998 141.406333288199 2784.76342224559 162 163 165
-1388.62335061266 142.611630802924 2771.63090781435 164 165 167
-1397.80165821773 144.934942092213 2750.32396708421 163 167 168
-1406.56649492061 146.550447173292 2734.1096453579 148 152 151
-1414.13112143435 146.481453321783 2730.14250482013 141 145 144
-1421.60154049571 146.271683937775 2727.19517864102 137 143 141
-1429.08172333952 146.061205465386 2724.24687613568 149 155 153
-1436.22758533716 145.431873052541 2724.36445922698 150 156 154
-1443.71930839051 145.220656898683 2721.41447824563 147 153 151
-1452.66152715571 146.677069359153 2706.18612634955 155 160 156
-1463.64151962461 150.349994549529 2674.57344032029 163 168 164
-1477.03876149638 156.508062834347 2624.51274194039 140 145 141
-1491.20469646843 163.202806114788 2570.32395349878 128 133 129
-1503.68704262742 167.804498607722 2531.46680624162 118 123 119
-1512.63012553954 168.52542280831 2521.27919941572 135 137 134
-1079.94529954558 153.395011925159 2828.26327516244 136 137 129
-1087.22504137539 151.615310835213 2836.4293978889 167 170 163
-1094.43153610224 150.128840874993 2842.58827474191 165 167 162
-1101.59937576498 148.644504992155 2848.75196989837 166 168 167
-1108.71550658712 147.45191118762 2852.90597552368 165 167 166
-1115.80003588801 146.405447527827 2856.05561263655 160 161 163
-1122.86092891402 145.504549362561 2858.20012897704 143 147 146
-1129.90947216542 145.037122268048 2857.32174340244 154 158 157
-1136.95280829282 144.425369947136 2857.45207481967 141 145 144
-1144.01074335594 144.245401770556 2854.55614572454 137 141 140
-1151.0978875479 144.351841566629 2849.64044306122 105 107 104
-1158.21799709437 144.600121564197 2843.71256588724 119 121 118
-1165.4243775903 145.419766595031 2833.74118900907 128 130 125
-1172.6960050177 146.379075861246 2822.75361480059 106 108 103
-1180.22517187925 148.764538989684 2801.65255367972 99 101 96
-1187.62952250273 149.714377749293 2790.64844134127 56 59 52
-1194.87998408451 149.519337585458 2787.72852576635 51 52 46
-1202.05458160624 148.896057884181 2787.84250689453 56 58 55
-1209.09774319107 147.703693196633 2792.00561804589 103 105 104
-1215.94336040539 145.802542082889 2801.23392389035 132 134 133
-1222.77060051687 144.046711007518 2809.45645329526 139 141 140
-1229.86285371838 143.427751418063 2809.58069913092 132 134 133
-1236.99070464465 142.950553916297 2808.69244215738 118 119 121
-1244.11739150736 142.473221544389 2807.80433080727 117 118 120
-1251.24305631116 141.995655672538 2806.91634761897 113 114 116
-1258.41774799486 141.658996374118 2805.01418799528 120 121 123
-1265.4911593597 141.040102396147 2805.14078500798 138 139 141
-1272.33627539139 139.858891153281 2809.32858170134 148 149 153
-1279.09533463018 138.53883124012 2814.53493025618 156 157 161
-1285.94269314614 137.501447283008 2817.71438123853 148 152 155
-1292.70387866685 136.325251919454 2821.91239848559 149 153 156
-1299.43716730635 135.150746667944 2826.11413291639 161 165 168
-1306.28038571307 134.257474656152 2828.28579367929 162 166 169
-1313.24943855849 133.644362943033 2828.42539879086 134 138 141
-1320.28640207643 133.170865214086 2827.54847428534 148 152 155
-1327.24534421407 132.558128861215 2827.68934016497 169 173 176
-1334.35708788791 132.223688046539 2825.79503023847 170 174 177
-1341.39090243765 131.750062452881 2824.91849904228 172 176 179
-1348.76376940314 131.831043822055 2819.96720690987 171 175 178
-1356.06932322935 131.772014807605 2816.03237086984 164 168 171
-1364.02263219737 132.680013717885 2804.95986195915 170 171 173
-1371.93560439491 133.446283695022 2794.90044717525 170 171 173
-1379.800093785 134.071343688324 2785.85514172874 167 168 170
-1388.19867857924 135.382259324471 2771.70294266596 167 168 170
-1397.67721395836 138.064336093169 2747.33452919385 163 167 168
-1406.34392716893 139.50147860329 2732.14036924021 148 152 151
-1413.80703201367 139.287041572214 2729.19420839292 142 146 145
-1420.95231410321 138.660762073551 2729.31185581358 144 150 148
-1428.53869719451 138.582379429423 2725.3420249086 150 156 154
-1435.79660461601 138.092865334492 2724.43757008865 148 154 152
-1443.52234586643 138.149425615193 2719.44230564372 144 150 148
-1452.34781295453 139.431441812819 2705.23667003126 148 153 149
-1463.69341412308 143.431522491173 2670.55419508209 159 164 160
-1478.09570650456 150.546647284742 2612.30357464311 139 144 140
-1492.41338197499 157.234299175387 2557.08794119237 127 132 128
-1504.27157822241 161.05560446145 2523.34965530461 119 124 120
-1512.56825524447 161.073971329823 2518.2832420317 138 140 137
-1079.47757524326 146.489257698209 2826.32421598305 146 147 141
-1086.77933495952 144.59123795074 2835.49558969362 169 171 166
-1094.00213253061 142.981291615095 2842.66068458562 169 171 166
-1101.17149593385 141.516148929337 2848.82413904367 165 167 166
-1108.28214452543 140.479398398441 2851.9704910443 163 165 164
-1115.36243970584 139.727594762931 2853.1045063773 154 156 155
-1122.43226041306 138.834429237856 2855.24788823232 128 132 131
-1129.48642567461 138.08366064124 2856.38492143024 124 128 127
-1136.53295049482 137.474574351411 2856.5150881653 145 149 148
-1143.59363025104 137.289205630305 2853.61883077084 132 137 133
-1150.68312042952 137.384805701162 2848.70286388831 116 118 115
-1157.79327623122 137.478701058961 2843.78432254747 98 100 97
-1164.98362616332 138.133479139289 2834.82306745833 118 120 115
-1172.25124211007 139.066019667854 2823.83606435344 140 142 137
-1179.77476370195 141.397584820716 2802.73584966725 143 145 140
-1187.17516744251 142.320740310718 2791.73230014589 56 59 52
-1194.44858597731 142.260533500386 2787.80147750193 54 56 51
-1201.56682405008 141.360700179705 2789.93883471538 93 95 92
-1208.54362866094 139.903464874154 2796.12629854853 136 138 137
-1215.51539938893 138.587892624248 2801.30633041769 142 144 143
-1222.4172736033 137.135072481853 2807.50313349416 134 136 135
-1229.5545103648 136.657754826052 2806.61370554029 124 125 127
-1236.64879561071 136.041442865646 2806.73769081639 110 111 113
-1243.73660045741 135.425277497885 2806.86272469068 111 112 116
-1250.91245156318 135.086302251529 2804.96018620819 118 119 123
-1258.04266718797 134.60853604955 2804.07163563191 129 130 134
-1265.06653914788 133.854294955603 2805.21269866822 151 152 156
-1271.85742345779 132.548962181569 2810.41527712767 157 158 162
-1278.61491930026 131.245637000154 2815.62201698354 159 163 166
-1285.33905803658 129.944344770674 2820.83267398661 152 156 159
-1292.15652617862 128.919913607498 2824.0158210002 155 159 162
-1299.01756916229 128.034016480248 2826.18523793978 147 151 154
-1305.99885701609 127.42323088087 2826.3233100689 131 135 138
-1312.83078558471 126.538979481284 2828.49635598139 163 167 170
-1319.86794660818 126.065797642159 2827.61940599646 167 171 174
-1326.90394542424 125.59251067574 2826.74260132499 164 168 171
-1334.01842932634 125.255446682913 2824.84795634224 161 165 168
-1341.30155280554 125.190261891889 2820.91593568793 143 147 150
-1348.59971760741 125.123939715707 2816.98204096074 149 153 156
-1356.00051230662 125.19232970727 2812.02705650246 161 165 168
-1363.78261272127 125.801529060098 2802.99231475019 169 170 172
-1371.60667179812 126.40787623875 2793.95234431603 174 175 177
-1379.47265444458 127.01128139165 2784.90690954721 163 164 166
-1387.57718754749 127.881965220501 2773.81562702645 163 164 166
-1396.54189999351 129.827927683731 2754.55219017798 163 167 168
-1405.60230609051 131.767433075131 2735.27658806332 154 158 157
-1413.26967264345 131.81735035874 2730.28862592962 146 150 149
-1420.63043884812 131.462894687257 2728.36329217188 149 155 153
-1428.10741167842 131.242286268006 2725.41517666537 153 159 157
-1435.36533766153 130.753069601555 2724.51071874577 151 157 155
-1443.44163344574 131.200392986665 2716.44737654343 153 159 157
-1452.15322493582 132.313264418197 2703.26408446729 158 163 159
-1463.98850630974 136.757455560877 2664.48834211284 168 173 169
-1479.39868610043 144.785829074982 2598.04756095274 136 141 137
-1493.36219286682 150.928414428284 2545.90062237034 121 126 122
-1503.80963422125 153.199553570344 2523.42799181537 118 123 119
-1512.1055895648 153.207306002464 2518.36169655642 155 157 154
-1071.54322944095 142.146985919154 2810.19392863702 134 136 131
-1078.9560389783 139.991698300368 2821.36773595734 168 170 165
-1086.28826906841 137.980226281818 2831.54329301609 173 175 172
-1093.54794769922 136.112060938483 2840.71983957683 167 172 168
-1100.74330759544 134.386647937454 2848.89634970399 164 168 167
-1107.85500271036 133.360968925868 2852.04254194823 159 163 162
-1114.94009692745 132.475609552813 2854.1839972023 130 135 131
-1122.00377041327 132.007994964029 2853.30372395765 127 132 128
-1129.06397910925 131.262427894818 2854.44022954138 128 133 129
-1136.11248144197 130.517305473284 2855.57795457034 130 135 131
-1143.17584130307 130.326453242894 2852.681617424 153 158 154
-1150.28643621904 130.687803561608 2845.74670248605 139 144 140
-1157.42844008237 131.046764755858 2838.80787418884 129 134 130
-1164.67551945924 132.092871242583 2826.81544775636 96 101 97
-1171.99828263181 133.27256971425 2813.80529725695 118 123 119
-1179.48546780756 135.135513322004 2795.73415280215 152 157 153
-1186.83488241556 135.618303631985 2787.76142767244 61 66 60
-1194.06787179851 135.2751807108 2785.85176959351 55 60 56
-1201.13585489987 134.109244458353 2790.01171356801 128 132 131
-1208.08313094615 132.534376384692 2797.21085927134 132 136 135
-1215.1206669674 131.508855489181 2800.3665459844 137 141 142
-1222.09927958566 130.348132368011 2804.5373888695 131 135 136
-1229.28384420468 130.006812858972 2802.63400943435 123 127 130
-1236.34767596632 129.256622894665 2803.76983478639 110 114 117
-1243.53265175001 128.914769553442 2801.86640544614 105 108 113
-1250.58081107043 128.165102739942 2803.00442551724 120 123 128
-1257.66691611596 127.55161120965 2803.12942420648 136 140 143
-1264.53669866639 126.396718831749 2807.31407335433 156 160 163
-1271.43362458855 125.378689908964 2810.4870473779 155 159 162
-1278.19230188549 124.09192209266 2815.69359619201 155 159 160
