ply
format ascii 1.0
comment KinectMotionCapture
element vertex 762
property float x
property float y
property float z
property uchar red
property uchar green
property uchar blue
end_header
-754.547725920624 137.670275660472 2300.13415342919 127 129 126
-755.771434920362 137.508576387921 2291.24190818606 140 142 139
-760.98617560769 136.927277925073 2282.36708259309 142 144 141
-763.206929213731 136.660277639387 2273.50197791848 109 111 108
-760.439491492136 136.916944647075 2264.60480992675 98 100 97
-763.657731951124 136.544522474332 2255.75875629294 112 114 111
-767.872945889378 136.06716333403 2246.9430140028 118 120 117
-778.072023898778 134.961182976094 2238.24979021426 120 122 119
-780.291181743682 134.692983877826 2229.45509100855 115 117 114
-784.504425096108 134.215129039713 2220.71583379692 121 123 120
-788.717101767286 133.737049949217 2211.99848366663 125 127 124
-795.920828642527 132.944839366598 2203.38637492732 125 127 124
-797.140994553978 132.780392193451 2194.62965536439 113 115 112
-806.336980906574 131.77866690265 2186.14450763273 118 120 117
-813.537789214475 130.986186127632 2177.63685171551 133 135 132
-817.747068248837 130.507391070417 2169.05152425213 127 129 126
-818.965444583928 130.342114919103 2160.36385743985 120 122 119
-820.18390618119 130.176557852333 2151.68188144942 116 118 115
-826.385005968257 129.488079797438 2143.24048117654 111 113 110
-824.613103999003 129.635537989792 2134.43455388434 110 112 109
-825.830722325621 129.469158227584 2125.77532769668 104 106 103
-818.080561383317 130.242710072351 2116.6251013473 108 110 107
-820.294772135591 129.971134675603 2108.01080166172 98 100 97
-820.516265332633 129.908205626091 2099.28651185968 107 109 106
-824.722538215665 129.427284963259 2090.81639289253 133 135 132
-818.967047848461 129.990106880761 2081.70691347802 104 106 103
-815.204135125937 130.343647620173 2072.70288594832 100 102 97
-811.441996481076 130.696724061843 2063.67743104307 95 97 92
-805.688428727734 131.257956917217 2054.48177821779 97 99 94
-802.92352557785 131.5057084 2045.48530236755 92 94 89
-800.158777771641 131.75306154686 2036.47300265769 91 93 88
-804.364469685621 131.270074849702 2028.02337162521 93 95 90
-800.604433724864 131.620925968409 2018.91334716064 113 115 110
-791.866880632796 132.492455693321 2009.34154099876 55 57 52
-782.135107453175 133.46751414026 1999.63029934121 62 64 59
-789.327261212009 132.670705347555 1991.45624609053 81 83 78
-800.499873645674 131.457280389099 1983.70672060931 88 90 85
-807.689742837864 130.66056965113 1975.62206142083 96 98 93
-809.902537434029 130.384461582884 1967.06756797654 105 107 102
-813.110120199454 130.00405835784 1958.62948448818 105 107 102
-816.317253181252 129.623474782751 1950.20878645613 122 124 119
-816.538828324802 129.554972154694 1941.4753094213 123 125 120
-822.73017277406 128.861915836677 1933.41959054629 121 123 118
-821.95620496367 128.896967145835 1924.58908250274 151 153 150
-821.182579993043 128.931713979338 1915.75417295929 134 136 133
-811.456226471601 129.901878463707 1905.8258575253 154 156 153
-804.715293383098 130.559458410806 1896.21515065316 169 171 168
-793.996896063837 131.632197107885 1886.06131790301 149 151 148
-783.279751628859 132.704200258211 1875.84840353315 177 178 172
-775.547780254405 133.463831641186 1865.97231914029 195 196 190
-630.206327757299 141.817213361289 2392.73863500318 92 94 89
-638.429365621819 140.943231304423 2383.29935886916 133 135 130
-648.64842903415 139.8646856596 2373.85449358282 58 60 57
-651.876989083174 139.501775009121 2364.61532736141 69 71 68
-671.079247478689 137.503168130375 2355.08962278491 120 122 119
-690.278862437046 135.504844876481 2345.6675374244 128 130 127
-716.463247664908 132.791575809556 2336.25523736683 128 130 127
-731.664453977846 131.202703723603 2327.10247804674 135 137 134
-744.867277766056 129.818362510396 2318.04739157482 128 130 127
-748.087988353182 129.455455948092 2309.11501390603 127 129 126
-748.314377124538 129.398710933772 2300.2060280413 126 128 125
-749.53858683867 129.239594218777 2291.29698609647 137 139 136
-754.754129850826 128.671781502214 2282.40528282555 131 133 130
-759.968737254302 128.103890901816 2273.54073796904 105 107 104
-757.201287370901 128.352188489955 2264.63505886467 103 105 102
-760.41997131445 127.987885863508 2255.78039046139 102 104 101
-767.628353571675 127.215310645371 2246.99809142092 121 123 120
-776.830796114881 126.238725057429 2238.2876064715 121 123 120
-778.052612268392 126.077904833467 2229.47028407076 112 114 111
-779.27452036692 125.916786910124 2220.65837328185 116 118 115
-786.47967134414 125.143796545884 2212.0019181058 122 124 121
-791.689355999126 124.574605692583 2203.3283752022 124 126 123
-793.907175405619 124.310919243867 2194.59083214171 110 112 109
-802.106841251525 123.435747130894 2186.06373766969 111 113 110
-811.302531272278 122.458663527957 2177.61662995964 129 131 128
-816.509342683798 121.888959073757 2169.06415668732 129 131 128
-816.731101179422 121.828300137133 2160.33193557002 119 121 118
-819.943194985681 121.461880764099 2151.73255976206 114 116 113
-824.151490417516 120.993475784424 2143.19683095788 111 113 110
-821.382784405343 121.237291261089 2134.33543317129 110 112 109
-820.607708093658 121.277165987772 2125.56275300089 106 108 105
-813.853490028062 121.927137370721 2116.45377477682 107 109 106
-812.082719216625 122.067887383169 2107.59643519165 105 107 104
-813.301065724075 121.903204358552 2098.91057100065 83 85 82
-816.511925728589 121.534952772881 2090.35744915022 104 106 103
-816.733667832113 121.471417285938 2081.62278007477 131 133 130
-812.970843739931 121.81412786529 2072.61298476073 113 115 110
-807.216299071584 122.359535698046 2063.43852146756 103 105 100
-801.462569563801 122.904456426141 2054.2316758602 100 102 97
-792.721807453504 123.753508077641 2044.76115402334 92 94 89
-788.961744063025 124.094178265316 2035.64127010775 86 88 83
-793.168518753465 123.62215687398 2027.16109412107 84 86 81
-795.383390853201 123.352983091553 2018.53285014238 105 107 102
-787.641346564719 124.098490837112 2009.03528525014 121 123 118
-775.917830936785 125.24922878353 1999.13122086941 28 30 25
-774.151177532303 125.38475945072 1990.09802983775 54 56 51
-785.325917204028 124.201389745543 1982.30696032842 77 79 74
-794.507997580045 123.221030361956 1974.37892261186 85 88 81
-801.698547902914 122.443461286186 1966.29752010775 98 100 95
-804.906930234347 122.071442922718 1957.83718982858 103 105 100
-809.109965605197 121.597881239839 1949.50150555877 108 110 105
-809.332039965722 121.529485782214 1940.74863246654 112 114 109
-815.524342276963 120.853054811673 1932.67332804467 120 122 117
-814.750802358111 120.885576437195 1923.82338033807 124 126 121
-813.977604455983 120.917763796654 1914.96903131211 108 110 107
-806.240744774552 121.658230090271 1905.26342089305 140 142 139
-801.489019939051 122.094503651604 1895.88626645107 160 162 159
-793.754104078483 122.833837249536 1886.10346857753 160 162 159
-785.02547786309 123.673746104104 1876.14881709555 149 151 146
-776.298064026364 124.513032093722 1866.14611287095 167 169 164
-620.96281743366 133.495222650201 2393.07009599872 94 97 90
-631.184513143774 132.443720018303 2383.55138810072 110 112 107
-645.399152892408 130.994214224027 2373.98922191706 65 67 64
-646.631246876629 130.838277033017 2364.78477410075 55 57 54
-656.84913359096 129.786768140355 2355.41492823073 113 115 112
-679.046107564325 127.541752015073 2345.9052748951 126 128 125
-707.230196498192 124.700481606125 2336.43516195247 132 134 131
-721.434759093974 123.251888074759 2327.26782532912 133 135 132
-731.644717813865 122.201079392174 2318.20858477754 126 128 125
-734.866566433105 121.846047448792 2309.24018403066 124 126 123
-739.085964152239 121.39146204855 2300.28537777843 124 126 123
-744.302938027417 120.837342862573 2291.35245448233 134 136 133
-751.514865184217 120.084410425174 2282.45269939135 122 124 121
-755.732309892766 119.629369662378 2273.57373462512 100 102 99
-753.962603252493 119.769989545081 2264.66533903282 101 103 100
-756.184114169183 119.513092778174 2255.79080920318 89 91 88
-767.383736780286 118.362534177041 2247.05313347196 117 119 116
-773.594198193488 117.708277308941 2238.29191728227 121 123 120
-773.818900210194 117.649370528068 2229.44653449408 117 119 116
-777.035845455178 117.292493002369 2220.66779295524 114 116 113
-784.241673949163 116.538648397736 2212.00541531907 121 123 120
-787.457487266171 116.181412013934 2203.27052813256 123 125 122
-786.684123467297 116.220650763826 2194.43023416614 110 112 109
-789.89936060774 115.86296758413 2185.71738622071 110 112 109
-805.078749170571 114.315678492759 2177.45266398443 128 130 127
-812.280205042278 113.56142250457 2168.96074186252 132 134 131
-813.49933942119 113.401658219577 2160.25869107749 120 122 119
-814.718081548565 113.241596369803 2151.56232655098 115 117 114
-818.927038053235 112.784133922596 2143.0125099789 111 113 110
-822.138782679827 112.425579978 2134.43522661325 109 111 108
-819.370192378989 112.660856948787 2125.56013843686 106 108 105
-814.609000396591 113.093660898597 2116.55859227823 108 110 107
-809.848249991826 113.525990308861 2107.52995342375 106 108 105
-809.07410054316 113.562047144803 2098.71694887872 89 91 88
-811.289184780002 113.300979476137 2090.08911756772 87 89 86
-812.507509874251 113.138597880956 2081.40656137647 135 137 134
-809.740827100596 113.371566442245 2072.45444183738 124 126 121
-803.986050646926 113.900665787175 2063.27152671938 108 110 105
-797.236074144323 114.528078009496 2053.98187601896 104 106 101
-787.498979110614 115.451406417353 2044.42308712323 96 98 93
-781.746986066402 115.978804434688 2035.12955996681 88 90 85
-779.97949906463 116.110532617621 2026.13419077847 82 84 79
-787.174354929557 115.352992138923 2017.89669315227 98 100 95
-779.432038085791 116.076653624006 2008.37699904451 109 111 106
-769.699616142896 116.997147417298 1998.63252598046 28 30 25
-761.959846361414 117.719512471383 1989.02121663563 31 33 28
-767.162813418804 117.158442043424 1980.61893980447 81 83 78
-775.351690606554 116.301248838634 1972.54213262228 83 86 79
-781.548552643538 115.64142959696 1964.30645471769 98 100 95
-787.744311777455 114.981637029027 1956.10458593764 101 103 98
-792.944264287977 114.420405719164 1947.82928008667 101 103 98
-796.153031584046 114.056237391177 1939.3623328194 98 100 95
-802.346706380215 113.396291374159 1931.25108720548 110 112 107
-804.559157926143 113.13049601406 1922.71174955637 105 107 102
-805.776635287257 112.963055297952 1914.06621840655 110 112 109
-802.019068699325 113.287864076799 1904.82239525056 135 137 134
-799.257021980275 113.513746531122 1895.68147412143 156 158 155
-792.516347628848 114.133040465455 1886.01954633622 155 157 154
-788.76071774605 114.456520245837 1876.70792784653 159 161 156
-783.016260560052 114.976405255494 1867.11180635641 156 158 153
-776.278115209766 115.594170626301 1857.34939519186 198 200 195
-593.73945448642 126.865492348199 2393.93996475393 129 130 124
-620.942339337284 124.195336115259 2383.88494903488 104 105 99
-630.165508734739 123.267669726521 2374.41691248812 89 90 85
-634.394312041911 122.823754472385 2365.1059600537 58 60 57
-645.61225461584 121.702544438623 2355.68378894267 69 71 68
-665.814886768642 119.710901144559 2346.17565126026 115 117 114
-696.997203848818 116.655878870915 2336.62869598458 125 127 124
-710.205277890767 115.341997697435 2327.44406597269 124 126 123
-720.41676502928 114.318270830862 2318.35416789492 119 121 118
-722.641263487299 114.067814126145 2309.36046465524 109 111 108
-731.852484268949 113.140672956038 2300.35998534577 114 116 113
-740.064242469031 112.310191720303 2291.40826540429 117 119 116
-749.273023823106 111.383054790458 2282.50313192794 109 111 108
-747.503689779843 111.518335679909 2273.58376614222 97 99 96
-744.736633766836 111.749828108094 2264.64464913193 98 100 97
-743.965377187844 111.7878187723 2255.71133282621 83 85 82
-756.164536793327 110.570619960124 2246.95422228336 99 101 98
-764.371331888521 109.739584448861 2238.19588253571 117 119 116
-769.584558002471 109.19800168579 2229.42289537671 116 118 115
-772.802016559572 108.849255125828 2220.63282222692 115 117 114
-782.003585713707 107.921577507832 2212.00898595938 125 127 124
-783.22498957814 107.765458504222 2203.2128250524 127 129 126
-783.449040515136 107.705464659262 2194.39172150901 116 118 115
-784.670215908356 107.548776281174 2185.60387869804 108 110 107
-797.856968370366 106.235289842707 2177.25299372828 121 123 120
-807.053679672847 105.307435056359 2168.81882890217 128 130 127
-810.267096729605 104.957663792078 2160.18561133771 123 125 122
-811.486133343298 104.800359441742 2151.48069805625 117 119 116
-813.702040161353 104.546485131127 2142.82844109568 107 109 106
-815.917416950907 104.292454969216 2134.18740735572 107 109 106
-813.149027811626 104.519485784852 2125.29560300251 113 115 112
-806.394495043043 105.131080609621 2116.16704345709 110 112 109
-805.620437785456 105.164742149231 2107.34786388057 110 112 109
-806.839377759101 105.005722974798 2098.64488638092 97 99 96
-809.054764545437 104.750246558998 2090.01123384425 85 87 84
-811.269851314818 104.494519911478 2081.38903833001 103 105 102
-810.495479382584 104.527097990254 2072.57166920374 127 129 124
-804.740192287773 105.039963086711 2063.3912806248 120 122 117
-794.005033876158 106.032807289873 2053.80674487316 111 113 108
-784.267403389097 106.928849545155 2044.23958558022 104 106 101
-781.503266318876 107.151747386543 2035.17715796872 97 99 94
-778.739521741128 107.37425564478 2026.09897208733 88 90 85
-783.943369703333 106.828162388588 2017.68767256614 83 85 80
-778.192390835481 107.338064936187 2008.3357225963 111 113 108
-769.454967134456 108.135406678205 1998.67920204195 85 87 82
-756.736119589744 109.315905840486 1988.59995043652 62 64 59
-758.953229141934 109.056489670534 1979.8947360377 46 48 43
-760.174330216721 108.89281385413 1971.10229527545 52 55 48
-763.386286571782 108.537129470041 1962.51981794084 87 90 83
-764.606909811225 108.373085709847 1953.74565756943 90 93 86
-771.799361880023 107.633635728648 1945.62153280612 81 84 77
-773.019463964177 107.469262431911 1936.87671194603 82 84 79
-781.205437206782 106.633972180566 1928.92759391623 87 89 84
-786.405127470156 106.086149922047 1920.67693519888 107 109 104
-793.594042508411 105.346756318058 1912.69111037564 107 109 104
-792.822218778286 105.373416195591 1903.77711896309 136 138 135
-791.055424840498 105.495555014482 1894.73504132453 148 150 147
-787.299335726475 105.808758755007 1885.43033756183 160 162 159
-790.50713383068 105.451780653661 1877.00898998167 154 156 153
-785.756729932757 105.85998874784 1867.5500741861 143 145 142
-783.991136758559 105.980814439701 1858.46898140033 187 189 186
-762.334315203791 108.013758086388 1846.63057514311 183 185 180
-656.411628900182 111.621046628619 2392.11733631411 137 138 132
-603.706946435839 116.549514094278 2384.40894003524 115 116 110
-615.928006990996 115.363954652804 2374.82051164131 81 82 77
-623.154381198824 114.648510984162 2365.40569308963 66 68 65
-636.37099499321 113.369076074204 2355.91496092573 51 53 50
-657.574476828896 111.337946823367 2346.36524016444 112 114 111
-679.773431251315 109.213278676045 2336.91672919725 121 123 120
-694.980330166419 107.746713491227 2327.66348220671 122 124 121
-705.193624612525 106.750009197247 2318.53196304459 116 118 115
-710.414359036109 106.222872727969 2309.48103645257 103 105 102
-722.62145154584 105.038421149045 2300.43971719935 105 107 104
-735.825156572624 103.760199080276 2291.46413143544 110 112 109
-744.03692756019 102.951453205452 2282.54457425964 105 107 104
-739.273597960469 103.36260733213 2273.59400289021 98 100 97
-734.511202298091 103.773254601872 2264.61571057841 101 103 100
-731.745037726919 103.995866959783 2255.63221819752 80 82 79
-741.950314488451 102.998851425347 2246.81372373734 94 96 93
-751.156564933356 102.095690691408 2238.03325075147 117 119 116
-758.366199072389 101.380025354906 2229.26312928101 118 120 117
-760.586932993966 101.133061667464 2220.42030769951 114 116 113
-771.785103984591 100.042395281038 2211.81299876093 123 125 122
-778.991860042574 99.3266409001639 2203.15526705915 125 127 124
-783.205554715146 98.8918946279882 2194.44465735078 115 117 114
-780.437736407326 99.1126065147375 2185.52375814741 108 110 107
-789.636961807645 98.2092753999112 2177.0176652982 115 117 114
-800.829062092371 97.1187578767291 2168.63845562592 123 125 122
-808.031375469369 96.4027758163055 2160.15411482256 123 125 122
-808.253704332423 96.3417849744925 2151.399245396 118 120 117
-809.473121300175 96.1870170659677 2142.69151478439 106 108 105
-812.685728607229 95.844906877485 2134.08884612838 105 107 104
-809.91756945461 96.0637407476774 2125.18857663924 109 111 108
-805.156030253023 96.4691815573776 2116.16189578873 105 107 104
-804.38197959 96.50026052221 2107.33968550395 105 107 104
-809.587364707347 95.9701913815806 2098.87618930772 103 105 102
-809.809580324212 95.9072950747885 2090.12369999301 93 95 92
-812.024762241892 95.6572749152845 2081.50391294093 92 94 91
-809.257646936279 95.8740634570264 2072.55132539029 110 112 107
-804.498220724405 96.2772311858308 2063.43962092278 131 133 128
-794.758408930382 97.1467855759011 2053.92927403273 118 120 115
-786.016296287711 97.9222651783904 2044.44186446786 108 110 105
-781.259517060898 98.3238429234685 2035.22499945247 105 107 102
-776.503646676386 98.7249505021473 2025.98143369128 95 97 92
-775.731993182512 98.7524684789643 2017.05238542896 71 73 68
-768.985312519072 99.3392256302347 2007.59026963247 102 104 99
-762.23958099095 99.9254750137139 1998.09051313782 94 96 91
-756.490470456992 100.417909771493 1988.64678663975 84 86 81
-752.73362202796 100.723468172595 1979.36355056134 39 41 36
-743.999130992556 101.494491050122 1969.5641521055 38 41 34
-735.26609925583 102.264867204574 1959.71634958887 56 59 52
-740.470595502255 101.730713335135 1951.2832076803 82 85 78
-752.642388675011 100.544702832492 1943.62915973571 78 81 74
-759.835702016668 99.8244247136092 1935.49195871466 87 90 83
-767.028009542289 99.1041893001435 1927.39411432237 80 83 76
-774.21930857016 98.3839823012818 1919.33571602523 101 103 98
-784.394997624898 97.3848056704126 1911.67129122513 103 105 100
-784.618721807929 97.3158659497493 1902.85335296628 129 131 126
-787.827388299727 96.967749544871 1894.40758079793 145 147 142
-785.066066967927 97.1773687800352 1885.22084682999 154 156 153
-790.264031146214 96.6430301881679 1877.05212722013 156 158 155
-789.49232311183 96.6662563184391 1868.1206023356 143 145 144
-786.731445837645 96.875007094714 1858.91558057351 187 189 186
-770.046076251314 98.3837702302095 1847.77224351375 183 185 182
-563.494439724256 110.909645155142 2385.55897761951 134 135 129
-585.707413540748 108.843202444998 2375.61573336788 127 128 123
-602.923689092512 107.233534867501 2365.90108272001 71 73 70
-613.146853174299 106.262952120214 2356.41187131019 63 65 62
-631.357671720514 104.562525799701 2346.84707204598 76 78 75
-653.560108243166 102.49754985792 2337.32656143201 101 103 100
-673.762442797327 100.615490548393 2327.94771777816 101 103 100
-692.963422524977 98.8250131711146 2318.68613661228 112 114 111
-702.178661830511 97.9465879569225 2309.58090690995 89 91 88
-710.394456881884 97.1593529290663 2300.52717207114 87 89 86
-721.603505638087 96.0987591699532 2291.517687254 93 95 92
-729.816625035585 95.3115944078027 2282.55927689527 96 98 95
-728.048321991253 95.4353622490313 2273.58725427527 103 105 102
-722.288168492849 95.9231295437154 2264.5701135203 97 99 96
-721.518543802063 95.9551008459831 2255.57587903129 77 79 76
-733.720829020535 94.8031990294433 2246.75739480179 83 85 82
-745.921675508817 93.6514520371083 2238.00463215868 112 114 111
-754.129830004649 92.8638835254066 2229.23983384129 115 117 114
-753.358306163186 92.8952200736947 2220.31914318979 109 111 108
-760.567350707081 92.1984976666045 2211.59240459851 113 115 112
-772.763013685018 91.0469903102995 2203.04248879909 120 122 119
-781.964690902533 90.1684545288334 2194.46719375959 113 115 112
-779.196722339016 90.3809237891324 2185.54331677193 113 115 112
-781.415480667575 90.138552351357 2176.78263901339 111 113 110
-792.609217969316 89.0780705446229 2168.38102387248 124 126 123
-802.804095811889 88.1086113656736 2159.99854308125 126 128 125
-805.020797079647 87.8659623140963 2151.31796430458 124 126 123
-803.24945726093 87.9863823119273 2142.4610346911 114 116 113
-806.462957318433 87.6524489842431 2133.84157872653 110 112 109
-805.688356685984 87.6815018113333 2125.0293628532 113 115 112
-803.917389153332 87.8009974340928 2116.15689048791 113 115 112
-803.143103830616 87.8294261453159 2107.33168109034 113 115 112
-807.35259827942 87.4039125333637 2098.8044687849 112 114 111
-805.581687122446 87.5225110016173 2089.91950497917 107 109 106
-803.811036096114 87.6407851347321 2081.02402612068 96 98 95
-802.040880135597 87.7586842557613 2072.1181205043 93 95 90
-799.274433788604 87.9669070395522 2063.13019048221 125 127 122
-793.519423958189 88.4466128194516 2053.90336152987 129 131 126
-787.765226228256 88.9258173046082 2044.64425462574 117 119 114
-784.004280335843 89.2233286668232 2035.5125213201 110 112 107
-777.255534947476 89.7921496394654 2026.11184363911 106 108 103
-769.511538444862 90.4509725767396 2016.5881777788 86 88 83
-762.764758822593 91.0186550112508 2007.1094486744 72 74 69
-756.018927957276 91.5858297787028 1997.59309376785 109 111 106
-756.244791501727 91.5190963801745 1988.69391083233 79 81 76
-748.504681584758 92.1758011195807 1979.02539417172 69 71 66
-735.787108175372 93.2841182688576 1968.81884145753 52 55 48
-716.102022836706 95.0245548744811 1957.82973036732 104 107 100
-718.321571078363 94.7752209963223 1949.03070433625 68 71 64
-730.495815636241 93.6219284565674 1941.31597779774 83 86 79
-738.686539493243 92.8303427291093 1933.22811585201 80 83 76
-748.866890426806 91.8581939456146 1925.41050909867 76 79 72
-763.027079763379 90.5249585680097 1918.11062065185 83 85 80
-778.180178952999 89.101810635249 1911.0066714072 93 95 90
-782.385046781066 88.6720670279211 1902.65574162441 130 132 127
-783.603880490406 88.5130161250214 1893.95688323432 132 134 129
-782.83270035417 88.5341929736896 1885.01185068892 144 146 141
-789.025811675359 87.92373576349 1876.96644011025 142 146 145
-790.24415041666 87.7642133093955 1868.29574525867 150 154 153
-788.477704337803 87.8750209513733 1859.22790554299 166 168 167
-772.785566979783 89.2474928792492 1848.22743510648 203 205 202
-758.090423398718 90.5289437198823 1837.28074929837 209 211 208
-559.477794708444 101.802862634971 2376.31392058 146 147 142
-583.689179533436 99.619461131192 2366.37524317796 73 75 72
-593.914427342673 98.6757523418544 2356.83344766727 74 76 73
-600.143585235416 98.0861250311771 2347.4109025301 63 65 62
-616.35785832666 96.6116806009322 2337.88568472627 86 88 85
-651.542637557698 93.4567115758171 2328.24330038065 94 96 93
-681.730028726967 90.7449600999591 2318.83258741957 107 109 106
-693.941971122595 89.6255952765542 2309.68092775804 87 89 86
-699.16365382134 89.1252780759228 2300.61241096463 85 87 84
-703.38668095988 88.7132220915943 2291.57074402854 87 89 86
-715.594418226911 87.5941096521571 2282.5743815622 91 93 90
-718.817476361885 87.2702957116346 2273.59222823763 104 106 103
-718.047922181247 87.2996974325021 2264.59247894912 98 100 97
-716.280348084644 87.4170923803113 2255.57579901634 78 80 77
-723.494411440987 86.7394703087837 2246.6734163177 81 83 80
-736.694649605158 85.5321084146102 2237.90941175263 110 112 109
-748.895360862167 84.4132278446144 2229.19722384921 115 117 114
-749.121756132111 84.353450138199 2220.28472772592 109 111 108
-755.334046085541 83.7640672052589 2211.52170248488 114 116 113
-763.540493391365 82.9981999395457 2202.84692819364 122 124 121
-777.730880968354 81.7032327627232 2194.39855255733 112 114 111
-777.955294779082 81.6429322437777 2185.56293736852 113 115 112
-782.169342437329 81.2297557382599 2176.8710164996 107 109 106
-789.374486585548 80.5520324279753 2168.31711864988 123 125 122
-797.575797067395 79.786242321429 2159.84319208214 123 125 122
-798.796161784628 79.6371039618456 2151.10446471374 123 125 122
-796.027846792814 79.8400924128644 2142.18394758118 116 118 115
-799.242071825577 79.5143687430264 2133.54497197032 109 111 108
-800.461877733223 79.3645570278107 2124.81803703071 109 111 108
-801.681529716118 79.2145612203097 2116.0969203395 111 113 110
-799.910820651442 79.3282712170995 2107.20813399071 113 115 112
-803.123697512281 79.0018292613878 2098.61175358068 110 112 109
-801.353162537059 79.1149977534548 2089.7155817869 107 109 106
-797.589597986237 79.4037082625195 2080.67674504507 100 102 99
-794.823027634077 79.6041315740909 2071.68528710189 92 94 89
-793.053238483881 79.7162493701403 2062.74951293773 110 112 107
-792.280261985898 79.7401851852969 2053.87765079809 123 125 120
-786.525692096818 80.2031185541334 2044.61561849111 117 119 114
-777.78316390483 80.9290611644858 2035.08193623788 109 111 106
-766.0535422681 81.9178546550301 2025.25195713733 107 109 104
-754.325330736504 82.9059607707308 2015.35680340484 89 91 86
-747.579079141193 83.4544165717861 2005.8367930995 82 84 79
-745.813506175534 83.5635513090024 1996.73303285913 100 102 97
-749.027803941146 83.2336519564513 1988.08673107007 103 105 100
-742.283349752696 83.7808489890096 1978.49512030933 69 71 66
-729.565223923458 84.8536919024578 1968.27206857442 66 69 62
-708.883435747638 86.6271206115626 1957.16481965513 72 75 68
-705.129856277948 86.9093797382934 1947.71947956674 86 89 82
-719.297128862778 85.6137511328184 1940.18313249586 64 67 60
-733.462185590381 84.3185355297282 1932.72450746349 84 87 80
-740.657390002755 83.636796345525 1924.55477698767 78 81 74
-753.823701006851 82.4297040456693 1917.11705283815 77 79 74
-769.974017484225 80.9602947457388 1910.10621218575 93 95 90
-779.155665175542 80.1040467755487 1902.33767135138 127 129 124
-779.379734453721 80.0355403474172 1893.50671081484 121 123 118
-780.598763777817 79.8793482901901 1884.80327673075 134 136 133
-787.787646266193 79.1981818296526 1876.88124389169 131 135 134
-790.995857403105 78.8668869536499 1868.47133023187 144 148 147
-788.234423305539 79.0600909907825 1859.2713781653 161 163 162
-771.546375514261 80.4765226095909 1848.13357616118 172 174 171
-747.897642210177 82.5037050931303 1835.92347182922 166 168 165
-741.160983137478 83.0446136411164 1826.01112406257 192 194 191
-554.462500735094 92.7582162821102 2367.06740427721 96 98 93
-565.68929242417 91.755498717682 2357.42660717883 77 79 74
-573.918480966348 91.0101173769248 2347.89434758752 69 71 66
-587.139913408628 89.8360953352475 2338.33779497882 64 66 61
-615.338785691611 87.3765147046087 2328.6904018394 88 90 87
-651.522338810971 84.2320411806216 2319.13190510916 83 85 82
-671.725069955151 82.4595010809536 2309.85515463619 86 88 85
-679.944175575315 81.7153336342683 2300.71827395232 82 84 81
-686.165144371757 81.1425342773611 2291.6245308397 74 76 73
-696.378571500618 80.2271654854418 2282.57515777374 77 79 76
-705.592470318566 79.3975025103918 2273.57467610683 97 99 96
-709.814313033796 78.9958631935669 2264.58116036389 101 103 100
-713.037601763982 78.6796853050995 2255.59819358416 80 82 79
-716.260469721854 78.363349352475 2246.63150232699 74 76 73
-727.466475983803 77.3625611820221 2237.81446814834 88 90 87
-738.670705448774 76.3619040712353 2229.05769328427 115 117 114
-743.886623916603 75.8744500684522 2220.22827411461 113 115 112
-749.102076912365 75.3868917808649 2211.42626002106 109 111 108
-756.311978903244 74.7283232789651 2202.70697615613 121 123 120
-767.511163593265 73.7279889069966 2194.14771510528 106 108 105
-771.726506518561 73.3257811553084 2185.41694811606 109 111 108
-776.938412154452 72.838090068263 2176.74410975695 102 104 101
-785.14197984165 72.0941430185469 2168.21474196507 121 123 120
-791.349489197878 71.5210257094509 2159.64669900947 115 117 114
-790.575802020079 71.5453157801843 2150.80299307134 117 119 116
-788.804914108918 71.6546501213979 2141.90717363255 116 118 115
-788.03154905631 71.6783592760823 2133.05025418313 107 109 106
-791.246343460351 71.3605865950522 2124.39756272973 98 100 97
-793.463825175659 71.127974883502 2115.70658347006 103 105 102
-795.680773740945 70.8952081516939 2107.02695032312 106 108 105
-796.900922618605 70.7474626785923 2098.29815428715 109 111 108
-797.124006601203 70.684770326237 2089.51194522195 113 115 112
-793.3601919045 70.9626270995754 2080.461906354 104 106 103
-788.600619318083 71.325212770606 2071.32167361082 101 103 98
-790.817193765331 71.0913002443951 2062.65543202709 102 104 99
-791.040683594513 71.0274945250551 2053.85216562372 111 113 108
-787.27862305498 71.3039058470052 2044.74134099069 124 126 121
-773.553854758442 72.4309029530257 2034.81134882705 121 123 118
-760.827194673261 73.472017136886 2024.88777751244 116 118 113
-748.102320636069 74.5123857382238 2014.89360070621 104 106 101
-740.359925572971 75.1268002331263 2005.26898746497 85 87 82
-736.60251620525 75.4006259874504 1995.96427795332 80 82 77
-736.829729340549 75.3340284465884 1987.01249420575 90 92 87
-731.081666363902 75.7770855972546 1977.48413245567 72 74 69
-722.346635561458 76.4745187741565 1967.62681501275 69 72 65
-702.65945606404 78.1056180253051 1956.60215287072 67 70 63
-687.953400519001 79.3111420554028 1945.99109526612 153 156 149
-703.118487095374 77.9689913251726 1938.51493076668 137 139 134
-730.228019943516 75.6088085452899 1932.44126032389 70 73 66
-741.405886621446 74.6071274060444 1924.71373498022 72 75 68
-757.55940972797 73.1815485923279 1917.62462995265 97 100 93
-769.729322003579 72.0956854645062 1910.15162452237 123 125 120
-779.906875520367 71.1796940201617 1902.5036479331 119 121 116
-780.130891521021 71.1115768950811 1893.67518767043 104 106 101
-784.335392451815 70.7043062021268 1885.35340240049 111 113 108
-787.544300835909 70.381693513605 1876.92556016962 133 137 136
-789.757824495754 70.1437285155521 1868.38352748219 145 149 148
-782.021460970313 70.7524890929435 1858.50778532549 147 151 150
-764.337769845923 72.2073175500207 1847.21623959205 142 144 143
-742.677169379411 73.9997355917136 1835.26726842663 135 137 134
-734.945930459295 74.6063934846994 1825.19830602889 157 159 156
-511.245750226175 86.8997630192747 2368.06518737421 121 124 115
-538.458971385714 84.5978177053092 2358.00154943141 77 80 73
-547.689418407067 83.790712685451 2348.37852764421 72 75 68
-557.917317320363 82.9007053648899 2338.79077830418 62 65 58
-567.144961500261 82.0937644907404 2329.26815272945 87 89 84
-605.331948149276 78.8810990716765 2319.56096267458 81 83 78
-639.519207899064 76.001309496169 2310.08307511166 86 88 83
-664.715477761329 73.868757735227 2300.81443901444 81 83 80
-672.934888105629 73.1462091838798 2291.67953657228 80 82 79
-683.149982958144 72.2579151305334 2282.59405385767 74 76 73
-691.367263523665 71.5354653039943 2273.55182133948 96 98 95
-700.581569529375 70.7302117055822 2264.56163427293 100 102 99
-706.799930309868 70.1735465771521 2255.58714515021 91 93 88
-707.029207941943 70.1137367372649 2246.56196182735 74 76 71
-716.240579493877 69.3084991310785 2237.6864805511 84 86 81
-727.446653504805 68.3377774723431 2228.89908161231 111 113 110
-737.653159342002 67.4499994973468 2220.1498414955 106 108 105
-740.873494536318 67.1415132501202 2211.28124303294 110 112 109
-746.089186792158 66.6674555698159 2202.48437373902 124 126 123
-756.292326339296 65.7798235589151 2193.86685662418 111 113 110
-763.501286089828 65.140381899191 2185.20493570619 110 112 109
-770.709260318843 64.5009475323809 2176.58154021362 104 106 105
-775.921501023815 64.0268184388291 2167.91949280641 119 121 118
-786.119791439795 63.1395020950886 2159.49183547468 117 119 116
-787.340854001535 62.9958228753453 2150.7223707411 116 118 115
-789.559166916804 62.769336889167 2142.00548263967 122 124 121
-785.794142198255 63.0381196882715 2133.00231747076 117 119 116
-786.01799929963 62.9763018525823 2124.18683123413 109 111 108
-785.24464783654 62.9967995054969 2115.31660760776 102 104 101
-789.456323997708 62.6044389005708 2106.73039878262 101 103 100
-793.667663552577 62.2119997221552 2098.1665861198 109 111 108
-794.887712542038 62.0669098108186 2089.43522061016 108 110 107
-791.123982214189 62.3338925443392 2080.37953339683 108 110 107
-785.36733661438 62.765358363681 2071.16483962471 103 105 102
-786.587745574457 62.619467394094 2062.41854510173 101 103 100
-784.818590180699 62.7205648877167 2053.45549357673 105 107 104
-781.056417598911 62.9860857068247 2044.32802977169 118 120 117
-768.327347402085 63.9924302919497 2034.46132105206 121 123 120
-759.585574530374 64.6686679684219 2024.85407372421 122 124 121
-748.852177714087 65.5090030636101 2015.02761140208 111 113 110
-740.113000820108 66.1840394550159 2005.31761442412 96 98 95
-732.370862416975 66.7762417258483 1995.64979545862 76 78 75
-725.626028189948 67.2856229011437 1986.03243416696 89 91 88
-722.866021566626 67.465557813189 1976.76244409735 97 99 96
-717.118643307792 67.8918255358955 1967.17996922027 69 71 66
-698.426321738459 69.3860775985019 1956.24336354129 68 70 65
-676.749031935549 71.1259207197227 1944.89021855692 140 142 137
-677.975987612758 70.9751358276457 1935.88280093227 161 163 160
-730.97586069845 66.553385986141 1932.59819949076 86 88 83
-741.159012569642 65.6643531298695 1924.76036587321 89 91 86
-754.32725190754 64.5292654689047 1917.32458879424 118 120 115
-763.511994018001 63.722774730012 1909.48853282289 119 121 116
-772.695451622374 62.916475915571 1901.70288587292 100 103 96
-776.901070934986 62.5205211635749 1893.34954055312 105 108 101
-783.096627517043 61.9605010357174 1885.27204095161 136 138 133
-785.310534453791 61.7284840529351 1876.71209020752 143 147 146
-780.558839018099 62.0701116160576 1867.24148792389 159 165 163
-771.827574406539 62.7391134202733 1857.20644727616 131 136 132
-757.128074168426 63.8990451903791 1846.29955689889 116 121 117
-743.425181183261 64.9763026619993 1835.45187040969 144 149 145
-736.688012470886 65.4796217828526 1825.52840528346 147 152 146
-730.946436936702 65.900623474072 1815.71348556621 193 195 190
-532.960911509734 75.5850548354529 2367.64810623731 137 140 131
-511.224540617973 77.2912582205768 2358.57725990391 134 137 128
-513.464931458602 77.0700761455765 2348.99386014032 69 72 63
-509.712167421572 77.3301630783935 2339.50216811277 60 63 56
-516.946433177683 76.7073616595035 2329.86906784087 64 67 60
-538.161807070924 74.9615329598575 2320.1608980328 64 67 60
-639.498819899429 66.7408915092998 2300.93678514224 84 86 83
-660.701306834456 64.9976384132134 2291.73504778879 70 72 69
-666.924338302549 64.457027170485 2282.60457422872 71 73 70
-677.139916852249 63.595898005818 2273.52935451784 78 80 77
-690.348989275605 62.4945935881073 2264.53395285027 93 95 90
-703.556247181949 61.3934871559783 2255.609681375 92 94 89
-707.778284273077 61.0132829103799 2246.6315840772 75 77 72
-712.997768066775 60.5529236171391 2237.69191183394 79 81 76
-723.206715051523 59.6923445780352 2228.87646733684 109 111 108
-733.41426277142 58.831882982095 2220.11583705882 105 107 104
-736.635348355707 58.5315364722657 2211.23597536804 112 114 111
-741.851704601367 58.0711214050598 2202.42780343902 126 128 125
-750.060332576182 57.3707995706866 2193.73817868535 108 110 107
-758.268074233001 56.6705004974342 2185.09254353673 107 109 106
-760.488863041732 56.4498405505544 2176.2758197059 101 103 102
-765.702186772346 55.9892725203645 2167.58600473019 108 110 107
-779.891697842099 54.8097602644599 2159.29585263512 119 121 118
-787.097598218782 54.1895739499914 2150.77417755212 117 119 116
-791.310551506741 53.8089671759879 2142.15067454615 118 120 117
-787.545093005112 54.0669119840095 2133.15282612261 119 121 118
-783.780177462787 54.3244571598533 2124.13332787425 118 120 117
-779.018535348098 54.6614286280229 2115.03715211869 107 109 106
-785.225104201459 54.1205337207489 2106.54978999487 105 107 104
-791.430818329737 53.5796112846563 2098.09580392989 110 112 109
-791.654270335731 53.5171060444837 2089.29541214211 111 113 110
-787.890456156879 53.7732176440938 2080.2313295302 113 115 112
-781.136892773307 54.2680274069176 2070.93948825535 106 108 105
-777.374362687179 54.5233319968702 2061.82435234657 103 105 102
-772.615587088034 54.8579198026979 2052.6135838403 105 107 104
-774.833517087472 54.6346567501704 2043.91512195397 117 119 116
-771.072006049586 54.8889429376462 2034.74973983935 120 122 119
-763.325689878997 55.4612026322698 2025.23311448444 120 122 119
-754.583961357552 56.1125237312914 2015.58805550448 116 118 115
-742.854872538483 57.0018888584323 2005.63049352501 106 108 105
-729.134703394299 58.04968492479 1995.42638579026 83 85 82
-716.412747619977 59.0171487090987 1985.23987358397 84 86 83
-713.653153873519 59.188961158502 1975.94502558143 92 94 91
-712.886021091589 59.2015130908352 1966.83254763803 92 94 91
-694.19231690864 60.6439348117497 1955.88500307148 82 84 81
-664.546954788258 62.959107661186 1943.68552752384 94 96 93
-646.855185266321 64.3198912864394 1932.60873545428 147 149 146
-731.951510724303 57.4351803045943 1923.79347628193 90 92 87
-747.112375393915 56.1772230654969 1916.56339422244 88 90 85
-750.325242744156 55.8715921118151 1907.99905555891 92 94 89
-755.528619200808 55.407280300289 1899.69399472481 115 118 111
-763.717139859024 54.7051693389469 1891.78831253269 136 139 132
-771.904514081628 54.0031985390048 1883.92758751032 142 144 139
-774.119589836094 53.7768241390391 1875.33733867986 164 169 165
-768.372975710456 54.1841474796229 1865.70465781189 143 149 147
-765.612436380788 54.3534507939213 1856.4440723608 127 132 128
-758.872262902638 54.839174030346 1846.61915078465 126 131 127
-748.153288305552 55.6410353936757 1836.1970328329 142 147 141
-734.451148309975 56.6796920760178 1825.28779513577 162 167 161
-719.755939364269 57.7966962542219 1814.1577690551 181 183 178
-530.941842687488 66.1914267828753 2358.25783221107 136 139 130
-489.225423727318 69.3868977394007 2349.44702932035 102 105 96
-492.466458435383 69.0928989054255 2339.79430241023 60 63 56
-488.71514249329 69.3411666852837 2330.23332331993 57 60 53
-488.959473369768 69.2792098338798 2320.61750176283 54 57 50
-510.176696322947 67.590480274869 2310.88904815826 55 57 52
-611.282641789468 59.7074550276546 2301.0676793008 76 78 75
-644.471407247525 57.0921928265692 2291.79027490143 71 73 70
-652.692875749341 56.4128652267674 2282.62133986273 70 72 69
-661.911830391112 55.6562198495268 2273.5016597594 73 75 72
-678.118052242868 54.3581060386851 2264.48976731269 90 92 87
-694.322042783931 53.0603761995755 2255.56549449679 91 93 88
-701.539710470293 52.4589040263163 2246.60400599084 74 76 71
-710.752804828327 51.7028735233522 2237.71402628176 74 76 71
-727.949223610779 50.3286354271764 2229.02823301119 109 111 108
-739.155129582909 49.4184158277622 2220.30303927409 107 109 106
-742.376029770775 49.1264013045289 2211.43936976318 112 114 111
-741.605051854496 49.1432329544705 2202.48176822161 127 129 126
-746.820850654219 48.6965037261166 2193.70075322234 106 108 105
-751.038517194673 48.3268979056941 2184.91417674621 105 107 104
-753.25995253939 48.111632599351 2176.07797639882 101 103 102
-755.481337242134 47.8961975829146 2167.2528978818 108 110 107
-767.677463701044 46.9092172268495 2158.85219927359 120 122 119
-777.877134594429 46.0767208765001 2150.42944958945 117 119 116
-787.07808318496 45.3214931509934 2142.01503051024 116 118 115
-785.307339066644 45.4142958414052 2133.10516552378 117 119 116
-780.544854260884 45.738017381368 2124.02769830204 116 118 115
-774.78594405199 46.138366036579 2114.86810208372 110 112 109
-778.998942501177 45.7680405063134 2106.25387322822 107 109 106
-783.211604500095 45.3976213562564 2097.66201828129 109 111 108
-784.432521460358 45.2581222141663 2088.90273240328 111 113 110
-782.662557951489 45.3493397812771 2079.95133172391 115 117 114
-778.899338090248 45.5942046372817 2070.8519452338 109 111 108
-769.156044066305 46.3002339011792 2061.30211526592 103 105 102
-763.400838808824 46.6980507023714 2051.99499820183 104 106 103
-761.633121697744 46.7878568220184 2042.96360979954 108 110 107
-764.848298095309 46.4930297583437 2034.32062595266 117 119 116
-760.091036148415 46.8129150483893 2025.03491224373 119 121 118
-757.32736770843 46.9787600588822 2015.89291000342 117 119 116
-749.582497542004 47.5283227044986 2006.29539945343 118 120 117
-735.860791668801 48.5380856908247 1996.11051542009 101 103 100
-717.160347736712 49.9309072785806 1985.38245158306 81 83 80
-709.419683151548 50.4785731664236 1975.60921096774 77 79 76
-707.656774566876 50.5653285575484 1966.38661305843 90 92 89
-694.938006410601 51.4955871681533 1956.03556964632 111 113 110
-672.261769425778 53.1920154611453 1944.56996372235 130 132 129
-645.60508893517 55.1939937661459 1932.55065809987 118 120 117
-656.792376250526 54.282080738029 1924.56065248299 140 142 137
-701.832172380378 50.7651704237114 1920.46171150415 123 125 120
-727.94855302264 48.705394642066 1914.41826178054 72 74 69
-728.176228324502 48.6377287592872 1905.44726785937 78 80 75
-732.386090816815 48.2636135079139 1896.9608587397 83 86 79
-738.585860110228 47.7364307487872 1888.74464523397 84 87 80
-749.761960788072 46.8267006695213 1881.19419604611 74 77 70
-757.950338515516 46.1467597848197 1873.31790460452 72 77 73
-757.180665222525 46.1552915828931 1864.30040212368 79 84 80
-760.391689433087 45.8578037542216 1855.81684320427 116 121 117
-756.636645631298 46.0953302722942 1846.39002864525 127 132 128
-754.872020818413 46.1797098074138 1837.22263108043 125 127 122
-741.168354149726 47.1806008182768 1826.33251118766 124 126 121
-718.512576875713 48.8681310586824 1814.05771484531 135 137 132
-700.833899588031 50.1727505734246 1802.39960342257 160 163 156
-479.214097371175 60.4625656449428 2340.03249108678 96 99 90
-472.46657942747 60.9237007625863 2330.46821583893 59 62 53
-467.717618009054 61.2349241679446 2320.8487882578 58 61 54
-479.948972881115 60.2756536429159 2311.11031869636 52 54 49
-561.090302095683 54.1629199412286 2301.2569311237 69 71 66
-616.255186418018 49.9943704135456 2291.84438124535 78 80 77
-637.461004691874 48.365827109066 2282.63561016965 70 72 69
-648.678566329294 47.4842395121342 2273.48561549468 72 74 71
-668.880621344789 45.9312490420779 2264.47102595614 87 89 84
-683.089621068009 44.8263736874843 2255.49932912746 98 100 95
-691.307057654966 44.1692730777287 2246.52116570706 73 75 70
-702.517853266501 43.2885714989329 2237.63656210048 69 71 66
-719.716123127009 41.9607904943565 2228.92830433394 111 113 110
-733.917960290368 40.8569936198218 2220.24702793419 109 111 108
-739.135341082548 40.4240977442467 2211.41903637822 111 113 110
-741.358379153696 40.2146295875944 2202.53574525083 127 129 126
-743.580894529735 40.0050636463381 2193.66345307721 103 105 102
-745.803361567151 39.7953423865336 2184.8022081636 104 106 103
-748.025541433508 39.5854875131649 2175.95204342584 102 104 103
-749.249594335071 39.449925008672 2167.07442095658 107 109 106
-760.449524500669 38.5702105159786 2158.61553647427 119 121 118
-772.645609131597 37.616308656555 2150.26131457881 116 118 115
-782.844988095992 36.8114087600796 2141.87960543766 116 118 115
-778.081936740111 37.1217768457318 2132.80994304649 117 119 116
-776.311802757649 37.2087753099893 2123.86999970623 115 117 114
-767.560938967516 37.8156085857741 2114.53421107462 112 114 111
-771.774736787218 37.4562337834849 2105.90049809856 109 111 108
-770.005462195211 37.5423732535299 2096.92604448037 108 110 107
-777.209688974896 36.9600543754003 2088.51043850239 111 113 110
-775.440071976219 37.0458379962562 2079.53966045136 114 116 113
-773.670952479319 37.1313209803156 2070.55844029505 111 113 110
-765.920789798747 37.6616642309203 2061.13781843778 105 107 104
-761.162281472385 37.9689591070238 2051.89662372759 103 105 102
-759.394325758496 38.0534751846655 2042.85955592174 105 107 104
-756.630070212704 38.2118240706559 2033.73245104903 111 113 110
-750.876512569067 38.5921718249384 2024.34218261115 113 115 112
-750.106325386497 38.6016656969685 2015.34579771617 119 121 118
-744.354041908343 38.9812540987949 2005.90491514308 122 124 121
-735.613499520845 39.5825786472098 1996.15981549404 115 117 114
-720.896698229242 40.6274684754762 1985.80558704438 101 103 100
-710.166748353297 41.3755637783784 1975.75469115616 86 88 85
-701.430438324305 41.9750563286867 1965.84220921651 83 85 82
-688.711118604366 42.8698854898072 1955.47468140887 88 90 87
-675.993576986726 43.7639711837734 1945.03686092595 100 102 99
-656.306320605243 45.1748359977575 1933.77873290273 134 136 133
-651.559619990321 45.4761545602587 1924.06031023181 143 145 140
-693.616021616328 42.3045218364615 1919.6090084348 144 146 141
-722.722134401511 40.0946555553556 1913.8891242933 102 104 99
-719.963189078214 40.2487848184496 1904.54994682381 70 72 67
-724.173687635993 39.8858769734562 1896.04138692382 90 93 86
-730.374721280645 39.3753548684619 1887.80297190723 73 76 69
-736.574884351727 38.8649144873035 1879.59866967037 57 60 53
-744.764785100144 38.2070452650115 1871.68655214432 89 94 90
-750.963071635327 37.6968343853901 1863.55583785215 89 94 90
-754.174754858624 37.4078588661498 1855.0556622944 129 134 130
-752.410032147314 37.4873429025798 1845.88683452972 140 145 141
-752.635840805523 37.4192436781992 1836.98833022009 143 145 140
-745.896440363443 37.8665889951164 1827.09198846216 153 155 150
-727.218377376635 39.1970973863844 1815.41296785221 165 167 162
-704.563406589567 40.8211378343697 1803.0384807569 163 165 160
-457.214508218103 52.3457884353967 2330.69264143133 121 124 115
-458.460102323912 52.2109249570674 2320.98318942599 63 66 57
-468.695172901465 51.428228000217 2311.23036820659 66 69 62
-503.898590972397 48.8469735838772 2301.46619920218 60 62 57
-620.229439761378 40.3796832832565 2282.6445794611 74 76 71
-635.4433157316 39.2403000404237 2273.46994775738 66 68 63
-653.650909046976 37.8856018249852 2264.40241789939 74 76 71
-665.865033296499 36.9625217467186 2255.36691448314 92 94 89
-679.076025433802 35.9678102398649 2246.41093500244 74 76 71
-692.285203806418 34.9734015516387 2237.52616887224 68 70 65
-708.487298926825 33.7638341488395 2228.77063769581 109 111 108
-720.694540777805 32.8418029780026 2220.01457328076 102 104 101
-727.90950089067 32.2788336293466 2211.20024749431 116 118 115
-734.125524332278 31.7876832287365 2202.39677912938 132 134 131
-735.350798735419 31.6552016068059 2193.47472416138 103 105 102
-736.575926376797 31.5225489903608 2184.55822155072 104 106 103
-740.794384632407 31.174672490605 2175.75470858641 105 107 106
-742.019245939024 31.0417575400018 2166.8576583749 103 105 102
-752.222897390899 30.2637940960481 2158.33788791045 121 123 120
-764.42021943488 29.3427864810816 2149.9612981443 117 119 116
-776.616094084271 28.4219960160788 2141.65083551988 111 113 110
-773.848124142894 28.5754369082913 2132.6636322683 114 116 113
-774.072781660135 28.5138261124653 2123.81708531035 116 118 115
-766.318880188883 29.0244850378088 2114.53077762054 116 118 115
-765.54663960865 29.0338985179955 2105.60523551281 114 116 113
-760.786044710549 29.3291298937761 2096.43263839695 108 110 107
-765.000051799883 28.9805028068157 2087.80228650765 111 113 110
-767.219524353762 28.7747897828785 2079.06238011907 111 113 110
-766.447492421121 28.7833674674987 2070.12778592775 112 114 111
-758.697459328076 29.2917811347311 2060.68787783156 108 110 107
-753.939070764818 29.5854348070768 2051.42735549044 105 107 104
-750.177821688815 29.8073459995993 2042.21697322176 104 106 103
-749.40747728381 29.8147360477061 2033.22447420009 105 107 104
-742.657402128261 30.2500835672068 2023.73245491294 107 109 106
-741.887707272608 30.2569105629716 2014.7139646902 112 114 111
-738.128384214791 30.4775137422409 2005.42690251489 115 117 114
-734.369830926314 30.6977588041023 1996.11869535642 121 123 120
-724.633630861489 31.3453765145972 1986.22889106403 121 123 120
