ply
format ascii 1.0
comment KinectMotionCapture
element vertex 765
property float x
property float y
property float z
property uchar red
property uchar green
property uchar blue
end_header
-709.219850727806 457.232711285217 2376.88108390488 19 14 11
-712.150833813362 457.191148482647 2383.83975965997 20 10 9
-715.082782158988 457.149300827484 2390.802768418 20 10 8
-694.600319505552 452.592426303933 2401.50029901603 21 16 10
-685.800987187456 450.295809871309 2410.24245064934 22 22 12
-695.532659621977 450.968136245568 2423.41893436809 21 24 15
-769.966987401931 473.812573501979 2211.54022499977 123 104 89
-753.758326747506 470.01728587688 2223.00016031626 137 108 90
-741.365619643553 466.973926058813 2233.51650055298 132 104 83
-736.644161628653 465.429951102414 2242.28796809969 119 91 70
-735.761770360833 464.635201913206 2250.19994940907 102 74 53
-736.801114899401 464.214781960165 2257.68972120991 101 74 53
-735.911211871337 463.420713802768 2265.5742427936 101 74 55
-732.123284369693 462.066733055254 2274.03535818194 92 67 47
-732.187621849055 461.460509315903 2281.68413346866 78 55 37
-735.146546933142 461.414335792683 2288.74457044267 80 57 41
-736.173539597718 460.994889485207 2296.18909686511 73 50 34
-735.264015364487 460.202642928638 2304.00191882308 79 58 41
-732.413648494437 459.038103637099 2312.16729611328 97 74 60
-735.369173430254 458.992034442294 2319.21424584817 97 74 60
-737.35621766336 458.759507830382 2326.44494650572 85 63 49
-749.045899021783 460.387963026326 2331.90857272413 65 53 41
-752.010671525992 460.340470568612 2338.9898873168 31 25 13
-743.3160776025 458.061548077364 2348.13208310941 14 14 4
-729.743018385697 454.855166067072 2358.05940400026 11 12 4
-732.690507982666 454.809441398333 2365.07766663512 17 14 7
-734.665368750637 454.577825629865 2372.26370753339 16 13 8
-740.538392233475 455.08852867672 2378.8053132524 19 16 11
-776.652489389697 461.349393353608 2380.46122732271 20 17 10
-728.875697083308 451.657513690887 2395.68362000037 17 19 8
-676.141289258728 441.047516285048 2411.4022373901 13 15 2
-756.709098105512 463.463104568388 2214.23161851111 130 108 94
-742.403145597987 460.089606793936 2225.22866249607 135 106 88
-731.917654207763 457.456908149583 2235.29182104944 127 99 78
-730.071498812979 456.486160462262 2243.41073919422 119 91 70
-732.070359697463 456.2533575363 2250.68513831212 107 79 58
-732.142054283022 455.651965763732 2258.36520876557 107 80 59
-734.139181844189 455.419190006085 2265.63318954636 121 94 75
-738.066078378591 455.55455766677 2272.50488099109 113 86 67
-740.064339027871 455.321492004236 2279.7768856752 96 70 53
-734.331440591248 453.616975675876 2288.58896516194 96 70 53
-734.389558565583 453.016814644903 2296.21847632217 94 68 53
-735.412337352284 452.600664584418 2303.64943851975 95 72 54
-739.338844152314 452.735579168413 2310.52032593075 95 69 54
-740.360508006692 452.319391977034 2317.94712516063 100 74 61
-741.380526765168 451.903315620421 2325.36788644713 94 71 57
-746.281370196294 452.220963260549 2332.07534250578 69 55 42
-749.243867145202 452.171459346623 2339.14600945696 31 23 10
-759.012259372457 453.404383924749 2345.020118159 13 13 1
-729.877810326704 447.309544049905 2357.69319874214 16 16 6
-726.010181374034 445.980045859513 2365.87292624626 14 14 4
-723.107642805507 444.834458495633 2373.85656550037 15 12 5
-750.423384865017 449.359785026188 2376.81985412414 17 17 7
-794.363935619375 456.988616830019 2377.225098172 18 20 9
-668.427311845756 432.223525839352 2412.25948703187 8 10 0
-754.962241441231 455.377966082095 2214.33123908861 138 115 99
-737.764271534626 451.504938101043 2225.96530224437 143 112 94
-727.269174589372 448.90791274342 2236.01531950026 127 98 80
-723.492115550482 447.585128886782 2244.53648344435 113 84 66
-727.411582784778 447.716503405943 2251.37807029338 109 80 62
-729.405955912712 447.484331433834 2258.63620560201 99 70 52
-733.329465419724 447.615072365576 2265.49240060344 129 100 82
-735.324988602583 447.382626578282 2272.75463296803 129 100 82
-736.354145022055 446.968771732196 2280.21165216683 125 96 78
-729.647928692788 445.105280014975 2289.20501570699 124 95 77
-731.635709442553 444.873502223563 2296.43892367261 116 87 69
-734.591454497096 444.82271774546 2303.48464270467 115 86 68
-742.393202873226 445.676610737807 2309.61032830701 120 93 74
-744.385461437801 445.444087609564 2316.86039095473 113 85 71
-747.347824685131 445.392324690824 2323.93006430328 112 86 73
-749.340403574548 445.159630930624 2331.18120852627 69 53 38
-750.361000276511 444.746260518927 2338.60582399562 36 24 10
-744.571969586439 443.069115107527 2347.22677599101 18 12 0
-742.664371647292 442.115181922169 2355.12818580729 24 20 8
-745.620550120831 442.063784094642 2362.17512680241 21 17 5
-755.401048696097 443.274317565561 2368.07911840643 21 17 5
-747.635078060767 441.239556822208 2376.9269410241 19 20 6
-772.067226362611 445.150770462662 2380.48618264035 18 22 7
-827.791865613512 454.819521074967 2379.17270392325 16 23 7
-826.895822689476 454.041225531008 2387.04345825651 19 22 11
-752.153472066311 447.722731787961 2206.86235549519 131 115 100
-749.370344184019 446.591596190567 2215.29846731223 126 103 87
-737.927571845418 443.848418122567 2225.63399878607 116 85 67
-727.426481993131 441.286633789287 2235.68401489061 111 82 66
-725.57201476551 440.338365389152 2243.78626507427 119 90 74
-732.383456402462 441.001270533527 2250.01180552679 122 93 77
-736.309362922261 441.126719393587 2256.87355902988 100 71 55
-737.34298350521 440.715409779898 2264.3478306967 126 97 79
-733.546288335039 439.410688828209 2272.80749350651 136 107 89
-729.740759942891 438.106928105971 2281.23496653298 128 97 79
-724.959293229382 436.625619974662 2289.82319809586 126 95 75
-728.878367334481 436.751458366986 2296.66075913507 115 84 64
-734.737689260159 437.233718289341 2303.13260713548 114 83 63
-744.479648344744 438.428339253518 2308.88439186292 123 94 76
-746.472614629922 438.196008664228 2316.13720369755 116 88 74
-751.377722922405 438.497981237365 2322.84966891133 108 85 71
-754.343862054533 438.443333767692 2329.93154022562 57 39 25
-756.33907068112 438.210556099633 2337.19239517228 36 23 7
-770.982322950769 440.289942648893 2342.21685557456 23 16 0
-765.197230716497 438.633794646669 2350.86475792684 30 22 9
-782.785558345855 441.243588802047 2355.46868734067 31 21 9
-792.595719995953 442.42976218688 2361.46836146715 31 21 9
-800.465670150646 443.25953494581 2367.83203865344 29 21 8
-797.601793637031 442.1363916519 2375.97339255071 25 23 8
-810.36705003891 443.851810155969 2381.58807277189 23 24 8
-808.477895477782 442.906260996134 2389.56325247075 18 20 9
-756.166437236064 440.726464697838 2205.6547416939 134 116 102
-757.227669088118 440.315077561633 2213.23240867009 107 84 68
-747.707950139584 437.962207610516 2223.16071079412 110 77 60
-735.28297575754 435.081964369406 2233.66023221894 93 61 46
-730.542214845187 433.615000488064 2242.40865265188 67 38 22
-733.502773095207 433.55925465223 2249.46910979384 73 44 28
-735.50001602243 433.327129865466 2256.73792989512 78 49 33
-734.600877747005 432.566684784635 2264.60939066578 116 85 67
-733.697249507893 431.806704834537 2272.46447474047 139 108 90
-729.88877961722 430.519440766204 2280.8905126606 138 107 87
-728.973969122893 429.760649398189 2288.70482962185 135 104 84
-730.959561426881 429.529604894622 2295.93107527678 124 92 71
-737.789909180041 430.176878323742 2302.2169413866 117 85 64
-744.62752726245 430.823325260825 2308.52834997766 118 87 66
-747.590139168886 430.76684006381 2315.59596514944 109 83 66
-753.467542594298 431.236423162226 2322.127871754 103 82 65
-761.29441741534 432.056006899134 2328.32518585388 52 35 17
-778.855977380991 434.627092050429 2332.80529333995 33 18 0
-795.467124901035 437.020305968593 2337.54072749059 56 40 24
-791.64408647535 435.734134802299 2345.91429431922 55 37 23
-801.459159269367 436.898965948944 2351.9187281886 52 30 17
-801.530630174936 436.313297980229 2359.60696632619 51 27 17
-803.551284380061 436.077584624705 2366.96044227938 43 21 10
-792.871246892011 433.570109300577 2376.38034875038 74 56 44
-795.859601427736 433.510105279939 2383.54131965827 53 36 26
-804.719541930426 434.497408884805 2389.78377331887 20 17 10
-763.063859298496 434.235797673554 2203.78679925725 109 91 77
-761.244810020524 433.30506652561 2212.03162144918 107 81 66
-755.571123718846 431.679694434329 2221.11258249323 121 88 71
-739.293496459303 428.144475690123 2232.48065219863 132 100 85
-735.515625344055 426.869923213345 2241.02925183066 86 57 41
-734.622058776504 426.117058227177 2248.92618493558 81 52 36
-739.514570221014 426.405594789953 2255.5833977282 91 62 46
-737.650631166643 425.479784588908 2263.66465980677 133 102 84
-738.680368015727 425.074578034369 2271.12836508299 128 97 79
-734.872104827739 423.803316707838 2279.5662027656 133 102 82
-735.89499707665 423.398815115906 2287.00494045937 129 98 77
-736.916032366439 422.994412841522 2294.43777535428 121 90 69
-742.782647878764 423.455083951225 2300.92400198879 116 85 64
-747.68477429983 423.742179947561 2307.61600380664 116 88 66
-748.707607916455 423.337501006361 2315.05441184118 103 80 62
-754.58661855814 423.796601362248 2321.5856674699 97 78 61
-759.49893493983 424.082378033148 2328.31466966135 55 38 20
-781.930037949889 427.473787031191 2331.90888563284 37 20 2
-799.522120637625 429.999194354876 2336.47440843714 76 57 42
-797.647823224785 429.074044200176 2344.51762867961 88 66 52
-800.643591039408 429.011128395633 2351.70335626866 56 28 17
-797.78476690905 427.914619571685 2359.88028428471 49 19 11
-796.871842564835 427.163242445949 2367.70628511608 53 24 16
-784.226152598347 424.347680765692 2377.42624036384 85 60 53
-783.295387245598 423.598302054518 2385.18726272161 68 48 39
-779.423572701773 422.333744498199 2393.39337908529 27 22 16
-768.044185091864 427.370145516764 2202.35601987828 102 83 68
-766.226163765923 426.449955269882 2210.61224265024 89 62 45
-756.701763217294 424.161433363062 2220.56378889719 100 65 46
-740.416431184519 420.677546608547 2231.93566062069 87 54 37
-736.636111947509 419.419327301137 2240.48548276453 83 52 34
-732.846987464126 418.162088455257 2249.00323176646 91 60 42
-738.70418135789 418.613814032509 2255.44790101445 83 52 34
-739.735588384001 418.211241340357 2262.92039923596 130 99 79
-743.666456629985 418.320736049285 2269.79050204009 136 105 85
-740.826218230139 417.236048134393 2278.04389833398 121 90 70
-741.852289593742 416.834049129727 2285.49601946009 116 85 64
-740.938438951361 416.091436873476 2293.32411480767 114 86 64
-743.899320720417 416.030470892283 2300.3824773859 114 86 64
-746.861678124519 415.969363045983 2307.44530011913 114 87 66
-749.825037641735 415.908034682445 2314.51263330141 107 85 64
-754.733705268988 416.186619017059 2321.22354751817 102 84 64
-764.509931762614 417.314450413863 2327.06039298279 52 35 15
-780.138372605888 419.460202675385 2331.88731589689 40 23 3
-793.838151145815 421.263970930614 2337.13208170125 92 69 53
-795.856605181331 421.029300908029 2344.4780475617 94 68 53
-797.87481560155 420.794626567173 2351.82310619998 64 34 24
-796.963769347707 420.051336150209 2359.66118553738 58 25 18
-795.071178804753 419.139107613681 2367.64464500635 78 45 38
-790.239229147746 417.719438619493 2376.08435901873 81 53 49
-785.396920769244 416.300947805992 2384.48635697007 69 46 40
-773.027498787174 420.482788753316 2200.92355986372 138 116 102
-773.135395028031 419.910238014914 2208.75624868709 127 100 83
-759.758253042082 416.979910838023 2219.58525842752 122 87 68
-741.539340460894 413.210503132267 2231.39050233337 114 81 62
-733.898820795292 411.295545641966 2240.77973731611 74 43 23
-732.999895813681 410.559545376592 2248.66742318168 78 47 27
-738.857738905215 411.000736626695 2255.10878097357 79 48 28
-740.854774430926 410.769191828506 2262.37719720811 128 100 79
-741.884379362635 410.369710377992 2269.84402723194 126 98 77
-741.944139154509 409.802515651985 2277.50137636056 118 90 69
-743.938496328282 409.571197579383 2284.75999154197 112 84 63
-743.993795761151 409.004531268834 2292.40018482316 112 86 63
-745.01593709903 408.605743415184 2299.84067090918 113 87 64
-746.036675901551 408.20715740241 2307.27514806556 112 87 65
-752.885847032569 408.813333621368 2313.60402603855 108 83 63
-759.741784587707 409.418626262127 2319.95839759559 102 80 59
-766.604968323149 410.023124086993 2326.33824197224 65 44 23
-775.422671077467 410.96112059898 2332.39274523433 69 48 27
-782.301030006992 411.563735251398 2338.82867221835 104 81 63
-787.235938377424 411.831516938034 2345.63019294508 87 59 45
-794.127021331259 412.432670740939 2352.11151041113 116 86 76
-795.164434273596 412.031876558368 2359.60743028029 88 59 51
-793.268010738857 411.131009175173 2367.58383143946 83 62 57
-786.474824190656 409.397455709778 2376.33632781228 47 29 25
-768.39438693716 411.914695998024 2201.69205876005 120 98 84
-764.64641689331 410.684882343742 2210.37992096015 130 101 85
-751.25555199041 407.798633084791 2221.18580868944 104 69 50
-741.698147612042 405.577728511404 2231.05750822967 107 74 55
-735.982407125246 404.0210864459 2240.0266518895 99 68 48
-737.014221620371 403.624263943495 2247.50336430986 89 58 38
-737.077975399223 403.062171821478 2255.17876384637 120 89 69
-741.006958026514 403.161747511875 2262.03560336883 130 102 81
-742.035407396879 402.765258241763 2269.50003212594 126 98 77
-742.09361331418 402.203756309451 2277.15520615474 116 89 68
-740.210502340881 401.312467487896 2285.18708164772 111 84 63
-737.351359652272 400.256833640383 2293.38863323971 112 86 63
-740.308885257873 400.191527914114 2300.43086613047 111 87 63
-746.181520316836 400.620494012774 2306.91942527766 111 86 64
-760.808489798946 402.531462096599 2311.77710027889 115 88 67
-766.698741468487 402.958349226649 2318.32975389645 103 78 58
-772.59455530426 403.384576817592 2324.9026423486 91 69 48
-771.676217448425 402.658733939032 2332.72466485928 90 68 47
-775.628258348903 402.75544425297 2339.6653061821 104 81 63
-781.534181668682 403.180449378193 2346.2749573661 103 77 60
-786.469291511425 403.440573573389 2353.07239158081 119 92 81
-792.385527150571 403.864348118167 2359.7195534614 113 89 79
-789.506779323163 402.810869696757 2367.84874681624 38 23 18
-766.070326134325 398.31450922193 2379.30678510043 30 21 16
-762.794084664029 403.215658046745 2202.68321762209 121 102 88
-759.038604329215 402.002735046389 2211.35385945847 138 112 97
-747.563905429255 399.486432620216 2221.71409127059 140 107 88
-742.820579394496 398.113241815372 2230.5121913182 130 98 77
-737.10157705455 396.578318974692 2239.48293673813 120 88 65
-736.200904994757 395.858759894178 2247.37451614824 126 95 74
-733.362469039096 394.814303520888 2255.65907563083 123 95 73
-740.190700584533 395.396978018828 2261.89630029279 127 99 77
-743.153662470756 395.328678296447 2268.9568267756 126 98 77
-746.117668985972 395.260184730651 2276.02203840105 114 87 66
-743.265322731787 394.21723975582 2284.25683491194 111 86 64
-744.287009224983 393.824367261298 2291.69843787437 110 88 65
-748.220214012367 393.918322454619 2298.56740496212 109 87 64
-755.071169665938 394.498316896445 2304.88730773664 112 87 65
-764.846840949856 395.563676237817 2310.68172120858 109 81 60
-767.821205122266 395.493934211633 2317.78460057261 113 85 64
-768.849073060984 395.100306185061 2325.24867702735 106 79 58
-769.875029991851 394.706827503141 2332.70668159538 109 84 64
-778.702640236594 395.607299693274 2338.77334951269 96 75 58
-782.659313601486 395.698417507226 2345.72858847872 58 39 24
-781.734657334086 394.981512725639 2353.53279501215 42 26 13
-776.895310348344 393.619292284736 2361.98131420185 30 17 8
-762.263046780641 390.644476503396 2372.01853611479 85 85 77
-748.607489959445 392.556041518477 2213.42058919462 124 106 92
-740.975256648877 390.720022912539 2222.8904276686 135 110 90
-740.083013595359 390.007606959065 2230.81781212343 128 100 76
-739.186526894622 389.295747949118 2238.72886335035 122 92 66
-739.251656408693 388.744464659433 2246.41619485297 118 90 66
-737.379651193162 387.873511603157 2254.50214278548 121 93 69
-742.276517697602 388.122821365187 2261.1507593136 121 93 69
-747.177550795572 388.371650593763 2267.81454220321 120 94 71
-750.144090560848 388.300440000022 2274.88744390041 113 87 64
-749.231947337071 387.590334288169 2282.74240148902 109 84 62
-751.227465169825 387.359574386526 2290.00567836966 110 85 65
-756.137142795916 387.607409022192 2296.70092876399 109 84 64
-762.023046357106 388.014194707267 2303.22474770742 113 86 65
-771.806243323492 389.057790621292 2309.03336227467 109 81 59
-775.758845038474 389.144399698112 2315.97063742201 115 87 65
-776.791310884594 388.753172899037 2323.45330101511 107 82 62
-779.77207386215 388.680327248346 2330.57797842248 124 101 83
-785.681394981319 389.084410894064 2337.18703624276 89 73 58
-792.572894596076 389.646822162115 2343.64544068083 64 50 37
-776.017922718089 386.395891512958 2354.16326879656 18 11 1
-743.788186435541 380.607817496105 2367.22772060791 5 1 0
-748.76969648175 384.90924561275 2213.09136398452 90 76 63
-742.097219229223 383.258050743818 2222.34495624258 115 96 79
-741.203738332823 382.553880141279 2230.27295051233 110 88 64
-740.306010486901 381.850275551719 2238.18460501934 116 90 65
-742.303971496003 381.619408978687 2245.45688558818 115 91 65
-744.301781044117 381.388569851474 2252.72862113991 111 87 61
-749.203932523105 381.629468871942 2259.39247866329 109 85 59
-755.079600518379 382.027126740416 2265.87160310853 109 85 59
-757.081954364615 381.795796341223 2273.15990058511 105 81 57
-758.113564422997 381.40747388258 2280.64214947708 104 80 56
-763.999506067365 381.803977851015 2287.15868945574 106 81 59
-767.947020091031 381.886131165072 2294.07426186704 105 80 58
-768.979704788046 381.497780913554 2301.55955411216 106 79 58
-770.01072676965 381.109632891979 2309.03880069823 113 85 63
-778.83211010585 381.974312464186 2315.06068076188 107 79 55
-785.713809084144 382.524853438605 2321.47613209816 108 86 65
-791.627102744628 382.918194996086 2328.0931571936 113 95 75
-798.52226779962 383.467265117319 2334.55674779117 80 68 54
-802.493676343841 383.546795632562 2341.55845095372 24 16 5
-719.458939697498 369.727457804564 2363.54689873689 72 69 62
-757.609874968895 378.663385116413 2210.79655459534 86 74 62
-747.079440572918 376.416034170568 2220.93613694056 94 77 59
-744.256005343873 375.409985201094 2229.30156862765 97 77 53
-745.291287956205 375.024057631665 2236.79803597779 106 85 58
-749.226365086097 375.102463898047 2243.66506695034 108 87 60
-753.164408428407 375.180613672996 2250.54201993045 107 83 57
-757.105175579653 375.258466477835 2257.42889838792 105 81 55
-760.079132050607 375.181534106866 2264.52572442907 105 81 55
-762.084340408434 374.950094706129 2271.82455132986 104 80 56
-763.118621724057 374.564405695256 2279.31745167497 104 80 56
-769.008810633276 374.950014260706 2285.84381115102 107 83 59
-771.987785888204 374.872580871094 2292.95895463647 105 81 57
-772.049287986592 374.332892567376 2300.63920970024 105 79 56
-775.028557047714 374.255464912007 2307.7554476508 116 90 67
-784.829967566447 375.255129858987 2313.60487887789 101 75 52
-794.642934378221 376.253544828803 2319.49549816341 115 94 73
-802.515386074302 376.943217348874 2325.78001112611 116 99 81
-794.770617480812 375.173679600815 2334.87492970678 92 80 66
-791.426998204824 376.876210921826 2194.94775290932 127 120 110
-778.997527256665 374.355188078094 2205.65644339643 95 87 76
-762.684320533687 371.227569910401 2217.14975119332 85 73 57
-756.971414894021 369.777344974392 2226.19567726698 86 71 50
-753.18041474158 368.632707580804 2234.77755293953 95 77 55
-755.186258692807 368.401295761708 2242.07875708764 98 80 58
-757.191943784261 368.169934809134 2249.37940353501 101 83 59
-761.13564324118 368.2423650354 2256.27374553649 104 84 60
-760.233107866358 367.555594933951 2264.17910806795 105 85 60
-764.178394010185 367.627836320091 2271.08015092567 107 85 61
-765.212953147564 367.244992666303 2278.57587917801 106 84 60
-772.077299632565 367.771514074429 2284.91173941097 110 86 62
-775.058312524164 367.691516230411 2292.03190015725 108 84 58
-779.987189992416 367.91410724085 2298.78249829902 104 82 58
-781.023571618862 367.531105241634 2306.28582214755 108 86 62
-788.882269165141 368.206735467144 2312.51040307812 112 92 68
-798.700583965576 369.183661999902 2318.40731172314 106 89 69
-808.529974828926 370.159278731201 2324.34544570134 108 95 78
-796.877041653765 367.812806906194 2334.15115073343 161 153 142
-808.000675713678 371.667472051311 2190.8482728446 137 130 122
-798.472036209706 369.634677607494 2200.94553361381 102 93 84
-779.267293958457 366.10803577042 2213.14110423938 107 97 85
-768.729742512165 363.93065793241 2223.29843972883 94 81 64
-762.042355676656 362.353170677804 2232.54321075652 95 80 59
-763.086006171994 361.97195628483 2240.07372206908 97 82 61
-762.190494377008 361.292444919814 2248.00974456207 100 83 63
-762.260098921932 360.76269044117 2255.72635411891 105 87 65
-761.356304504498 360.084216431607 2263.63227979003 106 88 64
-767.244236436965 360.449328034629 2270.13731884471 106 86 62
-771.194438969324 360.515973334298 2277.05308221343 104 84 60
-777.092336075848 360.880076747409 2283.59355446543 106 84 60
-780.076364596627 360.797271532359 2290.72406824721 104 82 58
-786.956725169492 361.309035457509 2297.11006854754 103 81 57
-790.920758371407 361.374312152995 2304.07538939405 100 82 58
-796.837776936562 361.736305248832 2310.68645255289 104 88 65
-802.760572883892 362.097731169011 2317.3176788919 102 89 70
-801.851982536693 361.420158431052 2325.20636723148 106 94 78
-836.984227451255 368.817908070613 2175.8642321666 193 194 189
-813.974530746718 364.755054958218 2189.18042748923 158 155 150
-804.444377636468 362.754268548405 2199.29320575452 168 163 157
-789.099468821359 359.874211486244 2210.64066161738 107 103 92
-782.430947600019 358.318493720717 2219.96922108868 93 87 73
-774.781647927572 356.617624835837 2229.46102196462 94 85 70
-772.928263440881 355.7983571565 2237.64873645499 97 88 73
-771.068937237717 354.97982360155 2245.81485400434 99 90 73
-768.233635244241 354.015525792882 2254.16258621814 97 86 68
-767.332195891904 353.344931690793 2262.08223074545 93 82 64
-770.311389068618 353.260143986051 2269.19354020221 88 75 56
-776.208165953522 353.613982617658 2275.72337264522 86 71 52
-780.164710227726 353.674886838823 2282.65905704203 85 68 48
-785.097564897314 353.881624926948 2289.41441304761 86 70 47
-791.983008583744 354.37990453316 2295.80984363679 95 79 56
-797.90037154123 354.731510392769 2302.41562749969 97 81 58
-801.872165958819 354.79091433411 2309.4060564693 100 85 64
-802.917282939912 354.412837544598 2316.94492249713 109 98 80
-800.052681751833 353.452455368757 2325.18541564693 96 87 72
-831.991394771136 367.937327355739 2063.25267805049 213 217 218
-839.815249129566 368.56838958484 2069.31975515388 191 195 196
-847.647772839378 369.198517757742 2075.41843014563 190 194 195
-853.575809696472 369.536960366941 2082.05553351854 186 190 191
-857.595241272333 369.584251411921 2089.21518247154 196 200 201
-854.911504097682 368.614844149812 2098.12241931032 206 210 211
-854.13798222224 367.936582681545 2106.51215558458 199 203 204
-851.44136818264 366.968845129435 2115.37170829257 204 208 207
-854.49814128199 366.871694753793 2122.76325165361 193 197 196
-875.224520315268 368.316122067753 2142.17964867956 199 203 202
-863.850013321239 366.048365758409 2153.06879240792 201 205 204
-824.506112947389 359.591522409309 2170.46994245973 192 194 191
-813.069955136589 357.330993805677 2181.13475198366 179 179 177
-807.404470492545 355.939063994249 2190.39447643218 169 168 164
-796.897787279249 353.827132491523 2200.70773901067 165 164 159
-786.372407728228 351.717475152297 2210.95209251685 142 139 132
-781.63191450335 350.474704268539 2219.84397956545 112 108 97
-778.817663619131 349.521304916273 2228.27582211435 95 89 77
-776.964786639341 348.712741142728 2236.47217876413 87 81 69
-776.07543072868 348.048786279977 2244.44087841023 84 78 64
-770.33014813619 346.666468202265 2253.41039706163 84 77 61
-768.457251096864 345.860393147796 2261.53399440112 83 76 60
-768.521893586254 345.342314534733 2269.23955234858 68 59 42
-777.335147630434 346.116451284825 2275.17408594635 70 59 41
-779.346290270492 345.885332856221 2282.49514831898 75 62 45
-785.252658162734 346.227779905321 2289.05432726611 76 63 44
-792.139120179387 346.712915498187 2295.44616929639 81 68 49
-799.032809435238 347.197330673787 2301.86346079306 87 78 61
-801.053183271284 346.965390118434 2309.21827773934 89 82 66
-803.073316568519 346.733527928192 2316.57225108778 121 115 103
-807.048258100012 346.787679408899 2323.57104854583 120 116 105
-819.621833994386 358.666922280274 2058.23363550278 188 192 193
-821.706455674149 358.425684564218 2065.82112235999 163 167 168
-825.702141314578 358.470230527306 2072.89087420781 141 145 146
-825.875689510774 357.943444909456 2080.9962095752 171 175 176
-821.261774910669 356.703718229431 2090.35905117721 185 189 190
-821.426107689299 356.178211350497 2098.43004981166 160 164 165
-823.504134838883 355.938115416765 2105.99377333238 153 157 158
-828.459446927579 356.125381184002 2112.82021552955 157 161 162
-828.619804579588 355.600503820845 2120.87778176377 181 185 186
-833.580064228852 355.787349014776 2127.72232775567 190 194 195
-830.854286708877 354.836357369072 2136.48510368807 185 189 188
-837.741373539882 355.307231744483 2142.86933272296 184 188 187
-838.859252155296 354.925303169976 2150.67498760022 188 190 189
-828.414218918925 352.840522284593 2161.23428593841 177 179 178
-813.129361983952 350.048769571091 2172.86138242782 178 180 179
-802.642915086995 347.968908356815 2183.27002598389 175 175 173
-797.931248394426 346.741357300907 2192.27762027714 161 161 159
-787.411312176502 344.665492047478 2202.56444738868 160 161 156
-783.641799743412 343.58244325525 2211.26498657039 160 159 154
-780.831416599245 342.641922564812 2219.71932019292 150 150 142
-779.950517199277 341.984979478889 2227.72384407461 131 127 118
-776.157434955024 340.904858835441 2236.33872184689 120 116 107
-775.265371525905 340.249344120446 2244.30269767506 113 109 98
-770.486187660842 339.030053062764 2253.0648288703 111 105 93
-770.553540962489 338.517047730812 2260.78458355898 110 104 92
-767.701686071041 337.581716988676 2269.08821737375 120 114 100
-774.570514908939 338.05571037745 2275.40755626296 122 114 101
-774.631740930291 337.54366995071 2283.10424172895 122 115 99
-784.432410359312 338.438802056372 2288.88492487153 117 110 94
-790.344460487938 338.770327560109 2295.45830555669 115 106 91
-794.310760248847 338.820272308386 2302.42236190367 106 100 86
-796.326744340437 338.589110228885 2309.76137207804 100 96 84
-798.342494127468 338.358036624671 2317.09956818417 135 132 123
-808.181218881708 339.249196995699 2323.01810672283 138 138 130
-802.325226510544 349.278482757589 2046.53587458859 176 180 181
-800.584115629143 348.476719900415 2055.15149059869 177 181 182
-802.654971647007 348.236976771128 2062.6888118551 178 182 183
-804.725835121176 347.997319429075 2070.22621495688 133 137 138
-804.884823828225 347.477420274837 2078.28184154726 143 147 148
-803.127815228132 346.677842666614 2086.83981209552 173 177 178
-800.407505255185 345.739017538713 2095.63056926084 173 177 178
-800.554372142749 345.220845185682 2103.64135110067 168 172 173
-805.492115132625 345.402163923628 2110.39880803441 180 184 185
-810.434154325622 345.583065213015 2117.17195237314 197 201 202
-811.539372882262 345.20494407069 2124.93393576933 195 199 200
-811.682428690745 344.687551865564 2132.93106036403 183 187 188
-813.745736650567 344.449533761223 2140.44144625076 167 171 172
-814.846407550858 344.072184085251 2148.18703215372 177 179 178
-812.093331609931 343.13787772222 2156.85805959096 178 180 179
-804.513591913935 341.508327684754 2166.65315001275 168 170 169
-797.883790544247 340.019679065781 2176.16781265236 170 172 171
-792.206321173322 338.67170548698 2185.40986280055 167 169 168
-783.618874586551 336.908188065789 2195.27620445604 155 157 156
-777.915861777929 335.563323960341 2204.42537998513 158 160 159
-775.103315984324 334.636307252145 2212.8811388441 151 153 152
-772.283637198071 333.710252621627 2221.31009268238 146 146 144
-773.331913883025 333.339681067921 2228.86542848434 151 152 147
-771.469921303737 332.55370759319 2237.04220303185 154 155 150
-773.48332971911 332.322424597144 2244.37157388487 154 153 149
-770.641324926002 331.399251744018 2252.71945503886 151 150 146
-771.678816931588 331.030241597127 2260.23573523059 148 147 142
-767.852445381337 329.970362159095 2268.73886654917 144 143 138
-768.883047879472 329.602304065342 2276.23016842655 146 145 140
-768.938358222263 329.096471727915 2283.90880960008 150 150 142
-778.737145886281 329.97090642365 2289.66943885692 147 147 139
-784.645706240062 330.292506183744 2296.22359609713 147 147 139
-787.631640634921 330.200122305079 2303.35420952656 141 140 135
-790.618568460408 330.10762722534 2310.48937018518 148 147 143
-796.539429869032 330.428049814175 2317.08845562677 140 141 136
-809.31405465597 331.710952885014 2322.46485122346 135 135 133
-813.292897692073 331.754677686599 2329.4724803666 178 182 181
-770.927013687836 337.38353961245 2047.14216238798 199 203 202
-775.837804041189 337.55929615657 2053.79603778688 169 173 172
-779.798897667949 337.596953893346 2060.73300740232 187 191 190
-784.717678095434 337.771981307065 2067.4160880457 176 180 179
-784.862821317097 337.25887520714 2075.42459784136 167 171 170
-782.136154996033 336.333833207158 2084.20045707735 168 172 171
-776.531390926601 334.997640252169 2093.71988542929 177 181 182
-775.703638879184 334.349306113005 2101.9271702527 180 184 185
-775.829917082266 333.838771769881 2109.86726160442 182 186 187
-783.626915103786 334.425665494856 2115.80674071132 181 185 186
-790.47269873231 334.874635938186 2122.02379005457 163 167 168
-793.482934666684 334.775022419595 2129.24099494358 163 167 168
-791.687879580672 333.990993991786 2137.66752328503 164 168 169
-792.773235289037 333.618108868698 2145.35813654453 183 187 188
-796.745267370526 333.655584722195 2152.33653268942 190 192 191
-793.011983210554 332.599871959373 2161.18883888658 165 167 166
-787.341568905757 331.272188823567 2170.46989343603 166 168 167
-781.65948424305 329.945949293341 2179.70852965089 161 163 162
-778.862600211552 329.030241416625 2188.22957736712 158 160 159
-774.125668958957 327.842907762166 2197.16876046257 159 161 160
-770.345568261109 326.793042813774 2205.85093803429 154 158 157
-767.524678848015 325.880428910785 2214.28388282411 155 159 158
-767.601969887079 325.376845480175 2222.04648287934 152 154 153
-768.645691114206 325.009678192741 2229.58612541224 152 152 152
-767.74765825987 324.371017631038 2237.53857876462 152 154 151
-770.728088212896 324.276122183771 2244.64809862994 157 159 156
-771.766970422962 323.909781722409 2252.17029685561 161 161 161
-776.692980491861 324.086204218998 2258.88110052288 161 163 160
-769.94799598188 322.635723876289 2267.99220818937 157 159 156
-768.058144460408 321.864146614449 2276.07463695992 154 156 153
-767.136610684437 321.228716728483 2283.94187567586 149 151 146
-774.986377832058 321.811550926658 2290.07471323279 144 146 141
-780.892883589626 322.123066178331 2296.61487532927 144 145 140
-784.851780753015 322.163758038577 2303.54653451593 144 145 140
-787.836398537106 322.069222997516 2310.67090149631 142 142 140
-792.778017683305 322.244540643885 2317.43896106371 145 147 146
-802.617079524007 323.093875346817 2323.33327362359 143 145 144
-807.570471931172 323.268019097529 2330.1443038652 160 166 166
-761.453578716764 328.76718404487 2041.5989097756 183 187 188
-758.732257834291 327.854275666206 2050.40134708819 173 177 176
-755.049767227352 326.807187740436 2059.44768506309 193 197 196
-758.040328340559 326.70629707989 2066.5910348767 183 187 186
-761.032572223054 326.605392234914 2073.73969450505 178 182 181
-765.938088287157 326.774090287975 2080.36953113997 180 184 183
-762.237553907628 325.729508021003 2089.35045806552 166 170 169
-759.48568427853 324.820717725977 2098.04300283422 164 168 167
-761.517417711856 324.58585313819 2105.43814965776 162 166 165
-757.795847691723 323.544028684105 2114.34271651131 157 161 160
-767.500061895556 324.385339871274 2119.73037157461 159 163 162
-774.334592905733 324.822368873775 2125.8990319733 172 176 175
-782.137499361514 325.392946228121 2131.85014663634 162 166 167
-774.56076767871 323.815752913693 2141.68946051557 181 185 184
-775.631942767871 323.447230091424 2149.33017804366 165 169 168
-776.70159421126 323.078977356791 2156.96540909281 158 160 159
-779.697430962415 322.978855715048 2164.12883183434 161 163 162
-775.942063934451 321.941748783276 2172.91089541846 157 159 158
-774.108758355394 321.173300351125 2181.20524356977 161 163 162
-773.235594715163 320.539302055152 2189.2529749504 159 163 162
-767.523740093122 319.23792254418 2198.39770547822 156 160 161
-762.767904537507 318.071520462029 2207.27991570068 157 161 162
-758.970242473683 317.039846638642 2215.90744726397 159 163 164
-759.03944991528 316.542642599203 2223.64406211976 153 157 158
-759.105611487151 316.045891921005 2231.36965448679 159 163 164
-758.198362145669 315.4164134706 2239.29368593316 161 165 166
-764.084923509331 315.719266913032 2245.75340076866 159 163 164
-765.117338877177 315.356454465785 2253.25474530255 157 161 162
-770.038724073041 315.52567837589 2259.94383291204 156 160 161
-766.204258760243 314.498867662978 2268.438720561 153 159 159
-765.283090560967 313.871475570765 2276.31239123375 150 156 156
-764.357636288274 313.2447162958 2284.16961906113 148 154 154
-768.304729332097 313.281552723475 2291.05501774709 147 153 153
-773.230869092613 313.450717758786 2297.7617209528 152 156 155
-779.137977771793 313.751931406819 2304.29761768581 152 154 153
-784.07304868785 313.920258470963 2311.03695147046 166 167 169
-791.947364047888 314.485032100621 2317.24952923129 162 163 165
-799.830084348475 315.048934748111 2323.49276299653 167 171 174
-806.741235916054 315.47984610418 2329.94203814593 187 192 195
-807.776274823247 315.117921579662 2337.45275493265 193 198 201
-773.731697140761 323.75342223556 2021.67395904488 197 201 202
-762.458570105979 321.657591028943 2033.04805120146 176 180 181
-757.834602259145 320.492235131796 2042.42052088769 176 180 181
-754.153971991959 319.460630066327 2051.48354100693 172 176 177
-745.693732352805 317.768140214499 2061.86609119348 171 175 176
-740.082214982728 316.474536824706 2071.38826370811 171 175 176
-743.060378217163 316.372581560439 2078.48398147019 181 185 186
-750.821564961358 316.931304044967 2084.27364349927 179 183 184
-751.8919268681 316.564673250356 2091.91253636763 162 166 167
-748.171566774366 315.53836355533 2100.83139064742 165 169 170
-746.359704062956 314.776995486823 2109.20982213455 167 171 172
-743.582817247785 313.884608586262 2117.81891021662 156 160 161
-750.398418598566 314.310511744345 2123.91026422437 152 156 157
-759.142735358344 314.999025433969 2129.53478927854 166 170 171
-765.974366233257 315.423363445749 2135.68374059374 179 183 182
-762.229156413275 314.400613721636 2144.51258028966 162 166 165
-760.401073699541 313.641807553364 2152.83240753688 158 162 161
-767.23948235663 314.065650596496 2159.00713995411 163 167 166
-760.584371474739 312.651465608651 2168.47484577392 165 169 168
-755.846358973313 311.501234719726 2177.43343914819 165 169 168
-753.02977564214 310.614442610651 2185.89867410511 163 167 166
-757.937798246211 310.776496466375 2192.53362223328 160 164 163
-758.013776345008 310.283643354981 2200.29812216044 161 165 164
-752.279228877112 309.006334075453 2209.37286626082 162 166 165
-751.376226633636 308.384155669496 2217.31727521559 160 164 165
-753.376953845307 308.154566773185 2224.6006328106 160 164 165
-755.377520222912 307.925119231727 2231.8834825043 161 165 168
-751.552845863694 306.912845280815 2240.42389979545 162 166 169
-750.634040469627 306.292920615329 2248.31105764315 160 164 167
-753.599821508329 306.194910335781 2255.36422241865 157 161 164
-759.486137596356 306.487610818418 2261.81661654648 154 158 161
-759.535390704756 305.998801731181 2269.4844450074 156 160 163
-762.504935906529 305.900666601745 2276.55150655895 157 161 164
-762.55040500756 305.4125550189 2284.2047970874 157 161 164
-763.568374941705 305.054763709139 2291.65567864054 154 158 161
-764.58491227142 304.697296861082 2299.10051703985 158 162 163
-767.554318415617 304.599596620715 2306.16733686406 160 164 165
-771.503157692648 304.631551926046 2313.05520826405 169 173 174
-778.390782188948 305.052020788134 2319.41053916496 173 177 178
-788.224133200849 305.860330218291 2325.25681830476 176 180 181
-795.127857959132 306.279160849437 2331.67089202959 192 196 197
-794.191287977369 305.662662615401 2339.49332769188 198 202 203
-791.286471688943 304.788226970538 2347.63970121885 198 202 203
-770.925671380758 316.077323843975 2014.20208945702 190 194 195
-762.510455707925 314.408098441294 2024.76742178385 163 167 168
-755.03199992103 312.870821145901 2034.99681568783 172 176 177
-752.305104438011 311.984776220243 2043.79551577909 164 168 169
-748.616958062715 310.969868422497 2052.84117184277 165 169 170
-738.237851152739 309.048086707471 2063.7481508527 169 173 174
-729.750735835234 307.387898854052 2074.05131070379 164 168 169
-730.808150365107 307.025090669397 2081.64547491776 159 163 164
-738.561843129063 307.568837352559 2087.3969293075 161 165 166
-740.579089658106 307.335431623635 2094.73921014191 164 168 169
-739.721594588087 306.714257739624 2102.85321251513 159 163 164
-740.777741028913 306.352159354414 2110.44218767072 155 159 160
-740.872570968328 305.861191243542 2118.27787087788 155 159 160
-741.925029569875 305.499757661747 2125.85357353109 156 160 161
-742.014704204149 305.009645736445 2133.67065665143 166 170 171
-745.94901196088 305.035526546137 2140.5007402461 159 163 164
-746.998403913703 304.674823119153 2148.06551801517 161 165 166
-749.00949992292 304.443125198888 2155.38604139593 162 166 167
-753.912593438962 304.59743798816 2161.99780148222 162 166 167
-748.207622945019 303.337366774663 2171.19417132494 161 165 166
-742.491216920482 302.078791352847 2180.34809862591 159 163 164
-738.695369171456 301.078433788793 2189.00306685367 160 164 165
-742.626152890627 301.10558866696 2195.82087076771 161 165 166
-748.494826330162 301.388935272319 2202.20278467363 157 161 162
-747.590694115139 300.77485209495 2210.14810916905 157 161 162
-750.558347892901 300.673592488029 2217.20617560243 165 169 170
-748.678418083379 299.932494831994 2225.34468497233 165 169 170
-748.733458708064 299.447948195576 2233.03669243519 159 163 164
-741.986998835451 298.069297615388 2242.18674289861 157 161 162
-742.030871168273 297.586259271695 2249.83823693978 158 162 163
-744.017151251582 297.358969467493 2257.06940670514 158 162 163
-750.870427998964 297.769561241337 2263.29004624734 162 166 167
-753.834007138259 297.66958883704 2270.33379701906 166 170 171
-756.798830160394 297.569595325069 2277.38215275769 167 171 172
-754.887131796555 296.833052798559 2285.40558758219 176 180 181
-751.992976011049 295.970078378619 2293.59877748452 174 178 179
-746.160537739279 294.726670099259 2302.33147553296 168 172 173
-744.227239717544 293.992936175455 2310.27648826583 155 159 160
-747.180143471844 293.894855525504 2317.28179778004 148 152 153
-760.905480153829 295.192553156692 2322.30102043521 162 166 167
-774.647640083109 296.488391828629 2327.38245988326 184 188 189
-782.523274139252 297.022064598285 2333.58029824943 188 192 193
-781.575085552372 296.415069701026 2341.36652523995 193 197 198
-773.747828899061 294.922761500594 2350.32928102244 203 207 208
-793.424205259035 296.973717002551 2354.53933486539 209 213 214
-795.517200235817 312.607020212228 1990.31392492337 214 218 219
-775.726153721389 309.432507368844 2004.45129892895 183 187 188
-762.561991277436 307.154089928484 2016.48171262318 155 159 160
-756.039430921465 305.769957534396 2026.46052620095 177 181 182
-749.503903290202 304.387462065659 2036.39222829606 164 168 169
-746.769897450352 303.515403005585 2045.17335896936 157 161 162
-736.394150448909 301.627437627091 2056.11416252573 176 180 181
-728.864724613505 300.122851658974 2066.17495422208 158 162 163
-721.320852446064 298.620095338907 2076.18326466298 156 160 161
-723.327230480511 298.387664994498 2083.48580871385 168 172 173
-723.419128661209 297.901830566965 2091.31384801441 169 173 174
-726.381898232797 297.796514531272 2098.35121933078 154 158 159
-727.428954780284 297.437980275823 2105.90869569892 155 159 160
-729.433831909866 297.206265078514 2113.20611869063 164 168 169
-729.518413263348 296.721803996954 2121.00785910456 165 169 170
-727.678580407395 295.985123810387 2129.29802956323 164 168 169
-728.7175291209 295.628068826393 2136.82633706744 164 168 169
-729.754973443862 295.27131058627 2144.34924641297 159 163 164
-734.642534770541 295.419245889654 2150.90024113616 161 165 166
-736.643468441349 295.188773840184 2158.18380769681 160 164 165
-742.502191614925 295.462223336689 2164.52160067651 156 160 161
-740.645070340215 294.72828646819 2172.7502436347 155 159 160
-738.78229899553 293.995183494751 2180.95750644563 159 163 164
-734.980362265544 293.011495339225 2189.60039167238 160 164 165
-736.973566984413 292.7825814952 2196.85624591866 162 166 167
-741.870781080919 292.930367910914 2203.44205646195 162 166 167
-740.959595169723 292.325187824065 2211.36681291123 163 167 168
-740.044168088261 291.720664244388 2219.27530818833 167 171 172
-741.064300978786 291.367272972728 2226.73699832829 161 165 166
-740.141109625163 290.763856856834 2234.61829460177 158 162 163
-736.298461345063 289.785743691372 2243.11354557906 159 163 164
-731.474664881024 288.683762149428 2251.78410202515 165 169 170
-734.42547081613 288.582616912882 2258.77875890581 167 171 172
-738.351061671053 288.606271041423 2265.57600156513 170 174 175
-739.355929036978 288.255453949729 2272.98170998418 174 178 179
-738.408551919798 287.655542676546 2280.77542203206 172 176 177
-734.528663321316 286.682429736671 2289.13556388678 174 178 179
-733.570044046371 286.084028078373 2296.88848909808 169 173 174
-729.674575713611 285.112933636573 2305.19206082699 161 165 166
-730.66105895672 284.764813203669 2312.53121513041 161 165 166
-734.582508144193 284.789841632123 2319.31301922874 150 154 155
-745.363717291253 285.68409005389 2324.83644684533 166 170 171
-756.157428997375 286.576979225581 2330.40636487645 183 187 188
-758.134740335041 286.35222140709 2337.60583401029 186 190 191
-760.111796138625 286.127615895981 2344.80445055508 191 195 196
-758.15873531104 285.407655931231 2352.6847840199 200 204 205
-763.081976641185 285.555046096743 2359.36697840887 208 212 213
-806.000538249785 306.622446672687 1978.69859715327 174 178 179
-786.225385183739 303.506656517138 1992.93205484859 170 174 175
-772.1236460918 301.143876629728 2005.325417583 148 152 153
-756.093674886911 298.534576022624 2018.19756191938 137 141 142
-747.656721806245 296.925948686341 2028.71951693562 168 172 173
-741.110294985534 295.568448530922 2038.62653320879 144 148 149
-737.412867331343 294.586096844809 2047.65828392756 171 175 176
-726.06923566252 292.609605720404 2058.84595127686 166 170 171
-723.304311482814 291.754574870054 2067.52303893429 171 175 176
-719.575861359315 290.776251556245 2076.44215260814 173 177 178
-718.709388862084 290.171568467242 2084.53323497831 163 167 168
-714.008229368241 289.07121689777 2093.66014753783 157 161 162
-716.963411992051 288.964142738707 2100.66824001705 166 170 171
-717.042868777404 288.48529279463 2108.45449649235 166 170 171
-716.159705541505 287.88311773688 2116.48519286078 166 170 171
-715.272398320791 287.281616829517 2124.50000002655 161 165 166
-717.264143414471 287.051709249733 2131.74980757785 151 155 156
-720.217703226916 286.945523194453 2138.75243557877 152 156 157
-720.284646713526 286.468842555822 2146.49360221427 152 156 157
-722.275490217209 286.23945805579 2153.74039258379 151 155 156
-724.266250106137 286.010249304608 2160.98698346673 151 155 156
-728.18667882145 286.027669500412 2167.76019531215 156 160 161
-731.14418889595 285.921748657531 2174.77765730308 162 166 167
-733.136842936758 285.692732423789 2182.03140234614 168 172 173
-735.129382151594 285.463873886231 2189.28482062398 167 171 172
-732.283335691915 284.620622538185 2197.6681541165 167 171 172
-732.335046663877 284.14682283987 2205.35458428551 169 173 174
-731.414643240498 283.550767216474 2213.2508786272 167 171 172
-733.399444666598 283.323345152791 2220.47647492644 159 163 164
-733.442792831921 282.850909798804 2228.13271700904 164 168 169
-726.684028251512 281.521512894736 2237.26817869671 166 170 171
-722.828051173124 280.560978666834 2245.72504087924 169 173 174
-720.908879711403 279.84626242207 2253.73450952767 174 178 179
-718.983522707906 279.132326637047 2261.72243423574 174 178 179
-719.000963988171 278.663602319128 2269.28390306314 172 176 177
-714.140500018809 277.584910026144 2277.83302386118 176 180 181
-715.123539724869 277.239498595049 2285.16203233088 163 167 168
-713.175969770697 276.528687766542 2293.06852861817 159 163 164
-714.153769613702 276.184192762416 2300.37773206483 152 156 157
-715.129906995834 275.840027225383 2307.68097112838 156 160 161
-720.018531970522 275.982857077237 2314.23176263084 171 175 176
-722.952617799903 275.882158203505 2321.16555186862 168 172 173
-729.807845066811 276.267475520659 2327.37840536121 182 186 187
-728.824398786331 275.680711280034 2335.04650002322 186 190 191
-725.873652426509 274.851922979045 2343.05023451789 185 189 190
-730.772605059593 274.994193815963 2349.63901765904 184 188 189
-734.69257725901 275.014937915978 2356.41356211203 185 189 190
-742.549758382201 275.519919266886 2362.52477409504 192 196 197
-730.728875922329 273.603686360829 2371.9785466803 209 213 214
-814.577586152934 300.33132992731 1967.60562228301 216 220 221
-799.567239831402 297.885963818732 1980.46968422377 149 153 154
-781.678376605802 295.077073247298 1994.1076859564 170 174 175
-762.808027243978 292.14976168026 2007.92224857583 129 133 134
-747.714535117875 289.714481235018 2020.4849030227 170 174 175
-741.171619059271 288.380143731651 2030.41957775342 160 164 165
-735.569560794904 287.169395279068 2040.02825132095 156 160 161
-729.001424420252 285.838306788006 2049.8713392175 175 179 180
-714.77950711522 283.535112109038 2061.85612278228 172 176 177
-714.870425194455 283.059464050292 2069.6869542982 174 178 179
-713.045484437147 282.34122921084 2078.04406162691 171 175 176
-712.171978587381 281.74525911873 2086.11453146772 157 161 162
-707.462161967111 280.664422918824 2095.22162279627 161 165 166
-706.577068591299 280.070117917957 2103.25012167541 171 175 176
-704.728239472169 279.355237992428 2111.52065431569 165 169 170
-701.913490927805 278.520079020754 2120.02529993635 156 160 161
-704.85666348512 278.41218432126 2126.9882833463 154 158 159
-709.724563018878 278.546226155622 2133.45657705448 152 156 157
-714.596749797723 278.679916564663 2139.94056659184 154 158 159
-717.5469903922 278.571666542525 2146.92956790637 154 158 159
-718.571170551774 278.221987943092 2154.40769972745 155 159 160
-720.55826985027 277.993253103075 2161.64099875827 157 161 162
-722.545280601718 277.764694582352 2168.87408035003 164 168 169
-725.498086018616 277.65674725204 2175.87279545129 168 172 173
-727.485621521904 277.42843131472 2183.10797849825 171 175 176
-729.473048117971 277.200272389053 2190.34285632298 170 174 175
-724.683523587043 276.130734397402 2199.1611408988 168 172 173
-716.977191041014 274.702107638218 2208.61306931938 167 171 172
-714.104002114706 273.875563417826 2216.90710518136 164 168 169
-719.956361870111 274.129776144301 2223.20912694705 163 167 168
-719.987998243599 273.664139800288 2230.82617798099 169 173 174
-714.186129940965 272.480139743367 2239.71081259737 169 173 174
