ply
format ascii 1.0
comment KinectMotionCapture
element vertex 778
property float x
property float y
property float z
property uchar red
property uchar green
property uchar blue
end_header
-599.764033439076 -124.455076991004 2072.633111044 17 22 16
-609.585350814903 -125.143269982426 2074.43258259359 19 24 18
-621.444449230112 -126.260721209596 2090.08746200265 12 17 11
-630.188161656925 -126.730940296536 2084.9665480278 70 75 71
-639.377635791712 -127.293832512371 2082.81331097307 91 96 92
-649.127054842928 -127.978049855061 2084.62174453879 94 99 95
-658.317052292828 -128.54127898142 2082.46868333341 103 108 104
-667.912073432646 -129.194590952501 2083.28861635929 117 122 118
-676.974676083841 -129.728622533849 2080.14344901401 119 124 120
-686.303673281875 -130.32253007312 2078.98080935053 119 124 120
-694.757730551116 -130.711195466288 2070.87252629485 120 120 120
-703.127466682099 -131.073250583078 2061.76676857458 118 118 118
-711.899351594764 -131.525225288369 2055.63460369593 108 108 108
-720.698277603091 -131.97907447602 2049.49882891604 107 107 107
-729.638414772304 -132.463449306692 2044.35343957324 101 101 101
-738.154333155792 -132.835449116365 2035.22970562981 95 95 95
-746.495990938095 -133.153733574933 2024.1119624566 103 105 104
-754.679617474572 -133.419336585479 2010.99818744876 108 110 109
-762.51480356534 -133.577399555479 1993.8966238842 111 113 112
-770.537084982034 -133.768941114254 1977.77972746067 107 109 108
-777.857207994106 -133.744859860273 1953.68767082816 114 116 115
-785.682413280534 -133.838648498226 1933.56388198149 146 146 144
-455.07376927466 -123.488566206273 2022.15928701931 27 28 22
-488.810204434173 -128.037044663541 2147.96216376295 18 19 14
-500.412334410313 -129.015173091413 2159.61775575088 23 26 19
-511.580707689376 -129.928569111149 2169.31193334338 20 23 16
-518.205725589978 -130.086949518643 2154.37676664686 20 23 16
-520.490567749395 -129.503238084587 2114.78741461554 21 24 17
-529.4241168583 -130.032442410403 2111.65857994572 20 23 16
-540.595469065069 -130.946538347452 2121.35214736012 18 21 14
-543.28070470219 -130.388603025798 2081.71289647037 12 15 8
-561.195208602479 -131.432271973257 2074.44134499839 12 15 8
-572.178815301505 -132.316301819207 2083.15057566605 13 16 9
-587.366738536492 -133.971432969567 2118.54663695463 14 17 10
-588.870185717803 -133.133793562147 2067.96885080041 11 13 8
-596.584181756281 -133.418629610109 2055.92166091874 24 26 21
-610.041963867027 -134.777639677315 2081.45526197866 17 19 14
-619.388466831862 -135.371714344601 2080.2904381391 15 17 12
-628.302881595504 -135.882522275955 2076.15601550926 48 50 45
-637.658169664229 -136.477440285192 2074.99009756158 109 111 106
-647.7073746653 -137.20990481367 2078.77662086671 94 96 91
-656.913600853953 -137.776967281592 2076.62154450564 99 101 96
-666.258749559379 -138.371672341087 2075.45689132976 111 113 108
-675.473453257046 -138.939551090128 2073.30075917534 118 120 115
-684.949445268241 -139.561496028197 2073.12753636189 123 125 120
-693.794240200241 -140.05018120733 2067.99405651778 125 125 125
-702.538277785628 -140.513956250123 2061.86515762797 125 125 125
-711.069939832791 -140.927064808816 2053.74725432501 124 124 122
-719.639519015503 -141.342723281596 2045.6246259028 122 122 120
-727.675320591283 -141.631330678838 2032.52935915735 109 109 107
-736.334163886245 -142.052959468301 2024.39560682428 104 104 102
-744.921912850959 -142.451565321925 2015.26297891504 100 102 99
-753.65903343838 -142.878464504594 2007.11947191804 100 102 99
-761.502491668394 -143.080845754804 1990.01699275002 100 102 99
-768.928568289822 -143.163625845093 1967.92760961412 108 110 107
-776.173971525627 -143.179128408956 1942.83705444359 97 99 96
-784.979449152456 -143.573700765664 1932.66955756426 148 150 147
-446.080799179561 -132.680660422736 2029.35236670087 25 27 16
-465.321576041532 -134.713254574464 2078.35223030206 32 33 27
-489.542027097875 -137.508033339359 2154.95006835742 20 21 16
-492.249028918964 -137.121682298891 2119.33978196793 22 25 18
-499.885166428328 -137.462419895973 2109.31782978153 22 25 18
-512.59837825634 -138.571517192058 2126.88171335147 23 26 19
-521.142027947589 -139.049729665765 2121.78578707356 22 25 18
-527.792587656912 -139.232705546068 2105.83981058343 19 22 15
-537.610824127785 -139.903554531714 2107.63962093692 17 20 13
-563.103913553718 -143.050775158915 2201.21145140359 13 16 9
-559.192486289378 -141.560206697734 2123.09028893431 12 15 8
-562.562849684843 -141.200958755356 2086.38960321894 12 15 8
-573.194591365855 -142.003580018287 2093.12691570891 13 16 9
-585.99374563813 -143.166860290792 2113.70351842216 14 17 10
-597.743126951686 -144.168067792137 2128.36385638621 19 21 16
-600.868846137038 -143.730081523452 2087.66226453711 20 22 17
-604.661052999056 -143.382314204653 2049.90103811792 10 12 7
-615.564764159365 -144.234655474865 2058.62015582573 14 16 11
-626.270290877279 -145.058609729971 2066.35624392591 6 8 3
-636.360857168146 -145.77993577941 2070.1375762538 23 25 20
-646.146804990678 -146.450205917098 2071.94141451535 87 89 84
-655.371966957004 -147.021289111047 2069.78398566962 84 86 81
-664.335782577577 -147.544075579695 2065.64342964995 89 91 86
-673.7083106477 -148.140689097891 2064.47536471707 97 99 94
-682.952914296835 -148.713413963415 2062.31551398755 105 107 102
-691.952311970647 -149.238818080953 2058.17052443148 108 108 106
-700.722740264865 -149.717995537032 2052.03837269893 102 102 100
-709.160540353614 -150.128429331469 2042.92448867139 93 93 91
-717.524451203042 -150.518367071404 2032.81184424152 94 94 92
-725.593612403006 -150.841996626935 2019.71274691054 89 89 87
-734.398426873166 -151.307976414807 2012.56858213274 86 86 84
-743.017451525345 -151.730457931296 2003.43187380958 92 94 91
-751.466947083683 -152.110474573969 1992.30083568896 92 94 91
-759.24483402546 -152.336596346463 1974.19891485169 96 98 95
-767.316505619442 -152.613352604307 1958.07583896716 110 112 109
-775.76389784231 -152.961861500577 1944.92960615947 105 107 104
-484.545386339152 -146.815227509928 2180.79222935358 27 28 20
-486.478737807518 -145.776673494101 2091.86527162824 26 29 22
-496.560932640153 -146.469048561563 2094.6401255938 25 28 21
-507.880294825609 -147.332366148682 2104.31508851491 24 27 20
-519.317857780781 -148.216466999826 2114.98304250893 20 23 16
-526.682156705041 -148.538859505928 2102.97959166333 18 21 14
-537.36712089259 -149.322667119135 2109.71045302279 16 19 12
-548.853805087164 -150.223394321906 2121.38024812837 17 20 13
-574.374670318056 -151.659969971382 2104.09035747781 15 18 11
-588.886362181694 -153.01683646845 2135.53903431284 16 19 12
-599.802334658493 -153.855498450402 2145.26451322386 16 18 13
-605.622475789572 -153.935699997371 2122.36760718552 15 17 12
-610.213094630292 -153.819337829256 2090.55395619541 15 17 12
-617.768982477758 -154.141804747762 2077.51866901388 20 22 17
-624.812330202493 -154.379132205475 2060.51613093631 10 12 7
-635.345462374213 -155.154479126134 2067.26567748406 12 14 9
-644.30578755694 -155.685118156472 2063.12581799857 46 48 43
-653.691637396628 -156.282408646545 2061.9560923704 88 90 85
-663.211326604815 -156.901486134415 2061.77740885376 98 100 95
-671.678263342288 -157.348409842022 2053.66767193779 83 85 80
-680.56795266851 -157.861828304643 2048.52865467292 78 80 75
-689.479379467571 -158.376738586767 2043.38668835986 89 89 87
-698.289770481442 -158.872180567229 2037.24983261694 87 87 85
-706.646882585889 -159.286253404923 2027.13810018918 87 87 85
-715.17015719335 -159.724177370984 2018.01362184141 89 89 87
-724.080717480387 -160.226346615548 2011.86404301266 90 90 88
-733.242199166548 -160.770907834111 2007.69887677962 89 89 87
-741.764305237596 -161.195947116154 1997.56658296 89 91 88
-749.482737842617 -161.464707845363 1979.47219396064 122 124 121
-757.085442096272 -161.699905666585 1959.37654432351 120 122 119
-766.004267112972 -162.176878882443 1951.21049355613 100 102 99
-474.084086292895 -155.335415131255 2178.08918670212 33 34 26
-483.587966149144 -155.959243534141 2178.9201757087 30 31 23
-467.323200689246 -153.516720482152 2044.89588070996 28 29 24
-489.223473073958 -155.606432123917 2109.68844059309 26 29 22
-508.911189510947 -156.918771352447 2113.28158909961 22 25 18
-518.554676151796 -157.551926494661 2114.09518056646 19 22 15
-526.268814871088 -157.9478222538 2104.06363954725 20 23 16
-538.670155513185 -158.923300849801 2120.65840381915 21 24 17
-549.791211045273 -159.744512263073 2130.35800335312 19 22 15
-557.360008171911 -160.12101621654 2119.3368619396 17 20 13
-566.292744855344 -160.667749506532 2116.20817481758 16 19 12
-588.464141779596 -162.316768130296 2136.62414332884 17 20 13
-596.26923325748 -162.719115046284 2126.58126893195 17 20 13
-601.678802371925 -162.802412706605 2100.71230644421 21 24 17
-611.426742234192 -163.453591562172 2102.52083759828 17 20 13
-622.927276922906 -164.341399995728 2116.20448468809 12 15 8
-631.164237228779 -164.792433118361 2108.12345829317 13 16 9
-634.754997761192 -164.604129039016 2067.36424929368 14 17 10
-639.955355811195 -164.622512003441 2036.48254839969 16 19 12
-653.373887811247 -165.77861849847 2064.03612776717 13 16 9
-662.754617258265 -166.375754491444 2062.86704072687 6 9 2
-671.217752570526 -166.841688968172 2054.75782827047 11 14 7
-678.948575453257 -167.198604502771 2040.69311385176 21 24 17
-687.629762843484 -167.689033172663 2033.56444138792 64 65 60
-696.835444129512 -168.254595398258 2030.40174197846 70 70 68
-705.210107589352 -168.694466553969 2020.28788718426 88 88 86
-714.103736012947 -169.209129009842 2014.1404542524 93 93 91
-723.483773499708 -169.796528660092 2011.96374082614 98 98 96
-732.420614032808 -170.314150499136 2005.81116334066 99 99 97
-739.63369938998 -170.555528477038 1983.7485376485 99 101 98
-747.067183740212 -170.821465538163 1962.66639950739 113 115 112
-755.232844862432 -171.196606996377 1947.53978074626 103 105 102
-451.036764356884 -162.585445966894 2112.45668060291 40 42 31
-465.376191443826 -163.695816137944 2136.87191569952 19 20 12
-454.377169481382 -162.181262897267 2031.41801908477 21 22 14
-463.901302372554 -162.785884687119 2030.23105585601 21 22 16
-523.411014988491 -167.088614251671 2091.34369494512 19 22 15
-536.882335764851 -168.129099221676 2113.85146607179 20 23 16
-550.224258153209 -169.161441552899 2136.37536390894 16 19 12
-558.274735321724 -169.619269012375 2128.31762739973 16 19 12
-565.053253906998 -169.934827795021 2112.35603155072 17 20 13
-575.135629705755 -170.61420475362 2116.13851580091 18 21 14
-582.973980403585 -171.043421588854 2106.09156161098 20 23 16
-587.74809387081 -171.124232217904 2076.27090502021 20 23 16
-597.574793903144 -171.772231677453 2078.06959899786 21 24 17
-609.338980664723 -172.643386703507 2092.7279871097 22 25 18
-621.606986271369 -173.577397914846 2111.35465579926 19 22 15
-627.828719775172 -173.812059790375 2089.41596753972 23 26 19
-632.032761039548 -173.803273746833 2052.61192641516 23 26 19
-641.451109685531 -174.402701784855 2051.43815075725 17 20 13
-663.236240810235 -175.958280898511 2070.8943897889 20 23 16
-670.36376564835 -176.281708028807 2052.87364627872 19 22 15
-677.969327553683 -176.658680954294 2037.81692941168 17 20 13
-687.161163127892 -177.228773452252 2034.65596979551 10 11 6
-696.486989481793 -177.815163190698 2032.48577866983 13 14 9
-703.409614725609 -178.095218687508 2010.45974280725 30 31 26
-712.094168105997 -178.594944693594 2002.32298767375 41 42 37
-721.851677928995 -179.232086511633 2003.12236022033 53 54 49
-729.689171033154 -179.616695648457 1987.02903272234 53 54 49
-737.059894068654 -179.933332516446 1965.95486033841 51 53 48
-744.218238359647 -180.213539142348 1941.88379406517 18 20 17
-445.536870997965 -171.535291124578 2087.97274454175 27 30 21
-455.491538892042 -172.182307879849 2089.75522603013 23 26 19
-497.718434892866 -174.993325644461 2110.69474847022 14 17 10
-514.542558648785 -176.012909583913 2098.52029053855 16 19 12
-525.269028663711 -176.734178316343 2105.24580752222 15 18 11
-537.673923048763 -177.611642803811 2121.83962992261 14 17 10
-549.981974848656 -178.483017476916 2138.44576193652 15 18 11
-552.85852845967 -178.478131646953 2099.79177922903 16 19 12
-572.777893262919 -179.784271615585 2105.37161752854 17 20 13
-579.217541292335 -180.104952380349 2086.42902264675 17 20 13
-586.066988315784 -180.461640812882 2069.45099656325 15 18 11
-593.769347263022 -180.89733656372 2057.40565620543 14 17 10
-607.097530227441 -181.873592614549 2081.94673540536 14 17 10
-621.319125117827 -182.941294898372 2113.43085312395 16 19 12
-629.851973538773 -183.459647021538 2107.32845312012 17 20 13
-635.85096977572 -183.728059078125 2083.40203556945 17 20 13
-642.393687367242 -184.045932376256 2062.4311966259 18 21 14
-645.349581339251 -184.002476575446 2014.69754671656 17 20 13
-657.68338580592 -184.891235644463 2034.32357202567 19 22 15
-670.034938663543 -185.786115754842 2054.955325927 19 22 15
-680.97994568534 -186.542257212048 2065.68465128178 16 19 12
-689.591472558825 -187.06119609415 2058.56474711923 17 18 12
-695.029392317384 -187.25005582367 2025.63823440784 16 17 11
-700.76146333044 -187.462648775975 1993.68300322641 13 14 8
-712.084606022293 -188.25793291101 2007.38830386051 13 14 8
-719.410198344022 -188.631262450192 1987.32759991917 15 16 11
-726.838727054744 -189.01122924227 1967.25430787275 16 17 12
-731.955412690927 -189.135704000234 1925.29780903523 11 13 8
-737.829470012146 -189.333122010776 1888.28590281085 21 23 20
-445.939543754248 -181.167394441439 2140.3511923007 27 30 21
-502.699306072575 -184.899848446628 2190.72022824269 20 23 16
-496.033187843832 -184.286809578637 2104.88316854013 18 21 14
-504.807568546858 -184.837989741047 2100.76632765202 17 20 13
-518.574497370645 -185.768197061109 2124.24460532792 19 22 15
-530.456854134307 -186.556660022665 2137.88034165731 18 21 14
-536.917988506293 -186.932349751176 2120.95082473627 17 20 13
-544.653473433392 -187.40451194589 2110.91682068147 15 18 11
-549.434936310754 -187.649342164506 2083.11129333265 15 18 11
-563.883968521245 -188.636390159586 2112.55120135296 19 22 15
-572.030900184153 -189.139286262738 2104.48154657976 20 23 16
-580.851192561235 -189.693839178731 2100.35898506818 17 20 13
-587.191993054572 -190.055641102324 2080.42138723617 15 18 11
-594.556087493884 -190.495760717074 2066.4026574741 15 18 11
-605.00301405903 -191.175895847337 2072.15502413685 15 18 11
-617.926418393649 -192.050892821965 2094.73073618946 16 19 12
-626.945507223452 -192.620583553859 2091.59109301894 19 22 15
-637.685330512327 -193.326101134783 2100.33027630926 19 22 15
-643.340123953187 -193.629284713711 2073.42384350761 17 20 13
-646.25820797653 -193.712422641303 2025.69500516767 16 19 12
-654.535945730898 -194.219854813633 2015.59366431676 18 21 14
-668.127383815048 -195.153049261952 2045.1404531926 18 21 14
-678.585957509292 -195.83659008657 2051.89906242946 16 19 12
-685.720146079042 -196.251748395041 2032.87028206631 15 16 10
-694.927723547303 -196.833924712549 2029.7071495084 16 17 11
-699.677525590045 -197.051532112949 1989.81229530097 17 18 12
-708.652917695192 -197.612504679534 1983.6550209698 16 17 11
-715.694356014187 -198.013284310959 1960.60654849363 15 16 11
-725.333062176866 -198.627530508645 1959.40531254347 15 16 11
-731.124122949514 -198.920453391324 1923.4119426733 16 18 13
-426.201694949443 -189.313707410761 2046.09088294791 29 32 25
-481.859845438581 -192.775078484391 2182.25608971112 25 28 21
-485.308704537092 -193.010715036245 2151.59353766111 25 28 21
-481.109145940086 -192.782949228987 2079.55826095121 23 26 19
-487.014672651889 -193.168886705827 2059.67504627394 17 20 13
-509.095327563935 -194.534864311989 2127.46625085082 16 19 12
-518.168863877707 -195.112517587377 2125.32776129221 17 20 13
-528.649814009698 -195.775343314176 2131.07583643126 17 20 13
-535.127228081629 -196.196189922529 2114.14440681895 17 20 13
-539.655108661472 -196.499660242599 2085.36275210138 16 19 12
-558.198922248397 -197.649127163959 2138.47849584501 16 19 12
-564.778493776015 -198.076601232943 2121.53433503936 20 23 16
-572.415040865994 -198.568067806961 2110.50504158092 21 24 17
-579.629600456965 -199.034375064599 2096.50504184811 19 22 15
-588.320870298818 -199.589727953064 2091.39089659466 16 19 10
-595.49949232746 -200.054404123282 2076.38769026356 17 20 11
-603.508258005679 -200.569182368066 2066.31969461449 17 20 11
-612.602596623351 -201.149209909301 2063.17068793694 18 21 12
-623.597679418558 -201.843046296414 2072.88591295487 19 22 13
-631.965971268944 -202.379741439506 2064.7887227475 20 23 14
-641.771705775063 -203.002414387859 2066.58972613367 15 18 9
-648.131151912713 -203.419683384432 2043.62664594273 14 17 8
-650.709517131441 -203.612471677167 1991.90950260002 15 18 9
-661.208417635074 -204.277183740429 1997.65534260642 15 18 9
-665.086493851815 -204.54891663863 1952.83074140635 16 19 10
-683.356371196727 -205.67440181314 2019.08150096988 15 16 8
-688.891952172179 -206.045051437342 1986.1432794532 18 19 11
-701.25301232739 -206.819575984581 2007.78121704609 22 23 15
-704.621834009086 -207.063569596774 1954.95787715914 19 20 14
-715.896987610295 -207.774079326577 1967.66125619947 14 15 9
-720.327495871627 -208.082429017472 1920.75219671008 13 14 8
-468.096389491644 -201.19272719028 2162.83298454836 24 26 21
-473.239122169145 -201.589019545383 2141.02937486107 23 25 20
-484.162648428992 -202.254313648754 2148.73759981261 22 25 18
-489.639548717864 -202.668632542735 2127.90002255344 20 23 16
-494.675259882174 -203.064797464883 2104.09415371757 14 17 10
-499.836406933855 -203.468973902483 2080.27265232256 13 16 9
-520.434341081871 -204.572026572705 2141.19390905675 14 17 10
-528.067918105018 -205.087452062895 2131.17297670698 14 17 10
-528.500873514038 -205.283145532322 2079.72357547567 14 17 10
-553.508159304654 -206.57128840979 2169.32014688739 17 20 13
-561.799014811184 -207.115452400005 2163.24825441201 19 22 15
-567.814666618731 -207.561015767473 2143.35121352777 18 21 14
-571.183596744714 -207.894230626992 2106.65228998336 18 21 14
-577.770527486807 -208.369620466722 2088.69964987754 21 24 17
-587.10827359046 -208.964061099353 2087.53591980624 18 21 12
-595.985491110405 -209.539115725607 2083.40630836389 18 21 12
-602.766297402779 -210.026953599175 2065.42950651702 18 21 12
-610.825448929172 -210.569799207874 2055.35529692638 17 20 11
-621.262027513253 -211.211220877981 2061.10885300547 17 20 11
-632.660599811561 -211.890812854863 2073.79674870124 17 20 11
-639.640632897465 -212.391471394592 2055.79511829113 14 17 8
-646.163558761571 -212.876272268494 2033.8195017378 14 17 8
-648.491045060312 -213.199650386707 1980.1186363084 14 17 8
-650.314333140664 -213.51078480495 1920.43405646589 14 17 8
-666.545823628615 -214.379383053036 1968.79870877586 15 18 9
-676.305912396473 -214.9977922209 1968.59002305541 17 19 8
-690.766034359165 -215.789993815576 2006.09025161091 18 20 9
-697.384440101582 -216.291001314572 1981.07946084949 20 21 13
-707.6850580131 -216.927415292272 1985.84228373095 18 19 11
-711.242912994599 -217.32611279732 1932.99576101293 16 17 11
-721.183585582412 -217.95289497737 1933.77224864757 17 18 12
-455.987755019898 -209.77597430782 2152.27346796744 20 22 17
-465.768594260225 -210.380375759831 2154.07777028701 19 21 16
-475.534173394456 -210.983821852367 2155.88397446169 19 21 16
-482.82683296648 -211.5084250827 2144.89768339665 17 19 14
-487.379467581053 -211.949264614206 2119.13660284214 17 20 13
-494.088299384347 -212.460909439082 2104.19214724407 14 17 10
-503.768518280681 -213.065043316177 2105.00131858486 14 17 10
-522.883800163797 -213.949545734733 2158.04504868903 15 18 11
-528.539226192258 -214.430451547251 2137.18512755853 15 18 11
-531.193573088407 -214.829104382897 2098.56017790883 14 17 10
-546.130289167876 -215.580608009196 2129.95422003287 16 19 12
-559.717186935149 -216.288503481393 2154.46230643688 17 20 13
-561.308139689255 -216.667868195589 2107.90779370304 15 18 11
-566.873867713496 -217.161295988263 2084.03603803479 14 17 10
-577.342054109474 -217.785538971023 2089.78560440636 17 20 13
-583.07687654655 -218.2897754415 2065.89277521932 18 21 12
-591.244178282565 -218.858235444157 2056.81306394343 18 21 12
-603.23296142036 -219.518904685683 2072.45055654669 18 21 12
-611.123252587613 -220.081861359595 2061.38978559416 17 20 11
-621.690446036037 -220.706464171624 2068.13468451669 15 18 9
-633.501384440266 -221.355873669848 2083.79434143916 15 18 9
-636.243491001041 -221.814778528589 2036.08869388376 13 16 7
-645.843233416665 -222.420165770493 2035.89998414732 14 17 8
-648.156288191481 -222.888078850177 1982.20130031447 13 16 7
-659.345420528408 -223.528208234204 1992.89985475951 13 16 7
-673.963930068943 -224.22347879129 2030.38006221724 15 18 9
-681.275377610653 -224.792075332162 2012.33725215465 14 16 5
-689.299026525899 -225.375815200886 1999.24427921025 14 16 5
-694.234332803166 -225.920133478462 1960.3348226507 16 17 9
-702.340029089125 -226.515195162973 1946.2239533969 17 18 10
-710.863740134639 -227.118756271559 1935.08424231863 19 20 14
-461.491753862921 -219.581213499522 2135.48822828478 21 23 18
-471.693165240354 -220.186930063556 2139.25566361645 21 23 18
-466.352730910866 -220.523657819913 2062.32557226718 19 21 16
-484.370597797768 -221.266787294824 2106.43597628446 16 19 12
-491.847445659394 -221.830864868046 2095.42680356407 15 18 11
-504.087571111111 -222.469758408806 2110.02494542001 15 18 11
-510.712072417813 -223.023518436019 2094.08343758006 16 19 12
-534.458697177212 -223.815070450193 2173.75843249301 15 18 11
-532.336300458988 -224.251306400433 2108.51997711051 16 19 12
-545.038253931605 -224.884479792742 2127.09169942618 15 18 11
-555.286891746739 -225.484482248077 2131.86091322792 15 18 11
-565.503609000052 -226.082459112274 2136.63410519274 16 19 12
-565.961033122268 -226.586335543011 2082.15916043623 15 18 11
-573.885274379585 -227.170185236359 2072.10213510113 13 16 9
-584.365991233667 -227.776209628784 2077.85008976759 17 20 11
-590.34352043771 -228.350375021502 2054.93484346443 18 21 12
-598.25609468852 -228.942298116901 2043.87136799685 19 22 13
-609.046108529872 -229.550463812446 2051.59634433202 18 21 12
-621.392088828096 -230.161034323225 2070.21243047148 17 20 11
-631.196467986148 -230.759187381815 2072.01377869355 16 19 10
-639.440054166295 -231.354644649357 2062.92437839761 13 16 7
-643.457809269802 -231.953493305102 2023.12188330566 14 17 8
-652.007675110989 -232.559683480527 2015.00221675039 13 16 7
-661.257179174571 -233.166484562984 2011.83415711843 13 16 7
-671.81352585116 -233.76861643641 2018.58035047754 15 18 9
-679.137928139322 -235.061773747312 1922.94039910235 16 18 7
-686.218845889029 -235.706325572227 1899.88764179202 14 16 5
-698.168805644148 -236.309339637853 1916.53751458926 16 17 9
-710.021109258944 -236.906138807981 1933.19979819751 10 11 5
-448.832357179992 -228.848301901104 2074.61152577145 20 23 16
-458.434078156357 -229.448574799603 2074.42255565389 19 22 15
-475.417320133872 -230.069178519266 2112.61514894937 14 17 10
-478.93076885509 -230.650739267768 2080.93776037717 15 18 11
-492.915180832632 -231.253332646796 2104.38803468157 17 20 13
-502.777297379316 -231.847101645755 2106.18216607362 18 21 14
-514.052359555887 -232.438589184418 2115.86194151918 18 21 14
-528.78543067505 -233.019638097949 2145.26557424752 17 20 13
-541.900337524486 -234.21293536043 2112.39135118175 16 19 12
-555.041738458391 -234.784861928698 2133.93137332423 18 21 14
-563.109034878648 -235.379624659182 2125.871898486 16 19 12
-563.424807586996 -236.034313324663 2070.40758131771 15 18 11
-573.614119862493 -236.625817351691 2074.17624884882 19 22 15
-584.404368260766 -237.209451235686 2081.90113130902 21 24 15
-592.833855284511 -237.8157348438 2074.80417466274 19 22 13
-598.418759207225 -238.459991075426 2048.91480869192 19 22 13
-605.775730481686 -239.090230650143 2033.88978143467 18 21 12
-620.36436385138 -239.615874607393 2067.34228189477 17 20 11
-626.737740361988 -240.264201717321 2045.38551858841 17 20 11
-639.130770004868 -240.811472840215 2065.00349391806 13 16 7
-644.377511161976 -241.491844599615 2034.11774801045 14 17 8
-651.679699462934 -242.141644317629 2017.08399439023 15 18 9
-661.585785299721 -242.738127395623 2018.87264582225 15 18 9
-670.82691024449 -243.349927319037 2015.70540475031 14 17 8
-674.361772955686 -244.11734402999 1967.90163836904 7 10 0
-669.323556589705 -245.157698698734 1849.61739046154 18 21 10
-683.290828425417 -245.666786097355 1881.1317751014 9 12 1
-702.430298378702 -245.986221223707 1957.34948373241 12 15 4
-445.948233093768 -237.67841129214 2111.2740796765 18 21 14
-457.988968321773 -238.246046316929 2123.88154240043 20 23 16
-464.379196059782 -238.867759550193 2107.96920920045 19 22 15
-480.769409009033 -240.084093949429 2093.83404471114 17 20 13
-488.277993069001 -240.705618761093 2082.82106278608 17 20 13
-503.643106362751 -241.213651992218 2114.16100229981 17 20 13
-516.149374062291 -241.753720287151 2130.741285389 17 20 13
-528.910918253686 -242.281470658293 2149.30529350749 17 20 13
-529.086974392012 -243.035519287385 2096.88173509664 19 22 15
-542.340010365431 -243.551709139349 2118.40767906551 17 20 13
-552.279299870755 -244.128073860519 2121.20006126195 16 19 12
-557.407475887818 -244.812025236969 2095.36779676936 18 21 14
-565.271123249007 -245.441760242436 2085.31821376286 20 23 16
-573.663346476581 -246.062313994604 2078.22594499796 22 25 18
-586.171714768159 -246.573807765041 2096.82150516081 19 22 13
-595.63984811524 -247.162909056954 2096.64941683834 17 20 11
-598.583277380969 -247.950353071976 2053.95818635543 16 19 10
-608.753586894084 -248.527036915139 2057.72942655927 16 19 10
-612.171983688119 -249.330431425763 2015.98665204007 18 21 12
-623.417864067057 -249.875640900675 2026.67787469675 19 22 13
-629.953309022 -250.591984105096 2004.70106532464 16 19 10
-637.431307106319 -251.282672908182 1988.65340672972 16 19 10
-653.382757079333 -251.627809988543 2034.02832636071 15 18 9
-659.444819888183 -253.427813540141 1933.50832622275 13 16 7
-669.939343583049 -254.010725514276 1938.24680991319 18 21 12
-672.806355767798 -254.978774377179 1882.4646980952 4 7 0
-681.939682951132 -255.646292484436 1875.28006761694 17 20 13
-426.94677653868 -245.878428136887 2114.67463066981 19 22 15
-439.662665772585 -246.400025594588 2130.22101849029 18 21 14
-453.078830027563 -246.898122667939 2149.71094290221 15 18 11
-477.472842445505 -248.743794877459 2129.53969286747 16 19 12
-480.555540495127 -249.502571490546 2095.90091165906 17 20 13
-477.551345210361 -250.452270941186 2028.75847751599 16 19 12
-497.247841753966 -250.754543926385 2082.73582928434 16 19 12
-519.861756209995 -250.936245726535 2154.48835613605 16 19 12
-520.228883248231 -251.811290134618 2104.0568863097 16 19 12
-525.377957719138 -252.548402225103 2079.2300811774 16 19 12
-535.609904088084 -253.115672882615 2082.99336440799 16 19 12
-551.361195081614 -253.472800326404 2119.32362985127 14 17 10
-552.687571852551 -254.37483348442 2070.7878965996 16 19 12
-561.26797987548 -255.007016253106 2064.68010147631 18 21 14
-579.471356013013 -255.230875713276 2117.83589224668 18 21 14
-583.385200104908 -256.059358942086 2083.08564512883 17 20 11
-589.492382401734 -256.806254063891 2061.16260113072 15 18 9
-602.544407071039 -257.229535487472 2083.72107254912 14 17 8
-604.285724720169 -258.208918255831 2032.11069953183 15 18 9
-610.841352406472 -258.967277582491 2011.13940948906 18 21 12
-617.649386083417 -259.724664536076 1991.14430520834 19 22 13
-628.648199870743 -260.255335126877 1999.85070756226 15 18 9
-634.478320777811 -261.086546487877 1971.9158581048 15 18 9
-652.327811861727 -263.670968239933 1884.03550279174 13 16 7
-664.614974513516 -264.130347898863 1901.65084377183 12 15 8
-673.308131650294 -264.837381809303 1891.49794641326 11 14 7
-430.430619342817 -255.130832785049 2134.41941713873 14 17 10
-436.471167772996 -255.833034066578 2117.54324671331 12 15 8
-456.658767369535 -256.033386048831 2170.45135622049 10 13 6
-473.229192969099 -256.339182349881 2206.67902306014 11 14 7
-472.453041956691 -257.298676907803 2155.38276287379 18 21 14
-477.081197306236 -258.068852168576 2130.62105243888 20 23 16
-484.885302824724 -259.714258956771 2071.2013027953 17 20 13
-486.115918086763 -260.682950753133 2025.70099712027 16 19 12
-508.183321956839 -260.706228542075 2093.49055966541 14 17 10
-515.41121636594 -261.404706620467 2080.49719433792 14 17 10
-517.495594198215 -262.36840250675 2037.91363254828 13 16 9
-532.457377318921 -262.68987349835 2068.29572687994 16 19 12
-542.536102420585 -263.253619849323 2071.07043483952 15 18 11
-556.118210261674 -264.752689871634 2037.13102599554 14 17 10
-575.367377647363 -264.773903206632 2096.20237766607 12 15 8
-582.325272743119 -265.514196733935 2080.21951521284 14 17 8
-582.250079021705 -266.715611518254 2018.75882500075 14 17 8
-587.976611212565 -267.575042659324 1992.85235131483 14 17 8
-602.346369577014 -267.85841381449 2023.30822650149 14 17 8
-607.017932858791 -268.808674756572 1989.47166857255 15 18 9
-624.957110169991 -268.805430268172 2045.68289301893 16 19 10
-625.22469398838 -270.107564395539 1980.14870277565 12 15 6
-632.488457298463 -270.906580026142 1962.11245022373 12 15 6
-646.229230562327 -272.612508066524 1918.07619383809 13 16 7
-661.217246667478 -272.776810357461 1956.51657787322 14 17 8
-674.457703278644 -273.066921897389 1983.08217206264 18 19 14
-669.942638072064 -275.01290047472 1869.77393894005 15 16 11
-395.881169373589 -263.962393985686 2064.17987039548 25 28 21
-420.185820009261 -263.892295512361 2133.70536606405 30 33 26
-425.573856325741 -264.664698569723 2113.88774887211 13 16 9
-435.485474723869 -265.23019178818 2115.67538799374 13 16 9
-446.174703669111 -265.755149094134 2121.3973483654 11 14 7
-462.300471315943 -265.996289472736 2154.65703405637 11 14 7
-468.02065024445 -266.767174753461 2135.80565053122 15 18 11
-464.90602754829 -268.032911213545 2070.69320354486 16 19 12
-488.936694158126 -267.80973829007 2146.2990908106 18 21 14
-492.788106225373 -268.709000697644 2116.59573726323 18 21 14
-496.304703291241 -270.82590018838 2031.51049828338 17 20 13
-511.291704873737 -271.084083511031 2060.88159173608 14 17 10
-519.85413737193 -271.743155743496 2054.77587039571 13 16 9
-531.010937706817 -272.229846132775 2063.4624411422 15 18 11
-541.777432640861 -272.736623037741 2070.182398396 16 19 12
-550.015944862247 -273.419902652829 2062.10178994407 14 17 10
-559.270760551601 -274.032839074902 2059.94053043927 12 15 8
-570.77526243566 -274.473918525128 2071.60689153655 12 15 8
-585.518447108157 -274.64858756235 2104.0314935296 12 15 8
-588.464570067854 -275.759775688116 2062.3484665564 13 16 9
-585.548134114313 -277.39778610769 1981.08807249167 14 17 10
-596.967400222154 -277.855720790197 1991.75742779938 14 17 10
-611.843017659654 -277.993573001204 2026.18078020688 13 16 9
-616.587828118774 -279.039083843963 1992.33533230045 13 16 9
-621.511869396821 -280.09596046164 1958.4675473788 14 17 10
-625.090773605393 -281.314693102341 1913.68277496678 13 16 9
-637.875540687993 -281.634237359396 1934.25871089873 12 15 8
-646.546600697071 -282.366925005644 1925.1165660562 13 16 9
-387.966512825549 -273.914353118653 2029.92232974773 25 28 21
-419.811326280476 -273.218865368428 2134.78458922411 21 24 17
-429.673925261573 -274.936580025272 2090.22465000288 19 22 15
-457.614890416317 -275.533744572219 2134.10401272583 19 22 15
-457.600431833251 -276.746367347821 2085.73642572611 18 21 14
-470.40248023817 -277.109178249157 2102.2795705996 13 16 9
-485.17076656056 -277.319451525842 2129.66221778921 10 13 6
-495.347078203739 -277.843050217782 2133.43232889609 19 22 15
-507.500386087333 -278.214790415463 2148.04084180119 12 15 8
-506.65086193088 -279.5759799393 2091.7158799704 11 14 7
-508.579172754916 -280.760630654562 2049.15237629741 17 20 13
-521.17486658291 -281.109870064384 2065.72123726211 19 22 15
-530.590738071725 -281.710946889593 2064.54777508079 17 20 13
-542.198629893457 -282.123354382994 2076.2011582185 17 20 13
-550.751279687238 -282.795550703169 2070.09669226362 15 18 11
-558.842214265784 -283.514023987272 2061.02690621214 13 16 9
-572.431778738178 -283.724193825578 2085.53334908437 11 14 7
-587.931308860085 -283.727698472719 2122.90154837244 13 16 9
-585.083441057814 -285.516674661007 2044.65653680284 14 17 10
-596.065438724322 -287.556063424205 1989.88015857265 15 18 11
-606.986725519284 -288.025174898447 1997.5881463562 16 19 12
-607.191092286052 -289.680114370189 1932.06277432754 17 20 13
-618.923337401737 -290.074485726876 1944.70827851001 13 16 9
-629.053712620454 -290.644506261163 1946.46887026498 13 16 9
-634.542804612764 -291.777357332556 1914.54614462713 13 16 9
-644.199924821695 -292.418089019718 1912.33499336326 14 17 10
-650.989106013344 -293.431603586015 1888.3119276027 15 18 11
-655.427400981174 -296.795321145324 1764.82019693727 23 24 16
-407.038560229977 -283.42899579375 2076.9475792998 18 21 14
-420.432783092381 -285.042627100922 2048.07059484316 20 23 16
-450.171274467474 -284.084744390947 2147.14841672824 18 21 14
-456.838961974047 -284.875457903759 2133.21775797956 18 21 14
-465.702243311646 -285.498132668419 2130.09769819451 13 16 9
-478.95656979869 -285.756728369092 2149.60718828475 11 14 7
-498.837095135897 -286.803013788069 2155.19118920229 16 19 12
-506.740981703054 -287.504205843474 2147.1523872255 12 15 8
-501.574771346532 -289.416009777673 2067.1811598294 9 12 5
-510.991858783623 -290.017544794741 2066.00754711156 12 15 8
-520.58384482318 -290.602159722818 2065.8199908906 16 19 12
-532.742715585286 -290.930346069828 2080.42745461509 16 19 12
-548.003046434762 -292.493030681353 2057.36430014305 16 19 12
-556.454377138114 -293.200609187072 2050.2648842912 15 18 11
-566.384209119956 -293.750355098415 2052.05044926404 14 17 10
-579.456158602597 -293.94031474063 2073.59813264073 14 17 10
-582.317027899685 -295.299287746076 2030.91871025508 15 18 11
-588.150530022807 -296.343673418631 2006.00730179213 15 18 11
-592.76667749058 -297.562390116703 1972.17836639783 15 18 11
-601.679563151775 -298.270907063697 1966.02928105421 16 19 12
-610.33115729471 -299.018686015934 1957.89705200856 16 19 12
-621.853597948734 -299.389368547728 1969.56098906562 13 16 9
-624.970767071061 -300.904215983694 1921.81131670707 13 16 9
-616.629284950643 -304.096597500681 1788.82869657528 13 16 9
-624.494532659855 -305.073911264247 1770.71761159934 14 17 10
-644.088048241466 -306.490490944422 1762.2298243447 15 16 8
-655.162903442719 -307.000115470329 1767.90338019233 18 18 6
-392.845875032365 -292.670728169161 2058.58789670316 23 26 19
-408.103028432218 -292.785235594643 2084.90135660875 17 20 13
-411.779392900128 -293.882553136215 2056.22829690499 20 23 16
-423.261875254636 -294.309463428385 2064.87406703208 18 21 14
-439.65868649324 -294.281144594434 2098.09921847395 16 19 12
-455.67103602636 -294.258913731899 2130.36491766674 16 19 12
-465.70172341803 -294.777383680396 2133.14550121474 18 21 14
-473.615304403135 -295.498916579853 2125.10554299879 18 21 14
-505.482574067209 -295.320675726211 2193.68698373326 12 15 8
-497.771197600501 -297.658775151635 2101.94153467032 18 21 14
-509.431964580586 -298.004045315512 2113.5881424971 12 15 8
-511.640242476256 -299.375927010847 2073.00556785122 9 12 5
-525.571402240638 -299.466119004412 2097.46906569312 9 12 5
-528.550697090644 -300.79475306711 2059.81370063051 9 12 5
-536.629379821978 -301.556894079806 2050.74555853453 10 13 6
-545.250603051046 -302.261296928237 2044.63261983508 11 14 7
-550.956824426459 -303.333159650512 2020.74485471499 12 15 8
-558.556741797628 -304.18748054238 2007.70547352771 13 16 9
-567.960962748425 -304.81856228999 2005.52585718336 12 15 8
-577.526442533854 -305.429072973788 2004.33374961483 13 16 9
-591.824300673806 -305.388123650069 2033.79005633981 13 16 9
-587.812720046605 -307.89986715233 1943.59872611094 13 16 9
-599.747680394599 -308.199988455367 1957.22661179363 14 17 10
-613.191224366651 -308.258004198523 1981.75087646864 14 17 10
-611.03801362214 -310.672744849873 1898.38166743626 14 17 10
-611.421453762306 -312.787929957396 1829.81185858646 13 16 9
-611.901066215655 -314.970648970916 1759.21461138355 13 16 9
-624.790285389668 -315.177390905534 1777.76184105473 13 16 9
-641.368872269968 -314.727626780524 1825.07201882837 13 16 9
-389.736556843588 -302.462643525471 2046.90850163832 20 23 16
-401.305000268019 -302.868207301565 2055.5434881168 20 23 16
-420.37891844732 -302.513467863358 2100.52689907558 20 23 16
-428.919116572087 -303.194418857542 2095.43193743744 18 21 14
-440.067273009622 -303.606314095522 2103.11170282266 16 19 12
-456.267876983016 -303.469723732133 2136.36105464203 17 20 13
-458.351286514747 -304.843581408282 2098.8176098655 18 21 14
-466.930555692644 -305.526648189092 2093.71777796276 19 22 15
-482.489831884538 -305.415764743351 2125.03185719964 15 18 11
-500.839011929344 -306.622895366385 2121.73747984663 18 21 14
-510.108859434674 -307.215625180837 2120.58221861361 16 19 12
-540.34177077395 -306.902816266037 2184.32834719614 9 12 5
-537.235545768821 -309.083630762163 2113.17065892639 9 12 5
-535.529212906134 -311.152742397588 2047.8848216232 9 12 5
-541.994853288559 -312.168950117104 2028.9408146949 9 12 5
-557.634783947762 -313.871476905729 2005.83065668017 10 13 6
-567.04415177708 -314.505790530639 2003.65040654684 12 14 9
-570.70504681128 -316.012520149233 1964.9025234522 13 15 10
-575.642097860535 -317.366117599341 1933.04951085688 13 15 10
-601.591554997666 -319.792254826681 1906.63907602421 15 17 12
-603.463321004968 -321.787185869267 1849.97618220481 11 13 8
-603.689352343925 -324.145916433114 1779.41080367723 10 12 7
-608.937777157711 -325.686147593866 1742.48050894172 10 12 7
-630.843392735101 -324.169219924274 1827.41808764601 9 11 6
-627.101488073071 -327.446698674371 1722.07885243968 9 11 6
-396.067521762012 -311.292084077887 2079.39776358996 19 22 15
-402.990754185464 -312.171245179068 2066.44289409944 27 30 23
-428.789720306161 -310.921543095968 2143.84101917743 21 24 17
-432.368079299253 -312.16673274728 2115.18033912471 19 22 15
-442.667344429811 -312.6450538187 2118.93522739501 16 19 12
-447.050561520848 -313.832730613471 2093.1972559152 15 18 11
-456.991621742298 -314.360433940238 2094.98136162175 15 18 11
-480.403728086164 -314.95230272978 2117.2553274311 12 15 8
-499.161392785807 -316.116317472085 2115.92523426034 12 15 8
-510.24816009414 -316.462902326491 2124.62017575158 17 20 13
-524.474189486598 -316.357421485763 2151.06173450609 16 19 12
-526.497475601238 -317.973475154518 2109.49544192958 15 18 11
-530.119250549161 -319.401551076344 2075.79114968715 12 15 8
-538.659328237052 -320.1287195435 2069.68839742396 11 14 7
-543.896482746945 -321.369756875935 2043.84424039452 10 13 6
-551.399397375878 -322.284182304506 2030.81712285915 10 13 6
-573.096564118809 -323.053895402865 2045.24335374698 9 11 6
-565.391627650661 -328.868495987477 1870.86990748208 10 12 7
-571.113351507162 -330.248480904138 1841.94234341313 10 12 7
-578.522904494156 -333.874073947752 1753.3519580767 10 12 7
-614.445282706748 -334.788289610203 1787.16645815728 9 11 6
-622.172949053459 -335.933103862678 1768.06553679913 9 11 6
-633.937178684345 -336.248221281138 1778.69122632564 9 11 6
-374.157638222956 -321.603387652607 2025.72457990934 31 34 27
-401.569943336845 -320.043278242675 2107.95922813199 21 24 17
-412.973753796782 -320.38423071732 2116.61458967958 30 33 26
-420.232117192259 -321.239974502994 2105.63345062148 17 20 13
-426.738010627599 -322.203470551806 2090.7155104661 16 19 12
-439.4961780485 -322.357664813645 2106.25565467555 14 17 10
-452.752748528561 -322.426589076858 2124.75667813756 15 18 11
-459.119226941056 -323.419836550364 2108.84828713519 15 18 11
-472.829110483399 -323.400483948428 2130.31580889632 14 17 10
-483.401306933355 -323.80438157643 2136.0518151564 13 16 9
-489.109082064086 -324.911135791812 2116.19517695259 14 17 10
-496.75016754222 -325.75139147733 2106.17392275204 10 13 6
-504.621024927093 -326.567214042969 2097.13161713037 17 20 13
-518.217419056474 -326.500945948627 2119.62110551594 17 20 13
-531.15993086803 -326.50974682471 2139.16885040848 15 18 11
-537.22301886814 -329.744723098467 2064.85428798522 14 17 10
-541.302363458628 -331.253506350333 2032.10079339461 12 15 8
-548.507658222063 -332.260005500868 2017.09568533543 12 15 8
-558.531206687171 -332.783550091634 2018.86948604496 13 16 9
-556.96313044013 -335.412855403969 1948.52895435517 13 15 10
-569.179226566846 -335.569298187066 1963.12882441191 12 14 9
-555.119931294823 -340.714676589208 1808.69409866445 10 12 7
-560.255294209425 -342.329088511974 1774.80141030125 8 10 5
-598.652733277093 -342.635458013721 1825.43731869126 10 12 7
-360.767788322404 -331.053851420521 2012.30393366033 32 35 28
-393.419358738137 -330.47514404375 2072.72446636038 18 21 14
-409.902035151533 -330.112100441478 2104.9303337521 17 20 13
-415.75751682701 -331.198086978982 2087.07058215018 17 20 13
-421.504005469065 -332.318731671687 2068.21683640729 18 21 14
-434.72583074929 -332.372856182934 2085.71422952327 21 24 17
-446.862526973696 -332.566128680136 2098.30897128051 18 21 14
-462.803621399989 -332.167687364063 2130.5823316838 16 19 12
-470.528786778422 -332.996908015216 2121.5582428466 15 18 11
-484.143146009291 -332.908560102134 2143.03750378037 13 15 10
-487.970195455823 -334.364864561669 2113.33889776318 10 12 7
-497.815318696568 -334.870069875651 2115.13491659004 10 13 6
-508.366623920165 -335.253323948714 2120.8734755876 14 17 8
-523.323540261499 -334.874554507225 2151.25409293755 15 18 9
-533.732796792683 -335.24843575264 2157.01059435787 9 12 3
-537.213019396147 -336.848877740824 2123.32442093108 17 20 11
-543.376882474292 -340.332365505672 2047.9900094531 22 25 18
-549.051241808469 -346.663944076767 1903.18897034415 13 15 10
-558.898072281264 -347.293050288788 1901.96180084382 11 13 10
-552.339793434561 -351.339578203478 1794.96044328398 7 9 6
-562.176291235461 -352.051179685927 1791.71916602326 8 10 7
-579.419140490057 -351.149059098323 1837.93756941683 7 9 4
-586.819510837552 -352.37245270199 1818.87769960036 5 7 2
-590.755733643377 -354.417754412624 1775.05795950952 9 11 6
-594.506090399548 -356.576199466658 1728.23865106725 7 9 4
-631.857955925943 -360.209069804672 1693.35415074182 14 16 11
-341.394570631166 -341.403381827411 1972.42311046591 24 27 20
-406.504589017381 -337.969352582812 2136.61570946936 21 24 17
-408.280370573865 -339.686673598472 2100.11924644213 21 24 17
-416.810750038631 -340.412427784024 2095.02538783358 15 18 11
-419.700873270521 -342.022845612869 2062.42080895769 16 19 12
-430.946540577036 -342.343705231945 2070.08792555514 19 22 15
-446.081342032797 -342.023411758394 2097.42343659426 20 23 16
-456.983356107812 -342.366418971971 2104.12605057879 17 20 13
-470.140012322231 -342.31964918484 2122.6392380743 16 19 12
-488.318635211757 -343.573845033366 2118.3583418236 11 13 8
-522.233659062714 -341.963432125558 2199.78135671908 11 14 5
-522.21501412086 -344.231852458604 2148.39401126289 12 15 6
-527.378205815505 -345.585902511781 2124.57475616689 7 10 1
-538.013073801729 -345.910616928282 2131.31041996178 12 15 6
-538.422320353529 -358.749386081253 1841.05813092464 10 12 9
-540.00476855507 -361.252451189357 1786.44829487507 9 11 8
-545.257238221954 -363.011298667469 1753.5490597456 7 9 6
-560.33369958753 -362.551059311242 1783.91478430389 8 10 7
-579.531163031314 -361.06406914711 1842.98861652046 7 9 4
-588.368321230529 -361.983957890909 1833.82599632445 7 9 4
-587.98159630902 -368.451340740282 1686.75840077026 7 9 4
-404.140178618386 -345.532560835574 2172.20214247278 23 26 19
-405.505935767536 -347.370010791546 2134.74947732464 27 30 23
-414.970802801917 -347.930852937833 2134.57748193049 29 32 25
-423.405681058705 -348.661785742946 2129.49579521455 13 16 9
-428.826925957165 -349.908201783487 2109.67504181548 13 16 9
-435.949713791742 -350.885537998086 2097.70345489701 14 17 10
-450.028404158892 -350.654646155221 2120.13208176389 15 18 11
-469.368618097219 -351.706464183298 2121.75229598941 15 18 11
-477.512812734981 -352.512339334016 2114.69170803223 15 17 12
-484.387040717935 -353.567438298789 2100.73573023409 17 19 14
-501.056393988798 -352.745737469152 2138.96369672677 16 19 12
-509.014126946023 -353.586444328953 2130.91854244611 15 18 9
-515.408038295326 -354.75204101021 2113.99949475273 17 20 11
-527.324949994189 -354.80660940811 2127.62874587654 16 19 10
-532.256031929003 -356.303400279631 2101.82345841283 8 11 2
-524.431496168042 -371.956664229712 1758.18716100035 9 11 8
-535.771007829017 -372.350901561612 1763.82738541837 8 10 7
-545.382764459535 -373.154001330634 1758.59902128815 7 9 6
-611.800543227126 -379.234618323102 1711.02380818986 12 15 8
-632.749795237875 -380.475653264009 1710.4283480761 12 15 8
-639.672854055688 -382.191055724524 1682.3591946458 20 22 17
-396.099572016042 -356.04028491991 2137.96178323442 23 26 19
-409.142631261727 -355.978385392748 2154.47349265129 23 26 19
-413.769254028291 -357.376595846509 2131.72900157839 22 25 18
-424.46970547799 -357.714128254288 2137.44906787104 20 23 16
-430.271048348471 -358.93735889746 2119.59619363064 19 22 15
-445.759962847242 -358.381596892037 2148.90250782261 17 20 13
-454.969501305681 -358.97303033251 2147.75476938814 17 20 13
-466.5135936368 -359.114001078842 2158.40747213916 20 23 16
-467.254974423363 -361.362132903975 2113.97951676106 21 24 17
-472.772825111675 -362.716370519618 2093.13930437663 23 25 20
-487.903478528777 -362.136802314815 2122.49002447206 23 26 19
-500.296203454022 -362.081462166595 2138.07546221183 22 25 18
-507.350600481216 -363.133715407869 2125.10467998619 17 20 13
-511.975664663053 -364.730007828921 2098.32991639575 16 19 10
-519.550534020102 -365.715266194892 2087.30962033685 12 15 6
-524.933834460054 -367.209822576331 2063.46326698912 5 8 0
-522.515552224114 -382.59837193424 1750.39206644432 6 8 5
-533.564677502484 -383.054954234301 1754.05331935301 7 9 6
-551.355791473371 -381.743781348588 1801.20991242483 8 10 7
-558.834632870772 -386.51828198928 1713.62183327861 7 9 6
-577.348668534595 -384.902956302494 1767.74169924626 7 9 4
-604.932827338744 -387.762260230996 1742.13609113709 8 10 5
-611.015881770518 -389.698548793073 1710.14159859104 13 16 9
-654.143777978037 -391.747898627634 1718.87346945334 27 30 23
-654.264369140155 -395.949948510728 1634.21752310264 2 5 0
-401.076155042603 -364.35700085077 2163.56442357227 22 25 18
-393.385652519132 -368.085051268714 2083.91299593562 21 24 17
-424.849319640318 -364.514165081044 2186.79963349657 18 21 14
-423.482145095767 -367.117941752237 2135.58145971135 21 24 17
-424.216857263666 -369.381748549282 2093.1697520133 21 24 17
-438.183439824918 -369.065677951119 2114.60445785818 21 24 17
-453.999963833421 -368.340650692562 2145.88481676251 21 24 17
-467.303123708966 -368.087153899793 2165.38710442595 21 24 17
-471.08876546394 -369.807522205546 2136.70180807607 21 24 17
-471.999399324916 -372.187254417837 2092.25307747983 24 26 21
-479.30415394612 -373.236340643144 2080.25873086453 24 27 20
-498.616875894846 -371.626950236613 2132.26356693958 25 28 21
-499.527953990543 -374.111640474482 2085.79944284357 24 27 20
-507.467806661611 -375.042650567729 2076.74883036033 23 26 17
-531.5118427109 -393.770362961546 1745.26781495631 7 9 6
-550.105488755918 -392.112729613573 1797.36226040694 9 11 8
-556.454714913228 -393.836205214829 1771.38035362567 7 9 6
-561.305485016627 -396.043455397663 1734.50144041796 6 8 5
-574.22883702561 -395.920207216666 1751.02816729951 7 9 4
-581.614767273601 -397.445756435603 1729.95504050427 5 7 2
-586.581354365966 -399.765132880164 1691.04659510517 5 7 2
-621.168203715689 -396.597185636276 1789.51355045192 10 13 6
-626.800157780357 -398.747614704833 1754.5526149329 13 16 9
-634.431041412432 -400.287676426318 1733.44919789038 16 19 10
-639.886298652061 -402.637141329441 1694.47960831403 12 15 4
-653.371235922379 -402.179171675894 1717.98966142277 18 21 12
-653.358538210961 -406.655699169688 1632.34338446432 21 24 17
