ply
format ascii 1.0
comment KinectMotionCapture
element vertex 788
property float x
property float y
property float z
property uchar red
property uchar green
property uchar blue
end_header
107.831314262077 -84.2205215027205 2752.3420977567 10 13 6
97.1622630672488 -84.0772375390163 2752.0194093475 7 10 3
50.0086834754301 -78.4642633061641 2785.79693025353 8 11 4
31.3260319549964 -77.0777609688328 2793.25788992503 21 24 15
37.9014831282802 -79.4913232705867 2777.01496008023 17 20 11
21.5072458108572 -78.434702721773 2782.42776476376 13 16 7
-5.13433657948181 -75.8003050447977 2797.71143830682 14 17 8
-23.5786360613321 -74.3929804252532 2805.34499544972 14 17 10
-9.01363221762397 -78.0506728672784 2781.30156920153 14 17 10
-2.59948055894288 -80.4769931511254 2764.94193975162 14 17 10
-50.8233381638983 -74.4290320532008 2801.6512009439 15 18 9
-46.5716009695858 -76.5140085443919 2787.43112443878 15 18 9
-69.1368809414661 -74.4066160572976 2799.49164958938 16 19 10
-82.2301990707512 -73.7676646624121 2802.35450999005 16 19 8
-57.1900678448642 -79.1572215881994 2767.36893307336 17 20 9
-73.8963958385463 -77.9503771277404 2773.79129410826 17 20 9
-54.1093147880616 -82.5615064059195 2743.64745726171 17 21 7
-62.2527508545703 -82.725184193901 2741.44868197192 16 20 6
-65.41469288632 -83.6895380390009 2734.21090260074 15 18 7
-56.5651536104461 -86.6058154775831 2714.67381488487 18 19 13
-83.7873480307152 -83.6681768156011 2732.00849408735 17 20 13
-84.1546660140595 -85.0937038907957 2721.85411487896 14 17 8
-62.1245154491432 -90.2117547009526 2688.39302386456 14 17 8
-27.6929565634039 -97.4231979084667 2641.67953772222 14 17 8
-43.6756642834211 -96.3273345934275 2647.39057328872 29 32 25
-17.9319790818939 -102.177673901252 2609.20727934533 18 21 14
242.331742684923 -91.3159645004773 2774.46555943955 3 7 6
231.356839000831 -91.183806537596 2773.92109567828 9 14 10
221.959374340692 -91.2727912204324 2772.04866326318 10 15 9
192.459455374865 -88.4515656992282 2787.73158167802 17 22 16
200.127722976497 -90.9981565429435 2771.04544181602 12 15 8
236.954016394117 -97.8170522889937 2728.54001143068 16 19 10
240.542876005284 -99.8220730626269 2715.0748424397 14 17 8
211.177529017389 -96.9891690408233 2730.85537410717 10 13 6
205.590713836414 -97.6421832843121 2725.56702827886 9 12 5
209.886744942488 -99.7645258599855 2711.37887210906 10 11 6
167.855725099674 -94.9879067079184 2738.98472760698 10 11 6
157.03596831883 -94.8418358797846 2738.55280361828 8 10 5
145.487605380736 -94.5800004648609 2738.82832047661 10 12 7
145.998552562464 -96.1353760995061 2728.07462561472 10 13 6
139.722137633513 -96.6687488762596 2723.52201684913 10 13 6
31.0293725818509 -82.9899502609868 2804.12880742693 14 17 10
22.061243710108 -83.0409771762916 2802.56809642791 18 21 12
39.7804969002924 -87.2189416484986 2775.86788209475 15 18 9
20.4256157501672 -85.6655476513505 2784.07711565294 14 17 8
2.62181680155482 -84.3353912661926 2790.93955779982 15 18 9
-16.5811462593828 -82.7686343344385 2799.25928218588 17 20 13
-11.5481695934121 -85.0041644685748 2784.36944915613 18 21 14
-21.179154058357 -84.9329352637344 2783.56387587211 18 21 14
-46.0694246144582 -82.4279575079156 2797.64608946582 18 21 12
-31.8647687169986 -87.6114898063518 2763.45282863386 17 20 11
-63.8184172959477 -83.9298692274074 2784.77185840978 17 20 9
-79.0814525289698 -82.9151557593933 2789.7691522515 17 20 9
-62.0400482189289 -87.148232295454 2762.57756612267 17 20 9
-56.5712073859288 -89.5224955846499 2746.76796098943 16 20 6
-56.159398288969 -91.0827360875756 2735.94237417266 16 20 6
-61.4684220042108 -91.7078691809539 2730.85554652974 15 18 7
-58.288948598765 -93.7429182525578 2717.09345264225 17 18 12
-95.0119628889852 -90.6382615360009 2733.71710836585 12 15 6
-72.2394825021815 -95.9807041931939 2699.55826934032 12 15 6
-51.0467108184076 -101.101720481842 2666.72546058992 13 16 7
-38.3882922531604 -104.816147304692 2642.53465924321 20 23 16
253.67226656684 -100.735705828349 2765.34714365656 7 11 10
230.212262608884 -98.7626102190179 2775.52334742594 6 11 7
209.176345886818 -97.1245063276667 2783.74972260148 15 20 14
194.4145913775 -96.3961604772662 2786.63858729381 17 22 16
199.766002986715 -98.648162578961 2771.9795111164 12 15 8
210.437416778366 -101.710647354681 2752.52736191956 15 18 9
240.195616411249 -107.660295539484 2716.01844103618 13 16 7
202.411254349337 -103.477066372899 2739.28926949816 9 12 5
160.991256562372 -98.7009027293249 2766.10302898778 8 11 4
186.720893918386 -104.090901234972 2732.85232417211 10 11 6
172.818695885577 -103.46935449002 2735.12872211039 10 11 6
150.639365127031 -101.567071263353 2744.99762342804 10 12 7
170.78559660072 -106.168621941256 2716.34952201164 11 13 8
181.001274911038 -109.269171864336 2696.56651315401 11 13 8
164.876547182415 -108.294930885075 2700.9389427151 9 12 5
98.7195164927854 -99.487421679873 2751.83490886217 11 14 7
27.6953318535158 -89.8306621651043 2807.85301269663 20 23 16
36.5745301881795 -92.6834096863873 2789.57278388619 17 20 11
29.8040296979609 -93.0781656165481 2785.89774070379 13 16 7
25.2533762386222 -93.8252057967365 2780.12472325415 15 18 9
6.69746150249928 -92.3350866552283 2787.67808196484 18 21 12
-0.76844108107732 -92.6080424454708 2784.73458053526 19 22 15
2.02388665042097 -94.5342162617736 2771.92771906748 19 22 15
-5.45722730350473 -94.8080160078576 2768.9731863161 20 23 14
-13.6583164531463 -94.9624440295984 2766.73266392786 20 23 14
-22.5727204478912 -94.9969113788797 2765.21068863917 19 22 13
-47.3849011770213 -92.4140240272155 2779.35020031945 18 21 12
-55.4964011250043 -92.5601488077288 2777.17466511297 18 21 12
-52.0919795227741 -94.6133585501519 2763.57554898658 17 20 9
-48.0290475390783 -96.7906998906176 2749.21813570881 16 19 8
-41.8850489695011 -99.3319864515857 2732.66208419239 16 19 8
-57.1877885007377 -98.2846133134985 2737.63076096866 15 18 7
-70.3037296038536 -97.5922614746461 2740.47749197658 15 18 7
-34.1130837460537 -108.392837438487 2671.55326856214 12 15 6
-27.5689915994259 -112.696898502438 2642.9270748947 13 16 9
10.8069336991532 -120.973144635424 2591.656741976 12 14 9
250.964278230972 -108.129222294118 2768.28705649588 14 18 17
225.111187468213 -107.216853663058 2770.54731567815 14 19 13
197.144243265712 -104.468195032889 2784.87107939023 19 24 18
186.281253642365 -104.294290916076 2784.40795597246 12 15 8
225.474585992687 -111.768307016919 2739.90971994618 11 14 5
213.752338140019 -111.484263851566 2740.05929640569 11 14 5
199.76385192841 -110.843360388909 2742.27324024726 11 14 7
174.371470595983 -108.424851761468 2754.75628288828 10 13 6
139.957047143745 -104.575764599021 2775.52762380049 11 12 7
147.434186756569 -107.237442239654 2758.70205376619 11 12 7
160.883400678044 -110.856371292828 2736.32003719384 10 12 7
187.040902839241 -116.508046580756 2702.14313863286 10 12 7
158.854849398088 -113.5940141691 2717.54393966182 9 12 5
143.544253996939 -112.69846844826 2721.27111588534 7 10 3
34.051754125568 -98.2000602961515 2802.53734973823 24 27 20
18.3862854233405 -97.1511249699156 2807.24308431023 17 20 11
4.25924387318988 -96.3374751897106 2810.59279253034 16 19 10
12.3478924045255 -99.1290636169613 2792.97482370837 19 22 13
-3.22362002277421 -98.0716504993057 2797.74871213087 19 22 13
-15.8007519500742 -97.4920079524286 2799.75042988511 18 21 12
-0.510431268978984 -101.502118216024 2774.99568511941 19 22 13
2.96905724017948 -103.58598914816 2761.45083129089 20 23 14
-10.3520082804518 -102.885849326232 2764.14890267865 21 24 15
-26.5328905757671 -101.696111741943 2769.71675275794 21 24 15
-45.5472528401928 -100.014572718132 2778.17377928024 19 22 13
-59.4339156928172 -99.1787117255257 2781.69756117528 19 22 13
-53.1377152293684 -101.754537258705 2765.25166911318 17 20 11
-42.6159103454953 -105.069511031167 2744.45445521351 16 19 10
-47.2051951090111 -105.823265406734 2738.65339909832 15 18 9
-56.0793728926285 -105.842286245999 2737.16066288816 15 18 9
-71.3296371604089 -104.75487548105 2742.16758290126 15 18 9
-57.4914846968912 -108.702390708577 2717.59577856626 17 18 12
-52.2483552995752 -111.182852165325 2701.62201248171 15 18 9
-45.4840023593426 -115.543480570397 2673.15520403942 12 15 6
46.9651648749982 -133.498799956423 2565.92980386902 13 16 9
227.953415437978 -112.393672910477 2788.63813986718 0 1 0
238.042771598238 -115.440809535112 2769.99915904223 14 19 15
244.933307247403 -118.016461573634 2753.98411411878 8 13 7
222.327393495407 -116.036955648599 2763.54416746894 11 16 10
209.849161176768 -115.612560385303 2764.38175667282 16 19 12
209.72293372631 -117.111916508231 2754.40148070115 10 13 4
222.610623795534 -120.664505067393 2732.84807063869 11 14 5
217.016816624576 -121.327565493132 2727.55431080471 11 14 7
190.046035794123 -118.603514274402 2741.36505333378 11 14 7
166.998549392382 -116.475222733596 2751.84079150418 11 12 7
156.94726625769 -116.401658424857 2750.73054657261 11 12 7
169.617315608196 -119.972426362147 2729.01897754932 9 11 6
176.140645047917 -122.578692484154 2712.7375819417 9 11 6
160.772185796194 -121.655722079861 2716.42295033649 9 12 5
95.9506973093851 -112.669580149852 2765.81761660282 8 11 4
7.53882044367371 -99.740860935419 2837.65548820227 19 22 15
4.61727392917188 -100.733226037356 2830.59212926632 20 23 16
1.67732471779658 -101.726972833719 2823.51512834709 17 20 11
-4.24633591221779 -102.230752933372 2819.21838859369 18 21 12
-1.30210559427035 -104.210906709063 2806.52137113345 20 23 14
-8.72772447876091 -104.47032313421 2803.60714079659 19 22 13
-22.7578109328452 -103.618140460848 2807.02732901167 16 19 10
-17.6957895079866 -105.975286062124 2792.15793514117 17 20 11
-18.5430405799403 -107.347708186545 2782.89094781081 20 23 14
-21.6063819911345 -108.350574483505 2775.72474553757 21 24 15
-29.7692906781863 -108.48580850378 2773.51199820288 21 24 15
-23.4464157791949 -111.106651210671 2757.08492051047 19 22 13
-41.7295080898432 -109.499557231571 2764.83664652032 19 22 13
-54.184239313837 -108.883781686182 2766.92698370029 17 20 11
-69.4686110403877 -107.764781312035 2771.90933849624 16 19 10
-66.1103368067875 -109.893183108938 2758.27638829492 15 18 9
-73.5001590992488 -110.147000780855 2755.38843050737 15 18 9
-63.1207733278374 -113.536601558572 2734.48759595321 15 18 9
-74.0910159606021 -113.16499184223 2735.18276058706 18 19 13
-86.4433995859499 -112.538913223752 2737.34763838961 15 18 9
-76.9380839243972 -115.815960379621 2717.04877849472 12 15 6
233.048265276667 -120.893253051 2784.87793894345 8 12 11
247.800231841659 -124.733343431018 2762.20386423256 10 15 11
245.348031529043 -125.8869411598 2754.24489107046 9 14 8
249.84236734896 -128.147328013386 2740.19979099828 10 15 9
229.564600473068 -126.478593232395 2747.74058922231 13 16 9
233.007467031514 -130.150439707679 2724.28026196334 14 17 8
222.026109933577 -129.954381196981 2723.73114917651 14 17 10
189.694597798088 -126.292387119453 2742.30637940281 13 16 9
184.91511307269 -127.077650771298 2736.36728367548 13 14 9
162.668523048111 -125.009938625447 2746.18855972291 12 13 8
183.651726372502 -130.017264238599 2716.90981062669 10 12 7
163.726553134091 -128.317784791482 2724.70636723105 10 12 7
154.41344355057 -128.356442274897 2722.89534052839 8 11 4
109.106156255409 -122.401938864938 2754.30789814711 7 10 3
28.8695879699614 -110.55236523109 2818.48017849173 25 28 21
-4.69148559550336 -106.427971304755 2839.87152543129 22 25 18
-3.88424074420124 -108.057462381837 2829.33254214107 18 21 12
16.9011002872455 -113.080667687802 2799.91027801233 18 21 12
5.7404369608367 -112.709578089386 2800.46739998708 21 24 15
-18.6568085002765 -110.068710156752 2813.67296415218 18 21 12
-21.6349190214493 -111.076332203438 2806.5682290042 17 20 11
-23.8991399222213 -112.211564953157 2798.74561915166 17 20 11
-18.15155475661 -114.740237895275 2783.13729961849 16 19 10
-28.4962773744279 -114.487396821439 2783.05027884464 16 19 10
-20.6650220607538 -117.404269158808 2765.24508559844 16 19 10
-25.9471036216343 -118.040811355172 2760.17773110884 17 20 11
-36.2857737924087 -117.786792911752 2760.09510384663 19 22 13
-46.5988050571544 -117.530379198404 2760.03078043005 20 23 16
-78.4026239260234 -113.442689538143 2781.46077625731 20 23 16
-84.3086492481657 -113.942681100484 2777.17683990463 18 21 14
-73.1084385876564 -117.514568434376 2755.6350788833 17 20 13
-48.5136346284323 -123.530888936006 2720.32350004618 16 19 12
-43.2357777087662 -126.096808563099 2704.37447582122 11 12 4
-74.7510031993166 -121.983290124287 2726.01380997517 18 21 12
-62.4616220569272 -125.838518207088 2702.78980896803 13 16 7
256.110178406278 -132.297939601652 2765.71953241097 9 13 12
255.083126736082 -135.260118837223 2746.43297489197 12 17 11
236.317357238797 -133.796608792279 2752.59873952123 12 17 11
248.514331482313 -137.354092666495 2731.77962664958 12 15 8
244.432195067893 -138.277488085918 2725.1103173012 11 14 5
243.407657745692 -139.706272275843 2715.71452589959 11 14 5
199.469826983391 -134.068452297303 2744.412823356 11 14 7
174.835002900147 -131.572909970875 2756.21009449867 11 14 7
165.5317764169 -131.600550620551 2754.40628806876 10 11 6
193.443745025395 -137.839744820956 2719.02789604304 10 11 6
174.982488290047 -136.349683916094 2725.4145429574 9 11 6
98.3823831612987 -126.601414551892 2774.92063881301 7 10 3
38.237238170042 -119.471643637668 2810.40448715235 27 30 23
24.7856865083684 -118.70300370898 2813.0083133183 24 27 20
9.88972404388289 -117.674255642695 2817.03644602543 17 20 11
5.42731923387674 -118.437107836675 2811.32761629107 17 20 11
0.955444372649161 -119.200647953072 2805.61162355299 22 25 16
-1.31486743672649 -120.350742521869 2797.78452299278 22 25 16
-14.6325093238211 -119.569820556472 2800.48548542304 17 20 11
-26.4414347274486 -119.043150427791 2801.80849305867 16 19 10
-22.8743162313623 -121.227192373887 2788.32665669185 16 19 10
-14.2668568407565 -124.321870763883 2769.84821309412 16 19 10
-28.2592476973997 -123.406124200321 2773.29575513887 16 19 10
-33.5167801474128 -124.043634963777 2768.24619191765 17 20 13
-45.9971942768216 -123.381537171468 2770.31844011972 12 15 8
-45.486800405595 -125.058954501058 2759.56372598599 12 15 8
-50.0384360230473 -125.827074198047 2753.78988977707 12 15 8
-78.9149125160002 -122.157315826148 2772.39942066702 14 17 10
-54.8933810925663 -128.149272095664 2737.90742437329 14 16 11
-44.5619825948844 -131.669357522117 2716.97114188984 15 18 11
8.28503390622704 -144.773738173792 2641.58308044828 20 23 14
-37.4177284283959 -137.941147637971 2677.65383844926 20 23 14
-70.9417909615695 -133.325589645196 2701.54487105423 19 22 13
297.148895142977 -146.795335251032 2731.16932546523 10 14 13
263.429151049854 -142.872634294554 2749.97455388004 13 18 14
222.012159204293 -139.218868273442 2765.66859418164 15 20 14
212.625041540274 -139.243327827204 2763.80398935734 12 15 8
226.363034732686 -143.123840537346 2741.62999006856 11 14 5
216.175216899228 -143.022234734841 2740.42091025574 12 15 6
213.667506174447 -144.208329761873 2732.42123732897 11 14 7
170.661088847984 -138.551671452335 2760.55979505302 11 14 7
205.537266905983 -146.068822923863 2719.10722088147 10 11 6
170.319688925379 -141.690449123505 2740.5343499833 10 11 6
196.59336311732 -147.804062011319 2706.43932720162 9 11 6
219.215346881646 -155.00635045388 2664.75116074789 9 11 6
41.6218713072296 -127.411745337807 2807.87712629384 28 31 24
31.8905902818405 -127.270048284016 2806.99920282626 22 25 18
25.9000832943359 -127.780617791867 2802.65397033205 16 19 10
4.33279231840089 -125.539711939243 2812.96826754005 15 18 9
10.2188361932991 -128.145469540628 2797.45992923111 20 23 14
5.60444248881531 -130.479844317024 2781.75178296718 19 22 13
-7.73080770345835 -129.673135512898 2784.44011137665 19 22 13
-25.4072608401681 -128.070835426693 2791.39624768178 17 20 11
-16.7878301907063 -131.219568065007 2772.92620850964 17 20 11
-22.7836019505407 -131.728950995121 2768.57716547987 17 20 11
-47.606948237821 -128.792836713632 2782.7103721728 17 20 13
-42.718808327733 -131.287638380136 2767.71452510334 15 18 11
-37.1778274259578 -133.920842108167 2751.95590426113 13 16 9
-39.6006944284908 -135.095911652337 2744.01779220551 12 15 8
-29.8865691439225 -138.538201792554 2723.86946587427 11 14 7
-45.941631014726 -137.184241436746 2729.52965216216 12 14 9
-40.6093342807363 -139.833962574881 2713.61966804923 13 16 9
-28.9702476496554 -143.693918073869 2691.15926735679 15 16 8
7.28422264823969 -152.253370586791 2643.29005293167 19 22 13
-10.2513255673307 -150.635861898292 2650.34841125576 23 26 17
-30.525304688795 -148.474681543174 2660.36481737314 19 22 13
285.848761492257 -152.840464288131 2741.47372500076 13 17 16
266.182476783548 -151.169926861945 2748.22306667603 13 18 14
231.826961706189 -147.009113021535 2767.80365385425 14 19 13
215.449321840283 -145.846167777052 2771.99369783392 18 23 17
213.035048843777 -147.038404511633 2764.06172880147 18 21 14
200.582471632512 -146.525641315857 2764.91806906417 16 19 10
211.979081293331 -150.086059774824 2744.75377659085 16 19 10
207.187042686416 -150.889894754366 2738.80578069649 15 18 11
187.872598239833 -149.189072387035 2745.81003780859 13 16 9
190.719380549009 -151.311375249323 2733.04136371698 12 13 8
201.106900258038 -154.760578958707 2713.38145483341 11 12 7
175.049089851425 -151.861500056807 2726.61958454997 8 10 5
163.450467355236 -151.47224008936 2726.85931261253 9 11 6
74.9451449735599 -140.699698505523 2777.62113253994 26 29 22
25.5651746427947 -133.484551597517 2813.49850944788 21 24 17
17.3624086563811 -133.593082852131 2811.25700396105 17 20 11
26.2347793716655 -136.776448552138 2792.96985654033 17 20 11
-12.3199482662666 -131.395711815924 2819.39370053238 17 20 11
-6.43456108647689 -134.045404449196 2803.88466363154 17 20 11
-1.35569412942727 -136.566645870674 2789.02665026914 19 22 13
-16.8693605634058 -135.327645145656 2793.84339226372 18 21 12
-33.7884924401892 -133.814318310362 2800.11303961595 15 18 9
-25.8682285500038 -136.88059837191 2782.37161380682 14 17 8
-40.5526065985187 -135.767248482545 2786.55385157446 13 16 7
-34.9060153121683 -138.43595765533 2770.87161011178 12 15 8
-31.496911965593 -140.704224321835 2757.27479857606 12 15 8
-25.2667059906557 -143.519591900131 2740.77985237316 12 14 9
-17.6769528859031 -146.612796380799 2722.79869586473 12 14 9
-33.0658410947988 -145.36123773156 2727.70595586593 12 14 9
-22.0087814889067 -149.143131107598 2706.05935786812 14 16 11
-50.875844850345 -145.297571146929 2724.67630853067 14 16 11
-59.0469754886032 -145.399686109455 2722.45776868263 13 14 6
-58.7264381911765 -147.1412842775 2711.56539285524 22 25 16
-42.9491526776247 -151.898262228666 2684.68950852143 18 21 12
-69.4420237160578 -148.440148034202 2701.32048948992 34 37 28
222.955124687676 -151.619743215046 2786.05141556037 12 17 13
255.552418279754 -158.828247199144 2747.88883375986 11 16 10
239.107082163306 -157.635865845944 2752.02995238249 15 20 14
211.899077332482 -154.564862573524 2765.67048355163 17 20 13
194.826397341357 -153.226079456732 2770.59260539432 19 22 13
189.339717005185 -153.895237650024 2765.3767676797 17 20 13
201.469961076696 -157.656009286665 2744.50795651266 16 19 12
204.325994381404 -159.8107101742 2731.74611903977 14 17 10
194.9399960249 -159.813511534286 2729.88243532839 11 12 7
212.915695552147 -164.673437619426 2703.3646701478 10 11 6
185.30646025566 -161.436370639753 2717.95021856431 9 11 6
169.902560721875 -160.354196681306 2721.61040746267 10 12 7
144.761390916361 -157.505584162093 2734.27773726167 9 12 5
72.4291835567508 -146.097673171965 2790.59153406823 8 11 4
43.9016090193931 -142.538881858028 2806.98306162628 24 27 20
17.7442033324557 -139.377043290456 2821.38536015737 22 25 18
35.6123193455784 -144.245206889525 2794.78956366681 20 23 14
11.0447696660012 -141.346898576897 2807.87297465575 20 23 14
16.9181335399915 -144.041805527177 2792.35499278451 19 22 13
7.23048793483816 -143.868971875091 2791.5088592773 18 21 12
1.2410318962961 -144.379306884818 2787.1643898262 18 21 12
-26.0119459318751 -140.910370671638 2803.24411349996 17 20 11
-29.7464064369604 -141.827257598021 2796.82687480483 15 18 9
-40.0541639043532 -141.506749254807 2796.76699360546 15 18 9
-21.2727142589504 -146.694891920911 2768.36159814099 14 17 8
-17.129737434064 -149.136358347471 2754.0608732312 14 17 10
-19.5488408665447 -150.339590928434 2746.1253468165 13 16 9
-9.03129104019973 -154.034491737838 2725.32312392948 14 16 11
-9.05470872819825 -157.427030020973 2704.29186899097 15 17 12
-5.91374687961643 -159.752835556422 2690.50038451522 15 17 14
-61.8583271785464 -150.539232131877 2736.45038111921 15 17 12
-84.882781093238 -147.705731233895 2749.41705026788 16 17 9
-83.0653442280418 -149.74407085055 2737.1376436162 19 22 13
-77.0700426155626 -152.624172320556 2720.47208233792 25 28 19
-36.0329841375291 -162.501923581342 2667.41734534858 32 35 26
248.382697523253 -162.103106846368 2774.78807053967 16 18 13
267.793571433451 -167.131068025392 2748.07480613733 15 17 12
264.517314118054 -168.222337768993 2740.7538088004 10 13 6
258.897282756803 -168.906002999032 2735.44122860085 11 14 7
219.264422171694 -163.581739140971 2759.84789385851 12 15 8
195.233618530106 -160.976185651334 2770.8485529088 15 18 11
188.978681986563 -161.511403068247 2766.3115049397 17 20 13
196.516620150804 -164.514788963919 2749.52827825314 16 19 12
188.692154779254 -164.778814785861 2746.32518671553 14 17 10
175.542118228154 -164.079645456028 2747.91219910831 11 14 7
182.943439195034 -167.094457331176 2731.02987782499 10 13 6
178.144075522478 -167.910087688075 2725.07651208831 10 12 7
182.399212092766 -170.38316382094 2710.85663958515 11 13 8
164.750823143435 -168.852293498443 2716.59772178359 9 12 5
85.5906790362995 -155.964156034521 2779.08521778223 9 12 5
47.2876926725942 -150.525067532869 2804.45681333039 21 24 17
30.8228535048398 -149.09528160373 2809.82003290509 18 21 14
26.328081177355 -149.884126117716 2804.08731313331 19 22 13
21.0813895042024 -150.534410119118 2799.04554392362 21 24 15
6.95020818512671 -149.512510533995 2802.3930114862 25 28 19
4.67025166346824 -150.719306643069 2794.55863206374 26 29 20
-7.93003004492632 -149.97142933125 2796.54412571286 19 22 15
-19.0251461370332 -149.499907163688 2797.14956746438 19 22 15
-41.0571956476509 -146.923811376969 2808.36368572445 19 22 15
-36.0228006948975 -149.530733170458 2793.47329414611 19 22 15
-12.8868013741243 -155.655606036658 2760.80905121963 19 22 15
1.37784707783606 -160.107141313135 2736.54357549058 19 22 15
-19.8761102440435 -157.66619089642 2747.08602821643 23 26 19
-33.8373407631018 -156.627764827274 2750.55707492779 21 24 17
-31.238508573906 -158.833751705772 2737.60823262665 19 22 15
-37.9978379298367 -159.205407822127 2733.941404643 16 19 12
-56.1701965956147 -157.310488925443 2741.77486172514 15 18 11
-67.1551775419759 -156.827127494246 2742.4599082854 13 16 7
-129.875338654807 -145.97540532242 2795.8576888768 16 19 8
-121.552918331912 -149.311568572184 2777.17139120743 18 21 12
251.968580637171 -168.83328718575 2782.29419951608 0 6 4
244.88420155602 -169.234412505204 2778.39158678239 18 21 14
230.7867503901 -168.386900221473 2780.52758611756 18 21 14
247.829709314265 -173.091629165375 2755.80481120766 14 17 10
219.000971916799 -169.60160446438 2770.74263443563 16 19 12
175.598273122494 -165.099233151992 2788.70689611072 16 19 12
216.288575547125 -174.148581892104 2742.81549853243 16 19 12
198.459009442484 -172.593077509336 2748.42536632084 14 17 10
192.158500542337 -173.13237513017 2743.85526131084 12 15 8
173.663982336484 -171.428168598118 2750.21888096521 11 14 7
165.877145789134 -171.683630121123 2747.04281626813 11 14 7
178.555262077407 -175.734253693709 2725.33495905381 9 11 6
187.345263836612 -179.090339773714 2706.98752023324 10 12 7
168.928551179973 -177.379093685151 2713.40728397041 9 12 5
77.6346552217069 -163.620387748143 2776.98435037067 20 23 16
35.6925730601549 -157.348265833556 2805.8975848143 15 18 11
34.9074559890234 -158.852497619672 2796.67497210522 15 18 9
23.6986047619023 -158.372575199352 2797.19771290206 17 20 11
10.2994520745505 -157.463623830272 2799.84023490786 21 24 15
-15.6006829657382 -154.132032011789 2814.42989425481 21 24 15
-7.54130517578688 -157.343839938988 2796.78857795313 19 22 15
-14.2363073244933 -157.709408190463 2793.16870744807 20 23 16
-21.6589317471092 -157.931720096829 2790.25683580223 20 23 16
-21.7829411963333 -159.583352394917 2780.27769087515 21 24 17
-16.8547267403021 -162.240438174643 2765.30977822123 22 25 18
-9.81960097394996 -165.333178589258 2748.16189397567 22 25 18
-14.4241597073522 -166.135009477837 2742.34952191673 18 21 14
-31.2832074201799 -164.493055842013 2748.66337708176 17 20 13
-37.3059258200335 -165.004890597654 2744.29478743859 16 19 12
-46.1930388292335 -164.939854269707 2742.79309997348 14 17 10
-50.0676368865494 -165.883597420722 2736.27413654398 13 16 9
-50.0575601510174 -169.36551737313 2715.26670969211 16 19 8
-81.5738151445 -164.662709598658 2736.90828240407 16 19 8
-64.297730944445 -169.95741034191 2708.64611229371 15 18 11
-19.7649050383748 -180.929993796525 2651.94421407538 16 19 12
309.622313469372 -186.942221558017 2733.83244861201 4 10 8
265.625136943427 -180.716291034121 2761.2556673245 18 21 14
253.028833198254 -180.129558403303 2762.00819182528 19 22 15
241.244093576473 -179.681462540896 2762.11359210399 17 20 13
222.511147871344 -177.954641495416 2768.30419064578 18 21 14
208.486659353271 -177.073736268518 2770.49325130332 17 20 13
229.970714598755 -182.729532224552 2741.5745903003 15 18 11
197.48017032193 -178.432958285273 2760.03745452851 14 17 10
197.335527098752 -180.111125934663 2750.04292285455 11 14 7
178.444710161948 -181.728539521672 2736.34037398837 12 15 8
166.083321756649 -181.121182558994 2737.26359257569 9 11 6
181.714285863079 -185.820204481783 2712.75229802534 9 11 6
177.627853187879 -186.794282110543 2706.07961751045 10 12 7
111.926980908819 -175.971620929929 2756.08143313707 8 11 4
32.3409748582413 -162.382039079021 2819.49909678489 20 23 16
38.3233431195893 -165.200179161757 2804.0595103202 13 16 9
19.6616719911891 -163.257684419709 2811.53820085976 12 15 6
7.01329962101793 -162.465807961561 2813.48934990322 13 16 7
-10.7779820407179 -160.656687015026 2820.36329214842 16 19 10
-13.0010506274323 -161.886486567934 2812.56974101005 16 19 10
-22.6054170187533 -161.66616108881 2811.78421893768 16 19 12
-18.2497009433766 -164.205997545943 2797.63721498706 16 19 12
-26.3907004208188 -164.27633733515 2795.44067880805 17 20 13
-26.4977718217509 -165.948742904334 2785.47341293592 18 21 14
-29.5492320086164 -167.040202668595 2778.31537487237 19 22 15
-24.6459710772666 -169.740443578871 2763.32915428663 15 18 11
-28.4812023821446 -170.69028774717 2756.83869775325 13 16 9
-25.8469337329774 -172.95955979416 2743.91551802336 14 17 10
-34.039490871725 -173.032881452617 2741.68159149161 14 17 10
-35.7755261289763 -174.426722588663 2733.00523367542 15 18 11
-28.9731744764032 -177.587380333115 2715.68796801545 15 18 11
-35.7717527556447 -177.9567092606 2711.99299391437 15 18 9
-34.7632408858924 -179.947346655279 2700.36275299756 15 18 7
-18.2413104653563 -185.189231401741 2672.78918487061 14 17 8
-44.6574930759829 -183.276177728712 2678.35171978703 19 22 15
-25.5739886150144 -189.130189416824 2647.69154981124 19 24 18
325.728495803113 -197.827309144072 2720.75052934801 63 69 67
307.490171633471 -196.225578936593 2726.06431383469 13 16 9
274.498551273598 -191.87938458726 2744.16418865397 16 19 12
275.875029308131 -193.871398890447 2732.80068728848 13 16 9
214.389166333596 -184.160638208986 2775.97153912984 13 16 9
191.880732773961 -181.658870924337 2785.60490330852 10 13 6
216.503006324916 -187.988315485231 2754.0170560942 11 14 7
227.107933901314 -191.721175279244 2734.51301956239 12 15 8
206.178684140685 -189.505878157149 2742.81964349217 12 15 8
196.035712564052 -189.320015029099 2741.64350046796 11 14 7
177.528213646156 -187.530152290112 2747.9978495157 8 11 4
170.492109256938 -187.921770416047 2744.13057476925 8 11 4
187.714507276361 -192.986038457199 2718.30072684629 10 12 7
179.859459687267 -193.236679796891 2715.07553340156 10 12 7
151.666076392256 -189.533577307829 2730.47501765854 9 12 5
53.7222125266563 -172.186101399942 2810.24665331434 16 19 12
48.461457625411 -172.847023946273 2805.19463548416 24 27 20
40.9546726747894 -173.067401325066 2802.22176387426 20 23 16
17.8154488646451 -170.196557787105 2813.87009191802 17 20 11
-21.5600857069918 -164.075316702875 2840.93770287665 18 21 12
-17.7968918052915 -166.49403991534 2827.59681704894 18 21 12
-6.71000972334568 -170.394847747057 2807.20627230449 18 21 12
-6.02880566123387 -172.233387309049 2796.57456600753 18 21 14
-32.5377276814698 -168.595588814817 2811.95978478397 18 21 14
-30.3928770819737 -170.730267423516 2799.91723935965 17 20 13
-23.1919044671605 -173.908209432712 2782.88914947101 16 19 12
-20.4339162874891 -176.200836097135 2770.05524389632 16 19 12
-35.1289846839824 -174.925371117332 2774.23055314746 15 18 11
-47.6037695712561 -174.092398060792 2776.30774762419 13 16 9
-30.4966319055349 -179.373980976529 2749.15820763917 14 17 10
-41.5473683002832 -178.840384721847 2749.79584112089 14 17 10
-14.6119192783933 -186.23265200096 2712.46867203522 15 18 11
-39.2846211350821 -182.857314921468 2726.71330884086 16 19 12
-45.3381675264763 -183.37137824106 2722.3223600406 16 19 10
-38.6206276795358 -186.58807584752 2704.9433286398 15 18 7
4.09097946599735 -197.479012731517 2650.62700799582 16 19 10
-36.7085788496424 -190.632430750449 2681.60642874071 20 23 16
-44.9581138199611 -190.700391031561 2679.33122491933 21 24 17
-58.8011652196427 -189.559698606503 2682.88846019564 18 23 19
320.426761344414 -206.595053224805 2715.62774191279 13 16 9
296.755841396653 -203.922088508627 2725.65459315499 16 19 12
232.731899371657 -193.594061129583 2770.69377379249 13 16 9
251.252737326324 -198.846134004899 2744.56920479096 13 16 9
212.285113705718 -194.919708118632 2758.33511557931 10 13 6
235.211725593392 -201.076431224303 2727.98899516469 12 15 8
228.061807391231 -201.475566839641 2724.03917627877 13 16 9
207.915861229759 -199.355213882645 2731.67782168697 12 15 8
188.610561156324 -197.376499160428 2738.69011532989 9 12 5
152.652503700501 -192.12296310849 2760.81992455605 9 12 5
163.867173252851 -196.077195252696 2740.52174507135 10 12 7
147.011498961382 -194.52938319833 2745.60223774963 11 13 8
152.073864768679 -197.300873644588 2730.73128926801 9 12 5
60.8762990851295 -180.965732950965 2804.27211967782 11 14 7
74.3288982599513 -185.368883798163 2781.88858490988 25 28 21
60.7701781635024 -184.392892072131 2784.4157726681 24 27 20
18.2029182443233 -177.567695995742 2814.11364047214 20 23 14
-12.2662749542821 -173.125123269317 2832.80752811817 19 22 13
-28.5213541405467 -171.524802837322 2838.32367097083 20 23 14
-5.585131466187 -177.892657596029 2806.74870604496 20 23 14
-11.529730324195 -178.400404190637 2802.43676763216 20 23 16
-37.2908854979674 -174.83593377056 2817.12835602636 20 23 16
-33.6654889849428 -177.301457294031 2803.68734087806 18 21 14
-26.4505970736324 -180.52769017852 2786.66880230467 17 20 13
-20.7706612770475 -183.457695635068 2771.0097039489 16 19 12
-25.3133701698889 -184.271632599845 2765.24210683966 14 17 10
-36.3719599516605 -183.720271462016 2765.87413721616 13 16 9
-43.7971526650891 -183.925843698596 2762.96078302825 14 17 10
-0.200585793437291 -194.931937757441 2709.28540528192 14 17 10
-49.3116201852939 -186.314365654176 2747.83491640984 15 18 11
-37.4608452533489 -190.637153851239 2725.52562874548 15 18 11
-37.1116267820821 -192.526056909492 2714.65329838477 16 19 10
-43.8996241197658 -192.889191949626 2710.96573153028 16 19 8
-71.9086356808156 -188.659757548142 2728.97161002519 19 22 13
-29.2537668399644 -199.743961835961 2674.61317963579 21 24 17
-48.0716642923034 -197.504212360827 2683.21545513913 20 23 16
-43.6821556839986 -200.327264783645 2667.85618246588 18 23 19
277.14463064081 -204.552488391845 2763.30988700505 48 54 52
278.600149268295 -206.592735244511 2752.00343954483 14 17 10
263.62665234441 -205.495467998956 2754.74097077866 16 19 12
226.916686188992 -200.200533653692 2776.32591503247 15 18 11
179.51565380759 -192.791412434258 2807.46307671062 16 19 12
195.009538326165 -197.524740524793 2784.0872731033 16 19 12
196.49407880287 -199.562457052565 2772.80187701753 14 17 10
203.318420599152 -202.657686548751 2756.73621499522 14 17 10
220.80566183801 -207.869354870779 2731.0979054396 12 15 8
221.329643066958 -209.772847330135 2720.35189595635 11 14 7
190.54499525362 -205.484855994291 2737.5812842056 12 15 8
168.265026395984 -202.848946366563 2747.38094677985 14 17 10
149.867659213045 -200.962477321648 2753.81591647959 9 11 6
161.781530049182 -205.136151813986 2732.78845477925 9 11 6
70.2877211469905 -190.249407992823 2796.22601927736 10 13 6
73.2252757413514 -192.594629464974 2783.52231330277 25 28 21
73.8675659438344 -194.487073854582 2772.86212447992 22 25 18
48.3923351030753 -191.041849038152 2786.52534489336 18 21 12
3.71628909697419 -183.614245498569 2818.40296433645 17 20 11
-20.7339805243196 -180.297380649026 2831.57321973687 18 21 12
-20.7061576765228 -182.02525317189 2821.7037551104 18 21 12
-8.19786396916511 -186.363092067959 2799.87104060373 16 19 12
-20.7585276718709 -185.4898187954 2801.88618382294 16 19 12
-20.1069250158263 -187.380134664664 2791.23275657779 15 18 11
-15.8476203669471 -190.043236445415 2777.01523756342 15 18 11
-6.55862923179629 -193.790109087064 2757.79251075025 14 17 10
-2.43954137833713 -196.464789453716 2743.47299246366 14 17 10
-24.4130727589678 -193.583192321797 2754.73137366655 16 19 12
-34.7569218607511 -193.167896793725 2754.64580898696 16 19 12
-23.5158323426445 -197.395715613004 2733.13035949962 16 19 12
-57.0641272074313 -193.769920055685 2745.88259913454 15 18 11
-38.8504781575563 -199.563631833794 2717.06223109695 15 18 11
-46.341696231345 -199.768130400766 2714.10101915461 18 21 10
-65.1470278216644 -197.47900033227 2722.71265404194 20 23 14
-73.2922507001383 -197.522568930342 2720.51289735372 15 18 11
-59.6254302139994 -202.405751283396 2695.81215147345 15 17 12
-49.5879363491811 -206.517331994792 2674.65981520917 19 24 20
245.31160205545 -209.728067503036 2771.08550145066 14 17 10
218.764651088621 -206.30517052048 2783.97169597819 13 16 9
197.762592194935 -203.941304115972 2792.2262915463 15 18 11
207.793792528169 -207.685174980925 2773.54132874793 14 17 10
213.102372961572 -210.518598195327 2758.84855280157 13 16 9
208.342607436144 -211.36550320044 2752.92343971752 14 17 10
210.477707830309 -213.594101934017 2740.87364491435 15 18 11
215.623682833124 -216.441335670161 2726.06262839115 14 17 10
205.447195060174 -216.217980140171 2724.86237866737 12 15 8
228.757611765119 -222.768786915978 2693.5574538149 11 14 7
223.076981035985 -223.475075411843 2688.20082924902 8 10 5
187.143506872654 -218.006591009797 2710.34954818431 9 11 6
100.752463690002 -203.930523475092 2768.83626485728 13 16 9
70.6217130075188 -199.498658964364 2786.54040583754 18 21 14
64.547636098959 -200.018806527134 2782.13454320935 21 24 17
35.3714577205144 -195.724051205017 2799.2946484331 21 24 15
8.55971312787185 -191.884027065759 2814.46136897701 17 20 11
-23.3153404679449 -186.943479380688 2834.6090084953 17 20 11
-22.538726865063 -188.848521396217 2824.04612976255 17 20 11
-11.49298160167 -192.941810687909 2803.6247891039 14 17 10
-8.62537161055466 -195.324791240103 2790.86989305951 14 17 10
-14.5955532136983 -195.834729810004 2786.53939806602 14 17 10
-7.43031359239543 -199.163970227119 2769.48463821154 15 18 11
-1.07268366351931 -202.342951583367 2753.08022257674 17 20 13
-15.8271067538249 -200.974952807225 2757.21267856854 19 22 15
-47.1632785910994 -195.986627366683 2777.75120697767 16 19 12
-54.553410429607 -196.178665138465 2774.86333772095 15 18 11
-58.3414648205787 -197.1576959085 2768.40693290337 14 17 10
-39.9293094382265 -203.028168348682 2739.73007753464 16 19 12
-24.525400466856 -208.279434410086 2713.81635201665 17 20 13
-36.3176494487665 -207.532501608021 2715.15285889716 18 21 14
-48.0752098162269 -206.782410536813 2716.51423381481 19 22 13
-54.1362909824872 -207.297084257199 2712.11781980365 22 25 18
-51.0257564120238 -209.874576066588 2698.30300310404 16 18 13
-62.0406393015351 -209.278988644907 2698.96694155434 21 23 18
-61.1057789165739 -211.384714709688 2687.2827261576 7 12 8
304.656615803868 -225.589954716377 2741.15316310723 57 63 61
300.561619293937 -226.607532554843 2734.47405414865 14 17 10
259.769762720744 -220.340197130707 2759.28064642997 16 19 12
241.740910170466 -218.557600587361 2764.74690301051 10 13 6
235.418441398048 -219.10032015767 2760.1608614876 12 15 8
223.677915521081 -218.554048515866 2760.29851605615 16 19 12
227.40143718506 -221.120625398606 2746.92812206868 17 20 13
217.985275309338 -221.040814660837 2745.04328510208 16 19 12
224.699725786342 -224.23872485575 2728.89714594222 13 16 9
206.089533336117 -222.283704912363 2735.17818128761 11 14 7
192.126429535113 -221.261879787329 2737.41245482363 9 12 5
189.617204101928 -222.587021406488 2729.41127403103 9 12 5
193.911974744127 -225.326231369937 2715.21907956914 10 12 7
228.397784884085 -234.35450283577 2673.47586524225 9 11 6
161.591287524274 -222.327080452904 2723.91732863484 9 12 5
107.166357558163 -212.78897829629 2763.56008159387 12 15 8
74.7643785588692 -207.798813250867 2783.32599296376 19 22 15
49.9909821491902 -204.373970537781 2796.26255378858 17 20 13
2.96620214123333 -196.198445318341 2830.14671856463 17 20 11
-13.3485233006496 -194.489354033655 2835.6201735195 15 18 9
-16.2655968717409 -195.626355016766 2828.55932450643 17 20 11
-21.4174242334528 -196.288878513351 2823.58626246516 17 20 11
-2.26826869622943 -202.191800556665 2795.44350987342 16 19 12
10.8555941454402 -206.835525315227 2772.8204485677 15 18 11
-12.0109653022094 -203.689757097167 2784.66782937449 14 17 10
-20.1782442923142 -203.722287079521 2782.45243413004 14 17 10
4.41524008411331 -210.932834708416 2748.36888633255 15 18 11
-29.2203741262478 -205.380638074691 2770.94876037627 15 18 11
-61.2427497892736 -200.133880024316 2792.2261906291 15 18 11
-64.9831063208806 -201.117500485651 2785.80433976001 18 21 14
-32.0719562019154 -210.276941116736 2742.91925085833 19 22 15
-25.2016706416076 -213.679136132863 2725.65000850396 19 22 15
-31.6470016965127 -215.999155798943 2711.08501712745 17 20 13
-29.2162844872657 -218.449402864241 2698.01306746359 18 21 12
-47.8047073844774 -218.035917638167 2695.65623048685 16 18 13
-53.9045879279274 -218.553405949825 2691.23167572269 21 23 18
301.762511525559 -234.75430522965 2734.06830491677 14 17 10
279.697375997313 -232.153575543549 2742.78848993372 18 21 14
270.952585658208 -232.230172042171 2740.15422118209 12 15 8
244.366720755103 -228.66904378378 2753.01290633541 12 15 8
241.115508479347 -229.847332756405 2745.70962391265 15 18 11
230.127578445402 -229.44222542313 2745.15680513773 17 20 13
226.861633638599 -230.621707895072 2737.84283674349 16 19 12
222.809935589385 -231.643903234208 2731.19509237457 12 15 8
228.692543618901 -234.73496934103 2715.68180516472 11 14 7
190.246266394211 -228.595661077324 2739.71774175469 10 13 6
200.679153150237 -232.644422851956 2720.08768353187 10 13 6
205.704036977616 -235.584151763984 2705.18841692508 10 12 7
181.916009500765 -232.456634571252 2716.36771344735 10 12 7
166.525193667628 -231.080317043334 2720.03917137172 10 13 6
113.582510879709 -221.689977262806 2758.28502628494 13 16 9
67.6600953092334 -213.71955443903 2790.49720642487 22 25 18
42.9052204832514 -210.224983834156 2803.44754712651 18 21 14
6.33148742861556 -204.148856520636 2827.60557429426 19 22 13
-2.56103353765225 -204.01208776877 2826.10032982452 17 20 11
-13.6600931780313 -203.390311144781 2826.70337940517 18 21 12
-6.99595989909496 -206.637423687891 2810.52080949204 19 22 13
-15.141167559217 -206.660697669471 2808.32146110919 14 17 10
-10.7875279158922 -209.431592672948 2794.17148707454 14 17 10
8.14913398879025 -215.445247654601 2765.87442690659 15 18 11
-19.7900844016343 -211.098895651971 2782.69645554185 17 20 13
-17.2202591768811 -215.367712328017 2759.8352548459 19 22 15
-44.2184844316411 -211.164667315899 2776.10366697963 19 22 15
-35.7471189546239 -214.928926905529 2757.52317443878 19 22 15
-20.8928848282366 -220.167538648557 2732.44607862083 19 22 15
-15.4866346773175 -223.29534299777 2716.58728333237 18 21 14
-28.7332255417816 -222.180820921284 2719.34144191557 15 18 11
-12.7254797186913 -227.768825070416 2692.6287083439 14 17 10
-30.9477694863605 -225.507639469736 2700.42753004074 20 23 14
4.00867421175821 -235.536059866813 2654.07998107865 14 17 10
-38.2300075663262 -227.695008158498 2686.49155543384 22 24 19
-29.5814735747792 -231.665927133216 2666.80311825338 24 26 21
295.133838275871 -241.302908498153 2740.34608134245 16 19 12
266.058848474543 -237.202277249078 2755.1081893131 20 23 16
232.438734298542 -232.12684353102 2773.99148039974 17 20 13
241.672383435374 -235.884164593416 2755.96361869682 16 19 12
228.366092310535 -234.979409469756 2757.43840014704 13 16 9
236.714349263377 -238.585304743657 2740.00450238542 13 16 9
218.805267424857 -236.710727845039 2745.55834368659 13 16 9
227.059753397698 -240.324518333159 2728.05642934958 12 15 8
231.402918633175 -243.136638341179 2713.8989478574 12 15 8
230.341450692533 -244.820274734382 2704.47479930867 12 15 8
208.701051763488 -242.12843976633 2713.50334641693 12 15 8
175.765262714497 -236.993804220815 2732.88301926128 9 11 6
199.728831601578 -244.035764718591 2700.81405394498 9 11 6
44.0522921803943 -215.996843664676 2812.89569362999 23 26 19
18.6164397647275 -212.265153456915 2826.58891130784 22 25 18
15.6628039308799 -213.427848912744 2819.50142738265 21 24 15
12.6908196999427 -214.591941177641 2812.40063523772 18 21 12
6.73556526520658 -215.10201471627 2808.08096058353 19 22 13
-5.87188526117477 -214.135567486152 2810.06265898024 19 22 13
-18.4404054152221 -213.16570797292 2812.07230164154 17 20 13
-14.808356271131 -215.809475926046 2798.6352062843 18 21 14
-28.812823847415 -214.507437943002 2802.07624477646 18 21 14
-31.815996433151 -215.673021654071 2794.95254149606 18 21 14
-29.7416443963341 -217.994753425211 2782.85823717501 17 20 13
-26.2648345847891 -220.650768904568 2769.3085434765 17 20 13
-34.4240603777524 -220.665888347981 2767.09907435433 16 19 12
-26.6995957044924 -224.32154108366 2749.2127242255 14 17 10
-16.9021404298713 -228.481344478567 2729.12146571333 14 17 10
-31.5807736087932 -227.00803114115 2733.30939686835 15 18 11
-27.6223400834412 -229.848689980471 2718.87287059412 17 20 13
-37.2660029202163 -229.534743457532 2718.05904142183 18 21 14
-22.0241601579463 -235.045581926957 2692.02651586478 19 22 13
-43.7421113335845 -231.900600570808 2703.47150670565 21 24 17
-3.94162608388426 -243.263610105524 2651.98290152574 21 24 17
283.020824558612 -246.660948816965 2751.30001811606 12 15 8
243.824903489724 -240.35732547145 2774.79305969644 15 18 11
277.233011639785 -249.230652834311 2735.97507986185 12 15 8
231.987882322678 -241.604648871964 2764.97079586978 12 15 8
247.359153823602 -246.73155489361 2741.50411391946 10 13 6
213.962162281017 -241.541619236188 2760.54973133963 11 14 7
228.454339151983 -246.513711235723 2737.68189020101 11 14 7
210.581986168208 -244.595184991414 2743.2622851679 11 14 7
226.458597122046 -249.908715995187 2718.92624712697 11 14 7
232.28361954424 -253.09239007438 2703.3707458038 10 13 6
218.24757658593 -251.995461221127 2705.55252460328 10 13 6
204.254555921854 -250.894688619352 2707.76551065134 9 11 6
206.196510312093 -253.260303893836 2695.57500617219 9 11 6
172.625144059104 -247.854541666512 2715.73005099975 10 13 6
3.18125875943487 -214.285430181459 2851.2080986341 19 22 15
21.9928546053163 -220.267088239113 2824.05557411101 17 20 13
14.5564667204683 -220.4443526838 2821.13424768897 16 19 10
25.7175095042141 -224.780360746807 2800.79525924496 14 17 8
14.535346235415 -224.12776745567 2801.33822132433 16 19 10
4.86165550813489 -223.806067206252 2800.50266356755 16 19 10
-14.3717160116237 -221.311950831032 2808.80504147126 15 18 11
-15.1573066430675 -222.989328685336 2799.58120844923 15 18 11
-36.4865657604994 -219.98413422211 2810.0719313038 16 19 12
-45.3078247437342 -219.81862095794 2808.61849176299 16 19 12
-27.8981504851288 -225.68851722001 2781.68528708752 15 18 11
-33.8612754676229 -226.197943868756 2777.35991018192 15 18 11
-34.7588955068434 -227.88362068488 2768.05482261549 13 16 9
-55.1703742659784 -225.028721802207 2777.97506613225 14 17 10
-51.0362377253379 -227.893412651425 2763.66578899661 15 18 11
-46.2474924013945 -230.93175020346 2748.59513555406 17 20 13
-47.9601817301061 -232.456062481493 2739.93504083763 18 21 14
-43.9981529268871 -235.334486873489 2725.50092956708 18 21 14
-35.1245277413921 -239.402386898808 2705.97517456866 17 20 13
-41.9280852073296 -239.751368578542 2702.27639953468 23 26 19
-43.0788531780428 -241.456268708276 2692.7877022604 19 21 16
277.169131903644 -253.256795225581 2756.9054739544 13 16 9
285.628875388025 -256.957015647378 2739.55191738327 12 15 8
248.830736891812 -251.031936968381 2761.07613543083 10 13 6
251.812946674347 -253.571870825191 2748.4035202215 12 15 8
235.379936721586 -251.95502675318 2752.5557243306 11 14 7
228.270433358126 -252.332965171306 2748.63531039173 10 13 6
202.682899641115 -248.70663347092 2760.98270628937 11 14 7
206.38382808573 -251.417708887076 2747.59520208146 11 14 7
221.512161571055 -256.64183271105 2723.95221122876 10 13 6
202.159627463503 -254.343610944541 2730.93188227849 8 11 4
212.571544409813 -258.574926394589 2711.28540344571 7 10 3
177.339967045066 -252.747943281 2732.70972158697 8 10 5
204.34068093962 -260.679708668661 2697.89720499444 9 11 6
194.166421475845 -260.388453006256 2696.69891454709 9 11 6
74.090459092667 -237.385435307649 2786.39270217457 15 18 11
60.5315049184085 -236.219626571755 2788.92068170537 11 14 7
29.1135989008318 -230.996148571084 2808.16611372778 12 15 6
17.1812607213795 -230.156351829113 2809.40124285648 10 13 4
17.1473039407331 -232.021950076317 2799.48629525096 13 16 7
-24.3241341179963 -224.399916148816 2828.74725274222 14 17 8
-13.9873425159511 -228.636022739166 2809.04658415308 10 13 6
-21.3858796898085 -228.803928240014 2806.15244944709 11 14 7
-35.3710970849828 -227.4404973467 2809.60775377355 14 17 10
-41.2729611517453 -227.945319640962 2805.32680953509 15 18 11
-28.9677254727385 -232.710377103255 2783.34472998393 15 18 11
-10.2384005263627 -239.020131026845 2754.8958670306 15 18 11
-43.7811391967526 -233.045350640929 2777.5449145283 13 16 9
-52.6194342330515 -232.869497340894 2776.0794720404 16 19 12
-66.4772532906084 -231.493754702014 2779.62689802501 17 20 13
-45.1394769385982 -238.510097040343 2748.12464268227 17 20 13
-65.4459247947106 -235.590948503612 2758.12135077927 16 19 12
-44.3170134016797 -242.624380106015 2726.46789268689 15 18 11
-21.9348617330981 -250.015684382616 2693.25075478467 12 15 8
-27.3608264406078 -250.709716583117 2688.07851065623 17 20 13
263.481125931031 -258.124179922619 2769.19022375596 11 18 11
237.61032837771 -254.454051552075 2781.3327919693 16 21 15
252.356760888308 -259.551918356483 2758.64862909575 15 17 12
242.902920545776 -259.421580150877 2756.73643965902 14 16 11
241.212138580511 -260.981606932186 2748.09204515689 14 15 10
224.818277483561 -259.325984052399 2752.27282552935 14 15 9
226.965936712758 -261.734678756035 2740.23122267212 14 15 9
224.456588056497 -263.129143541639 2732.22930693995 13 14 8
218.095219068999 -263.675910620426 2727.61504531953 12 15 8
217.842075231017 -265.583581196501 2717.54099123383 10 15 8
179.481258535468 -258.979054870507 2741.64123640639 10 15 8
179.266173498777 -260.88329415472 2731.5944948611 9 11 6
182.043210607937 -263.473295464355 2718.77318647774 7 9 4
180.992663101565 -265.213401243179 2709.3566683563 7 10 3
94.7459226843033 -249.521571522675 2767.9564718145 20 23 16
48.2030358019099 -240.790531583324 2800.95774836376 18 21 14
26.5167837828093 -237.702835311097 2811.19009733323 16 19 10
19.7991317006836 -238.043364101319 2807.55363976084 16 19 10
