ply
format ascii 1.0
comment KinectMotionCapture
element vertex 776
property float x
property float y
property float z
property uchar red
property uchar green
property uchar blue
end_header
-515.444718330962 -202.296211317621 1969.7038983716 18 21 14
-530.837323086687 -203.344492078428 1971.63959189721 17 20 13
-557.893621192406 -205.103445356677 1969.67205068513 18 21 14
-556.828298360946 -205.151376140682 1977.37634499694 20 23 16
-542.154619794008 -204.369052287662 1989.63186241123 19 22 15
-533.290937393799 -203.939111462029 1999.85742934022 18 21 14
-530.250699930491 -203.8632681063 2008.10003797742 19 22 15
-514.542522772985 -203.012555083766 2020.45509162931 19 22 15
-518.160352721443 -203.44824734142 2033.61231186975 19 22 15
-512.161014516377 -203.187330426848 2042.67509535239 19 22 15
-464.148997770841 -200.351523372564 2064.93347135064 20 23 16
-444.410855329733 -199.244109472351 2078.073402789 21 24 17
-446.161386008161 -199.45263256114 2084.44112954133 23 26 19
-466.511338570534 -200.802523712988 2085.10953190407 23 26 19
-485.909280798499 -202.094880227168 2086.1750222041 24 27 20
-506.313423390086 -203.450049560811 2087.04036013418 24 27 20
-495.350039793157 -202.876818963101 2097.35325447929 24 27 20
-469.64064512173 -201.3942270599 2111.94067384344 23 26 19
-450.76878008927 -200.330092739538 2124.37327866909 23 26 19
-467.263336202664 -201.443537674899 2126.46283997644 23 26 19
-483.77968324831 -202.559033572208 2128.63108285183 23 26 19
-474.715628354796 -202.096437840947 2138.13239356053 23 26 19
-445.927252478417 -200.414329940549 2153.10401330572 25 28 21
-444.705909991926 -200.43289405864 2160.24757779292 27 30 23
-454.335648525907 -201.121533998688 2164.39278824312 27 30 23
-467.926844768432 -202.055543355832 2167.50591979881 28 31 24
-486.477028026154 -203.296941752888 2169.35233987029 28 31 24
-495.161263249608 -203.927831870483 2173.92079146354 28 31 24
-471.19439360926 -202.534678086807 2187.12782840491 26 29 22
-459.075479527947 -201.874027563041 2197.10197728841 27 28 22
-450.900921596739 -201.456588139467 2205.98098616852 25 26 18
-475.44420079088 -203.069697442257 2206.46506670242 23 24 16
-486.123775580873 -203.822564764858 2210.57217224012 19 19 11
-506.7497000607 -205.19396835932 2212.25069339076 9 10 2
-494.599245627667 -204.527186081333 2222.11161039867 24 25 17
-516.25054670084 -205.962927125274 2223.6602141903 21 24 17
-529.966453104733 -206.905294364046 2227.23109340369 24 29 23
-613.786872677352 -212.962410998091 1790.36373085375 27 32 26
-628.134867334128 -213.984797400617 1792.33366054647 33 38 31
-621.447557130535 -213.688925712443 1802.76145685833 33 38 31
-632.944211606921 -214.533040496612 1805.94736085123 27 32 25
-594.594568473263 -212.367135865591 1836.38119424153 31 34 27
-611.848035700136 -213.571859444731 1837.33356580675 32 35 28
-608.952109488376 -213.509355955195 1846.10355174354 33 36 29
-600.280888316256 -213.082149190415 1857.04196334816 33 36 29
-571.391347756516 -211.378812327274 1875.54677266922 28 31 24
-577.063685572744 -211.968395515035 1888.4421785046 26 29 22
-600.150546605041 -213.54212273953 1887.4400480206 26 29 22
-564.408792101173 -211.397776311651 1908.05939007391 23 26 19
-550.820726293192 -210.65123018853 1920.42666631795 22 25 18
-551.705235254073 -210.819160523599 1927.50097269257 19 22 15
-557.423674666246 -211.292970428909 1932.84706811677 17 20 13
-549.598742834823 -210.907764182131 1943.00381984012 16 19 12
-526.263058881835 -209.537064580358 1958.54014913466 18 21 14
-524.213417678601 -209.51529738415 1966.53018629346 23 26 19
-536.707377633406 -210.416748237449 1969.48637068444 21 24 17
-556.982828694236 -211.813355988001 1969.84774013656 21 24 17
-547.172243941426 -211.296779361195 1980.50773288933 19 22 15
-529.567061377151 -210.282612855917 1993.71634303198 18 21 14
-504.150643460254 -208.768448715087 2009.41053169931 22 25 18
-524.451428957741 -210.16619576154 2009.86524365754 24 27 20
-554.52244779516 -212.18828565831 2007.23474879222 20 23 16
-529.059755980166 -210.667101621614 2022.76249256261 20 23 16
-551.367333984338 -212.194562532675 2022.7934964655 22 25 18
-529.765237853049 -210.916542130761 2036.91421498203 23 26 19
-514.968685983026 -210.071310295332 2048.7532447113 24 27 20
-485.479235303984 -208.28392530288 2065.08469794998 24 27 20
-478.451628859389 -207.931886633576 2074.28450190676 25 28 21
-468.473276382047 -207.389610294313 2084.33783143298 23 26 19
-455.537200269548 -206.65613026545 2095.2212479977 24 27 20
-457.291126316115 -206.863601885645 2101.60224492868 24 27 20
-493.397203006903 -209.275997058447 2097.75253836462 24 27 20
-477.49635789058 -208.349509342127 2109.44009382213 24 27 20
-461.569785507309 -207.419576870651 2121.03337479543 24 27 20
-475.126683025907 -208.384041043503 2123.99900531273 24 27 20
-487.716272464033 -209.286616104273 2127.30953346666 24 27 20
-484.56018037363 -209.175602788278 2135.14513007459 24 27 20
-463.652346463394 -207.919869989003 2147.93311653641 26 29 22
-456.522893757067 -207.550095215022 2156.7650539102 27 30 23
-459.252677414028 -207.815252904636 2162.8364785371 28 31 24
-475.815576834107 -208.972814477518 2165.15100318935 28 31 24
-486.467575071563 -209.749238275029 2169.14085006729 28 31 24
-496.143322076874 -210.462608833386 2173.44126733639 28 31 24
-482.067201509035 -209.640380529743 2184.04427367999 25 28 21
-456.07766283379 -208.045844246966 2197.6622490856 24 25 19
-438.972111263452 -207.02370029961 2208.83274929377 20 21 13
-454.58443738798 -208.118708734098 2211.55472379058 18 19 11
-466.244809482874 -208.958074056641 2215.35147777465 17 17 9
-488.850387408033 -210.507176007421 2216.4752339582 26 27 19
-511.486315311203 -212.059261050148 2217.70886127107 19 20 12
-506.287253447592 -211.805691965741 2225.84288356258 29 32 25
-541.909751923013 -214.201854246313 2224.10431484622 10 15 9
-630.154575300053 -221.055356690655 1783.67949823194 25 30 24
-628.265865815518 -221.168736531642 1799.97435932473 32 37 30
-611.018631432266 -220.272644188908 1822.23005583107 31 34 27
-592.775899813264 -219.191503312402 1837.00924676332 32 35 28
-600.430470298569 -219.808170534375 1841.66098399111 33 36 29
-600.406094740879 -219.920499465916 1849.29220448447 34 37 30
-580.182584770869 -218.704515467193 1864.5958563007 34 37 30
-551.26398860034 -216.913948508802 1883.04878937174 29 32 25
-552.157641160796 -217.08276304765 1890.15648589951 26 29 22
-567.508092328106 -218.203344439332 1891.89002457987 25 28 21
-579.984954057801 -219.135224745175 1894.76351504884 24 27 20
-577.997994213358 -219.113601694615 1902.9861848016 22 25 18
-529.635124271908 -216.030249552236 1927.9945190425 21 24 17
-523.735212432093 -215.746518554736 1937.44085674991 20 23 16
-551.68567275061 -217.69881860624 1934.77477516786 19 22 15
-567.088406813672 -218.823078353779 1936.70010767166 19 22 15
-551.505921940902 -217.897588287854 1949.56811342982 21 24 17
-525.231315702536 -216.262236118168 1966.04977824378 24 27 20
-549.374029901923 -217.964480275058 1964.99036438017 20 23 16
-551.214944735657 -218.189522214391 1971.68324064887 19 22 15
-551.112190067742 -218.285110416813 1979.03495311035 15 18 11
-539.336421385368 -217.605224649461 1990.29527773125 14 17 10
-519.754409358598 -216.405194735496 2004.07429272238 20 23 16
-542.995403197091 -218.04896901019 2003.6002030981 23 26 19
-576.014964218974 -220.344275929233 2000.05468236508 21 24 17
-559.334756448143 -219.334535060325 2012.79749910377 21 24 17
-529.93749269807 -217.475956964754 2029.51617193986 23 26 19
-557.151397408477 -219.385885410212 2028.03847534401 24 27 20
-502.287145143864 -215.825996685507 2052.58816283445 26 29 22
-510.927917002277 -216.496917836054 2056.96996997334 26 29 22
-476.502441838546 -214.29364271663 2074.72003393271 27 30 23
-467.496403051047 -213.784561124945 2084.46702483341 27 30 23
-441.807117664306 -212.159409704832 2099.21818162366 27 30 23
-471.022717392857 -214.202101747781 2097.29592555491 26 29 22
-473.767649856617 -214.475827907202 2103.41818504909 24 27 20
-482.409905746046 -215.143736404557 2107.80647511328 24 27 20
-471.395383006346 -214.495387168124 2117.97692582027 24 27 20
-481.027049321728 -215.228852859848 2122.10192213453 24 27 20
-492.639803645193 -216.09511789695 2125.70489759455 24 27 20
-490.47008369408 -216.037107398798 2133.27198802077 24 27 20
-473.501288875054 -214.985267270532 2144.96991687947 25 28 21
-469.335160222369 -214.791125819599 2153.00424883028 25 28 21
-470.098680316077 -214.927213371703 2159.64945112044 25 28 21
-471.848981763566 -215.129066813345 2166.02053764927 23 26 19
-470.631886063529 -215.130734408558 2173.19053720223 23 26 19
-477.329004843622 -215.664224822041 2178.23534874827 22 25 18
-467.194021873909 -215.064501605878 2187.74433792826 18 21 14
-465.962961144051 -215.063052149359 2194.86445600585 18 19 13
-453.815884638192 -214.325319047493 2204.78270923118 19 20 12
-445.619264309995 -213.852529512318 2213.61474991823 20 21 13
-466.217041445825 -215.320729122271 2215.12765356049 24 24 16
-492.806620598087 -217.193994498845 2215.25235508083 18 19 11
-489.586871517678 -217.055797923373 2222.86783882577 20 23 16
-501.29316666664 -217.924909661671 2226.81631577925 26 29 22
-485.117567569142 -216.909976441306 2237.53960341605 20 25 19
-642.709817556382 -228.971866176697 1778.53702161299 31 36 30
-616.890425434657 -227.325618758825 1796.71568591182 31 36 29
-617.848190875883 -227.503350198869 1804.05579133549 37 42 35
-603.468143796714 -226.633445798742 1817.4567986862 30 35 28
-580.430472706301 -225.170473402179 1834.15784754262 34 37 30
-589.994311016317 -225.933180471961 1838.01255029159 34 37 30
-574.592106428106 -224.988566376034 1851.56197532373 32 35 28
-583.199149197775 -225.685278516098 1855.80226988623 31 34 27
-575.460253345741 -225.262712082466 1866.30204360459 28 31 24
-564.818483531148 -224.63997036608 1877.84028561732 29 32 25
-562.830266090041 -224.609132544143 1886.0641038844 28 31 24
-570.479224751077 -225.238603163622 1890.68599309114 23 26 19
-570.416728479607 -225.338789684298 1898.18427395076 22 25 18
-558.762852451676 -224.642096389903 1909.90777349999 23 26 19
-528.726361752615 -222.680426305516 1928.21452922862 22 25 18
-522.821448435697 -222.375270330609 1937.65675306343 23 26 19
-546.90969165215 -224.132851389869 1936.36016229297 24 27 20
-563.282369689263 -225.360550309899 1937.9241511834 24 27 20
-553.504697744484 -224.787421467859 1948.74297587231 24 27 20
-532.069371176082 -223.409227893745 1963.54612118669 23 26 19
-552.342499505734 -224.905445106076 1963.83597859365 19 22 15
-566.814074023195 -226.00225895417 1966.21774649529 17 20 13
-559.915753778255 -225.623869907129 1975.91420102103 12 15 8
-563.706635829378 -225.982913664798 1981.96968088319 11 14 7
-566.527074858229 -226.274492489025 1988.36008119421 19 22 15
-555.707649885781 -225.622192508555 1999.25738596584 22 25 18
-522.442453286231 -223.414922353229 2017.42153869786 21 24 17
-559.383688876616 -226.065945559818 2012.62563580886 22 25 18
-527.043119615154 -223.91915916268 2030.28824196236 24 27 20
-496.606729221134 -221.901302861004 2047.14572153804 25 28 21
-501.329696325421 -222.318970741232 2052.72758891016 27 30 23
-482.568494133556 -221.10669795424 2065.66459004628 26 29 22
-472.591548214218 -220.502377019901 2075.76324257846 27 30 23
-471.418519997522 -220.508159210973 2083.09425831964 27 30 23
-480.049639061638 -221.194658455844 2087.43039133196 26 29 22
-483.783072404619 -221.540523243734 2093.27996688952 26 29 22
-466.891106900937 -220.451066861461 2105.2868968715 24 27 20
-463.734057018188 -220.315847048155 2113.13329107685 24 27 20
-452.699774600472 -219.631130333107 2123.25333849429 24 27 20
-486.93147228778 -222.099081796022 2120.20292451646 24 27 20
-485.744461972537 -222.099607604657 2127.48534607085 24 27 20
-483.567010196478 -222.030312068255 2135.03178355131 24 27 20
-486.317131573081 -222.304053550357 2141.17236976544 25 28 21
-486.106370424264 -222.370629074726 2148.14139241811 25 28 21
-479.964532123573 -222.022236412612 2156.73032858255 24 27 20
-470.844539565038 -221.464795763423 2166.084762843 23 26 19
-460.719416643169 -220.835705117339 2175.64797248346 22 25 18
-458.498520113912 -220.758258455816 2183.03732528141 19 22 15
-464.199116492207 -221.234394971161 2188.31570411819 20 23 16
-464.946977699892 -221.36336412358 2194.90819124102 22 23 17
-455.76986509811 -220.796768397615 2204.05540098982 25 26 18
-494.244970946927 -223.568050566343 2200.98221214264 25 26 18
-461.956478884393 -221.45433166083 2222.71361403004 24 25 17
-500.512056491305 -224.233180661445 2219.9334947246 20 21 13
-490.318045482248 -223.591681888596 2229.2496992632 22 25 18
-650.461754943323 -236.500697467383 1767.49546532884 26 31 25
-596.897383184206 -232.919895852738 1804.67812746138 32 37 30
-619.87743327508 -234.65694460307 1803.17724524734 34 39 32
-616.039316300149 -234.490976820386 1812.41163288987 33 38 31
-591.080548691047 -232.82345842659 1829.90180730014 34 37 30
-562.23992363599 -230.877274990964 1848.74247993811 34 37 30
-591.018903659006 -233.026933840108 1845.13067821369 31 34 27
-574.633089836156 -231.963782779573 1859.00024238052 29 32 25
-587.052578672931 -233.051890752716 1869.35472534082 25 28 21
-575.438552934183 -232.3249803441 1881.24618772987 24 27 20
-562.840074214031 -231.526442958896 1893.42318203157 23 26 19
-549.254508325423 -230.655757148751 1905.87811528586 24 27 20
-547.239595553991 -230.609700935527 1914.01242711916 27 30 23
-560.6883962506 -231.66796047511 1916.51842686101 27 30 23
-557.706128842992 -231.551799800232 1925.00172119787 25 28 21
-556.653170404088 -231.572912820762 1932.76885340782 25 28 21
-549.781852603762 -231.176793072669 1942.5767569545 23 26 19
-546.776721116164 -231.056428360059 1950.97781565293 21 24 17
-555.409679373856 -231.769077428285 1955.30426760103 18 21 14
-580.562594056962 -233.666015587513 1953.97629015457 17 20 13
-585.340537793856 -234.102865929651 1959.75016418619 15 18 11
-606.657141209332 -235.726168487447 1959.93768465287 10 13 6
-625.082576254497 -237.142851109358 1961.21120280029 9 12 5
-571.452960509667 -233.384171740372 1986.57403932822 18 21 14
-535.287027841779 -230.876171200872 2005.84808316374 22 25 18
-501.015991069973 -228.501052811206 2024.28003944794 21 24 17
-535.026306160169 -231.035133306428 2020.36592486775 21 24 17
-487.999006005442 -227.738132213345 2042.67428493399 23 26 19
-493.692714175148 -228.233805844057 2047.91475449047 24 27 20
-492.543602826763 -228.236173136136 2055.33672486457 26 29 22
-494.327453637493 -228.44924306141 2061.82529210304 24 27 20
-480.434285266518 -227.531254909409 2073.16802185111 25 28 21
-486.128639020995 -228.024865848604 2078.41219061275 26 29 22
-489.866369465283 -228.377004257241 2084.27375962953 26 29 22
-483.787246432009 -228.019805871226 2093.10110476311 26 29 22
-458.042520762287 -226.240656502857 2107.74457791381 26 29 22
-447.992034549674 -225.593574793915 2117.59718666508 26 29 22
-467.448372913391 -227.079155036495 2118.75749902511 26 29 22
-486.930347913885 -228.567245290076 2120.0123395258 26 29 22
-489.683750703295 -228.845121099647 2126.16249878462 26 29 22
-484.547818043044 -228.551138180547 2134.55642261475 26 29 22
-470.519033868329 -227.611854906019 2145.40815306655 27 30 23
-477.209185869619 -228.172852247423 2150.41066091657 27 30 23
-483.906686264717 -228.734114666268 2155.43935553402 27 30 23
-478.741162388552 -228.434564881553 2163.7259985842 26 29 22
-457.72718742455 -226.983898997693 2176.2429746612 25 28 21
-451.539039567218 -226.607744179759 2184.67842911258 26 29 22
-451.287533621142 -226.661743997993 2191.50318493879 27 30 23
-453.017011701939 -226.859109523033 2197.79979182397 28 29 23
-464.674073389576 -227.777636306583 2201.53427651238 25 26 18
-436.605615647221 -225.807111717564 2215.46458200322 22 23 15
-459.198914344216 -227.520287099362 2216.43823142176 18 18 10
-475.852461066046 -228.801850589058 2219.01195244283 12 13 5
-529.366633979845 -232.76767127144 2212.57225207186 19 20 12
-528.155194193693 -232.749601463853 2219.7757120874 13 16 9
-511.983131700879 -231.640679842725 2230.57054077763 17 22 16
-725.195680420234 -249.109253322477 1736.96946396719 34 39 33
-571.138861756472 -237.97256888585 1814.95712465261 39 44 37
-609.445577682528 -240.896213976932 1807.26529364614 25 30 23
-619.986172492306 -241.77453523874 1810.77718870703 33 38 31
-623.819729719378 -242.158090264584 1816.97470897933 33 36 29
-597.872198228153 -240.342497781471 1834.78453252271 33 36 29
-582.459604877805 -239.302696248373 1848.35548248188 31 34 27
-596.849672373167 -240.463793322447 1850.3940457218 28 31 24
-598.740437396643 -240.701243820682 1857.26417186015 26 29 22
-604.485842064496 -241.223345713531 1862.67989496084 22 25 18
-589.020861209195 -240.175124018653 1876.06258545364 22 25 18
-559.053843158968 -238.051135693792 1894.7297587507 24 27 20
-538.697475109479 -236.63643545626 1909.66559358755 28 31 24
-544.404573323875 -237.151962522736 1914.94231431308 28 31 24
-561.724127833169 -238.528681957518 1916.03239484852 27 30 23
-580.035153410212 -239.97978269189 1916.85847424756 24 27 20
-565.434854981186 -238.987769080887 1929.51975389009 23 26 19
-544.993856794286 -237.560161559876 1944.14952259688 19 22 15
-550.713514091341 -238.074946023981 1949.47334157507 18 21 14
-572.943158420391 -239.817180531091 1949.07939621181 17 20 13
-593.260083080994 -241.418110039532 1949.46575094973 15 18 11
-600.964620488829 -242.081043291646 1954.27286659574 13 16 9
-641.760120315079 -245.208054542164 1947.90036690706 8 11 4
-647.558930170933 -245.729978708309 1953.514485211 8 11 4
-590.998771506727 -241.603636375646 1979.91880357323 16 19 12
-535.327318652432 -237.538995571752 2005.68743692665 20 23 16
-487.377926051021 -234.046002235356 2028.59323711242 20 23 16
-491.115694983576 -234.406983353815 2034.44936620454 21 24 17
-540.790860191075 -238.197916115383 2025.55648789814 22 25 18
-517.182674819312 -236.516746441057 2040.27708738409 23 26 19
-529.751528939084 -237.537250759813 2043.43617500517 25 28 21
-511.972067036259 -236.288723048127 2056.14475449586 25 28 21
-508.867055677941 -236.136068593679 2064.19536486284 26 29 22
-486.135972344151 -234.513872020449 2078.23891939545 27 30 23
-487.910249630267 -234.72427502711 2084.69362576619 28 31 24
-469.054763654593 -233.388915510136 2097.3582802098 28 31 24
-446.236452937334 -231.754839896035 2111.08547636823 27 30 23
-448.961225258816 -232.033455233694 2117.12979843423 27 30 23
-459.563787810827 -232.902472814753 2120.87671241114 27 30 23
-479.046577545942 -234.437672005071 2122.10390672283 27 30 23
-481.793520993433 -234.717407384323 2128.22983869865 27 30 23
-472.701672340607 -234.107643309206 2137.7208710144 27 30 23
-456.681846063092 -232.976419124835 2149.09593262792 26 29 22
-460.398864392773 -233.326624205118 2154.88182222495 26 29 22
-468.074056804173 -233.974090385219 2159.58975075022 26 29 22
-477.736781080408 -234.770705238674 2163.79019011112 26 29 22
-464.634242902351 -233.854609674879 2174.17085954081 25 28 21
-460.429421741429 -233.606826902745 2182.0944710916 26 29 22
-461.174166814962 -233.730872113465 2188.67849733808 26 29 22
-468.864715266067 -234.377399275692 2193.4440326758 26 27 21
-455.707324403775 -233.452988530469 2203.62536558751 22 23 15
-460.417892258601 -233.873966357022 2209.16003627224 19 20 12
-470.106071122347 -234.669994273511 2213.45442506637 15 16 8
-508.669959985489 -237.643906737244 2210.58293998995 13 14 6
-514.417394432622 -238.143136826138 2216.02063932293 16 19 12
-535.122063459631 -239.771061091327 2217.82956982127 10 13 6
-518.946987210131 -238.614711302124 2228.64315268602 10 15 9
-660.290293780432 -251.46093805794 1763.36936984029 31 36 32
-658.40803941934 -251.416244984904 1771.99535573548 35 37 32
-585.606121059592 -245.950931081898 1809.08190125166 35 37 32
-574.069220538884 -245.16396037712 1821.29670436345 35 38 31
-595.143230881702 -246.870348378551 1820.53106849878 32 35 28
-592.234895463949 -246.742231237325 1829.29640651061 32 35 28
-621.999099270186 -249.115185231053 1825.30617936829 30 33 26
-584.472858825751 -246.334691771141 1847.49434557583 28 31 24
-574.803321118603 -245.685975441212 1858.76237347813 27 30 23
-603.650136043632 -247.989570949002 1855.30524190203 27 30 23
-609.399912541078 -248.522749716096 1860.73020339061 24 27 20
-593.930682145173 -247.426949791501 1874.12622555303 24 27 20
-563.953143973885 -245.215384001315 1892.80963152934 28 31 24
-544.556426177329 -243.813979304509 1907.40374517635 28 31 24
-552.202339359146 -244.489310815237 1911.98537294976 25 28 21
-559.856716453512 -245.165108459232 1916.59906030195 23 26 19
-573.33031866725 -246.288674754277 1919.15498292688 20 23 14
-558.717527100858 -245.250728988195 1931.7979481346 18 21 12
-549.899235054402 -244.657352772765 1942.29429607747 16 19 10
-553.681847386643 -245.033520977823 1948.30826061463 15 18 9
-573.97888122947 -246.682175712043 1948.59063343554 16 17 11
-602.078958288243 -248.933044264996 1946.29154896442 11 12 6
-617.572968174605 -250.212911935708 1948.45752801404 12 13 7
-627.246888893323 -251.044030253827 1952.67682486762 10 11 5
-622.320271427737 -250.747964835713 1961.84828074923 9 10 4
-606.660062015376 -249.621823776427 1974.55532008099 15 16 10
-564.633773784906 -246.456790331658 1995.86467981944 17 20 13
-505.94552951995 -242.000416494816 2022.36976784493 22 27 21
-550.731264576219 -245.541561245238 2014.96455672924 22 27 21
-561.359877055403 -246.442359295294 2018.78812445571 21 26 20
-536.777148609844 -244.618045786638 2033.87713042149 21 26 20
-486.697014784461 -240.817351099819 2056.8588133494 21 23 18
-504.152901616425 -242.244093521065 2058.42348718359 27 30 23
-484.368893842692 -240.785643190955 2071.61475565611 28 31 24
-485.160839456414 -240.920346355491 2078.36729938317 28 31 24
-463.364333720352 -239.302761768593 2091.98059619043 27 30 23
-482.809742359259 -240.882739084297 2093.04073125418 29 30 24
-434.419790361865 -237.198651578379 2114.43146760471 29 32 25
-433.198670678988 -237.173223471704 2121.60363370575 29 32 25
-455.611733238289 -238.98270389325 2121.8472997099 27 30 23
-469.183807376379 -240.105939517078 2124.76996708098 27 30 23
-465.018497746695 -239.85066041137 2132.8459390183 28 31 24
-449.986552460506 -238.74962252584 2143.97250167762 29 32 25
-443.820446826731 -238.336786481791 2152.51202416828 30 33 26
-444.562430142201 -238.460389611546 2159.08514663264 30 33 26
-450.249052293021 -238.968414446875 2164.29150928581 31 34 27
-456.931226746824 -239.55350199417 2169.24918877071 30 33 26
-477.490380287061 -241.21930144265 2170.49393637898 28 31 24
-472.30007126902 -240.87922144282 2178.71414571117 26 27 21
-486.942190360015 -242.084084440966 2181.66089561162 27 28 22
-472.810221442149 -241.045647215817 2192.19305097191 25 28 21
-458.655104181656 -240.003955105259 2202.64131603723 20 23 16
-470.328402936773 -240.976118476841 2206.40222244105 18 21 14
-512.86139272486 -244.356802871877 2202.42327709162 18 21 14
-493.717823690688 -242.923780482985 2214.0809238489 14 17 10
-484.508627348778 -242.265091527603 2223.16715580275 8 10 5
-521.153149509043 -245.187450171158 2220.9946274959 7 12 6
-575.809731863748 -249.518589318795 2214.66950613428 14 19 13
-517.699840052896 -245.036774471827 2235.54532482131 11 16 10
-614.47503802712 -254.866226283919 1774.25644843274 32 37 33
-647.021394381149 -257.533005182886 1768.71948355227 34 39 35
-642.252674731732 -257.248789366087 1778.46970186024 34 36 31
-598.167248031635 -253.851137844529 1803.97156611488 33 36 29
-565.525970215479 -251.356257904036 1824.63378876667 33 36 29
-565.477616342407 -251.441038977157 1832.19430377281 31 34 27
-586.565438844824 -253.201071945885 1831.44608112561 30 33 26
-577.873339596111 -252.599992729344 1842.41582146502 29 32 25
-588.411439966295 -253.52371157827 1845.88886447818 27 30 23
-583.554312429186 -253.22557389835 1855.31963116219 27 30 23
-595.070662764876 -254.226722779684 1858.47951891228 27 30 23
-607.565885097033 -255.306009064762 1861.32811428112 26 29 22
-594.017345021007 -254.315407725187 1873.9962255083 26 29 22
-556.298633937972 -251.401511530182 1895.55400946115 27 30 23
-570.71807254522 -252.632032509736 1897.65779126339 27 30 23
-579.352234215192 -253.402529387375 1901.95218916692 23 26 19
-567.667505206638 -252.555310082349 1913.6561718891 21 24 17
-547.243660113223 -251.010687628241 1928.42350377303 18 21 12
-545.206965313018 -250.929308039186 1936.50017355545 17 20 11
-556.747724203167 -251.929409543295 1939.75134674345 15 18 9
-550.826228454734 -251.53712315742 1949.18608381776 14 17 8
-575.986019025992 -253.623521594073 1947.76401989558 14 17 10
-619.655536970819 -257.188083373505 1940.09604951576 13 14 8
-628.355877695383 -257.962876601409 1944.63251576511 13 14 8
-628.301698691324 -258.038261243364 1952.17733561632 12 13 7
-619.474051535895 -257.412089311904 1962.65965537135 11 12 6
-605.754184802514 -256.393585893263 1974.70928021091 14 15 9
-576.39569467596 -254.123111984577 1991.83196136508 14 17 10
-560.665022556345 -252.94040618501 2004.31216946844 17 22 16
-560.546839159932 -253.005442313117 2011.62588706524 17 22 16
-537.92871063913 -251.268703561324 2026.16113661512 22 27 21
-539.746006515193 -251.486854669769 2032.77067083307 19 24 18
-508.25786000237 -249.036237545296 2049.89272899069 24 26 21
-480.641872250775 -246.893556022233 2065.61072872863 25 28 21
-474.564798252052 -246.475427141876 2074.48507887277 28 31 24
-475.348511919821 -246.606513849506 2081.20841321699 28 31 24
-482.0255267902 -247.209887139365 2086.13446249679 27 30 23
-454.298552240045 -245.051943250045 2101.45002586355 28 29 23
-457.028931679723 -245.336983718449 2107.51110956926 29 32 25
-433.176194706055 -243.486695958351 2121.43050919407 28 31 24
-448.699267742516 -244.797826096415 2123.6846565385 27 30 23
-466.214639636732 -246.269278114029 2125.441030429 28 31 24
-450.202787477181 -245.04579184377 2136.90301880818 29 32 25
-442.064786878472 -244.453966764458 2146.02785587264 30 33 26
-439.841422774313 -244.337018470312 2153.43391533403 32 35 28
-448.490636733509 -245.094236957646 2157.79258271778 31 34 27
-445.274167581087 -244.896111605676 2165.45808008466 32 35 28
-447.002153402953 -245.095326367347 2171.7479789937 32 35 28
-443.774481857075 -244.894872744561 2179.37428304009 30 33 26
-484.179360449965 -248.209110736436 2175.32959849282 28 31 24
-485.931540084844 -248.409563940767 2181.70854239986 27 28 22
-476.757952225192 -247.728709574431 2190.94097574937 26 29 22
-458.622640988609 -246.324128749755 2202.42688017445 21 24 17
-468.309603668967 -247.16230814688 2206.69107030232 20 23 16
-517.824500248339 -251.214015392144 2200.93482701843 19 22 15
-538.520594932299 -252.941461519318 2202.64908976793 19 21 16
-516.379238471178 -251.210694805044 2215.05440971452 22 24 19
-550.067182026453 -253.987032838628 2213.68676446514 12 17 11
-537.879885676287 -253.058467019239 2223.57617107906 9 14 8
-550.647281090381 -254.14514289403 2227.43062635656 14 19 13
-602.148806101026 -260.851999598448 1779.26466272497 35 40 34
-596.391168306421 -260.467522426237 1789.30377096037 37 39 34
-636.624563991875 -263.847643063203 1780.68448875019 33 35 30
-589.637588416346 -260.0859635789 1807.33226006982 33 36 29
-568.492445693837 -258.43805764148 1823.38308339607 34 37 30
-573.247429062892 -258.911475884703 1829.04862302363 32 35 28
-569.355439749652 -258.675561163119 1838.12715406817 30 33 26
-573.150651063459 -259.069534393163 1844.17665499388 29 32 25
-537.478321691044 -256.22396152868 1865.49647661572 27 30 23
-581.713828036797 -259.936571671469 1855.93919084488 27 30 23
-579.734051529052 -259.855297993942 1864.22619120203 27 30 23
-578.713397523372 -259.852246014679 1872.12851995685 27 30 23
-579.619525102218 -260.006971328478 1879.29235800449 26 29 22
-568.928888891827 -259.207531673231 1890.76072649551 23 26 19
-579.494031803536 -260.155405095009 1894.31892323237 23 26 19
-587.16898301652 -260.865635450854 1898.98633022037 19 22 15
-566.76737194921 -259.264142852304 1913.87211751749 17 20 13
-543.425163512488 -257.418599856264 1929.68401394345 17 20 11
-524.895175095553 -255.967573745129 1943.63020285919 16 19 10
-574.278015708545 -260.112367985069 1933.42857101489 15 18 9
-578.078530135172 -260.501177907084 1939.50102120152 14 17 8
-605.211452338213 -262.81413461613 1937.46820148112 14 17 10
-647.946273571726 -266.415424235029 1930.20301775692 13 16 9
-656.669207424467 -267.211265088182 1934.81100851683 12 15 8
-653.711815128472 -267.042467838465 1943.41989124551 9 11 6
-644.897357143522 -266.389060772719 1953.96930366603 9 11 6
-619.481236825989 -264.362831957592 1969.9878880899 9 11 6
-569.615343098372 -260.313564626335 1993.92193826564 9 11 6
-573.413184949973 -260.698021804037 1999.98721379989 26 31 25
-524.412029121601 -256.714962558744 2023.19374560781 27 32 26
-512.520395755847 -255.798929242225 2034.17297856825 18 23 17
-502.566964166104 -255.042051787356 2044.45525139815 18 23 17
-500.436182387851 -254.931760316953 2052.19991909745 21 23 18
-489.473312101019 -254.089224385459 2062.68474455179 23 26 19
-482.417537122349 -253.569170988407 2071.88511094335 27 30 23
-501.866120518701 -255.244663870566 2072.89765875341 27 30 23
-508.563712047966 -255.863529925514 2077.89032381392 26 29 22
-497.564011826044 -255.014539305036 2088.24248209046 28 29 23
-453.079398131314 -251.386666248019 2108.51127271356 28 31 24
-452.853018473862 -251.428495017905 2115.43700168758 28 31 24
-448.680576286805 -251.142063638846 2123.50615975187 27 30 23
-462.255722079863 -252.328323916612 2126.3995120862 28 31 24
-453.142872004698 -251.630412728726 2135.86915073192 29 32 25
-445.989992835125 -251.094225740406 2144.72010322199 31 34 27
-451.676320297538 -251.624160586653 2149.91060989847 32 35 28
-458.357338578126 -252.236322388864 2154.84690347162 31 34 27
-456.135195866747 -252.108012705197 2162.26374168908 31 34 27
-443.008558935881 -251.071979750863 2172.6306593624 31 34 27
-436.800885469535 -250.610318186219 2181.04667451545 30 33 26
-428.597100911906 -249.981712833891 2189.95048977266 28 29 23
-469.032448571959 -253.400912515497 2185.95266358391 28 29 23
-464.809500530897 -253.102978775406 2193.84156529976 26 29 22
-456.600373862394 -252.472195888602 2202.72692112759 22 25 18
-470.268783569894 -253.663061599666 2205.96363646752 21 24 17
-495.903880861531 -255.851049113705 2206.24215521531 20 23 16
-534.528258853597 -259.122233583067 2203.40757243707 19 21 16
-541.29401584477 -259.738354297477 2208.65505576186 18 20 15
-513.137703871133 -257.441917811777 2222.46493942078 12 17 11
-501.916205956521 -256.556407960855 2232.01573364332 9 14 8
-510.663676052488 -257.335792577117 2236.72521227183 12 17 11
-647.228301273644 -271.533610180861 1752.85579846823 24 29 25
-596.512538476208 -267.328939942536 1781.52520538611 35 40 34
-594.578743884819 -267.246521604126 1789.98457928794 37 39 34
-562.917353371516 -264.648214042774 1810.45298082107 34 36 31
-540.8005177233 -262.855248152535 1826.8849314278 34 37 30
-570.500003114329 -265.448309598156 1822.51452414941 34 37 30
-585.827073954369 -266.825095921334 1823.99950187579 32 35 28
-580.018025900549 -266.411385901527 1833.86526096197 29 32 25
-551.100223734123 -264.037585715286 1852.68936494205 28 31 24
-548.140172441496 -263.862942502448 1861.29299519497 26 29 22
-561.558142714764 -265.077006696772 1863.58523169253 26 29 22
-569.2061943394 -265.80162919859 1868.14367933364 26 29 22
-573.00198453404 -266.199243758536 1874.19210156285 25 28 21
-574.868682791725 -266.432639954394 1880.97543219105 22 25 18
-580.602212857235 -266.994151565153 1886.32218598783 21 24 17
-577.634738304619 -266.815934794643 1894.90051128857 20 23 16
-580.469239976889 -267.130282534459 1901.32874833706 17 20 13
-573.616460147511 -266.620427406604 1911.27728630119 16 19 12
-539.602715821358 -263.798840011765 1930.94639616507 15 18 9
-548.22878180769 -264.603580317807 1935.18911687393 15 18 9
-563.662029596006 -265.987505326264 1937.06380180697 14 17 8
-588.832863320088 -268.201111700166 1935.60242651467 13 16 7
-618.900670469931 -270.832554450207 1932.57529379132 12 15 8
-633.43941725284 -272.141918977207 1935.07226577768 12 15 8
-685.005066816797 -276.607476823441 1924.97889260953 11 14 7
-693.760931453546 -277.425091635159 1929.69540197865 9 11 6
-657.661430833342 -274.416661081935 1949.53204029971 10 12 7
-636.146732607895 -272.64999362854 1964.28575627842 12 14 9
-597.015406958338 -269.378065718395 1984.72207109922 13 15 10
-522.633775465343 -263.094099856083 2016.46030535718 19 24 18
-504.876414259365 -261.6412089729 2029.37996461158 24 29 23
-503.563092100226 -261.653436693672 2043.9795968623 22 27 21
-486.725067861248 -260.27554536931 2056.3679738881 20 22 17
-499.292267186712 -261.410351298057 2059.44875352945 23 26 19
-505.984563935563 -262.042584452831 2064.41332082098 26 29 22
-515.631438198098 -262.927423983091 2068.49921174522 26 29 22
-511.524294703353 -262.635142920302 2076.81450423993 26 29 22
-498.55287381616 -261.583260998531 2087.76678584772 28 29 23
-461.926976466585 -258.504765177242 2105.69325182589 28 31 24
-453.821953822542 -257.866670698511 2114.96974164908 28 31 24
-464.438855538667 -258.831513036708 2118.71032441929 28 31 24
-463.226796351367 -258.782574966602 2125.93004430225 29 32 25
-442.258669985713 -257.039599234269 2138.80179637454 31 34 27
-454.859262391905 -258.17312603044 2142.00736555713 32 35 28
-451.651383660923 -257.950930725177 2149.72088300606 34 37 30
-465.261876613361 -259.170624407237 2152.72436431411 31 34 27
-460.070924025723 -258.77715159263 2160.97589362662 31 34 27
-440.002135497507 -257.106003061014 2173.24504250531 32 35 28
-427.836873244904 -256.111936781568 2183.25761096641 31 34 27
-432.525699168646 -256.563839650927 2188.69110464674 30 31 25
-457.085341021946 -258.722018790734 2188.89180796677 28 29 23
-452.850484627722 -258.406937564235 2196.74732232654 23 26 19
-468.502264491259 -259.799962308166 2199.42762892714 23 26 19
-480.192160343211 -260.852434215144 2203.19945449352 22 25 18
-488.907703439419 -261.649211048636 2207.77941389399 21 24 17
-477.694670132269 -260.732107062035 2217.38251145081 25 27 22
-509.361818923904 -263.501887213608 2216.30883238095 16 21 15
-489.156710535523 -261.810062465623 2228.08490621742 11 16 10
-499.89157760011 -262.779009493376 2232.25995069728 12 17 11
-500.640996756751 -262.888460489622 2238.87054492126 0 4 0
-640.656551386078 -278.035865298016 1755.52341679911 24 29 25
-616.729635964663 -276.025024874705 1773.16509131677 36 41 35
-576.469860414971 -272.585815701043 1797.31087525205 39 42 35
-555.330876347835 -270.814250994088 1813.4626361321 36 39 32
-561.034717384938 -271.386481687222 1818.69239291784 34 37 30
-576.35064827527 -272.798719046895 1820.11362826576 32 35 28
-586.880246937096 -273.792969427997 1823.51057618503 29 32 25
-575.295430062397 -272.852921584272 1835.64412015766 27 30 23
-561.764907945014 -271.741361689914 1848.45549543308 26 29 22
-550.13856888278 -270.795298503488 1860.43867343399 23 26 19
-566.454409633746 -272.294518470848 1861.62114146829 22 25 18
-562.528498791332 -272.021342207899 1870.5963244875 21 24 17
-566.318966396906 -272.42337399727 1876.62312520179 22 25 18
-568.179797199429 -272.65609159263 1883.3850995518 18 21 14
-560.36969500642 -272.040379559043 1893.74244010271 17 20 13
-568.030427020284 -272.780563611638 1898.33814279524 17 20 13
-573.762704823412 -273.351461847199 1903.67432096372 17 20 13
-573.685419357905 -273.412209330606 1911.14166316546 16 19 12
-565.84513950304 -272.791050179304 1921.39132802002 15 16 8
-553.137358649964 -271.74141177719 1933.32103696158 15 18 9
-576.350472297818 -273.845652422568 1932.45271929309 14 17 10
-593.762196922885 -275.44075974867 1933.74713072172 13 16 9
-596.604487825786 -275.755777286336 1940.2038647816 12 15 8
-666.531821875635 -282.163535508947 1946.40267161205 5 10 6
-624.50761698721 -278.52910222039 1968.01612087917 8 13 9
-632.254297807108 -279.27345717928 1972.92923037361 8 13 9
-556.888603025452 -272.69886637688 2005.09363626896 14 19 13
-512.724968669077 -268.868378506716 2026.68115162862 15 20 14
-502.770286328144 -268.049199755026 2036.99811444179 23 28 22
-491.818333459709 -267.141032991903 2047.56491000215 24 29 23
-489.488374763906 -267.047410890508 2062.35218944574 23 26 19
-518.76534250687 -269.684453624133 2060.28253887525 25 28 21
-492.055373389516 -267.383190855853 2075.56820773943 25 28 21
-471.205576609921 -265.597116164785 2088.90650479908 25 28 21
-459.182083580163 -264.58865671551 2099.45452169253 28 29 23
-460.929644434379 -264.794756739068 2105.81275186617 29 32 25
-485.350914231686 -267.002728383491 2105.46827048175 29 32 25
-437.788277346235 -262.852817674346 2126.32751267117 28 31 24
-436.554490982901 -262.793517655115 2133.47403482265 29 32 25
-448.159991732996 -263.868173663516 2136.91851203654 31 34 27
-436.051249925466 -262.846562082728 2147.15832049373 32 35 28
-454.593989448862 -264.533814245606 2148.6965437341 33 36 29
-447.41765609364 -263.946853022777 2157.49247162336 30 33 26
-443.200871521202 -263.620806687433 2165.42200591112 30 33 26
-439.967100040271 -263.380936954867 2173.04961833997 31 34 27
-431.764494794641 -262.70076707219 2181.99036729652 30 33 26
-433.477487018387 -262.897207954229 2188.22634919679 31 32 26
-447.115001025847 -264.148859324525 2191.3109069973 29 30 24
-435.908824471617 -263.200596402065 2200.95820543224 23 26 19
-460.509685525445 -265.422580004173 2201.2716647678 24 27 20
-478.172098992822 -267.030217324519 2203.48892395184 24 27 20
-487.88491092497 -267.933651353668 2207.80695990424 22 25 18
-506.584863561752 -269.633193826121 2209.92112516362 23 25 20
-481.395249417943 -267.442753712479 2222.98803664959 17 22 16
-522.08509380909 -271.0910856404 2219.79044483828 9 14 8
-498.863850417174 -269.073457466721 2232.26378595526 14 19 13
-618.759294563703 -283.1159640777 1764.53407792008 37 42 36
-611.092664019572 -282.497435748207 1775.42587864539 36 41 35
-584.234176707775 -280.149609981265 1794.08677540887 33 36 29
-591.878089835325 -280.908182616742 1798.60842328435 32 35 28
-571.681775510096 -279.157712090374 1814.35049401228 31 34 25
-562.023928265186 -278.35570004388 1825.7577801774 30 33 24
-557.157323110953 -277.984785270853 1835.20023499575 26 29 22
-574.417673518636 -279.608822457218 1835.913429802 26 29 22
-570.511013815806 -279.323611522179 1844.9686156138 25 28 21
-587.8017790206 -280.950704200598 1845.79280552285 22 25 18
-590.646445756308 -281.274199343309 1852.25300826828 21 24 17
-544.259776411184 -277.151354870229 1877.46222826952 19 22 15
-548.036780644277 -277.556905859035 1883.43589125975 20 23 16
-575.986159418917 -280.146301929668 1880.36356504319 18 21 14
-552.69689453291 -278.105508466185 1896.49530141996 18 21 14
-540.020877710301 -277.022515473562 1908.56400232337 19 22 15
-563.173862743096 -279.178557505194 1907.44066323112 18 21 14
-564.056591582178 -279.32051814804 1914.52475626653 17 20 13
-563.967663768213 -279.374258028965 1921.95329694363 15 16 8
-568.73102878218 -279.86644483806 1927.63903550855 16 17 9
-564.752799818454 -279.566999484732 1936.43655652586 10 13 6
-563.683378347015 -279.530117303607 1944.17917985691 11 14 7
-605.433014166603 -283.371359212478 1937.00195187442 21 24 17
-516.662958148617 -275.776354139206 2025.25091038864 5 10 4
-516.502833204417 -275.814819353221 2032.42568272299 28 33 27
-482.023999721289 -272.736508727923 2050.53008931011 16 21 15
-472.021165398642 -271.879238478537 2060.69232223024 19 21 16
-526.806400249878 -276.906652359882 2050.50802154988 26 29 22
-503.059915673667 -274.799866183598 2064.98385517366 25 28 21
-499.925926353642 -274.564842991597 2072.97980837969 25 28 21
-441.677833907313 -269.318741361237 2097.72043721962 26 29 22
-438.489097821361 -269.07634663717 2105.51778041328 28 29 23
-476.684185640988 -272.596931044396 2100.93094027635 30 33 26
-470.552509688766 -272.086068648198 2109.66111115609 28 31 24
-424.932171977732 -267.981460852205 2129.90955782108 27 30 23
-407.88446956536 -266.474826927897 2141.60165124522 29 32 25
-426.390814245828 -268.203216465595 2142.9787755821 30 33 26
-455.801755025135 -270.924604256081 2141.35236056167 29 32 25
-449.619413094323 -270.405282598588 2149.8997593279 30 33 26
-446.397344126122 -270.154808676277 2157.57751582315 28 31 24
-447.132702055626 -270.264019814849 2164.13605490026 28 31 24
-445.882762696985 -270.191933772336 2171.23067657182 29 32 25
-441.65055755022 -269.847402345279 2179.11369878616 29 32 25
-429.461960845618 -268.776819003934 2189.08886889007 30 31 25
-409.300455135063 -266.978540843716 2201.09311101249 31 32 26
-419.947159773295 -267.988133011272 2204.9160934917 28 31 24
-440.562622620129 -269.906703054934 2206.21032039795 25 28 21
-475.153270332552 -273.100123000068 2204.03459469016 24 27 20
-507.797400875985 -276.116499813032 2202.53624877474 26 29 22
-493.592749101377 -274.858578044494 2212.93711798394 19 21 16
-523.296421459543 -277.60678134119 2212.38155705766 20 22 17
-539.051998860554 -279.082112491742 2215.3952796148 11 16 10
-591.095308904983 -287.534391230905 1775.93245931889 33 38 32
-609.284074794138 -289.287449736006 1776.1139721303 35 40 34
-601.596899306813 -288.639914973034 1786.94780665183 33 36 29
-597.735364272077 -288.346463361195 1796.17573424399 32 35 28
-580.415450669652 -286.802926642341 1810.77677974824 31 34 25
-552.490994484055 -284.273077656972 1829.49118332287 30 33 24
-561.083787742195 -285.13375802479 1833.57505128673 26 29 22
-565.835329549913 -285.637509956482 1839.20866196866 25 28 21
-560.955425271701 -285.24575596029 1848.61396751829 25 28 21
-576.315901937381 -286.735122189776 1850.15189746869 22 25 18
-581.08139493561 -287.239447851226 1855.83694396369 21 24 17
-577.159521728393 -286.93526301265 1864.84762414486 20 23 16
-543.268805094409 -283.842018495287 1885.14502180273 21 24 17
-570.257474788023 -286.412624291686 1882.4139546419 18 21 14
-558.567525355935 -285.383241438593 1894.21356348253 18 21 14
-548.698138983407 -284.579723892222 1912.62996661214 17 20 13
-569.940051655952 -286.615447346867 1912.27979402554 16 19 12
-570.824255982904 -286.754639688161 1919.37204204142 19 20 12
-581.422295774071 -287.798686264248 1922.99165974918 11 12 4
-550.227846587958 -284.946247017565 1941.45784797007 9 12 5
-571.523219293309 -286.986824764961 1941.30309726108 19 22 15
-628.872786357994 -292.390620142914 1928.71307076789 8 11 4
-483.385196046142 -279.221506817114 2035.90344561803 28 33 27
-454.775148073308 -276.595259726822 2052.13231295344 16 21 15
-491.837836706759 -280.10631844174 2047.24436001266 26 31 25
-514.228562075492 -282.246419159996 2047.19728508155 33 35 30
-436.455440767023 -275.019668538333 2078.62776846303 26 29 22
-505.0349028962 -281.478873539986 2064.20349966531 25 28 21
-465.501534319536 -277.825395127994 2083.387069886 25 28 21
-433.782993872739 -274.901142565443 2099.95367816574 26 29 22
-424.674769612559 -274.09140360051 2109.51016473753 28 29 23
-429.353131470612 -274.571210511566 2114.88719024172 30 33 26
-467.580614149838 -278.191845263926 2110.35838834155 28 31 24
-423.912569136956 -274.144101270212 2130.02677355939 27 30 23
-409.819863674279 -272.864351281958 2140.85705867912 29 32 25
-439.210269976755 -275.657016311461 2139.10940245355 30 33 26
-451.819315742569 -276.877708242487 2142.2913258006 30 33 26
-457.512673915244 -277.45022846626 2147.4819789708 30 33 26
-458.25716922068 -277.558467427113 2154.07412809349 28 31 24
-455.033357836092 -277.294166253442 2161.75507416335 28 31 24
-444.855932937439 -276.377184380466 2171.30585626428 29 32 25
-438.633244879134 -275.830263232908 2179.72088263994 29 32 25
-411.52926564047 -273.324046604598 2193.67213726284 29 30 24
-408.251877430441 -273.051584946 2201.15931518358 30 31 25
-410.938726093131 -273.338002932461 2207.05790795335 28 31 24
-441.514110578207 -276.240787637403 2205.74399928787 25 28 21
-462.164260975389 -278.212528671822 2207.13344488996 23 26 19
-503.787043619163 -282.152735707031 2203.31907491259 23 26 19
-494.562985786824 -281.320241854844 2212.4598603783 20 22 17
-479.329884287764 -279.922761965728 2223.02672740691 21 26 20
-530.043114452283 -284.716891911329 2217.35554366924 16 21 15
-480.798816883488 -280.124160841514 2236.147003316 10 15 9
-621.859748554995 -297.373594047026 1763.14761436673 36 41 35
-592.129627984965 -294.595360636149 1783.10739767425 34 39 32
-601.698678010741 -295.569517809249 1786.84795197669 33 36 29
-591.111200915711 -294.617721393146 1798.79552012723 32 35 28
-580.505111784623 -293.663079205358 1810.67578210702 31 34 25
-582.384259986196 -293.901092451152 1817.50242197313 29 32 23
-574.638015562723 -293.218362770623 1828.13916534041 28 31 22
-574.583770439369 -293.270510537636 1835.6974812275 25 28 21
-564.886650540572 -292.399727318177 1847.00330326687 24 27 20
-566.748912754977 -292.633996856955 1853.76961235282 23 26 19
-566.680339922024 -292.683223829147 1861.27750532177 22 25 18
-607.187411029661 -296.616388741478 1853.32423408949 22 25 18
-576.203678318812 -293.70514343576 1872.61082737336 21 24 17
-582.839652615422 -294.449252759325 1885.08921747341 18 21 14
-554.667764523108 -291.803263812224 1902.95735054307 18 21 14
-572.029241099897 -293.519696399244 1903.987673376 17 20 13
-581.649964577497 -294.494226524839 1907.91984561466 16 19 10
-579.628199282745 -294.352236530224 1916.08928293929 12 14 3
-586.347680699051 -295.048044513986 1921.11557277669 20 21 13
-574.594764618543 -293.971520440804 1932.71116129136 15 18 11
-569.635111817167 -293.545819112414 1941.84180877315 12 15 8
-472.61531790737 -284.645763975125 2039.2510386 15 20 14
-493.010705976972 -286.649048924112 2039.67561545805 28 33 27
-522.915208616531 -289.650938887842 2051.39449467672 26 29 22
-482.425238662657 -285.796957204784 2071.05022814823 26 29 22
-449.746342510102 -282.692613695915 2088.06124429697 26 29 22
-434.744562719416 -281.287689611943 2099.49166336587 26 29 22
-400.992308235866 -278.077124263395 2116.4808936972 28 29 23
-411.571563735244 -279.132515678773 2120.02360647355 27 30 23
-447.826141776735 -282.659762815535 2116.02139715237 27 30 23
-461.412899428606 -284.004671093873 2118.85862902288 28 31 24
-442.398138165145 -282.209555335176 2131.22219156253 29 32 25
-447.093182072401 -282.697126014465 2136.656252609 31 34 27
-465.650931230612 -284.519901087792 2138.16464161068 31 34 27
-468.383231811789 -284.817699053557 2144.22480372227 30 33 26
-476.073684755793 -285.592918698342 2148.90873476449 28 31 24
-459.963500479515 -284.073560331396 2160.19243341958 28 31 24
-463.682525695057 -284.46490326289 2165.96073092731 29 32 25
-422.697461412125 -280.545805217815 2183.81938725299 29 32 25
-420.424617310391 -280.357735618398 2191.08571042759 24 25 19
-412.176314681903 -279.592794045374 2199.91031436546 26 27 21
-433.782947792331 -281.706745471113 2200.86488823579 28 31 24
-461.396473701184 -284.400049073096 2200.37632476251 27 30 23
-496.026867074707 -287.770498492047 2198.23639976228 25 28 21
-479.816444204165 -286.235741585936 2209.15858301711 22 25 18
-468.572973948783 -285.179243715742 2218.73575112887 21 23 18
-467.302894375197 -285.084610118457 2225.76983147541 23 28 22
-449.029054649889 -283.34808336691 2236.95098005335 20 25 19
-507.778643592754 -289.045967780672 2229.37328797553 5 10 4
-654.542965564686 -307.506015225629 1741.71640942004 36 41 35
-611.427343889462 -303.328249792325 1767.41424333304 39 44 38
-599.90304634536 -302.251767352294 1779.85862138037 34 39 32
-588.358732048295 -301.172276678052 1792.23058038872 32 35 26
-564.30382185503 -298.862371726457 1809.58677811423 31 34 25
-577.709501536098 -300.233525440734 1811.73420395268 30 33 24
-590.17013920298 -301.511802949128 1814.32876059669 28 31 22
-575.684155747387 -300.14013404525 1827.65323478466 26 29 20
-579.483630512858 -300.566018146688 1833.69748919464 25 28 21
-591.001100161763 -301.75093585242 1836.74551072002 24 27 20
-579.370480952219 -300.657997600226 1848.80552660037 23 26 19
-582.207118609396 -300.988023141934 1855.23272502132 22 25 18
-599.543612567325 -302.745237759033 1856.14454464806 21 24 17
