ply
format ascii 1.0
comment KinectMotionCapture
element vertex 750
property float x
property float y
property float z
property uchar red
property uchar green
property uchar blue
end_header
-797.713497879685 88.4077406190381 2124.61030632992 125 127 124
-797.936544206964 88.345568453519 2115.82612750162 128 130 127
-799.156231538402 88.1923822256209 2107.10020363918 130 132 129
-799.379173756588 88.1296976054618 2098.31954352054 125 127 124
-798.605576593223 88.1574148071214 2089.4759992957 122 124 121
-799.824999770653 88.0035036521352 2080.7596211161 114 116 113
-800.04788306529 87.9400244619374 2071.9804107858 113 115 110
-805.25277140226 87.4230485577339 2063.55971378475 100 102 97
-803.482544058344 87.5403996373679 2054.646684846 93 95 90
-802.7089808682 87.5667873753062 2045.80038535424 80 82 77
-801.935532416656 87.5928444713181 2036.94924646269 77 79 76
-804.150296206831 87.3470050551202 2028.34096545394 77 79 76
-820.309415162602 85.8333739933451 2020.93861153028 107 109 106
-863.35728287511 81.8760790084254 2016.00195867212 94 96 93
-902.415610705177 78.2823152493824 2010.93870457696 91 93 90
-926.530992245274 76.047096128153 2004.68720556741 157 159 158
-939.689772859219 74.8076927410598 1997.50910199473 164 166 165
-940.898394328493 74.6538664223889 1989.21498307977 146 148 147
-943.102629295174 74.4093864861705 1981.02898946012 122 124 123
-936.346568003477 74.9783545889974 1971.91440060209 110 112 111
-938.550814428493 74.7334064546126 1963.72745643589 132 134 131
-933.786686913545 75.1208254083916 1954.78258535706 151 153 148
-938.976841191333 74.604471082334 1946.93841383319 157 158 153
-940.185003991425 74.4493564267952 1938.66083798187 165 166 161
-431.861716646502 112.917970825713 2330.61033895649 161 162 156
-436.103950585369 112.50188492272 2320.80435192306 162 163 157
-437.35061709277 112.350860902049 2311.03563480278 138 140 135
-443.588488395277 111.757611554688 2301.25932557483 81 83 78
-450.82419862814 111.075828842894 2291.51576536603 64 66 61
-493.993941535136 107.212667387716 2281.91688104263 104 106 103
-676.12928780371 91.0098151429189 2264.23754312984 138 140 137
-688.33670264646 89.8899751495562 2255.26232571821 135 137 134
-703.535991214334 88.5054564531225 2246.39461266135 163 165 162
-716.737624163709 87.2977382321975 2237.5757124625 167 169 166
-730.935150403404 86.0019808926228 2228.84748474205 137 139 136
-740.142278581377 85.1476670586661 2220.08515494642 134 136 133
-739.371724746512 85.1756843920831 2211.12298915949 132 134 131
-742.591544847247 84.8505568178881 2202.26597895149 133 135 132
-745.810938636151 84.5252726543128 2193.42546235305 137 139 136
-753.019590244635 83.8471857392589 2184.73409039489 137 139 136
-761.224548059097 83.0809497756561 2176.11713470653 160 162 159
-773.417742377034 81.9621498191814 2167.6988213787 142 144 141
-787.603558964379 80.6673792460458 2159.42930695039 124 126 123
-794.807355285837 79.9895046036828 2150.9279243509 122 124 121
-798.021873075427 79.6639580746054 2142.27769698919 119 121 118
-795.253822626905 79.8666060109502 2133.34647496995 120 122 119
-792.486174697557 80.0688616947521 2124.3990999364 123 125 122
-791.712775792501 80.0947255429311 2115.54581710181 127 129 126
-792.93296700761 79.9442710764607 2106.80313287497 129 131 128
-796.146569421581 79.6176778368644 2098.18755768634 128 130 127
-797.366544666818 79.4668275895706 2089.46221413953 127 129 126
-798.586123730563 79.3157858570986 2080.74282434762 118 120 117
-798.809088393383 79.2524650615224 2071.96060393877 115 117 112
-800.02841657514 79.1009649542944 2063.25052731652 100 102 97
-797.262081919803 79.3008003499836 2054.24922626624 93 95 90
-795.4926263765 79.4123760522349 2045.30915631866 77 79 74
-795.715778625233 79.3479399778266 2036.51840690199 74 76 73
-796.93501570285 79.195473810801 2027.81085366452 75 77 74
-812.099809282738 77.8136084549377 2020.30349797644 100 102 99
-840.210789124557 75.2909998624799 2014.02357134282 86 88 85
-883.257515047361 71.4529065909857 2009.25953320101 85 87 84
-911.359840561358 68.9323888249247 2003.3294174355 111 113 112
-934.4789709474 66.851415078576 1997.07231968097 160 162 161
-939.67102692265 66.3496974069829 1989.16021415651 157 159 158
-943.866737103756 65.9356141567544 1981.17468703792 154 156 155
-939.101430113833 66.3103948751864 1972.27166875148 140 142 141
-938.318951482119 66.3341895810614 1963.77103140297 121 123 120
-935.545522462853 66.5330027744313 1955.04590510915 130 132 127
-938.74500687975 66.2058767854036 1946.9815381283 162 163 158
-942.939316710536 65.7911310196818 1939.05003019314 171 172 167
-967.038530394041 63.6253369103873 1933.5049702587 147 148 142
-442.576509717583 102.205661909954 2330.55481012293 139 140 132
-432.838564875158 103.000355662391 2320.89111670983 114 115 107
-433.086868402599 102.937596259207 2311.11916847283 86 89 82
-440.324295815336 102.274862576262 2301.32894830596 75 77 72
-450.555572035462 101.355191991171 2291.5773519865 72 74 69
-671.885230786133 82.2483934320774 2264.2606815447 136 138 135
-684.093601489796 81.1613725927402 2255.27401966896 156 158 155
-696.300533775331 80.074476485004 2246.35303487211 165 167 164
-713.495307089657 78.560126850749 2237.58111121753 154 156 153
-726.696322579179 77.3881643113987 2228.82473518585 139 141 138
-735.904418216312 76.5584558034229 2220.05101303877 133 135 132
-736.131720806208 76.4981814616569 2211.10252245985 132 134 131
-741.347137640463 76.0103058318012 2202.29225615733 134 136 133
-747.559594655086 75.4369035085599 2193.53986033403 140 142 139
-754.768644316858 74.7780667637678 2184.85360042467 138 140 137
-761.976945837525 74.1192009887137 2176.20587407923 159 161 158
-772.176155239456 73.2042112792652 2167.71258606421 147 149 146
-782.373959615958 72.2893555513725 2159.27435516925 128 130 127
-788.581247125852 71.7160272183627 2150.71475615572 127 129 126
-793.790833807804 71.227975058018 2142.14148764537 121 123 120
-791.022844147014 71.4224142107194 2133.1990758713 120 122 119
-787.258308078577 71.7017653127825 2124.18815999301 123 125 122
-785.488073873005 71.8101903856123 2115.26581517287 126 128 125
-788.702627298883 71.4919867026707 2106.62207920421 127 129 126
-792.913485742727 71.0884251732519 2098.05580291477 131 133 130
-792.140177308736 71.1108588544155 2089.19530110843 132 134 131
-793.3601919045 70.9626270995754 2080.461906354 121 123 120
-793.583514421666 70.8993460758493 2071.66574246158 120 122 117
-794.803516007819 70.7506495016261 2062.94168186879 110 112 107
-793.033705477031 70.8572062229819 2054.00077227851 102 104 99
-788.275183123881 71.2187770586767 2044.81840312905 80 82 77
-787.502346410247 71.2395578039819 2035.92836527354 76 78 73
-792.707436343264 70.749551806087 2027.52874740887 76 78 73
-805.881190735945 69.5790851177811 2019.83943560902 82 84 81
-832.998677014832 67.2184054226257 2013.45438399112 97 99 96
-874.056972879057 63.6683807488481 2008.48873821836 160 162 159
-906.145914913427 60.8847266560357 2002.90727511718 169 171 170
-926.279403203471 59.1219032077388 1996.34720824631 167 169 168
-935.455945069506 58.2941731733131 1988.80884111454 129 131 130
-942.639576930461 57.6364765845687 1981.11722112504 140 142 141
-937.873974423425 57.997801682466 1972.21130506211 154 156 155
-937.09126733796 58.0191845587303 1963.70768205245 167 169 166
-932.326718721029 58.3797789382213 1954.75979172422 158 160 155
-934.530996875067 58.145989035104 1946.57426353907 131 132 127
-935.739856543523 57.9969276992145 1938.28527603466 155 156 151
-431.818437776568 93.2526977472226 2311.18677145181 101 104 95
-440.05488871305 92.526119531937 2301.39086168077 71 74 67
-450.286926247674 91.6337499925683 2291.63882431361 82 84 79
-627.477039320574 76.8390358469717 2273.18882231499 158 160 159
-669.636829150474 73.2985649129213 2264.30072129001 142 144 141
-679.85011148516 72.4100031652861 2255.28579062156 170 172 169
-694.054240589541 71.1903176573104 2246.38118014953 156 158 155
-708.256651649098 69.9708463302813 2237.55327158007 163 165 162
-722.456868673326 68.7516621579288 2228.80209704823 138 140 137
-734.659545413923 67.6982792744147 2220.0834176086 137 139 136
-735.88464518972 67.5552057667777 2211.15681493104 134 136 133
-740.102795657168 67.1637923649659 2202.31858482201 140 142 139
-745.318201023174 66.6895409771781 2193.53272018843 146 148 145
-751.530414595294 66.1325736609351 2184.80748558625 143 145 142
-759.736668875259 65.4102565901238 2176.18701625941 156 158 155
-769.936783295687 64.5227097254509 2167.68782299948 152 154 151
-781.132795592163 63.5526442738057 2159.28505051356 126 128 125
-788.338088707388 62.9132334767193 2150.76646754319 126 128 125
-792.550898624908 62.5215732173824 2142.14602435765 123 125 122
-791.776949458358 62.5427101483611 2133.2998474606 123 125 122
-787.015024357508 62.893753263451 2124.23916562343 120 122 119
-783.250736547992 63.161844719244 2115.20645718551 127 129 126
-784.471657218757 63.0170028939318 2106.44128972646 130 132 129
-787.686290765123 62.7069554760931 2097.80317994087 128 130 127
-788.906757626792 62.5617393105205 2089.05534697565 124 126 123
-789.130390386535 62.4987958247361 2080.24742015082 119 121 118
-791.347455340536 62.2707514813108 2071.57763345491 116 118 115
-793.563984183893 62.0425829153544 2062.91934165134 110 112 109
-792.790808611651 62.0614100915105 2054.04977476025 108 110 107
-788.031918652909 62.4094544701012 2044.86724924291 97 99 94
-787.2590176565 62.4277015197185 2035.97700329366 86 88 83
-791.468002275651 62.0339868226745 2027.49453533472 78 81 74
-800.657828352529 61.2286483825482 2019.46101759363 67 69 64
-822.796883527048 59.3536262925347 2012.62162744614 71 73 68
-870.831817946565 55.3401516994188 2008.26294424693 176 178 175
-902.923404289742 52.6444567568172 2002.67257615829 175 177 174
-918.078835634195 51.347820153811 1995.62264113433 142 144 141
-927.256629046951 50.5448898988947 1988.06198731438 119 121 118
-936.43290414381 49.7421119171992 1980.55151325044 123 125 122
-939.633448087928 49.4325595190177 1972.46460544376 136 138 135
-940.842042917931 49.2872329879437 1964.18065410105 169 171 168
-937.072414093271 49.5523799881304 1955.35352950758 163 165 160
-931.312087378049 49.9814047393458 1946.28008544694 152 153 148
-928.539310217317 50.1636860632295 1937.52105640345 152 153 148
-413.573040565452 84.9248610029265 2311.34477298517 141 144 133
-433.794014596059 83.2576440973526 2301.46811524792 95 98 91
-438.036201658648 82.8734407892973 2291.69819337679 82 85 78
-626.223513384343 67.6822681633051 2273.24096459227 124 126 125
-667.388344520212 64.3370366346494 2264.34076723992 152 154 151
-679.598821933075 63.3156259311409 2255.34221498139 155 157 154
-690.809785739669 62.3744822704722 2246.3954644651 155 157 154
-704.015226806181 61.2733793804161 2237.54220518757 154 156 153
-720.212664387804 59.9324429930035 2228.81832807514 140 142 139
-733.41426277142 58.831882982095 2220.11583705882 135 137 134
-736.635348355707 58.5315364722657 2211.23597536804 141 143 140
-738.858281457832 58.3110527562974 2202.34495913453 145 147 144
-742.078587500148 58.010463639856 2193.49530415221 141 143 140
-746.296055536365 57.6297952733218 2184.69528301109 138 140 137
-756.498548262647 56.7695240938385 2176.13242384953 157 159 156
-769.692222601019 55.6696632416179 2167.74038267447 150 152 149
-779.891697842099 54.8097602644599 2159.29585263512 126 128 125
-785.102978285635 54.3493010773308 2150.68601326405 126 128 125
-786.324111628681 54.2081838327063 2141.91653300342 123 125 122
-786.547922007633 54.1467235453892 2133.1032567489 124 126 123
-781.785737657216 54.4840794483369 2124.02868622038 122 124 121
-780.015804567708 54.5816327961234 2115.09222430857 122 124 121
-782.233981490683 54.3598376265588 2106.37636310646 124 126 123
-788.439904666234 53.8188595361332 2097.91414699255 128 130 127
-786.669921275608 53.9157510612049 2088.97894040841 126 128 125
-783.903208285688 54.0920696844569 2079.96717548519 117 119 116
-786.120545483769 53.8695827830551 2071.28339091252 113 115 112
-790.331048887643 53.4876326045267 2062.75419541916 102 104 101
-792.547885906337 53.2648856060116 2054.09900510564 97 99 96
-789.781578049158 53.4401960856604 2045.07032372449 92 94 89
-790.005115041492 53.3763177910983 2036.26513609613 91 94 87
-791.224964432837 53.23264645183 2027.54309472571 90 93 86
-792.444887745105 53.0887872450427 2018.82728734009 79 82 75
-805.619704976754 51.9901354816382 2011.1735454469 71 73 68
-847.682240745533 48.5854393559423 2006.22292978116 181 183 180
-900.696709736665 44.3075524281898 2002.53166349719 146 148 145
-914.857203888192 43.1317740349015 1995.37960222069 138 140 137
-921.047910367285 42.5921312001293 1987.51354101258 130 132 129
-926.241669975218 42.1320183217785 1979.5795236439 116 118 115
-930.438928274203 41.7513586575145 1971.569378388 119 121 118
-933.639891374309 41.4500523206849 1963.47494249885 149 151 148
-930.866100729086 41.6250291932975 1954.73835619475 154 156 151
-928.092933047156 41.7996870324499 1945.98640456176 152 153 148
-925.319915610693 41.9740379215418 1937.21892644782 152 153 148
-928.520340184796 41.6721397223068 1929.14490252419 156 157 152
-395.575554349792 76.4334054483544 2301.62854793963 117 120 111
-405.812182627581 75.5948812001763 2291.75490335308 86 89 82
-655.155664102886 56.1374530506892 2264.29697154908 158 160 157
-672.359481061062 54.7619655781907 2255.32069045846 149 151 148
-688.562772163175 53.4641518639126 2246.42366408103 158 160 157
-702.767426255303 52.3213460341758 2237.58108274665 153 155 152
-715.972111768068 51.2561256187922 2228.79588096465 141 143 140
-727.179091971837 50.3456469025897 2220.03774910233 132 134 131
-735.390436657387 49.6671689650157 2211.26540017596 141 143 140
-739.609205581311 49.2977079321294 2202.42656940846 146 148 145
-744.825381636343 48.850920146683 2193.64007187897 140 142 139
-746.049717936251 48.7128964362794 2184.74873056732 137 139 136
-756.25297532135 47.8800904645509 2176.18547591509 157 159 156
-769.447642569817 46.8159616961793 2167.79299473356 152 154 151
-777.65273308777 46.1378133721542 2159.26543425616 128 130 127
-779.872144122799 45.9224686641228 2150.5175904768 126 128 125
-781.093710122097 45.784102143692 2141.73415402682 120 122 119
-783.312608394092 45.568473814428 2133.00604627252 121 123 120
-783.536622413996 45.5068242692334 2124.18460781361 118 120 117
-779.771955196899 45.7531397906793 2115.1433466171 122 124 121
-783.984604759385 45.3828921392198 2106.54283708275 123 125 122
-789.193648305094 44.9355905992798 2098.02522630775 130 132 129
-788.420351098665 44.9501738006607 2089.15585644881 129 131 128
-784.656452278921 45.195399471888 2080.08339342461 118 120 117
-785.877124108731 45.0555604619184 2071.33332316997 117 119 116
-793.078245103097 44.4539620507345 2063.01840116355 108 110 107
-796.291655937068 44.1600701779639 2054.44542579409 99 101 98
-794.521640351367 44.2505332312516 2045.50457510714 83 85 80
-793.748123108652 44.2638577287508 2036.63312874097 80 83 76
-790.981900438029 44.4306078195618 2027.59192648784 79 82 75
-788.216310979739 44.5970511530894 2018.53497151912 80 83 76
-793.421521330019 44.1487294711834 2010.16607995054 76 78 73
-835.488322226573 40.8591966244519 2005.1817465638 159 161 158
-891.496048495068 36.4963948241336 2001.7369271765 129 131 128
-908.646666918792 35.1288733485872 1994.84838237618 117 119 116
-914.838259337156 34.6058600044012 1986.96555105854 112 114 111
-924.016995063702 33.8527647753156 1979.42157736391 136 138 135
-932.198360547408 33.1765813495009 1971.82338316936 148 150 147
-934.403641519614 32.9605120423738 1963.62701317563 140 142 139
-929.637901082964 33.2809139952444 1954.67322297027 139 141 136
-925.868707591875 33.524293225238 1945.8057114776 149 150 145
-929.069544337719 33.2310780848675 1937.72490165438 152 153 148
-380.574048990059 67.617262788238 2291.81352352481 102 103 97
-401.796086567577 65.984494607412 2281.95698474017 73 74 69
-633.935358556963 48.5429116400786 2264.17824216089 155 157 154
-661.125629613902 46.4675862833844 2255.25490078775 143 145 142
-683.320514554498 44.7659385992584 2246.41032127296 160 162 159
-703.516250204324 43.2139971888816 2237.65316562404 152 154 151
-714.725439471379 42.3335131980272 2228.83157715361 143 145 142
-721.940775311658 41.7513277528631 2219.98193387374 134 136 133
-727.159231128955 41.3182025587779 2211.12100517576 140 142 139
-736.368503580992 40.5870952775869 2202.39783464064 146 148 145
-742.58308411915 40.0795236851545 2193.63312812999 142 144 141
-744.805620894168 39.8697838592156 2184.76913769441 142 144 141
-754.011803886938 39.138883884746 2176.1669365199 162 164 161
-764.214562074003 38.333699538285 2167.65285023002 152 154 151
-772.420852206555 37.6774357556481 2159.11122738171 129 131 128
-774.640770510559 37.4675527745199 2150.34942215522 127 129 126
-777.857552549492 37.1832098408967 2141.64561654457 120 122 119
-780.076819263254 36.9730952030513 2132.90902898681 121 123 120
-781.298303325379 36.8371812681216 2124.13142832285 119 121 118
-780.525267511774 36.8496992459074 2115.2496248488 122 124 121
-784.738159144656 36.4905656963376 2106.65158783141 124 126 123
-787.95343414187 36.205660540039 2098.0154037486 131 133 130
-786.183166664583 36.2918692824912 2089.07982990612 129 131 128
-780.425068262754 36.6747163253825 2079.86971357204 118 120 117
-783.640010641167 36.38928452642 2071.24596391592 116 118 115
-791.83857669432 35.7328595439882 2062.99672697603 110 112 109
-796.048989301957 35.3732006052643 2054.49501473067 105 107 104
-793.28196994386 35.5325253729393 2045.47697704383 94 96 91
-789.518790437259 35.7656757707918 2036.36343527167 88 91 84
-786.75263134528 35.9243663825625 2027.31109449702 84 87 80
-786.976354214829 35.8604836164826 2018.49863734196 78 81 74
-791.185677276484 35.5001544411177 2010.03878867948 83 85 80
-829.270464586113 32.6222500075542 2004.6853434098 161 163 160
-889.267930853221 28.1170939201802 2001.59678678879 152 154 151
-909.408640942336 26.5744183055836 1994.99084478118 134 136 133
-915.600630072599 26.0681646982327 1987.11050390289 117 119 116
-925.77599098438 25.2661329717221 1979.67058308102 154 156 153
-930.970046199525 24.8340121693133 1971.76439288192 165 167 164
-932.179464656779 24.6976792892826 1963.45790802289 139 141 138
-927.41373509281 25.0046159404673 1954.49855965982 135 137 132
-928.623233346369 24.8679017020939 1946.18854661153 147 148 143
-934.81129329304 24.3617338504435 1938.46186391732 151 152 147
-394.5331753981 56.6316687025787 2281.99858667398 127 128 122
-627.689463912487 39.7543668327606 2264.18535859509 145 147 144
-659.874312141787 37.3936602574237 2255.30035284038 145 147 144
-680.074567899706 35.895958062361 2246.42477360069 154 156 153
-696.27838041207 34.6861166333775 2237.59250178075 146 148 145
-707.48913428146 33.8356426235328 2228.75131042555 143 145 142
-716.701683774935 33.1289459251392 2219.92627196249 144 146 143
-726.911475297167 32.3505900797149 2211.17542973587 155 157 154
-733.127330637154 31.8594425535334 2202.36920966275 152 154 151
-739.34258070726 31.3682879797534 2193.59596285441 138 140 137
-739.56961339358 31.3074252844587 2184.65738931353 139 141 138
-747.779324441217 30.6728179193825 2176.00531824622 153 155 152
-758.980942284815 29.8233388576938 2167.51293793839 149 151 148
-770.181016025157 28.9740608135614 2159.08112237206 129 131 128
-771.403695283795 28.8413366624064 2150.26955902033 128 130 127
-776.616094084271 28.4219960160788 2141.65083551988 122 124 121
-775.84315810511 28.4322367007487 2132.76268498796 125 127 124
-781.054555993707 28.0128024113517 2124.18298004437 125 127 124
-778.286697342746 28.1658085463061 2115.19096036896 126 128 125
-780.505662854736 27.960815697079 2106.47164420204 129 131 128
-780.729856937963 27.8987580996084 2097.64273010959 131 133 130
-780.954034131273 27.8365099368041 2088.81427151919 127 129 126
-781.178194056302 27.7740713093979 2079.98628332685 119 121 118
-780.405424568222 27.7829022360342 2071.09011205712 119 121 118
-786.611134993727 27.2914214775234 2062.68935737484 112 114 111
-790.822210046238 26.9428547536144 2054.17366445497 105 107 104
-789.0520235121 27.0226680579965 2045.21873535669 94 96 91
-788.278962916295 27.0308262476783 2036.33321925218 92 95 88
-788.502581216295 26.9674214638575 2027.5253622579 91 94 87
-792.712382922674 26.6184435028098 2019.05899456118 90 93 86
-793.932097382055 26.4834358245962 2010.35152917133 84 86 81
-824.048028527137 24.2805094967284 2004.28005876231 146 148 145
-883.054115954894 20.0113980090566 2001.08330616675 159 161 158
-910.170980282392 18.0248594554964 1995.1336112945 171 173 170
-922.340470490647 17.1079304100008 1987.84916533707 172 174 171
-930.523963568708 16.4761767048975 1980.22484738517 162 164 161
-934.721820372431 16.1294035073129 1972.2276951689 146 148 145
-933.939177612414 16.1385522465151 1963.717746812 133 135 132
-932.160542426818 16.2186792080082 1955.09335706134 139 141 136
-933.369782719952 16.0851546366007 1946.79685081881 145 146 141
-936.57054414835 15.8092450340539 1938.73756601591 150 151 146
-942.758067968708 15.3200102435055 1931.05001841215 160 161 156
-638.418669812847 29.7570689642486 2264.3342502589 149 151 148
-656.626166380543 28.4518522023567 2255.32363100933 153 155 152
-677.826293508318 26.9398536860399 2246.45310166705 153 155 152
-696.028320983675 25.63566094934 2237.64800822319 144 146 143
-708.238153510437 24.7462806487292 2228.82574921378 141 143 140
-720.446309326128 23.8571516744108 2220.06929173626 147 149 146
-727.661805241191 23.3133958233368 2211.25465491773 151 153 150
-730.883955305945 23.0457013717762 2202.36824890815 146 148 145
-732.109519912589 22.9159183704413 2193.4377493529 135 137 134
-732.337046480277 22.8549541993964 2184.47976426043 139 141 138
-738.551975622815 22.3801202184828 2175.73658420882 158 160 157
-750.75305116474 21.4917508573573 2167.2576639717 148 150 147
-762.952205936977 20.6036559188668 2158.84478393351 128 130 127
-770.16137348817 20.0602944487877 2150.27790495359 127 129 126
-775.374466272052 19.654735342755 2141.65618052234 119 121 118
-773.603819643409 19.7311600230082 2132.7155950676 122 124 121
-776.820935033652 19.4631554212246 2124.02562856356 121 123 120
-776.048043247802 19.4703533783914 2115.13248375746 129 131 128
-777.269805392449 19.3397521196486 2106.34971900774 133 135 132
-774.502393612886 19.4840865702052 2097.33092306316 133 135 132
-776.721487019473 19.2843713576533 2088.61227505217 128 130 127
-777.94299045932 19.1532837972848 2079.83909922896 120 122 119
-777.170364345149 19.1594957345896 2070.93451234114 118 120 117
-778.391690893053 19.0281101583573 2062.16793008137 118 120 117
-782.603636013969 18.6905353596835 2053.63003415689 112 114 111
-786.815241289055 18.3529578737865 2045.11474248759 99 101 96
-788.035669570568 18.2212862749495 2036.38296048111 99 102 95
-789.255935891917 18.0894777373695 2027.65736140463 101 104 97
-790.476041454507 17.9575619507229 2018.93793018156 88 91 84
-791.696219490862 17.8254886913567 2010.22482213884 79 81 76
-812.846000202749 16.322107304522 2003.33125754908 112 114 111
-872.853694276308 12.1463586976544 2000.19665520342 147 149 146
-908.940395268779 9.61732711514701 1995.08428926347 161 163 160
-925.096231125296 8.45955277445967 1988.19234177196 168 170 167
-929.29505700252 8.12403023461999 1980.169394896 153 155 152
-931.501138368002 7.92545345954676 1971.96052489405 136 138 135
-931.714651527637 7.8636586087753 1963.54934041351 134 136 133
-932.924079050955 7.73331021526016 1955.24892690195 136 138 133
-934.133576532089 7.6028650378922 1946.95500006583 145 146 141
-929.367375153341 7.88259175795647 1937.97555114215 150 151 146
-926.593541440615 8.0252448335941 1929.20594126152 161 162 157
-647.152338389547 19.9523027927418 2264.46605545432 154 156 153
-661.365996004079 18.9620841589797 2255.43542165364 154 156 153
-674.57924532032 18.0385395049681 2246.46763728626 149 151 148
-689.787691353257 16.9826297662116 2237.60417855 148 150 147
-706.990676717095 15.7944730737475 2228.8615404108 147 149 146
-723.193041670651 14.6730618360448 2220.1901185207 145 147 144
-730.408863020995 14.1485454786878 2211.38342045057 141 143 140
-731.634583190069 14.0216619956188 2202.44995425601 142 144 141
-732.860159213021 13.8946668407266 2193.52200188667 138 140 137
-732.089653234371 13.8999542233261 2184.5335600425 136 138 135
-738.305042880596 13.4416229198613 2175.79010121562 157 159 156
-750.507034066461 12.5862303320072 2167.31080236067 151 153 150
-763.704863758927 11.6649783796945 2158.93880724525 130 132 129
-768.91912018477 11.2731839461001 2150.28638310023 124 126 123
-771.13957318537 11.0797988949192 2141.52139428504 119 121 118
-768.371510597937 11.2168492421854 2132.52021305746 118 120 117
-770.591492017863 11.0232027506603 2123.76404974591 119 121 118
-773.808829581649 10.7633916192254 2115.0741974476 125 127 124
-775.031051977962 10.6355906217606 2106.28577596146 128 130 127
-774.258103202671 10.6397609196707 2097.38228284462 117 119 116
-774.482716213216 10.5777118299246 2088.53700475624 121 123 120
-781.687708921274 10.0535500628552 2080.15390827093 130 132 129
-778.920375836579 10.189213317129 2071.12272619557 122 124 121
-775.15645023089 10.390557189792 2062.00419316325 115 117 114
-775.380989259284 10.327837577134 2053.1610865978 105 107 104
-783.581044151711 9.73764173505814 2044.93409719983 96 98 93
-790.782942132361 9.21350111771063 2036.6719760913 95 98 91
-790.009422133707 9.21650307245264 2027.78955388536 93 96 89
-787.242968128267 9.35099135788786 2018.73207754462 92 95 88
-783.479858448739 9.55105580494392 2009.57095675451 87 89 84
-802.638789900605 8.23703740958642 2002.47367761703 93 95 92
-855.676217963251 4.68654156186255 1998.65678301555 141 143 140
-907.709874857431 1.20376503325287 1995.03529286834 139 141 138
-922.870707997435 0.155902232382044 1988.04135111023 138 140 137
-925.077298304202 -0.0369100304780656 1979.80945462082 139 141 138
-930.27252761788 -0.42694745543273 1971.90256247334 138 140 137
-930.48612457482 -0.488427008279557 1963.48844144646 137 139 136
-930.69969302853 -0.550041517997507 1955.07528951823 137 139 134
-926.929202198911 -0.349178003094863 1946.21283240913 135 136 131
-919.175250230069 0.113954912057512 1936.86814378241 137 138 133
-911.422616521966 0.576606192926626 1927.48074060574 170 171 166
-640.906098917357 11.1510732332707 2264.4730290402 153 155 152
-658.117281877637 10.0082166776656 2255.45864023207 153 155 152
-673.32903076765 8.99302082547576 2246.50980983527 149 151 148
-686.541524802211 8.10539608561075 2237.61011252976 149 151 148
-702.747619229149 7.02736103809981 2228.83950391254 148 150 147
-722.945008464706 5.69555253732323 2220.244757381 143 145 142
-728.164620964822 5.31731755477785 2211.38823360489 142 144 141
-732.385348743948 5.00261256322743 2202.53163681025 144 146 143
-734.609286544925 4.81487184490631 2193.63651037421 138 140 137
-737.830983270668 4.56357825219372 2184.78543240274 136 138 135
-744.046414458134 4.12185366352238 2176.05818101158 158 160 157
-752.25681002643 3.55333572757191 2167.44099345638 154 156 153
-764.457894975689 2.73125490181431 2159.03288107193 135 137 134
-766.678696865817 2.54350441841239 2150.25098162205 130 132 129
-767.901752224723 2.41903028888651 2141.43357720682 127 129 126
-766.131304055918 2.48453118319236 2132.47350613406 126 128 125
-768.351821447047 2.29642567051427 2123.71166947576 126 128 125
-773.564504274131 1.9182650021814 2115.12606112037 131 133 130
-777.779060704026 1.60346244699169 2106.51055727608 131 133 130
-776.008725840424 1.66835235759916 2097.55472660448 131 133 130
-775.235931428315 1.66976256237969 2088.65156165253 136 138 135
-778.452088600567 1.41799627263015 2080.00715628763 129 131 128
-777.679258427072 1.41907088857632 2071.10502868509 128 130 127
-773.915108835467 1.60960344237376 2061.98364143679 123 125 122
-772.145493911965 1.67346455302955 2052.98924357766 114 116 113
-779.349206760145 1.16854952158729 2044.67683411244 103 105 100
-780.570533320771 1.04267505683525 2035.92549355073 100 103 96
-779.797643719509 1.0429583722599 2027.01551416541 97 100 93
-777.031670219006 1.16926117624852 2017.93046908762 96 99 92
-779.249340689288 0.979876082523673 2009.2692012545 98 100 95
-793.426623644216 0.0335222668241264 2001.70731382322 91 93 90
-838.496143363638 -2.86704631720416 1997.11777706511 133 135 132
-900.500059882594 -6.83755584937962 1994.40990466464 139 141 138
-915.662290737522 -7.84410439677249 1987.39637064062 136 138 135
-921.855214764269 -8.28324301979971 1979.55155367021 139 141 138
-928.04727695302 -8.72228723988691 1971.74052167688 142 144 141
-931.249750303914 -8.97236426135939 1963.64206604844 141 143 140
-929.47083813956 -8.90775350827472 1955.01184147757 137 139 134
-924.704102958354 -8.65462629651492 1946.03401968797 140 141 136
-916.949696140783 -8.21314419779279 1936.68386114609 141 142 137
-907.204604006606 -7.64633806523163 1927.05482047924 166 167 162
-632.661443371973 2.43819096590375 2264.46356247201 157 158 153
-654.868100939213 1.03739055310012 2255.48189455486 155 157 154
-667.085137415917 0.245821508673361 2246.48310241961 145 147 144
-681.297576152239 -0.667128203917483 2237.58307201829 146 148 145
-695.508061525794 -1.57970792337414 2228.75978307091 149 151 148
-714.709060760431 -2.79596137579557 2220.12332171799 143 145 142
-724.921733879381 -3.4645786769868 2211.36836071809 144 146 143
-728.144718970521 -3.70760253566879 2202.47580836719 145 147 144
-732.365470349443 -4.01140534796007 2193.6299951312 135 137 134
-735.587538781585 -4.25447775879531 2184.77321685793 135 137 134
-743.799907219945 -4.80115946596363 2176.11169355512 154 156 153
-755.005092940535 -5.52975723049753 2167.60966128159 154 156 153
-765.21082531598 -6.1974344963692 2159.12697791941 132 134 131
-767.431952928634 -6.37961803626774 2150.34765024826 127 129 126
-766.65900300442 -6.3799488611736 2141.43936907627 124 126 123
-765.886418775994 -6.38047771094002 2132.52590741047 124 126 123
-765.113962292962 -6.38119061778908 2123.60725538577 126 128 125
-769.329678818616 -6.68498843270499 2114.95822702296 127 129 126
-770.552110208458 -6.80707260380781 2106.15845084533 134 136 133
-773.769469106025 -7.05038417636566 2097.48548070454 131 133 130
-772.996746696085 -7.0515964668717 2088.57668582492 127 129 126
-778.208082394101 -7.41602174551442 2080.05847594382 125 127 124
-776.43797265937 -7.35701361839386 2071.08753104993 131 133 130
-775.665267811352 -7.35867322487144 2062.17756949612 132 134 131
-771.900985241585 -7.17916814542371 2053.04021425414 124 126 123
-777.111229676318 -7.54381619592406 2044.57374031546 104 106 101
-779.329477982696 -7.72715815922945 2035.89637729396 96 99 92
-778.556830899973 -7.72940332543973 2026.98352934341 91 94 87
-775.790471599084 -7.6110972467745 2017.89565162517 93 96 89
-773.024507770762 -7.49303149702157 2008.79205942236 101 103 98
-781.223105918531 -8.03884554913192 2000.66965840003 85 87 84
-816.330065204458 -10.2128112745498 1995.1127480934 109 111 108
-888.306103968341 -14.6162721484452 1993.30451612116 145 147 144
-912.43929616832 -16.1240412208382 1987.14731944839 148 150 147
-922.618642564775 -16.787499678767 1979.70042138227 139 141 138
-925.82194099113 -17.0290410800012 1971.57888383825 137 139 136
-928.028316231786 -17.2103924667901 1963.36769868348 138 140 137
-926.249711406025 -17.1510133047361 1954.72916976443 138 140 135
-926.463552102832 -17.2121826290141 1946.30585563874 142 143 138
-922.692771079964 -17.03283807647 1937.42231009438 156 157 152
-911.950556805846 -16.4328756934241 1927.69169565245 172 173 168
-852.407629876851 -12.8879997854928 1911.98420542997 186 187 181
-651.618453489159 -7.95038679229768 2255.50518085287 156 158 155
-664.835295178277 -8.76722866865409 2246.5115633335 144 146 143
-678.050323925747 -9.58373793597456 2237.58915898407 145 147 144
-693.260864820917 -10.5160784904959 2228.77650484781 150 152 149
-709.467786506664 -11.5060532588159 2220.06811643623 145 147 144
-719.681569797598 -12.1473348495961 2211.2991170498 146 148 145
-725.900377458496 -12.5562876649672 2202.47508918636 146 148 145
-730.121575884987 -12.8491284770803 2193.62357393425 136 138 135
-734.342210699233 -13.1419692871978 2184.79408660325 137 139 136
-738.562281797254 -13.4347875604934 2175.9866554535 152 154 151
-749.768893016498 -14.1332557844667 2167.47058532273 153 155 152
-756.981541550231 -14.599706786696 2158.85023802334 134 136 133
-763.195050243861 -15.008116007117 2150.22457103953 130 132 129
-765.416324984371 -15.1848844855395 2141.44530737805 130 132 129
-767.637310671727 -15.361696047885 2132.67729465497 131 133 130
-763.871047150414 -15.1914316830234 2123.60743989418 132 134 131
-763.098717685772 -15.1949692915713 2114.68079060368 133 135 132
-763.324082225862 -15.2564907288971 2105.80670668981 137 139 136
-770.532395243959 -15.7227327935107 2097.35603070159 133 135 132
-771.754908161521 -15.8421634548212 2088.56524206094 130 132 129
-774.971983808662 -16.0771995154549 2079.91222793534 129 131 128
-772.204413063692 -15.9658107137125 2070.86427040932 129 131 128
-774.423578295343 -16.143252338455 2062.15740610086 128 130 127
-772.653846429408 -16.0899640942447 2053.16555121571 119 121 118
-776.867091744759 -16.3829607833337 2044.62470372933 105 107 102
-777.091480049779 -16.445272652464 2035.78792575904 104 107 100
-778.312788049876 -16.5653547047258 2027.03420526531 103 106 99
-776.543320636586 -16.5126620320162 2018.03137517583 95 98 91
-772.780030237441 -16.3449372516929 2008.84259369097 98 100 95
-771.011213428614 -16.2926728693652 1999.81387586007 87 89 86
-795.157534270985 -17.7373053776753 1993.20203275415 100 102 99
-872.123704170977 -22.2310497631763 1991.81538379094 152 154 151
-908.218828536838 -24.3633247505291 1986.79980991358 144 146 143
-923.38196604352 -25.2866538193733 1979.84952025312 141 143 140
-925.589048661015 -25.4621647508398 1971.62628418039 140 142 139
-928.791902267697 -25.6951594191037 1963.52198376549 140 142 139
-926.016842652488 -25.5834905451703 1954.77634273942 139 141 136
-931.211811480851 -25.9314346494031 1946.91550303805 143 144 139
-927.440629263147 -25.7626323015124 1938.04564295857 156 157 152
-914.704937265677 -25.0775848394447 1928.09275304194 165 166 161
-648.368341823983 -16.9550184389688 2255.52851343533 152 154 151
-653.59582878077 -17.2933471291739 2246.41640170539 147 149 146
-673.803916324339 -18.4618936028847 2237.57882642641 146 148 145
-689.015876032829 -19.35317623478 2228.7548049857 153 155 152
-701.229616009622 -20.0780536343647 2219.94713505028 147 149 146
-714.440398242223 -20.8579310909648 2211.2300316297 146 148 145
-720.660013318795 -21.2504960938739 2202.39204313556 143 145 144
-725.880446396321 -21.5877120835595 2193.55681617525 135 137 134
-730.101667584383 -21.8696204837294 2184.71614970406 137 139 136
-731.327482472407 -21.9858382905351 2175.79043354658 144 146 143
-746.528186231213 -22.8749945445186 2167.40861675313 148 150 147
-750.747155264833 -23.1566784761423 2158.65621329647 135 137 134
-762.949972688818 -23.8796533004126 2150.27747740138 134 136 133
-764.173482744736 -23.995688266327 2141.45136317571 130 132 129
-768.390400978553 -24.2771938333586 2132.77930359384 126 128 125
-764.624008689943 -24.1177992820737 2123.71213512466 124 126 123
-759.860210805683 -23.9035630233271 2114.56843069674 124 126 123
-758.090504188702 -23.8548654559915 2105.57065987972 124 126 123
-764.301891765936 -24.2467824196777 2097.04560158771 114 116 113
-768.517657547461 -24.5285319802173 2088.42764664052 116 118 115
-771.7351769707 -24.7552310031176 2079.76623987673 143 145 142
-771.959928346152 -24.8169418104818 2070.91591723005 146 148 145
-775.176787229003 -25.0436825477866 2062.28028188317 140 142 137
-778.392970549882 -25.2704353578994 2053.66171208731 126 128 123
-779.614642768751 -25.387316463136 2044.90651838085 100 103 96
-781.833004490264 -25.5591724657077 2036.23705544305 94 97 90
-780.062999192446 -25.5114907286819 2027.24986738746 91 94 87
-779.289960945385 -25.5188502778164 2018.33749127554 84 87 80
-769.544666981917 -25.0326335075682 2008.62980814608 88 91 84
-763.788448843424 -24.7662919969532 1999.23043472786 98 100 95
-779.96246931737 -25.7063313233474 1991.852231693 80 82 77
-848.961706129347 -29.5504005834621 1989.6545534944 127 129 124
-902.004776901813 -32.5153705006999 1986.25513968253 144 146 143
-922.15236394098 -33.6711710851839 1979.79581925513 146 148 145
-925.356138887117 -33.8956438919422 1971.67398460942 145 147 144
-924.573432624631 -33.9012022854986 1963.14140197433 138 140 137
-920.801878757718 -33.7427893228643 1954.27491191164 137 139 134
-927.99032595879 -34.1861419554627 1946.62523778106 162 163 158
-926.211662505729 -34.1373555521037 1937.97762653149 159 160 155
-910.486494332852 -33.3236900298421 1927.66811148398 157 158 153
-590.935898572234 -23.0712950423664 2264.29641884558 147 149 144
-631.132143422033 -25.2395212894026 2255.39821990056 151 156 150
-646.350263498601 -26.0907457521423 2246.37644131155 147 152 148
-665.561592297909 -27.1519666506063 2237.502726804 148 153 149
-683.77133703062 -28.1600092947595 2228.71399936942 157 161 160
-694.987712277456 -28.799494300956 2219.87032406422 143 147 146
-706.202789121092 -29.4387117943627 2211.08700687687 138 142 141
-716.417604403585 -30.0250881172836 2202.33662673328 137 141 142
-723.635532400179 -30.4536696974325 2193.55060100503 133 137 136
-729.854132617864 -30.8296018227306 2184.77013581481 132 136 135
-733.076820213662 -31.0479911861724 2175.9156612362 145 150 146
-746.281872757137 -31.7909770117172 2167.46210530758 141 143 142
-752.497426180078 -32.1664774797079 2158.79185810279 139 141 140
-756.716236015211 -32.4370486488625 2150.06693349114 135 137 136
-757.940007019343 -32.5503665679295 2141.22421307271 125 127 126
-762.157652923298 -32.8209023183039 2132.53549216533 127 129 128
-763.380914638891 -32.9343022193222 2123.71258848134 132 134 133
-758.617051333918 -32.7337060126989 2114.5661200723 126 128 127
-755.849311976029 -32.6380498289645 2105.50786004964 121 123 122
-759.068351573255 -32.8564658080657 2096.79593331476 116 118 117
-763.28453859513 -33.127168338719 2088.16405149713 119 121 120
-763.509872354952 -33.1887416005111 2079.2911149376 121 123 120
-766.727750017237 -33.4071783442355 2070.62457834994 140 142 137
-768.947820849582 -33.5733705530079 2061.90372357389 158 161 154
-776.154340317711 -34.000647908264 2053.56498303564 156 159 152
-776.378766550908 -34.0624146987491 2044.72730796426 134 137 128
-777.600335528908 -34.1764442877345 2035.96988621895 111 114 105
-774.833137522399 -34.081915039074 2026.88925829295 91 94 85
-774.060618173739 -34.091884152409 2017.96312467314 91 92 84
-772.291025561159 -34.0498684130919 2008.94439894863 88 89 81
-766.533916809258 -33.7996418514762 1999.55320600831 100 101 95
-774.734202895727 -34.278841495777 1991.43635991483 89 90 84
-826.793185859827 -37.0483870351921 1987.59085172599 135 136 130
-892.79929935339 -40.5445629750637 1985.41453226593 135 136 131
-917.932303007288 -41.9054462654539 1979.43779214167 152 152 150
-922.13336807324 -42.1734614602283 1971.40913898938 154 154 152
-922.347511154555 -42.2334808973588 1962.9752412898 130 130 128
-919.572199885777 -42.1377144602784 1954.21303615683 136 136 134
-922.775713825101 -42.3537826341344 1946.11042680906 168 168 166
-920.000763670722 -42.2582998955122 1937.33380346088 151 151 149
-898.297214075195 -41.176859357044 1926.30004015586 157 159 156
-839.737712903536 -38.1767268608437 1910.68012289487 169 171 168
-752.298843065509 -33.6749544426945 1891.15770520809 191 193 188
-622.884900542008 -34.0667787544023 2255.36706805478 163 168 162
-637.105568088375 -34.8271525895951 2246.30925147694 136 141 135
-663.311332548159 -36.1854697010692 2237.52554481753 152 157 153
-681.522584096955 -37.144157710738 2228.73091899581 144 148 149
-691.741232831494 -37.7037057688449 2219.859520391 146 150 151
-701.958723631363 -38.2629861989766 2211.0429900309 143 147 148
-714.171703907793 -38.9215503619851 2202.33621386355 139 143 144
-724.386021555562 -39.4802454567868 2193.63500497972 135 139 138
-730.605010418093 -39.8396632761489 2184.85708199241 138 142 141
-734.826212899907 -40.0994871884501 2176.04085924835 143 148 144
-744.038744373202 -40.6078417740965 2167.43881434952 144 146 145
-751.253347980506 -41.0165647852754 2158.80403987298 143 145 144
-753.47600964332 -41.1767396180971 2149.98838746193 138 140 139
-757.694531735845 -41.4362550630735 2141.27725482517 128 130 129
-760.914481739823 -41.646068110981 2132.53898340553 129 131 130
-765.131937354858 -41.9054946912103 2123.86962781963 131 133 132
-759.369458768554 -41.66885079155 2114.6737225936 129 131 130
-755.60363288527 -41.531701545977 2105.56053174618 125 127 126
-753.833802052013 -41.4939212499371 2096.54656881818 112 114 113
-761.044091576966 -41.9022190934959 2088.09018492519 108 110 109
-760.271748010851 -41.9141299722984 2079.14577140811 112 114 111
-766.482857489942 -42.2727254803549 2070.67668495587 105 108 101
-770.697982012986 -42.532206671862 2062.09837788297 102 105 96
-779.899893436483 -43.038964288538 2053.91311602242 115 118 109
-777.131889542783 -42.9520829852216 2044.85577318495 133 136 127
-777.356235860744 -43.0136934571359 2036.02138932068 126 129 120
-774.58881817612 -42.9271707836491 2026.94075033264 118 121 112
-777.804865197438 -43.1372051465356 2018.35478336509 103 104 96
-777.032118769118 -43.149709628682 2009.43480252125 100 101 93
-772.271176968963 -42.9649228463312 2000.14785185287 106 107 99
-772.495830594399 -43.0270952846344 1991.30085395168 97 98 90
-800.63356094912 -44.4701538644388 1985.14388705289 130 131 125
-876.614714878821 -48.2783694292742 1983.88298068851 147 148 143
-906.734616243025 -49.8170565865679 1978.36954922615 144 144 142
-914.923205485521 -50.271007038455 1970.7276421652 140 140 138
-915.137846814479 -50.3308440232784 1962.27446712498 120 120 118
-918.342114769583 -50.5384101754551 1954.15151704456 135 135 133
-923.538979286502 -50.8443311024523 1946.27103330684 149 149 147
-918.77084167505 -50.6583338141857 1937.26661961962 162 162 160
-898.062207013076 -49.6860718542828 1926.34839322893 152 154 151
-829.5355985648 -46.3559954130272 1909.5222317962 165 167 164
-748.06799104533 -42.3901359078219 1890.71439579452 157 159 156
-730.364008784733 -41.5699860256778 1879.53442898384 172 174 171
-625.626774655489 -43.4569785203862 2255.45646637185 138 143 136
-637.850083602214 -44.0846442898871 2246.37918630413 148 153 147
-662.059917227793 -45.2773860294697 2237.56482930578 140 145 141
-680.272605072258 -46.1867231372558 2228.76705727131 144 148 147
-692.489877532858 -46.8130175314607 2219.93650125834 148 152 151
-701.709113082346 -47.2977688751514 2211.09778118101 146 150 151
-713.923006057282 -47.9233854902543 2202.39071013374 143 147 146
-725.136891397068 -48.5016515269499 2193.71940602433 137 141 140
-730.357532026192 -48.797536503057 2184.91112049953 145 149 148
-734.57904114396 -49.04634602885 2176.09473976008 138 143 139
-737.801627017266 -49.2481355509024 2167.26206448008 141 143 142
-743.020605469801 -49.5437837078713 2158.52832164082 135 137 136
-748.238640465456 -49.8393351044935 2149.82223147038 129 131 130
-754.454357478083 -50.1816992281545 2141.19049465665 131 133 132
-756.676669140554 -50.3363491569699 2132.39445368787 135 137 136
-760.894712446846 -50.5847611517991 2123.7139557053 137 139 138
-759.124064962966 -50.5519625902623 2114.72656130985 120 122 121
-758.351793102566 -50.5661764183172 2105.78619734376 117 119 118
-756.581608546719 -50.5336736561634 2096.7803925105 142 144 143
-760.79879264708 -50.7821451316867 2088.14273619461 149 151 150
-761.024280596879 -50.8434143337054 2079.26409983261 156 158 155
-765.240360001801 -51.09181364402 2070.66037153857 134 136 131
-768.458342688871 -51.2933979907368 2062.00782502445 131 134 127
-776.66339210097 -51.7285632551919 2053.74276760173 128 131 124
-774.892999693546 -51.6964659375636 2044.75397578128 106 109 102
-774.119941935618 -51.7111951330234 2035.83444926301 101 104 97
-772.349997115823 -51.6793970331072 2026.82784289054 102 105 98
-776.563594307542 -51.9276231624038 2018.32131403576 113 114 108
-778.782165814417 -52.0825046105913 2009.66187792847 109 110 104
-775.017987210561 -51.9577527132382 2000.47099437675 100 101 95
-772.251308309681 -51.8798068847559 1991.35227200515 94 95 89
-787.430574369185 -52.640321795542 1983.94643993145 83 84 79
-846.471169518809 -55.4485811505214 1980.96955653334 142 144 141
-895.535246032579 -57.7893106161299 1977.3019866757 140 142 139
-909.705815846639 -58.5002905654897 1970.25519837499 127 129 126
-913.907522134703 -58.7458611597626 1962.21625853643 136 138 135
-919.105432204812 -59.0378321769164 1954.30988929686 159 161 158
-925.299096813971 -59.3761221434974 1946.5444113205 163 165 162
-920.530452344518 -59.2034491869956 1937.54550075852 129 131 128
-904.802031943919 -58.5204683314907 1927.22277490656 161 163 160
-615.379423068927 -52.2536496573939 2255.40368428374 115 120 113
-631.601067536575 -53.0261937956951 2246.35333881756 138 143 137
-649.818468092137 -53.8869659992419 2237.42352296153 142 147 143
-674.027375329096 -55.0132607124272 2228.70739335076 135 139 138
-689.242776721162 -55.7397507747154 2219.92580056268 147 151 150
-699.461689831172 -56.2441704477629 2211.10326186266 148 152 153
-709.679206118494 -56.7483045242438 2202.33562248372 149 153 152
-721.892851725421 -57.3407016447177 2193.68321275824 143 147 146
-728.112658097281 -57.6671509412078 2184.8994129468 148 152 151
-730.337603884986 -57.816492741818 2176.00612069807 140 145 141
-731.563591669702 -57.9216117914406 2167.08556412958 142 144 141
-734.786402233947 -58.1151822550132 2158.25293214126 139 141 138
-743.999037161013 -58.5738310983341 2149.70021410858 135 137 134
-750.21549298704 -58.899714121844 2141.05729804379 137 139 136
-752.438001569005 -59.048842822946 2132.25016425993 138 140 137
-754.660459439729 -59.1979799145058 2123.4543282262 136 138 135
-755.884372216053 -59.3029966807135 2114.61497999795 124 126 123
-756.110187195992 -59.3639553212608 2105.72389562221 124 126 123
-755.338110831405 -59.3809295554607 2096.77292709098 143 145 142
-761.551290756468 -59.7063718278252 2088.25851782887 149 151 148
-765.767905023739 -59.9435924405582 2079.64588808586 159 161 158
-769.983946484722 -60.1807280773872 2071.05573683745 151 153 148
-774.199651465178 -60.4177997759477 2062.48812985393 142 144 139
-776.419248488397 -60.5668097956059 2053.79491730304 135 137 132
-774.64871219212 -60.5399896077173 2044.80608298192 125 127 122
-771.880808087575 -60.4693625215479 2035.72738751204 112 114 109
-771.107941689746 -60.4867534911528 2026.79752397014 99 101 96
-777.316659143139 -60.8115741563436 2018.45819099365 98 99 94
-778.538140507828 -60.9168138877955 2009.71363135203 101 102 97
-775.771018114575 -60.8466231221324 2000.61324019776 103 104 99
-772.006772732944 -60.7327512711704 1991.40395960872 105 106 101
-777.216756373633 -61.013550800539 1983.03770848891 87 89 84
-819.314007227236 -62.9150759347996 1978.35362107746 113 118 114
-882.340291301454 -65.7345948002646 1976.03208992648 135 140 136
-909.47170440716 -66.9760783187289 1970.30443632854 123 128 124
-916.664042929601 -67.3416019011339 1962.58624271845 152 157 153
-920.865271675199 -67.5757205156623 1954.57826314757 169 174 170
-924.069363777196 -67.7660331395631 1946.48071152562 146 148 145
-921.293628179987 -67.694123841963 1937.70947465869 139 141 138
-912.539554497324 -67.36036982857 1928.21525305495 165 167 164
-887.843755072481 -66.3285421067105 1916.74189803363 155 155 153
-772.483892752056 -61.3270533726951 1893.9020168925 43 43 41
-611.12603770588 -61.3554510830014 2255.41660844388 48 51 44
-624.351520772235 -61.9592676984202 2246.31398608525 145 147 142
-641.571944867566 -62.7291834943031 2237.34818155948 138 140 137
-668.780466618004 -63.9146074703374 2228.66704742536 149 151 150
-685.995214507686 -64.6832002741837 2219.91518441849 142 144 143
-696.215096802229 -65.1602354483765 2211.08416999527 146 148 147
