ply
format ascii 1.0
comment KinectMotionCapture
element vertex 752
property float x
property float y
property float z
property uchar red
property uchar green
property uchar blue
end_header
-786.85736656189 134.637787938118 1912.99998760223 128 130 127
-780.856192111969 134.499758481979 1911.00001335144 141 143 140
-776.490926742554 134.643524885178 1912.99998760223 158 160 157
-772.11606502533 134.787574410439 1914.99996185303 169 171 168
-767.331182956696 134.861499071121 1916.00000858307 181 183 180
-763.735234737396 135.146841406822 1919.99995708466 181 183 180
-760.118901729584 135.432466864586 1924.00002479553 180 182 179
-756.089568138123 135.64795255661 1927.00004577637 175 177 174
-750.876128673553 135.652527213097 1927.00004577637 171 173 170
-744.502544403076 135.446131229401 1924.00002479553 168 170 167
-739.299058914185 135.451152920723 1924.00002479553 171 173 170
-734.477877616882 135.526806116104 1924.99995231628 164 166 163
-730.030953884125 135.673105716705 1927.00004577637 159 161 158
-724.445462226868 135.608404874802 1925.99999904633 144 146 143
-719.612956047058 135.684728622437 1927.00004577637 143 145 142
-714.775800704956 135.761260986328 1927.99997329712 134 136 133
-709.565699100494 135.767579078674 1927.99997329712 129 131 128
-704.356133937836 135.774120688438 1927.99997329712 135 137 134
-698.784530162811 135.710418224335 1927.00004577637 141 143 140
-693.938493728638 135.787755250931 1927.99997329712 146 148 145
-688.730299472809 135.794848203659 1927.99997329712 154 156 153
-684.940576553345 136.083871126175 1932.000041008 157 159 156
-680.425941944122 136.23221218586 1934.00001525879 166 168 165
-676.598846912384 136.521622538567 1937.99996376038 176 178 175
-672.404110431671 136.740818619728 1940.99998474121 183 185 182
-668.537080287933 137.030631303787 1945.00005245209 183 185 182
-664.307475090027 137.250170111656 1947.99995422363 180 182 179
-660.061895847321 137.469902634621 1950.99997520447 178 180 177
-656.135678291321 137.760281562805 1955.00004291534 179 181 178
-652.853786945343 138.191759586334 1960.99996566772 181 183 180
-649.209260940552 138.552963733673 1965.99996089935 180 182 179
-645.865201950073 138.984829187393 1972.00000286102 179 181 178
-642.813444137573 139.487370848656 1978.99997234344 173 175 172
-639.401614665985 139.919623732567 1985.00001430511 174 176 173
-634.998977184296 140.140563249588 1988.00003528595 171 173 170
-630.896687507629 140.43216407299 1991.99998378754 165 167 164
-626.458585262299 140.653401613235 1995.00000476837 171 173 170
-622.626543045044 141.01579785347 2000 168 170 167
-619.075834751129 141.448855400085 2006.00004196167 166 168 165
-616.104245185852 142.023131251335 2013.99993896484 169 171 168
-614.301860332489 142.87967979908 2026.00002288818 176 178 175
-613.93678188324 144.089087843895 2042.99998283386 181 183 180
-613.777339458466 145.369291305542 2061.00010871887 187 189 188
-611.749410629272 146.226525306702 2072.99995422363 184 186 185
-608.486533164978 146.801799535751 2081.00008964539 181 183 182
-606.918156147003 147.800534963608 2095.00002861023 165 167 166
-590.974748134613 158.858701586723 2250 153 153 151
-584.625780582428 158.800676465034 2249.00007247925 92 92 90
-578.795969486237 158.88386964798 2250 103 103 101
-572.450816631317 158.825874328613 2249.00007247925 95 95 93
-564.599096775055 158.344149589539 2242.00010299683 91 93 90
-555.289685726166 157.438531517982 2229.00009155273 77 79 76
-546.296179294586 156.603425741196 2217.00000762939 113 115 112
-539.803683757782 156.474605202675 2214.99991416931 119 121 118
-533.562123775482 156.416431069374 2213.99998664856 118 120 117
-526.371896266937 156.075641512871 2209.00011062622 113 115 112
-518.500983715057 155.522778630257 2200.99997520447 168 170 167
-511.138200759888 155.111163854599 2194.9999332428 162 164 161
-504.727602005005 154.982149600983 2193.00007820129 152 154 151
-499.009102582932 155.06511926651 2194.00000572205 147 149 146
-493.508964776993 155.21876513958 2196.00009918213 136 138 135
-488.440930843353 155.513793230057 2200.00004768372 141 143 142
-482.911467552185 155.667409300804 2201.99990272522 142 144 143
-478.236526250839 156.10383450985 2207.99994468689 159 161 160
-473.100274801254 156.398877501488 2211.99989318848 168 170 169
-468.363493680954 156.835347414017 2217.99993515015 178 180 179
-462.759286165237 156.988963484764 2220.00002861023 181 183 182
-1019.5060968399 129.267960786819 1906.99994564056 199 201 198
-1012.07029819489 128.982126712799 1902.99999713898 158 160 157
-1003.60405445099 128.561347723007 1896.99995517731 172 174 171
-996.755003929138 128.34444642067 1894.00005340576 170 172 169
-989.927649497986 128.128096461296 1891.00003242493 168 170 167
-982.080221176147 127.77678668499 1886.0000371933 163 165 162
-976.337313652039 127.696990966797 1884.99999046326 161 163 160
-972.665011882782 127.888649702072 1888.00001144409 164 166 163
-968.468487262726 128.013029694557 1889.99998569489 166 168 165
-964.26522731781 128.137841820717 1891.99995994568 161 163 160
-958.53453874588 128.059953451157 1891.00003242493 159 161 158
-955.838620662689 128.388822078705 1896.00002765656 152 154 151
-951.11346244812 128.447234630585 1896.99995517731 152 154 151
-947.882890701294 128.709211945534 1901.00002288818 159 161 158
-943.642437458038 128.836184740067 1902.99999713898 154 156 155
-941.367268562317 129.234373569489 1909.00003910065 156 158 157
-939.553260803223 129.700630903244 1916.00000858307 143 145 144
-937.704503536224 130.167260766029 1922.99997806549 132 134 133
-935.820877552032 130.634278059006 1929.99994754791 124 126 125
-934.38458442688 131.169334053993 1937.99996376038 123 125 124
-894.657552242279 133.898541331291 1978.99997234344 116 121 117
-884.772300720215 133.220031857491 1968.99998188019 117 122 118
-873.157620429993 132.271274924278 1955.00004291534 88 90 87
-862.953126430511 131.525844335556 1944.00000572205 89 91 88
-854.134440422058 130.983725190163 1935.99998950958 115 115 113
-846.676766872406 130.644917488098 1930.99999427795 129 128 126
-839.248418807983 130.306422710419 1925.99999904633 156 155 153
-832.715392112732 130.103573203087 1922.99997806549 167 166 164
-827.921748161316 130.171626806259 1924.00002479553 186 186 184
-823.979794979095 130.375310778618 1927.00004577637 184 186 183
-819.173634052277 130.44399023056 1927.99997329712 155 160 156
-814.785957336426 130.580618977547 1929.99994754791 141 146 142
-809.130728244781 130.514547228813 1929.00002002716 151 153 150
-803.065896034241 130.381122231483 1927.00004577637 153 155 152
-795.357227325439 129.977315664291 1921.0000038147 150 152 149
-788.916528224945 129.776731133461 1917.99998283386 142 144 141
-782.902181148529 129.644110798836 1916.00000858307 125 127 124
-777.305841445923 129.57938015461 1914.99996185303 118 120 117
-771.313011646271 129.447221755981 1912.99998760223 120 122 119
-764.531433582306 129.180014133453 1909.00003910065 142 144 141
-759.761333465576 129.25136089325 1909.9999666214 158 160 157
-755.777180194855 129.45830821991 1912.99998760223 179 181 178
-752.954959869385 129.868537187576 1919.0000295639 184 186 183
-748.932361602783 130.075976252556 1922.00005054474 182 184 181
-743.733465671539 130.080625414848 1922.00005054474 181 183 180
-738.535583019257 130.085498094559 1922.00005054474 179 181 178
-733.720064163208 130.158275365829 1922.99997806549 176 178 175
-729.278743267059 130.298942327499 1924.99995231628 173 175 172
-723.698854446411 130.236774682999 1924.00002479553 169 171 168
-718.872010707855 130.310207605362 1924.99995231628 168 170 167
-713.669717311859 130.316123366356 1924.99995231628 161 163 160
-709.204077720642 130.457654595375 1927.00004577637 158 160 157
-703.631997108459 130.396246910095 1925.99999904633 154 156 153
-698.791205883026 130.470484495163 1927.00004577637 154 156 153
-693.585515022278 130.477160215378 1927.00004577637 150 152 149
-688.380241394043 130.484014749527 1927.00004577637 148 150 147
-683.529734611511 130.558758974075 1927.99997329712 148 150 147
-679.729640483856 130.836844444275 1932.000041008 152 154 151
-675.210058689117 130.97970187664 1934.00001525879 155 157 154
-671.372592449188 131.25815987587 1937.99996376038 176 178 175
-667.170166969299 131.46910071373 1940.99998474121 179 181 178
-662.951588630676 131.680190563202 1944.00000572205 182 184 181
-659.055173397064 131.959185004234 1947.99995422363 182 184 181
-655.472934246063 132.306128740311 1952.99994945526 180 182 179
-651.863634586334 132.653221487999 1957.99994468689 181 183 180
-648.227393627167 133.000537753105 1963.00005912781 178 180 177
-644.891560077667 133.415758609772 1968.99998188019 180 182 179
-641.847968101501 133.89889895916 1975.99995136261 181 183 180
-638.766586780548 134.382277727127 1983.00004005432 183 185 182
-634.688913822174 134.662494063377 1986.99998855591 178 180 177
-630.589544773102 134.942874312401 1991.00005626678 172 174 171
-626.468181610107 135.223373770714 1995.00000476837 170 172 169
-622.636258602142 135.571822524071 2000 167 169 166
-618.77715587616 135.920435190201 2005.00011444092 166 168 165
-614.584684371948 136.20138168335 2009.0000629425 170 172 169
-611.886262893677 136.821463704109 2017.99988746643 174 176 173
-610.040545463562 137.645155191422 2029.99997138977 178 180 177
-609.618425369263 138.808101415634 2046.99993133545 186 188 187
-610.284566879272 140.242576599121 2068.00007820129 179 181 180
-609.082162380219 141.270384192467 2082.99994468689 180 182 181
-608.377575874329 142.4340903759 2099.99990463257 176 178 177
-609.015583992004 143.937215209007 2121.99997901917 166 168 167
-585.418045520782 152.874603867531 2252.00009346008 98 98 96
-579.580128192902 152.954652905464 2253.00002098084 83 83 81
-573.226869106293 152.898952364922 2252.00009346008 84 84 82
-565.618693828583 152.503728866577 2246.00005149841 92 94 91
-556.049346923828 151.565253734589 2232.00011253357 84 86 83
-547.04761505127 150.762438774109 2220.00002861023 138 140 137
-540.303349494934 150.570720434189 2217.00000762939 144 146 143
-533.333361148834 150.311082601547 2213.00005912781 117 119 116
-525.66921710968 149.847611784935 2206.00008964539 107 109 106
-517.335295677185 149.18027818203 2196.00009918213 157 159 156
-510.218799114227 148.852467536926 2190.99998474121 149 151 148
-503.588855266571 148.660495877266 2187.99996376038 146 148 145
-498.111426830292 148.808255791664 2190.00005722046 155 157 154
-492.622047662735 148.955971002579 2191.99991226196 162 164 161
-487.564921379089 149.239629507065 2196.00009918213 177 179 178
-482.046276330948 149.387329816818 2197.99995422363 177 179 178
-477.16560959816 149.738967418671 2203.00006866455 182 184 183
-472.042828798294 150.022611021996 2207.00001716614 183 185 184
-467.108428478241 150.374248623848 2211.99989318848 183 185 184
-462.145805358887 150.725916028023 2217.00000762939 185 187 186
-1014.71543312073 124.124221503735 1907.99999237061 165 167 164
-1005.17749786377 123.590253293514 1899.99997615814 179 181 178
-997.268259525299 123.252041637897 1894.99998092651 175 177 174
-989.391624927521 122.914344072342 1889.99998569489 173 175 172
-981.026828289032 122.512184083462 1883.99994373322 163 165 162
-975.807785987854 122.500687837601 1883.99994373322 159 161 158
-971.623659133911 122.619703412056 1886.0000371933 159 161 158
-968.970358371735 122.93417006731 1891.00003242493 161 163 160
-963.745474815369 122.924014925957 1891.00003242493 163 165 162
-958.018064498901 122.84929305315 1889.99998569489 161 163 160
-953.308701515198 122.905023396015 1891.00003242493 155 157 154
-949.099063873291 123.02615493536 1893.00000667572 155 157 154
-946.378529071808 123.342648148537 1898.00000190735 159 161 158
-942.642688751221 123.529575765133 1901.00002288818 162 164 163
-941.35969877243 124.04178828001 1909.00003910065 159 161 160
-939.54610824585 124.489359557629 1916.00000858307 148 150 149
-938.67290019989 125.067219138145 1924.99995231628 141 143 142
-937.26909160614 125.580489635468 1932.99996852875 118 120 119
-936.30713224411 126.159057021141 1942.00003147125 106 108 107
-885.220050811768 127.933040261269 1970.00002861023 117 122 118
-875.835955142975 127.347126603127 1960.99996566772 105 107 104
-867.391228675842 126.89146399498 1953.9999961853 95 97 94
-858.104467391968 126.306220889091 1945.00005245209 99 99 97
-848.868668079376 125.721290707588 1935.99998950958 114 113 111
-839.684188365936 125.136703252792 1927.00004577637 141 140 138
-830.983579158783 124.617338180542 1919.0000295639 150 149 147
-824.910223484039 124.487906694412 1917.00005531311 174 174 172
-820.559859275818 124.618500471115 1919.0000295639 181 183 180
-817.050337791443 124.879270792007 1922.99997806549 170 175 171
-813.520967960358 125.140339136124 1927.00004577637 160 165 161
-808.293581008911 125.14191865921 1927.00004577637 149 151 148
-802.234351634979 125.013887882233 1924.99995231628 153 155 152
-794.945418834686 124.691270291805 1919.99995708466 160 162 159
-788.91909122467 124.56376105547 1917.99998283386 158 160 157
-783.722102642059 124.56639111042 1917.99998283386 147 149 146
-777.714788913727 124.439358711243 1916.00000858307 135 137 134
-770.913064479828 124.182663857937 1911.99994087219 125 127 124
-763.733863830566 123.861275613308 1906.99994564056 122 124 121
-757.776141166687 123.734936118126 1904.99997138977 131 133 130
-752.62063741684 123.738743364811 1904.99997138977 160 162 159
-748.643159866333 123.937629163265 1907.99999237061 174 176 173
-745.429754257202 124.266676604748 1912.99998760223 183 185 182
-741.803407669067 124.531030654907 1917.00005531311 184 186 183
-737.771928310394 124.730601906776 1919.99995708466 177 179 176
-732.962071895599 124.800503253937 1921.0000038147 178 180 177
-728.147566318512 124.870613217354 1922.00005054474 176 178 175
-722.952127456665 124.875940382481 1922.00005054474 171 173 170
-718.130826950073 124.946422874928 1922.99997806549 170 172 169
-713.304936885834 125.017136335373 1924.00002479553 170 172 169
-708.842098712921 125.1530200243 1925.99999904633 167 169 166
-703.638315200806 125.159114599228 1925.99999904633 154 156 153
-698.797643184662 125.230371952057 1927.00004577637 148 150 147
-693.592131137848 125.236839056015 1927.00004577637 153 155 152
-688.744246959686 125.308454036713 1927.99997329712 152 154 151
-684.245705604553 125.445246696472 1929.99994754791 153 155 152
-680.088698863983 125.647231936455 1932.99996852875 158 160 157
-674.868285655975 125.654354691505 1932.99996852875 159 161 158
-670.340895652771 125.791653990746 1934.99994277954 160 162 159
-665.802896022797 125.92913210392 1937.00003623962 166 168 165
-661.595344543457 126.131772994995 1940.00005722046 173 175 172
-657.709956169128 126.399591565132 1944.00000572205 180 182 179
-654.474139213562 126.797631382942 1950.00004768372 181 183 180
-650.873184204102 127.130851149559 1955.00004291534 182 184 181
-647.245168685913 127.464205026627 1960.00003814697 184 186 183
-643.262505531311 127.732709050179 1963.99998664856 182 184 181
-640.232682228088 128.196492791176 1970.99995613098 178 180 177
-637.164890766144 128.660455346107 1978.00004482269 180 182 179
-634.059190750122 129.124581813812 1985.00001430511 183 185 182
-629.965126514435 129.393711686134 1988.9999628067 183 185 182
-625.849425792694 129.66300547123 1993.00003051758 182 184 181
-622.334420681 130.06255030632 1998.99995326996 172 174 171
-618.169486522675 130.332127213478 2003.00002098084 169 171 168
-614.28838968277 130.666881799698 2007.99989700317 169 171 168
-610.379993915558 131.001800298691 2013.00001144409 169 171 168
-607.946813106537 131.662249565125 2023.00000190735 168 170 167
-606.054842472076 132.453083992004 2035.00008583069 177 179 178
-605.573058128357 133.569538593292 2052.00004577637 186 188 187
-606.460809707642 135.011717677116 2073.99988174438 187 189 188
-606.649935245514 136.324018239975 2094.00010108948 181 183 182
-606.730282306671 137.636557221413 2114.00008201599 180 182 181
-610.113620758057 139.730706810951 2145.99990844727 172 174 173
-588.549435138702 147.518202662468 2263.99993896484 190 190 188
-581.13557100296 147.204160690308 2259.0000629425 105 105 103
-574.256956577301 147.020444273949 2256.00004196167 51 51 49
-565.882563591003 146.445631980896 2246.99997901917 92 94 91
-556.3103556633 145.544856786728 2233.00004005432 97 99 96
-547.552227973938 144.839495420456 2221.99988365173 122 124 121
-540.558874607086 144.590377807617 2217.99993515015 128 130 127
-533.827185630798 144.406378269196 2214.99991416931 116 118 115
-525.204360485077 143.700763583183 2203.9999961853 100 102 99
-516.640186309814 142.995029687881 2193.00007820129 153 155 152
-508.833229541779 142.484784126282 2184.99994277954 163 165 162
-503.140211105347 142.561405897141 2186.00010871887 171 173 170
-497.44063615799 142.637997865677 2187.00003623962 178 180 177
-492.408901453018 142.91025698185 2190.99998474121 168 170 167
-486.688286066055 142.986848950386 2191.99991226196 166 168 167
-481.18057847023 143.128648400307 2194.00000572205 167 169 168
-475.66094994545 143.270462751389 2196.00009918213 173 175 174
-470.343232154846 143.477454781532 2198.99988174438 177 179 178
-465.008199214935 143.68449151516 2201.99990272522 179 181 180
-460.906565189362 144.283026456833 2210.99996566772 183 185 184
-452.022820711136 143.380582332611 2197.00002670288 195 197 194
-1015.76542854309 119.052298367023 1909.9999666214 176 178 175
-1005.69355487823 118.478402495384 1901.00002288818 180 182 179
-997.255742549896 118.092060089111 1894.99998092651 172 174 171
-990.426599979401 117.893189191818 1891.99995994568 171 173 170
-982.577383518219 117.57019162178 1886.99996471405 166 168 165
-975.796759128571 117.372319102287 1883.99994373322 163 165 162
-970.582664012909 117.361791431904 1883.99994373322 160 162 159
-967.422962188721 117.600873112679 1888.00001144409 161 163 160
-963.226079940796 117.715768516064 1889.99998569489 158 160 157
-958.008706569672 117.706507444382 1889.99998569489 157 159 156
-954.308032989502 117.884494364262 1893.00000667572 154 156 153
-949.090719223022 117.876060307026 1893.00000667572 151 153 150
-945.373296737671 118.054836988449 1896.00002765656 149 151 148
-941.643416881561 118.233986198902 1899.00004863739 150 152 151
-940.859198570251 118.787042796612 1907.99999237061 154 156 155
-940.519869327545 119.402699172497 1917.99998283386 150 152 151
-940.129339694977 120.018683373928 1927.99997329712 145 147 146
-938.717663288116 120.51048874855 1935.99998950958 143 145 144
-938.711881637573 121.189348399639 1947.00002670288 143 145 144
-885.218441486359 122.578404843807 1970.00002861023 123 128 124
-877.17467546463 122.20374494791 1963.99998664856 116 118 115
-868.722021579742 121.767170727253 1957.00001716614 111 113 110
-859.86864566803 121.268697082996 1949.00000095367 114 114 112
-850.18390417099 120.646089315414 1939.00001049042 121 120 118
-841.427147388458 120.148204267025 1930.99999427795 135 134 132
-831.849932670593 119.52618509531 1921.0000038147 140 139 137
-823.189496994019 119.028881192207 1912.99998760223 147 147 145
-816.712379455566 118.842944502831 1909.9999666214 152 154 151
-813.652455806732 119.155064225197 1914.99996185303 170 175 171
-811.411559581757 119.591914117336 1922.00005054474 175 180 176
-807.036936283112 119.717910885811 1924.00002479553 179 181 178
-800.986170768738 119.595274329185 1922.00005054474 173 175 172
-794.533550739288 119.410648941994 1919.0000295639 162 164 161
-788.510262966156 119.288511574268 1917.00005531311 160 162 159
-782.498955726624 119.166597723961 1914.99996185303 158 160 157
-776.49998664856 119.044929742813 1912.99998760223 160 162 159
-770.513117313385 118.923477828503 1911.00001335144 156 158 155
-764.137744903564 118.740029633045 1907.99999237061 139 141 138
-757.779777050018 118.556790053844 1904.99997138977 128 130 127
-751.439213752747 118.373766541481 1901.99995040894 118 120 117
-746.685326099396 118.439897894859 1902.99999713898 121 123 120
-742.316782474518 118.568480014801 1904.99997138977 150 152 149
-738.325238227844 118.759520351887 1907.99999237061 178 180 177
-735.471189022064 119.137533009052 1914.00003433228 181 183 180
-731.822371482849 119.3912550807 1917.99998283386 183 185 182
-727.394998073578 119.520708918571 1919.99995708466 179 181 178
-721.828997135162 119.463592767715 1919.0000295639 174 176 173
-717.016100883484 119.531184434891 1919.99995708466 173 175 172
-712.569177150726 119.661211967468 1922.00005054474 172 174 171
-707.74382352829 119.729161262512 1922.99997806549 171 173 170
-702.913701534271 119.797304272652 1924.00002479553 160 162 159
-698.803961277008 119.990162551403 1927.00004577637 155 157 154
-693.598628044128 119.996391236782 1927.00004577637 155 157 154
-689.10813331604 120.127320289612 1929.00002002716 155 157 154
-683.897972106934 120.133869349957 1929.00002002716 158 160 157
-680.095613002777 120.389699935913 1932.99996852875 163 165 162
-674.875319004059 120.396561920643 1932.99996852875 161 163 160
-670.348107814789 120.528161525726 1934.99994277954 161 163 160
-665.122866630554 120.535328984261 1934.99994277954 160 162 159
-660.920739173889 120.729520916939 1937.99996376038 161 163 160
-657.040894031525 120.986171066761 1942.00003147125 171 173 170
-654.146373271942 121.429897844791 1949.00000095367 176 178 175
-650.215268135071 121.68687582016 1952.99994945526 180 182 179
-646.592795848846 122.006312012672 1957.99994468689 177 179 176
-642.288267612457 122.201308608055 1960.99996566772 174 176 173
-639.266610145569 122.645705938339 1968.00005435944 172 174 171
-635.884881019592 123.027943074703 1973.99997711182 174 176 173
-632.790148258209 123.472683131695 1980.99994659424 178 180 177
-629.340589046478 123.855248093605 1986.99998855591 179 181 178
-625.544369220734 124.175630509853 1991.99998378754 181 183 180
-622.032165527344 124.558493494987 1998.00002574921 167 169 166
-617.869973182678 124.816812574863 2002.00009346008 161 163 160
-613.685965538025 125.075250864029 2006.00004196167 157 159 156
-610.086262226105 125.458538532257 2012.00008392334 156 158 155
-606.75436258316 125.904321670532 2019.00005340576 155 157 154
-604.277610778809 126.537322998047 2029.00004386902 156 158 157
-602.336525917053 127.29524075985 2040.99988937378 162 164 163
-601.499795913696 128.302842378616 2056.99992179871 167 169 168
-602.024734020233 129.622548818588 2078.00006866455 187 189 188
-603.009521961212 131.067290902138 2101.0000705719 189 191 190
-604.153692722321 132.574692368507 2125 179 181 180
-585.777819156647 142.169862985611 2276.99995040894 200 200 198
-576.81405544281 141.494408249855 2266.00003242493 135 135 133
-567.15327501297 140.631511807442 2252.00009346008 76 78 75
-556.570947170258 139.518663287163 2233.99996757507 89 91 88
-547.317326068878 138.71793448925 2220.99995613098 125 127 124
-540.326535701752 138.479247689247 2217.00000762939 124 126 123
-533.838510513306 138.36544752121 2214.99991416931 108 110 107
-524.739027023315 137.564435601234 2201.99990272522 110 112 109
-515.94465970993 136.825755238533 2190.00005722046 150 152 149
-508.145749568939 136.336892843246 2181.99992179871 156 158 155
-502.460896968842 136.41032576561 2183.00008773804 160 162 159
-496.541976928711 136.421233415604 2183.00008773804 167 169 166
-491.296350955963 136.619627475739 2186.00010871887 167 169 166
-485.811293125153 136.755511164665 2187.99996376038 178 180 179
-480.533748865128 136.9539052248 2190.99998474121 177 179 178
-474.805563688278 137.027248740196 2191.99991226196 175 177 176
-469.284862279892 137.163117527962 2194.00000572205 173 175 174
-463.963359594345 137.361481785774 2197.00002670288 177 179 178
-459.875285625458 137.934982776642 2206.00008964539 183 185 184
-451.622188091278 137.257888913155 2194.9999332428 190 192 189
-1012.5617980957 113.492839038372 1904.00004386902 181 183 180
-1003.03614139557 113.003693521023 1896.00002765656 178 180 177
-996.191382408142 112.813077867031 1893.00000667572 170 172 169
-988.321363925934 112.503789365292 1888.00001144409 169 171 168
-982.045769691467 112.373724579811 1886.0000371933 164 166 163
-975.786209106445 112.244114279747 1883.99994373322 161 163 160
-971.087872982025 112.293675541878 1884.99999046326 160 162 159
-966.388642787933 112.343646585941 1886.0000371933 161 163 160
-962.197601795197 112.453572452068 1888.00001144409 165 167 164
-956.986129283905 112.444765865803 1888.00001144409 163 165 162
-953.291475772858 112.615033984184 1891.00003242493 158 160 157
-948.080003261566 112.607017159462 1891.00003242493 153 155 152
-944.867014884949 112.837560474873 1894.99998092651 146 148 145
-941.636145114899 113.068483769894 1899.00004863739 150 152 151
-941.838562488556 113.716498017311 1909.9999666214 154 156 155
-940.51331281662 114.186219871044 1917.99998283386 150 152 151
-939.635455608368 114.715807139874 1927.00004577637 144 146 145
-936.772346496582 115.00758677721 1932.000041008 141 143 142
-935.331583023071 115.478284657002 1940.00005722046 141 143 142
-885.666310787201 117.283314466476 1970.99995613098 127 132 128
-876.28036737442 116.746544837952 1962.00001239777 115 117 114
-868.277311325073 116.388589143753 1955.9999704361 116 118 115
-859.426915645599 115.911930799484 1947.99995422363 126 126 124
-851.060509681702 115.495055913925 1940.99998474121 133 132 130
-843.170166015625 115.137979388237 1934.99994277954 141 140 138
-834.015309810638 114.602662622929 1925.99999904633 144 143 141
-824.050664901733 113.948605954647 1914.99996185303 144 144 142
-816.285669803619 113.592334091663 1909.00003910065 145 147 144
-811.954081058502 113.712348043919 1911.00001335144 157 162 158
-808.457732200623 113.951623439789 1914.99996185303 161 166 162
-803.682863712311 114.012643694878 1916.00000858307 178 180 177
-798.487544059753 114.014409482479 1916.00000858307 178 180 177
-792.465567588806 113.897383213043 1914.00003433228 173 175 172
-786.455929279327 113.780617713928 1911.99994087219 169 171 168
-780.049920082092 113.604553043842 1909.00003910065 166 168 165
-774.879217147827 113.607250154018 1909.00003910065 162 164 161
-770.112931728363 113.669671118259 1909.9999666214 160 162 159
-764.541625976563 113.613307476044 1909.00003910065 152 154 151
-758.976638317108 113.557130098343 1907.99999237061 143 145 142
-753.023266792297 113.441668450832 1906.00001811981 125 127 124
-747.474074363709 113.385908305645 1904.99997138977 118 120 117
-741.541564464569 113.270819187164 1902.99999713898 127 129 126
-736.394762992859 113.274984061718 1902.99999713898 139 141 138
-732.401609420776 113.457918167114 1906.00001811981 171 173 170
-728.393077850342 113.641053438187 1909.00003910065 180 182 179
-725.126802921295 113.943457603455 1914.00003433228 184 186 183
-721.45801782608 114.186532795429 1917.99998283386 182 184 181
-717.768311500549 114.429794251919 1922.00005054474 179 181 178
-712.574660778046 114.435113966465 1922.00005054474 171 173 170
-707.013487815857 114.381052553654 1921.0000038147 170 172 169
-701.823592185974 114.386707544327 1921.0000038147 170 172 169
-697.359383106232 114.511601626873 1922.99997806549 170 172 169
-692.884862422943 114.636674523354 1924.99995231628 168 170 167
-688.399970531464 114.76194113493 1927.00004577637 165 167 164
-683.54994058609 114.827774465084 1927.99997329712 164 166 163
-679.046809673309 114.953346550465 1929.99994754791 164 166 163
-674.183905124664 115.019515156746 1930.99999427795 164 166 163
-669.662177562714 115.14537781477 1932.99996852875 159 161 158
-664.786159992218 115.211829543114 1934.00001525879 154 156 153
-659.904837608337 115.278415381908 1934.99994277954 150 152 149
-656.371593475342 115.583457052708 1940.00005722046 154 156 153
-653.482556343079 116.007827222347 1947.00002670288 161 163 160
-650.222897529602 116.372786462307 1952.99994945526 168 170 167
-645.940184593201 116.559147834778 1955.9999704361 171 173 170
-641.641080379486 116.745628416538 1958.99999141693 170 172 169
-638.300180435181 117.111057043076 1965.0000333786 178 180 177
-635.248959064484 117.53623187542 1972.00000286102 179 181 178
-631.840229034424 117.9019510746 1978.00004482269 176 178 175
-629.032254219055 118.387043476105 1985.99994182587 178 180 177
-625.552892684937 118.753090500832 1991.99998378754 181 183 180
-622.040927410126 119.119264185429 1998.00002574921 177 179 176
-617.87885427475 119.366347789764 2002.00009346008 172 174 171
-613.694846630096 119.613528251648 2006.00004196167 162 164 161
-610.095262527466 119.980104267597 2012.00008392334 159 161 158
-606.763422489166 120.406441390514 2019.00005340576 158 160 157
-604.286849498749 121.011838316917 2029.00004386902 166 168 167
-601.460516452789 121.557757258415 2038.00010681152 154 156 155
-598.585069179535 122.103810310364 2046.99993133545 131 133 132
-596.529722213745 122.828997671604 2059.00001525879 126 128 127
-597.279071807861 124.150946736336 2081.00008964539 129 131 130
-599.046170711517 125.711813569069 2107.00011253357 142 144 143
-602.643311023712 127.690643072128 2140.00010490417 173 175 172
-567.667961120605 134.610563516617 2253.99994850159 178 180 175
-556.332767009735 133.36718082428 2233.00004005432 144 146 141
-547.081768512726 132.60143995285 2220.00002861023 125 127 124
-539.606273174286 132.253736257553 2213.99998664856 122 124 121
-533.126354217529 132.144927978516 2211.99989318848 103 105 102
-524.511575698853 131.498381495476 2200.99997520447 125 127 124
-515.955448150635 130.851745605469 2190.00005722046 143 145 142
-507.923603057861 130.324497818947 2180.99999427795 151 153 150
-502.011179924011 130.334973335266 2180.99999427795 160 162 159
-495.870232582092 130.285665392876 2180.0000667572 166 168 165
-490.407943725586 130.415633320808 2181.99992179871 173 175 172
-484.48970913887 130.426049232483 2181.99992179871 174 176 175
-479.44775223732 130.675569176674 2186.00010871887 172 174 173
-473.949700593948 130.805492401123 2187.99996376038 170 172 171
-468.439847230911 130.935430526733 2190.00005722046 169 171 170
-462.91795372963 131.065338850021 2191.99991226196 176 178 177
-458.843499422073 131.613820791245 2200.99997520447 183 185 184
-452.044159173965 131.384909152985 2197.00002670288 186 188 185
-1010.42234897614 108.080014586449 1899.99997615814 190 192 189
-1000.37920475006 107.556410133839 1891.00003242493 184 186 183
-994.601488113403 107.488334178925 1889.99998569489 170 172 169
-986.21654510498 107.136346399784 1883.99994373322 165 167 164
-982.035458087921 107.239738106728 1886.0000371933 161 163 160
-976.294279098511 107.172943651676 1884.99999046326 157 159 156
-973.138868808746 107.390813529491 1889.00005817413 141 143 140
-966.379404067993 107.211142778397 1886.0000371933 138 140 137
-961.67916059494 107.25924372673 1886.99996471405 148 150 147
-956.470787525177 107.250884175301 1886.99996471405 147 149 146
-953.283488750458 107.470251619816 1891.00003242493 145 147 144
-948.573648929596 107.519462704659 1891.99995994568 144 146 143
-945.358335971832 107.739515602589 1896.00002765656 153 155 152
-942.620933055878 108.01674425602 1901.00002288818 141 143 142
-942.325055599213 108.578369021416 1911.00001335144 148 150 149
-940.99748134613 109.026670455933 1919.0000295639 144 146 145
-940.117180347443 109.532088041306 1927.99997329712 148 150 149
-936.281859874725 109.696954488754 1930.99999427795 143 145 144
-874.046146869659 111.129887402058 1957.00001716614 114 116 113
-864.281475543976 110.561184585094 1947.00002670288 125 125 123
-855.896949768066 110.163114964962 1940.00005722046 133 133 131
-848.429501056671 109.87888276577 1934.99994277954 141 140 138
-842.298805713654 109.76529866457 1932.99996852875 151 150 148
-834.881782531738 109.481610357761 1927.99997329712 155 154 152
-824.911892414093 108.857467770576 1917.00005531311 147 147 145
-816.714107990265 108.460709452629 1909.9999666214 145 147 144
-810.255706310272 108.29135030508 1906.99994564056 152 157 153
-805.503904819489 108.349367976189 1907.99999237061 154 159 155
-799.070417881012 108.180470764637 1904.99997138977 166 168 165
-794.321835041046 108.238965272903 1906.00001811981 174 176 173
-789.155423641205 108.240909874439 1906.00001811981 180 182 179
-784.812986850739 108.356654644012 1907.99999237061 176 178 175
-778.826594352722 108.245447278023 1906.00001811981 170 172 169
-773.664236068726 108.248047530651 1906.00001811981 167 169 166
-768.503189086914 108.250863850117 1906.00001811981 162 164 161
-763.743758201599 108.310677111149 1906.99994564056 154 156 153
-758.98003578186 108.370706439018 1907.99999237061 150 152 149
-753.026783466339 108.260542154312 1906.00001811981 139 141 138
-748.655021190643 108.377777040005 1907.99999237061 130 132 129
-742.324948310852 108.211182057858 1904.99997138977 109 111 108
-736.398935317993 108.101576566696 1902.99999713898 113 115 112
-730.868875980377 108.048938214779 1901.99995040894 147 149 146
-726.108253002167 108.110122382641 1902.99999713898 162 164 161
-722.479581832886 108.341924846172 1906.99994564056 186 188 185
-718.453764915466 108.517095446587 1909.9999666214 186 188 185
-715.532720088959 108.862906694412 1916.00000858307 185 187 184
-711.467683315277 109.038449823856 1919.0000295639 180 182 179
-706.2828540802 109.043695032597 1919.0000295639 176 178 175
-701.463758945465 109.105937182903 1919.99995708466 168 170 167
-697.002589702606 109.225168824196 1922.00005054474 166 168 165
-692.530930042267 109.344571828842 1924.00002479553 171 173 170
-688.048779964447 109.464108943939 1925.99999904633 165 167 164
-683.201611042023 109.526984393597 1927.00004577637 162 164 161
-678.349435329437 109.590001404285 1927.99997329712 163 165 162
-673.142910003662 109.596312046051 1927.99997329712 166 168 165
-668.975949287415 109.773315489292 1930.99999427795 165 167 164
-664.449214935303 109.893597662449 1932.99996852875 164 166 163
-660.252809524536 110.070891678333 1935.99998950958 162 164 161
-656.37880563736 110.305197536945 1940.00005722046 162 164 161
-653.154253959656 110.653340816498 1945.99997997284 166 168 165
-649.231553077698 110.887929797173 1950.00004768372 174 176 173
-644.956946372986 111.065790057182 1952.99994945526 181 183 180
-640.666007995605 111.243769526482 1955.9999704361 179 181 178
-637.983083724976 111.706279218197 1963.99998664856 180 182 179
-634.934604167938 112.112060189247 1970.99995613098 180 182 179
-631.528794765472 112.461119890213 1976.99999809265 179 181 178
-628.723740577698 112.924098968506 1985.00001430511 183 185 182
-625.247120857239 113.273434340954 1991.00005626678 182 184 181
-621.737897396088 113.622918725014 1996.99997901917 185 187 184
-617.578625679016 113.858729600906 2000.99992752075 182 184 181
-613.703370094299 114.151559770107 2006.00004196167 170 172 169
-609.800636768341 114.444509148598 2010.99991798401 167 169 166
-606.471657752991 114.851415157318 2017.99988746643 165 167 164
-603.997826576233 115.429200232029 2028.00011634827 179 181 180
-601.469576358795 116.007149219513 2038.00010681152 176 178 177
-598.301827907562 116.471372544765 2046.0000038147 177 179 178
-596.249222755432 117.163456976414 2058.00008773804 151 153 152
-595.279335975647 118.083447217941 2073.99988174438 117 119 118
-595.928132534027 119.345270097256 2095.99995613098 142 144 141
-597.865521907806 120.892062783241 2122.99990653992 163 165 162
-570.700883865356 129.148334264755 2266.00003242493 183 185 180
-556.094169616699 127.220839262009 2232.00011253357 173 175 170
-546.84579372406 126.490071415901 2219.00010108948 121 123 118
-539.129197597504 126.101240515709 2211.99989318848 122 124 119
-532.895803451538 126.054435968399 2210.99996566772 115 117 112
-524.998605251312 125.608503818512 2203.00006866455 104 106 101
-515.730142593384 124.820336699486 2188.99989128113 138 140 137
-507.468044757843 124.260157346725 2178.99990081787 148 150 147
-500.870585441589 124.099083244801 2176.00011825562 160 162 159
-494.74310874939 124.05202537775 2174.99995231628 156 158 155
-488.844871520996 124.061986804008 2174.99995231628 167 169 166
-483.389675617218 124.186024069786 2177.00004577637 183 185 184
-478.361248970032 124.424137175083 2180.99999427795 171 173 172
-473.093420267105 124.60520863533 2184.00001525879 169 171 170
-467.594385147095 124.729216098785 2186.00010871887 169 171 170
-461.872160434723 124.796137213707 2187.00003623962 175 177 176
-457.602739334106 125.262498855591 2194.9999332428 179 181 180
-452.259957790375 125.443533062935 2197.99995422363 194 196 193
-446.696817874908 125.567466020584 2200.00004768372 183 185 182
-1008.2836151123 102.689169347286 1896.00002765656 187 189 186
-999.839007854462 102.353148162365 1889.99998569489 181 183 180
-993.538320064545 102.234221994877 1888.00001144409 170 172 169
-985.159397125244 101.899139583111 1881.99996948242 165 167 164
-980.46350479126 101.943485438824 1883.00001621246 164 166 163
-975.766897201538 101.988203823566 1883.99994373322 163 165 162
-972.614586353302 102.19569504261 1888.00001144409 153 155 152
-965.858221054077 102.024644613266 1884.99999046326 152 154 151
-961.161255836487 102.070488035679 1886.0000371933 144 146 143
-955.449223518372 102.00846940279 1884.99999046326 142 144 141
-951.763451099396 102.163247764111 1888.00001144409 140 142 139
-947.062432765961 102.210164070129 1889.00005817413 137 139 136
-944.852888584137 102.527938783169 1894.99998092651 137 139 136
-942.118465900421 102.791927754879 1899.99997615814 139 141 140
-941.825866699219 103.326722979546 1909.9999666214 143 145 144
-941.48188829422 103.861778974533 1919.99995708466 126 128 127
-940.599262714386 104.343041777611 1929.00002002716 121 123 122
-936.761438846588 104.500040411949 1932.000041008 106 108 107
-871.811985969543 105.540432035923 1952.00002193451 122 124 121
-861.173450946808 104.890845716 1940.00005722046 125 125 123
-853.249430656433 104.565933346748 1934.00001525879 136 136 134
-846.237063407898 104.349419474602 1929.99994754791 153 152 150
-840.555965900421 104.29535806179 1929.00002002716 153 152 150
-833.583116531372 104.079343378544 1924.99995231628 158 157 155
-824.91260766983 103.647321462631 1917.00005531311 159 159 157
-817.14254617691 103.323645889759 1911.00001335144 156 158 155
-810.256779193878 103.10834646225 1906.99994564056 151 156 152
-803.816556930542 102.947354316711 1904.00004386902 148 153 149
-796.13584280014 102.624364197254 1898.00000190735 151 153 150
-790.572941303253 102.571941912174 1896.99995517731 151 153 150
-785.43096780777 102.573797106743 1896.99995517731 164 166 163
-781.52459859848 102.738104760647 1899.99997615814 173 175 172
-777.194499969482 102.848529815674 1901.99995040894 184 186 183
-772.855043411255 102.95919328928 1904.00004386902 178 180 177
-768.102765083313 103.015959262848 1904.99997138977 173 175 172
-762.945830821991 103.018872439861 1904.99997138977 171 173 170
-758.585512638092 103.130131959915 1906.99994564056 168 170 167
-753.425359725952 103.133425116539 1906.99994564056 159 161 158
-748.658657073975 103.190995752811 1907.99999237061 155 157 154
-743.108153343201 103.140585124493 1906.99994564056 134 136 133
-736.78994178772 102.98216342926 1904.00004386902 123 125 122
-730.873107910156 102.878004312515 1901.99995040894 111 113 110
-724.967956542969 102.774001657963 1899.99997615814 115 117 114
-720.589816570282 102.886542677879 1901.99995040894 140 142 139
-715.825319290161 102.945156395435 1902.99999713898 157 159 156
-712.549984455109 103.220328688622 1907.99999237061 167 169 166
-709.248244762421 103.495679795742 1912.99998760223 185 187 184
-705.183923244476 103.663004934788 1916.00000858307 187 189 186
-700.373113155365 103.722289204597 1917.00005531311 183 185 182
-695.92010974884 103.835836052895 1919.0000295639 177 179 176
-691.456735134125 103.949539363384 1921.0000038147 180 182 179
-687.697350978851 104.171611368656 1924.99995231628 180 182 179
-682.498514652252 104.177378118038 1924.99995231628 179 181 178
-677.651882171631 104.237399995327 1925.99999904633 175 177 174
-672.450959682465 104.243442416191 1925.99999904633 172 174 171
-668.289542198181 104.411996901035 1929.00002002716 167 169 166
-664.111971855164 104.58067804575 1932.000041008 168 170 167
-659.918427467346 104.749493300915 1934.99994277954 169 171 168
-656.047165393829 104.97260093689 1939.00001049042 170 172 169
-652.154147624969 105.195835232735 1942.999958992 170 172 169
-648.23979139328 105.419233441353 1947.00002670288 170 172 169
-643.643081188202 105.534434318542 1949.00000095367 175 177 174
-638.708114624023 105.595618486404 1950.00004768372 176 178 175
-635.066866874695 105.87353259325 1955.00004291534 177 179 176
-632.364988327026 106.314048171043 1963.00005912781 178 180 177
-628.980815410614 106.64639621973 1968.99998188019 181 183 180
-626.8310546875 107.195548713207 1978.99997234344 182 184 181
-623.684763908386 107.582338154316 1985.99994182587 186 188 185
-621.434509754181 108.131811022758 1996.00005149841 186 188 185
-618.203997612 108.518898487091 2003.00002098084 186 188 185
-614.017486572266 108.743570744991 2006.99996948242 181 183 180
-609.808921813965 108.96834731102 2010.99991798401 176 178 175
-605.878889560699 109.247423708439 2016.00003242493 173 175 172
-603.112876415253 109.743386507034 2025.00009536743 176 178 177
-600.592732429504 110.293678939343 2035.00008583069 176 178 177
-598.310470581055 110.898315906525 2046.0000038147 176 178 177
-596.83746099472 111.665733158588 2059.99994277954 182 184 183
-595.862209796906 112.541735172272 2075.99997520447 184 186 185
-595.368623733521 113.526359200478 2094.00010108948 97 99 96
-595.903337001801 114.728055894375 2115.9999370575 106 108 105
-600.502371788025 116.743355989456 2153.00011634827 174 176 173
-556.353390216827 121.188126504421 2233.00004005432 184 186 181
-546.855866909027 120.438106358051 2219.00010108948 110 112 107
-539.626657962799 120.176456868649 2213.99998664856 118 120 115
-533.387839794159 120.131924748421 2213.00005912781 106 108 103
-525.485098361969 119.707345962524 2204.99992370605 110 112 107
-515.739977359772 118.848346173763 2188.99989128113 133 135 132
-507.245004177094 118.260696530342 2177.99997329712 159 161 158
-500.419914722443 118.053033947945 2174.00002479553 142 144 141
-494.525402784348 118.062563240528 2174.00002479553 139 141 138
-488.405138254166 118.017762899399 2173.00009727478 171 173 170
-482.733219861984 118.081539869308 2174.00002479553 174 176 175
-477.493643760681 118.253961205482 2177.00004577637 173 175 174
-472.0199406147 118.372030556202 2178.99990081787 170 172 171
-466.748356819153 118.544444441795 2181.99992179871 168 170 169
-460.614562034607 118.499502539635 2180.99999427795 177 179 178
-456.361472606659 118.943557143211 2188.99989128113 182 184 183
-451.858073472977 119.333297014236 2196.00009918213 183 185 182
-448.533833026886 120.049118995667 2209.00011062622 191 193 190
-1008.27264785767 97.526028752327 1896.00002765656 178 180 177
-1000.88655948639 97.3098054528236 1891.99995994568 175 177 174
-993.528068065643 97.0940217375755 1888.00001144409 166 168 165
-986.720025539398 96.9300866127014 1884.99999046326 161 163 160
-981.495499610901 96.9208031892776 1884.99999046326 156 158 155
-976.793825626373 96.9633087515831 1886.0000371933 156 158 155
-972.09095954895 97.0061644911766 1886.99996471405 157 159 156
-965.849995613098 96.895158290863 1884.99999046326 156 158 155
-961.662948131561 96.9901233911514 1886.99996471405 161 163 160
-956.455409526825 96.9826355576515 1886.99996471405 159 161 158
-952.764451503754 97.1296578645706 1889.99998569489 159 161 158
-948.559582233429 97.2256287932396 1891.99995994568 156 158 155
-945.344924926758 97.4246859550476 1896.00002765656 153 155 152
-942.608118057251 97.6754203438759 1901.00002288818 156 158 157
-941.326856613159 98.0806052684784 1909.00003910065 151 153 152
-941.476345062256 98.6401736736298 1919.99995708466 149 151 150
-941.569089889526 99.2000102996826 1930.99999427795 156 158 157
-939.180910587311 99.5032712817192 1937.00003623962 128 130 129
-872.704446315765 100.337624549866 1953.9999961853 122 124 121
-859.841108322144 99.4639694690704 1937.00003623962 122 122 120
-850.602030754089 99.0013852715492 1927.99997329712 135 135 133
-843.606233596802 98.7957790493965 1924.00002479553 151 150 148
-838.813006877899 98.8471582531929 1924.99995231628 157 156 154
-833.150506019592 98.7960919737816 1924.00002479553 164 164 162
-825.343489646912 98.4884947538376 1917.99998283386 164 164 162
-818.426311016083 98.2838347554207 1914.00003433228 161 163 160
-810.682833194733 97.9766920208931 1907.99999237061 155 160 156
-803.817927837372 97.7724641561508 1904.00004386902 152 157 153
-794.878959655762 97.3116755485535 1894.99998092651 148 150 147
-788.907647132874 97.210556268692 1893.00000667572 145 147 144
-782.948732376099 97.1096456050873 1891.00003242493 151 153 150
-778.647422790527 97.2143560647964 1893.00000667572 162 164 161
-774.336516857147 97.3192602396011 1894.99998092651 180 182 179
-770.828068256378 97.5270792841911 1899.00004863739 181 183 180
-766.089558601379 97.5810289382935 1899.99997615814 179 181 178
-761.747300624847 97.6865291595459 1901.99995040894 177 179 176
-756.997525691986 97.7408587932587 1902.99999713898 173 175 172
-752.638518810272 97.8467240929604 1904.99997138977 165 167 164
-747.484982013702 97.8500545024872 1904.99997138977 162 164 161
-742.332398891449 97.8535562753677 1904.99997138977 151 153 150
-736.406743526459 97.7545082569122 1902.99999713898 142 144 141
-731.261372566223 97.7583378553391 1902.99999713898 118 120 117
-726.116836071014 97.7623462677002 1902.99999713898 110 112 109
-720.594108104706 97.7151319384575 1901.99995040894 116 118 115
-714.325189590454 97.5653156638145 1899.00004863739 134 136 133
-709.567010402679 97.6211577653885 1899.99997615814 147 149 146
-705.916285514832 97.8312939405441 1904.00004386902 178 180 177
-703.348636627197 98.1957614421844 1911.00001335144 187 189 186
-700.012922286987 98.4576120972633 1916.00000858307 185 187 184
-695.562720298767 98.565474152565 1917.99998283386 180 182 179
-691.462159156799 98.7248793244362 1921.0000038147 184 186 183
-686.988472938538 98.8330319523811 1922.99997806549 178 180 177
-682.149708271027 98.8899320363998 1924.00002479553 178 180 177
-677.305817604065 98.9469513297081 1924.99995231628 179 181 178
-671.758651733398 98.9013090729713 1924.00002479553 176 178 175
-666.90981388092 98.9585891366005 1924.99995231628 173 175 172
-662.743210792542 99.1188064217567 1927.99997329712 175 177 174
-659.242749214172 99.3819907307625 1932.99996852875 176 178 175
-655.03853559494 99.5424762368202 1935.99998950958 171 173 170
-651.489496231079 99.805936217308 1940.99998474121 169 171 168
-646.914660930634 99.9152511358261 1942.999958992 170 172 169
-642.328977584839 100.024700164795 1945.00005245209 170 172 169
-637.732446193695 100.134246051311 1947.00002670288 171 173 170
-634.099423885345 100.398197770119 1952.00002193451 172 174 171
-631.405711174011 100.81659257412 1960.00003814697 175 177 174
-627.39086151123 101.029366254807 1963.99998664856 180 182 179
-624.304413795471 101.396583020687 1970.99995613098 181 183 180
-620.551824569702 101.661041378975 1975.99995136261 186 188 185
-619.262754917145 102.337241172791 1988.9999628067 189 191 188
-616.051256656647 102.704867720604 1996.00005149841 190 192 189
-613.719344139099 103.227004408836 2006.00004196167 185 187 184
-609.513580799103 103.440500795841 2009.99999046326 182 184 181
-605.285882949829 103.654108941555 2013.99993896484 180 182 179
-601.631760597229 103.970743715763 2019.99998092651 173 175 174
-598.535001277924 104.390442371368 2028.00011634827 174 176 175
-596.564173698425 105.01616448164 2039.99996185303 177 179 178
-596.266388893127 105.950944125652 2058.00008773804 176 178 177
-596.444845199585 106.98889195919 2078.00006866455 184 186 185
-596.230208873749 107.975549995899 2096.99988365173 103 105 102
-595.348954200745 108.859434723854 2114.00008201599 89 91 88
-596.885502338409 110.206976532936 2140.00010490417 122 124 121
-546.6188788414 114.334248006344 2217.99993515015 110 112 107
