ply
format ascii 1.0
comment KinectMotionCapture
element vertex 757
property float x
property float y
property float z
property uchar red
property uchar green
property uchar blue
end_header
-705.42047190577 249.731950171738 2246.91358662022 115 117 116
-713.014297390426 250.641439837197 2235.88593519716 105 107 106
-720.785428743815 251.399963954162 2225.8442417105 47 49 48
-729.568461384654 250.981060067986 2223.74158723196 47 49 48
-738.239238869995 250.707840400981 2220.64463051204 95 97 94
-747.380764176947 249.847687759169 2221.52170184437 91 93 90
-756.511407605042 248.987718212974 2222.39989041992 98 100 97
-765.083365073007 248.858075207581 2218.30720065174 107 109 106
-773.778329761071 248.580808848755 2215.20747643747 103 105 102
-782.692288620474 248.011027398765 2214.09656756977 104 106 103
-792.011854689196 246.858520023142 2216.96756456976 102 104 101
-800.618418059605 246.724283535457 2212.87056828631 95 97 94
-809.625113699072 246.007729629449 2212.75616003494 98 100 97
-818.719503299097 245.145981193895 2213.63911782729 113 115 112
-827.530902524015 244.718760474553 2211.53294526885 117 119 116
-835.644061197402 245.447880908702 2201.44864622824 106 111 107
-843.890783218087 246.028822444028 2192.35575659357 103 108 104
-852.840458481894 245.452017739804 2191.24040902524 112 117 113
-861.390727111911 245.595273124746 2185.13433303122 138 143 139
-869.813420835786 246.024082443432 2177.02781117003 168 173 169
-877.827172179215 247.312629754297 2162.92345568424 150 155 151
-886.412536010873 247.590898267828 2155.80471709734 144 149 145
-894.477990249389 249.013851122221 2140.6858683455 153 158 154
-902.552321926066 250.574651909958 2124.5576213573 170 175 171
-910.580044705791 252.415851135848 2106.4190782682 165 170 166
-918.881683440248 253.821756988859 2091.27079998024 153 158 154
-927.665514624829 254.223229919659 2083.11928228838 150 155 151
-936.985621505774 253.338798109226 2083.97389136562 141 143 142
-946.241411416311 252.596909501036 2083.82846433989 137 139 138
-954.8904568822 253.561167975521 2071.66129637167 135 137 136
-962.935320549022 256.509314735007 2045.45572177125 148 150 149
-971.15912810238 259.306299507689 2020.23566094086 154 156 155
-979.260176110176 262.944225926521 1988.98234232822 123 125 124
-987.64019078619 266.14659693523 1960.7186589076 109 111 110
-996.530619724962 267.925849330907 1942.47261832489 92 94 93
-1005.74878373966 268.710628069981 1931.24258747806 125 127 126
-1015.30024783451 268.222850834872 1929.04397840376 136 138 137
-1024.57173990492 269.141961446511 1916.79925167445 166 168 165
-559.995594414863 252.54114894066 2245.90685718499 185 192 184
-568.893622451288 251.985969174262 2244.7978979368 182 187 180
-578.125296353274 251.13649464853 2245.66345086824 167 172 168
-588.002174111569 249.700141347264 2250.48126062743 163 168 164
-598.652896940883 247.532358521407 2260.24334131875 156 160 159
-608.135462721312 246.39251989484 2263.09396355567 157 159 158
-616.818180594241 245.98457538283 2261.00379890599 151 153 150
-625.812799385524 245.283601945042 2260.89085674326 148 150 147
-634.952720214351 244.436538590621 2261.76785356606 146 148 145
-644.082224015679 243.589574003701 2262.64639038094 145 147 146
-652.331782867573 243.61595923409 2257.58583606104 139 141 140
-661.314314545509 242.913486371489 2257.47440624729 133 135 134
-669.733714760964 242.791591306319 2253.40073431838 140 142 141
-677.896046298118 242.958186900169 2247.34300911449 115 117 116
-685.683348505821 243.557078758931 2238.30740508487 106 108 107
-694.30248082559 243.28446419062 2235.21713205152 109 111 110
-702.803903171098 243.155104262801 2231.13324390415 105 107 106
-710.565864690766 243.890234090617 2221.09275636655 114 116 115
-718.86968458036 244.045036478536 2215.01716504098 29 31 30
-727.682893013189 243.621433139281 2212.91075717784 77 79 78
-736.50154945471 243.196945230874 2210.80367176491 89 91 88
-746.016468137806 241.90952261685 2214.65833230621 83 85 82
-755.16700307885 241.053752951594 2215.53426774705 107 109 106
-763.757966165459 240.914627655587 2211.43923116129 105 107 104
-772.043993031527 241.203365656148 2204.35782048701 95 97 94
-781.301260147413 240.202738890938 2206.22850495764 96 98 95
-790.643730084741 239.059701568612 2209.09661875119 93 95 92
-799.370947845859 238.77330342414 2205.99289359232 91 93 90
-808.493524393961 237.915818616843 2206.87208232333 99 101 98
-817.324572199862 237.485315615585 2204.76346638191 117 119 116
-826.342290317037 236.76964215258 2204.64768027188 115 117 114
-834.561551892742 237.331134201498 2195.55850902666 105 110 106
-843.165268489507 237.322326307237 2190.4538505938 101 106 102
-852.120940791016 236.74522914058 2189.33775540081 106 111 107
-860.916228753324 236.45037119846 2186.22531749309 132 137 133
-869.335639088029 236.860517475131 2178.11925452791 166 171 167
-877.419627058045 237.97293892879 2165.01428484573 150 155 151
-885.85546372878 238.517020708519 2155.89813215835 143 148 144
-893.988285094944 239.761313149511 2141.77903398128 156 161 157
-902.057987574204 241.281648447485 2125.65147125398 172 177 173
-909.762052245084 243.778598843278 2102.51291612635 164 169 165
-918.316870827585 244.585151781627 2091.36560952622 148 153 149
-926.983477589011 245.247749828485 2081.21241862053 147 152 148
-936.254240127503 244.508371265112 2081.06511648923 144 146 145
-945.413046270223 244.048059708932 2078.91567674483 141 143 142
-953.973905475025 245.260604518517 2064.74324558229 138 140 139
-962.129116397465 247.861165983384 2040.54018984662 156 158 157
-969.914954327911 251.983370669355 2005.29394359704 159 161 160
-978.009988734118 255.676273569413 1973.03330330079 117 119 118
-986.429384534753 258.802677477999 1944.76490540529 87 89 88
-995.76453032642 259.008604895294 1937.55278897015 81 83 82
-1005.13109787462 259.211873622242 1930.33675828712 105 107 106
-1014.71697682823 258.583162013947 1929.14215295448 117 119 118
-1023.98723625774 259.472549777956 1916.89765832553 170 172 171
-1033.6007293971 258.840944265888 1915.69961452676 195 194 192
-550.527929400805 244.15562583008 2247.11044878313 184 191 183
-559.942267213347 243.167358721002 2248.96149921069 178 185 177
-568.832685952595 242.612514405026 2247.85348867441 175 180 174
-578.724091345106 241.19195782391 2252.66944387064 167 172 168
-588.419549831966 239.916952526196 2256.50154141121 159 163 162
-598.249837397371 238.499214501984 2261.32511632837 152 156 157
-606.620640078523 238.375995936442 2257.25751256983 151 152 154
-615.787670728488 237.533628170375 2258.13135415029 146 148 147
-624.178316059737 237.408100375774 2254.0612802276 143 145 144
-633.63906298089 236.278789231182 2256.91459760542 140 142 141
-642.044020636065 236.151244798846 2252.84274290005 136 138 135
-651.191013693109 235.307943821338 2253.71908751124 138 140 137
-660.042734785286 234.750040464798 2252.6159142684 115 117 114
-668.615365352673 234.476623323005 2249.53120622365 116 118 115
-675.829418818601 235.625025023873 2236.53470447187 103 105 102
-682.571605098006 237.337350886102 2219.56461521961 94 96 93
-690.321506388631 238.049750840965 2209.52593285435 84 86 83
-698.89334381715 237.907782850075 2205.43329052378 84 86 83
-707.986117895397 237.197600108642 2205.30812341391 70 72 69
-717.073579122409 236.487188465499 2205.18361991926 70 72 69
-726.276439557282 235.635222167943 2206.05301543179 75 77 74
-735.232456030203 235.065657932911 2204.93685745053 90 92 89
-744.649730024195 233.931740572544 2207.79561212295 93 95 92
-753.594887064267 233.36164384077 2206.68081073703 105 107 104
-761.880566597464 233.634637309676 2199.5994848705 93 95 92
-770.091441996806 234.045407353832 2191.51944418974 92 94 91
-779.593960371672 232.770094569931 2195.37586059413 90 92 89
-789.272800785456 231.215824732502 2201.22638187033 91 93 90
-798.715402200099 229.943251499504 2205.09002807389 108 110 107
-807.841625952385 229.091091012135 2205.96898790272 117 119 116
-816.488442392994 228.93682143162 2201.86702103052 118 120 117
-825.242155961318 228.641479105802 2198.76001290573 111 113 110
-833.565115283408 229.041075008924 2190.66577397201 106 110 109
-842.35336240727 228.742487559053 2187.55446480957 108 112 111
-850.903504616812 228.859261701557 2181.44823406075 117 121 120
-859.720679281329 228.557577235284 2178.33332306814 131 135 134
-868.238527401368 228.808792736214 2171.22308128604 163 167 166
-876.56420827688 229.472415979092 2161.11243321556 149 153 152
-885.226125133872 229.579623329043 2154.99251911409 143 147 146
-893.498686569369 230.512620465329 2142.87217618399 149 153 152
-901.630369766395 231.854640999014 2127.74527558206 167 172 168
-909.645444927442 233.604046691727 2109.608552576 159 164 160
-918.180236631982 234.384791442961 2098.46381317678 146 151 147
-926.592952761931 235.573389111196 2084.30993245812 145 150 146
-935.521625138336 235.660076490323 2078.15654261474 141 143 142
-944.423500717892 235.881335300208 2070.99869563466 141 143 142
-953.205914613988 236.510307864436 2060.83114123472 140 142 141
-961.177961181522 239.594051494614 2032.61868222314 156 158 157
-968.800440467027 244.168283147392 1993.3604028395 163 165 164
-976.66971980817 248.592290546635 1955.07964724515 116 118 117
-985.41080160796 250.689967288026 1933.82810417995 79 81 80
-994.775278684629 250.877781697832 1926.61237507381 83 85 84
-1004.34201486086 250.384495160764 1924.41211491132 112 114 113
-1014.00750782306 249.483853327305 1925.22366453604 138 140 139
-1023.37358716736 249.936871242352 1915.99166287599 190 192 191
-1032.85999848975 249.981159397442 1909.76878216632 202 201 199
-550.30775113032 234.930191653031 2249.17759477854 184 191 183
-559.545404404059 234.092014399472 2250.04261203751 172 179 172
-569.112075741764 232.970617059803 2252.88268983363 169 174 170
-579.15838397868 231.425575591069 2258.68732899537 164 168 167
-588.510618075182 230.447595397517 2260.54610250932 155 159 158
-597.685690231784 229.611105615895 2261.41892507783 149 153 154
-606.056482361325 229.479646060022 2257.35134433842 148 149 151
-614.600065950004 229.205750211986 2254.27026244554 144 146 145
-622.694799657086 229.352404965529 2248.2210255647 141 143 142
-631.721000938333 228.654197317246 2248.10413481033 137 139 138
-640.890167301768 227.815426130989 2248.97770039492 125 127 124
-649.613057105628 227.397126186442 2246.88230952768 121 123 120
-658.341724177231 226.977863478747 2244.78644049571 95 97 94
-666.936245067177 226.697440415587 2241.69925938671 100 102 99
-674.033311925782 227.951368474904 2227.70939187381 91 93 90
-680.125502189829 230.315746501946 2205.77978509691 81 83 80
-687.121960393381 231.836790880102 2189.78639531167 88 90 87
-696.006002460784 231.404880168689 2187.67092943812 52 54 51
-706.032440595359 229.721884812815 2194.48633893475 40 42 39
-715.892041388889 228.179779350971 2200.31427034975 97 99 96
-725.351116981554 227.055203149496 2203.16778383017 90 92 89
-734.788579359553 225.93146633411 2206.02399230152 103 105 102
-743.742454985073 225.361441261422 2204.90810269896 107 109 106
-751.906857664481 225.757255226889 2196.8339009252 98 100 97
-759.999022094873 226.287875362981 2187.76067195242 88 90 87
-768.778569439633 225.988973663295 2184.6502090298 90 92 89
-778.82472740033 224.038431046261 2193.47923638128 89 91 88
-788.204873818206 222.914911560438 2196.34259697327 100 102 99
-797.662444423343 221.655063590004 2200.20458186756 114 116 113
-806.610008730786 221.081469058716 2199.08948928023 117 119 116
-815.08814935225 221.19154262129 2192.99226154967 113 115 112
-823.866465004932 220.889317726388 2189.88220135521 111 113 110
-832.566850595515 220.722318821576 2185.77358289201 108 112 111
-841.797398867003 219.735876138283 2187.64756436318 113 117 116
-850.2642564855 219.975200451081 2180.54371720924 124 128 127
-858.923772745931 219.93996419836 2175.43216490638 135 139 138
-867.216489487601 220.581768707762 2165.32568802378 166 170 169
-875.632372565422 221.084360556234 2156.21213468909 150 154 153
-884.163161494779 221.448084313589 2148.09229458582 139 143 142
-892.453374081983 222.350066012987 2135.96983057439 150 154 153
-900.602175804658 223.652773795302 2120.84089721039 171 175 174
-909.018348943626 224.545419700276 2108.70297892099 168 172 171
-917.677464567319 225.029467903882 2099.55888016785 146 150 149
-926.144540569992 226.048445596943 2086.4063494448 138 142 141
-934.78771750902 226.79391754536 2075.24817709876 136 138 137
-943.644014268143 227.132724032293 2067.08778116145 138 140 139
-951.981397656296 228.943037850686 2047.90298849655 140 142 141
-959.64974249996 232.888335252065 2012.67187056862 139 141 140
-966.959423327686 238.425371745699 1965.38811374798 150 152 151
-975.577801193221 240.607944217615 1943.14373247154 124 126 125
-984.507549694708 242.115932065909 1925.90118650358 119 121 120
-993.967257221021 242.019954458527 1920.68993502162 127 129 128
-1003.44755463587 241.922008212957 1915.47611922763 129 131 130
-1013.13825158423 241.025434349188 1916.28451283103 125 127 126
-1022.58573166026 241.190046837765 1909.05872681144 90 92 91
-1032.03832107641 241.484595229916 1900.82403362791 107 107 105
-540.667229783479 226.686302717841 2249.39469773835 188 195 188
-549.037206381292 226.549609702005 2245.32723255461 177 184 177
-558.114068483564 225.855045224658 2245.20425030386 170 176 172
-568.034990140112 224.465632156542 2250.01619976077 168 172 171
-578.258236015059 222.800199002946 2256.80700256547 148 152 153
-588.110041390156 221.414116543069 2261.62780882339 147 151 152
-596.63657667833 221.136738021915 2258.54886362912 141 145 148
-605.174432498066 220.858190401486 2255.46850877822 141 142 144
-613.567355338593 220.716452246758 2251.39819332524 137 138 140
-621.66986824021 220.848875316746 2245.34802312554 132 133 135
-631.006594469698 219.87725806063 2247.20871517304 128 130 129
-639.290536398812 219.868904296889 2242.14396153228 114 116 113
-648.032733233379 219.446597301737 2240.04617181417 121 123 120
-655.924360940263 219.846649716216 2232.00599958255 102 104 101
-664.414228899082 219.695600185956 2227.92361047312 91 93 90
-671.135573889691 221.322298245988 2210.95634758825 85 87 84
-677.674574936881 223.216362689881 2191.99576185328 92 94 91
-684.970690980071 224.421090053165 2177.98118374719 64 66 63
-694.275197239057 223.575189993602 2178.83787848657 50 52 49
-703.821963598955 222.457121130894 2181.68043154082 69 71 68
-713.966065619053 220.659717385611 2189.48914566876 82 84 81
-723.819366644937 219.136556995815 2195.31781336635 93 95 92
-733.634809409656 217.615241033711 2201.15120069388 112 114 111
-742.140162166403 217.58633213273 2196.05887042202 110 112 109
-750.328288585616 217.961404213909 2187.9817626888 92 94 91
-758.554232421305 218.333676410473 2179.89970267024 98 100 97
-768.000892848254 217.21795612615 2182.75498243694 97 99 96
-777.949872167228 215.429098370426 2190.58778395014 116 118 115
-787.441506267616 214.181264380499 2194.44548628321 109 111 108
-796.806452964094 213.069104865617 2197.31071379449 117 119 116
-805.66600350284 212.629350663755 2195.19856524323 119 121 118
-814.154684838581 212.725165923597 2189.10005964258 112 114 111
-823.035317572767 212.282844359946 2186.98528691901 113 115 112
-831.655299162219 212.240989197257 2181.87868574003 115 119 118
-840.897739478727 211.262060446069 2183.75116336662 120 124 123
-849.45814048364 211.351037308053 2177.64372558393 129 133 132
-857.803770794533 211.837440782468 2168.53898201073 137 141 140
-865.958956013305 212.719805764371 2156.43342027654 167 171 170
-874.323328333599 213.332024307494 2146.31831938367 145 149 148
-883.09760738206 213.276932842251 2141.19225738259 136 140 139
-891.335839336742 214.280302150296 2128.06856641669 152 156 155
-899.504506383987 215.543788440362 2112.93701699729 173 177 176
-907.812553507433 216.669569858257 2098.79660404493 168 172 171
-916.436391418285 217.262210618401 2088.64893466897 146 150 149
-925.22591557373 217.587533412324 2080.49690706667 138 142 141
-933.940353739875 218.173297555661 2070.33794942379 139 141 140
-942.916345864032 218.229319020261 2064.17873511324 143 145 144
-951.208655099886 220.121586303851 2043.99166451634 144 146 145
-958.162566725675 225.941105771316 1993.72826011663 145 147 146
-965.652474568922 230.957024405735 1949.44668593859 152 154 153
-974.481615817372 232.556652378382 1931.20852646309 61 63 62
-983.721030950826 233.104943731777 1920.98439375032 73 75 74
-993.156916660572 233.127815254075 1914.76787473834 73 75 74
-1002.65331387797 233.018153086269 1909.55208063764 83 85 84
-1012.32929691518 232.256274233087 1909.35426863746 84 86 85
-1021.88249031615 232.013894503409 1905.13942331399 89 91 90
-1031.37160723642 232.159102411114 1897.90849236367 138 138 136
-527.586006180176 221.036272090847 2230.88685268691 187 192 186
-538.494239785785 218.974990118343 2240.61627682079 180 186 182
-548.466813193859 217.599638337941 2245.4219836833 176 182 178
-557.026351889273 217.316695927065 2242.33917477997 173 179 177
-566.617041653073 216.215268465011 2245.17620262855 160 164 165
-576.186689160256 215.11473359903 2248.01585407574 146 150 153
-586.06438511691 213.743246196804 2252.83339090658 140 144 147
-594.777290642097 213.323076479925 2250.739491211 141 145 148
-603.814359593443 212.630925106407 2250.62122828668 135 136 138
-611.751531588607 212.886046914703 2243.58344116492 135 136 138
-620.643941185611 212.327492438126 2242.47519195193 127 128 130
-628.932734270135 212.308437966493 2237.40986109559 118 120 119
-637.985083637714 211.613282588225 2237.28969917659 114 116 113
-645.576386467601 212.264535096057 2227.27072972249 98 100 97
-653.931219787727 212.239750566484 2222.19717252507 101 103 100
-660.765936380784 213.690653020569 2206.22415185287 95 97 94
-667.544626217931 215.26998124003 2189.24985741697 99 101 98
-675.6231491532 215.637373893995 2181.18644777408 63 65 62
-684.532151330757 215.198975860547 2179.06788411048 56 58 55
-693.576109294831 214.625929385624 2177.94076072139 70 72 69
-702.493565129413 214.185830726843 2175.82138683865 75 77 74
-712.408090767905 212.678478301274 2181.64237243683 77 79 76
-721.799838577301 211.705386409266 2183.49620199984 81 83 80
-731.886575931621 209.935018360694 2191.31200370139 93 95 92
-740.534688870328 209.760718973599 2187.20992778167 100 102 99
-749.538370106184 209.186983497949 2186.08783250461 85 87 84
-758.76281483722 208.347706733121 2186.95450100714 91 93 90
-768.084008732 207.37641952787 2188.81689026027 112 114 111
-777.598856024493 206.141320606132 2192.67166218686 118 120 117
-786.779614832376 205.303303969436 2193.54377911583 105 107 104
-795.750169430775 204.728871907683 2192.42581968171 127 129 126
-804.817368033559 204.022378886457 2192.30383452323 125 127 124
-813.31386548011 204.104019833156 2186.20439084571 116 118 115
-822.203014028594 203.658557847896 2184.08856366905 116 118 115
-830.919738945934 203.474303458998 2179.97795159617 121 125 124
-840.082594011978 202.634112811744 2180.85230853146 128 132 131
-848.817519805312 202.447594062027 2176.73943105997 129 133 132
-856.842502460913 203.434296780081 2163.64215596801 140 144 143
-864.931994635234 204.416265292417 2150.53708320558 155 159 158
-873.311611058651 205.003053957068 2140.41990663871 140 144 143
-882.102039667603 204.936096598128 2135.2921007851 141 145 144
-890.355025607098 205.905945032905 2122.1664166164 157 161 160
-898.269706681856 207.649032874744 2103.03431146969 172 176 175
-906.345556197978 209.255742656358 2084.89037996802 164 168 167
-915.068041465839 209.692338320055 2075.73873829123 138 142 141
-924.187033972953 209.350789803656 2072.58602692801 135 139 138
-933.034709158798 209.652819164136 2064.42680376334 135 137 134
-941.919511704934 209.951975660044 2056.26295488918 146 148 145
-949.925539860751 212.562953853289 2030.06287438362 146 148 145
-957.006099797439 217.990075692327 1981.80031285376 147 149 146
-964.385412362561 223.271843037219 1934.50853864616 153 155 152
-973.509498321835 224.054413087405 1922.28256690278 73 75 72
-982.932483029509 224.06523634515 1916.06768958827 75 77 74
-992.531040638878 223.562875381472 1913.86348219623 81 83 80
-1002.03002367212 223.442417932136 1908.64739382999 122 124 121
-1011.67746493642 222.810650423108 1907.44511393254 134 136 133
-1021.3238711487 222.178441214202 1906.24296436666 154 156 153
-1030.75672245251 222.561836928899 1897.00257303966 171 171 169
-517.695280847328 212.864797214925 2230.1270615582 188 193 186
-527.011787303928 212.03900558009 2230.98220578904 183 188 182
-538.100661554489 209.873459900604 2241.69728898006 175 181 177
-548.072056919113 208.51436788243 2246.50310003592 169 175 171
-556.629001679095 208.225944469073 2243.42038900568 144 150 148
-565.537680507529 207.669309797596 2242.31010443306 141 145 146
-574.949207916962 206.712217545101 2244.16142348444 149 153 154
-584.83926199883 205.356187295661 2248.97737738845 133 137 138
-593.401276970365 205.065440187288 2245.89403974515 129 133 134
-602.293268161993 204.507778337323 2244.78584039598 132 133 135
-610.872530352636 204.214917204837 2241.70035596891 123 125 124
-619.463118560843 203.920739821994 2238.61370185684 124 126 125
-627.4601634973 204.154638361256 2231.5684988367 122 124 123
-635.490104111452 204.385873896223 2224.51919764339 98 100 97
-643.261358825776 204.878380213551 2215.48611667735 90 92 87
-651.219316940028 205.235805630773 2207.43777905972 87 89 84
-656.68898494029 207.959362464295 2181.55392483492 102 104 99
-664.496706646922 208.570759110655 2171.50805254345 106 108 103
-673.837799051022 207.734502603212 2172.36015615226 60 62 57
-683.829450686633 206.242930548586 2178.17147532491 72 74 69
-692.617582200774 205.931567410689 2175.05997396546 71 73 68
-701.16305975689 205.88036414516 2169.96269506727 79 81 76
-710.723211795147 204.782673777258 2172.80352400196 97 99 94
-720.504611858057 203.424995277844 2177.63304162579 97 99 94
-729.778759212554 202.589718833709 2178.49349700005 90 92 89
-738.926068217995 201.884661900101 2178.36151075504 92 94 91
-748.747661882242 200.40004157178 2184.19403385003 88 90 87
-758.531292715924 198.917272332821 2190.03128960705 106 108 105
-767.845443141536 197.95458842011 2191.89477545576 125 127 124
-776.827728419234 197.380603490604 2190.77535092471 97 99 96
-786.014777791075 196.547650689471 2191.64666949307 117 119 116
-794.692022739798 196.359909320843 2187.5409934697 127 129 126
-803.967567217453 195.397564690766 2189.40929621899 121 123 120
-812.283229647738 195.72249743382 2181.31640478575 112 114 111
-821.277906310175 195.144946020048 2180.19544327535 115 117 114
-829.916573380063 195.080221329227 2175.08657048496 122 126 125
-839.007597895176 194.372807682562 2174.96161441791 129 133 132
-847.925836975316 193.921162604536 2172.84217319784 132 136 135
-856.040962794482 194.746835185403 2160.74175993731 144 148 147
-864.215202478177 195.568087433596 2148.63422152549 158 162 161
-872.448502556138 196.385009834878 2136.51932412813 141 145 144
-881.322274099932 196.179343735807 2132.38916995169 139 143 142
-889.581919601373 197.116070018013 2119.26274193504 157 161 160
-897.502244927839 198.809768872678 2100.13030275197 172 176 175
-905.648503693463 200.243118881955 2082.98572822719 164 168 167
-914.375571963202 200.65771106136 2073.83333229552 140 144 143
-923.381891111884 200.56332385394 2068.67865681442 138 142 141
-932.239754479487 200.845802094923 2060.51821371207 134 136 133
-940.919714177404 201.629521800586 2048.34766327288 140 142 139
-948.892722857691 204.297199408111 2021.14386698857 147 149 146
-955.555263613455 210.726444865515 1963.86092803436 152 154 151
-963.432568729562 214.624883523243 1926.5882420355 149 151 148
-972.448163291701 215.752357377637 1911.35135925313 93 95 92
-982.101764567944 215.121959245165 1910.14830701641 109 111 108
-991.829501947358 214.241064299295 1910.95227717186 123 125 122
-1001.47572048673 213.610121212267 1909.75014769217 135 137 134
-1011.18521374664 212.72937324425 1910.55639421881 138 140 137
-1020.76517046786 212.346902417569 1907.34626501431 154 156 153
-1030.22126879741 212.584670355742 1899.11128346843 164 164 162
-516.752704446731 204.124112509873 2228.25233360622 187 192 185
-525.532074227363 203.697528778443 2226.15015645558 180 185 179
-536.637011456726 201.56359546919 2236.86291156302 171 177 173
-547.32628893902 199.695349052324 2245.61146467617 152 158 154
-556.57811918307 198.877320717156 2246.4746596716 145 151 149
-564.627638605114 198.974895069017 2240.43095424897 148 152 153
-573.710432010184 198.286581896979 2240.30721534411 142 146 147
-582.788370065732 197.598097757146 2240.18384253967 132 136 137
-591.699261847381 197.039649886465 2239.07328657856 129 133 134
-600.291726189788 196.740871314799 2235.98617018436 129 130 132
-609.365848891523 196.051079961792 2235.86351722476 114 116 115
-617.510603485655 196.139601176988 2229.80795085679 117 119 116
-624.320643334904 197.392026397892 2214.84621947725 115 117 114
-632.544719930593 197.474449207967 2208.78077025237 109 111 106
-640.358430398857 197.942392527738 2199.74245574502 81 83 78
-647.929294818381 198.665100594872 2188.71816160984 117 119 114
-651.057635117595 203.508411679016 2145.98902693 172 174 169
-662.131724095224 201.128519663394 2158.7218939055 167 169 164
-672.724932743931 199.138461150235 2168.49068399589 67 69 64
-683.258766982108 197.151674985276 2178.26663477533 71 73 68
-692.176814867189 196.706521945331 2176.14720031873 82 84 79
-700.719436364886 196.644571465935 2171.05030614215 91 93 88
-709.780960628984 196.069271195228 2169.92099651795 102 104 99
-718.964126200761 195.365782073951 2169.78453145667 100 102 97
-728.141918047385 194.66206792898 2169.6487375971 92 94 91
-737.430482645991 193.830770243414 2170.50738330661 90 92 89
-747.502360625941 192.109512266431 2178.32466977188 121 123 120
-757.414727068376 190.517723473246 2185.15407455206 113 115 112
-766.527358991844 189.815950668245 2185.02640715323 93 95 92
-775.845140860891 188.860799296736 2186.88941998259 125 127 124
-784.838623031666 188.285533700052 2185.76860151807 129 131 128
-793.43223081084 188.214930243497 2180.6653673423 123 125 122
-802.33890939213 187.764051496695 2178.54736678603 117 119 116
-810.967203835973 187.690220519366 2173.43957215039 115 117 114
-819.984075543674 187.111374598209 2172.3158442386 118 120 117
-828.911535490695 186.657559459947 2170.19525802363 124 128 129
-837.93042296798 186.07742053995 2169.07128196078 128 132 133
-846.697887951794 185.872674004043 2164.95439179292 131 135 136
-854.914333965876 186.541922185673 2153.84967367608 146 150 151
-863.341010096169 186.957378581483 2144.73500290037 153 157 158
-871.886045853591 187.244795466414 2136.61358582861 136 140 141
-880.541291534838 187.404751745533 2129.48643797107 136 140 141
-888.597151681532 188.681675252161 2113.36124370133 157 161 162
-896.396341654919 190.573831042036 2092.22778439978 172 176 177
-904.691550851991 191.714323015799 2077.08100743808 163 167 168
-913.496092861051 191.982341197871 2068.9272566061 141 145 146
-922.57513997143 191.752698566972 2064.77154839387 142 146 145
-931.669680220728 191.521561295569 2060.61391066559 142 144 141
-940.294404054722 192.398898066363 2047.44207943152 143 145 142
-947.703001197532 196.350557289712 2009.2200581641 149 151 148
-953.85561424189 203.978404443853 1940.91231981237 150 152 149
-962.385076880142 206.178456059965 1916.66361440355 73 75 72
-971.943143781682 205.794692241781 1913.45622032418 79 81 78
-981.632292532905 205.042455901793 1913.2567399275 83 85 82
-991.352742006797 204.167758567788 1914.06160324929 100 102 99
-1000.99139013639 203.537536648081 1912.86041661281 151 153 150
-1010.6935992031 202.663045777625 1913.66755568586 146 148 145
-1020.20645288088 202.519366084835 1908.44955723139 157 159 156
-1029.63231290694 202.860060404042 1899.21039109587 178 180 177
-506.097117018272 196.445434936586 2223.55570631956 186 191 185
-516.729532824462 194.726662328766 2231.30327470158 183 188 182
-525.682382791703 194.168915784711 2230.18748076005 165 170 166
-536.421873466343 192.325151735406 2238.92970309021 155 161 157
-546.404428586938 190.997688343827 2243.73403818165 155 161 157
-556.528360324631 189.54361565333 2249.52875082635 144 150 146
-564.739872666222 189.499742756826 2244.47312950829 135 139 138
-574.147958585291 188.558962373942 2246.32459481185 138 142 143
-582.385019180735 188.512566074153 2241.26579186803 129 133 134
-590.644315151138 188.464215753632 2236.20421922672 117 121 120
-598.606450567856 188.668745189963 2229.16345005075 119 121 120
-607.229347677152 188.361908855564 2226.07279731573 110 112 109
-615.092321112449 188.689071745214 2218.03615265104 102 104 99
-621.629904294184 190.154822133256 2201.09248627224 94 96 91
-630.189178515004 189.967817708253 2197.00153035757 86 88 83
-638.326703681199 190.158784923227 2189.93890929338 127 129 124
-640.617340451611 195.527075458455 2142.27425678709 145 147 142
-642.740614817418 201.257368128915 2091.60599496765 184 186 181
-658.244346961849 194.999996421354 2135.03698259984 159 161 156
-670.934223354913 191.148288959663 2159.66529108519 74 76 71
-681.892559153937 188.812798845061 2172.41248644223 76 78 73
-691.086964061784 188.112836493106 2172.27484975937 93 95 90
-700.021721473999 187.663301874823 2170.15310132255 97 99 94
-708.837586568268 187.338110569754 2167.03841566099 91 93 88
-717.907832163136 186.761627617204 2165.90802078082 90 92 87
-726.740026735101 186.434348388433 2162.79106252671 85 87 84
-736.048414584592 185.607252428603 2163.64722334662 104 106 103
-745.80041713622 184.282559477653 2168.48008247105 95 97 94
-755.630830926384 182.835034602786 2174.31164744565 85 87 84
-765.42322371176 181.389511324908 2180.14771167699 97 99 96
-774.755568642062 180.44155442096 2182.00888817603 130 132 129
-783.557512247064 180.112977354025 2178.89570848157 131 133 130
-791.669471018902 180.64825627057 2168.81206965632 118 120 117
-800.901142944403 179.822374640576 2169.67780097211 114 116 113
-810.121711631343 178.996690208082 2170.54467711837 118 120 117
-819.239202260273 178.294222185295 2170.41664548139 122 124 121
-828.440193124023 177.468739834139 2171.28596429207 131 135 136
-837.456916890712 176.888947782598 2170.16225733404 132 136 137
-846.137840122931 176.798717254276 2165.04817839313 133 137 138
-854.02858229739 177.930337227262 2149.95189988877 147 151 152
-862.622131046259 178.079084379341 2142.83248096248 152 156 157
-871.323393041832 178.103100536426 2136.70787590137 137 141 142
-879.759095684643 178.612380113003 2126.58390422332 136 140 141
-887.821045919924 179.848005944346 2110.45805870248 158 162 163
-895.625577397446 181.685444393713 2089.32407690896 172 176 177
-903.991981367741 182.666113351504 2075.17652324688 161 165 166
-912.73909180965 183.036013199638 2066.02198413501 140 144 145
-922.004708451851 182.434840940656 2064.86727312157 141 145 144
-931.212834237151 181.954065500542 2062.71149219952 145 147 144
-939.776625644109 182.919922667418 2048.53958502736 142 144 141
-946.508944558388 188.337063590271 1997.29696637065 147 149 146
-952.488721980973 196.261758614452 1924.97902648291 136 138 135
-961.380005334015 197.556032438637 1907.74184354635 75 77 74
-971.222147811061 196.445991547408 1910.54751426605 76 78 75
-981.041770443993 195.33690752196 1913.35599280928 83 85 82
-990.687340029453 194.706961332097 1912.15394168991 92 94 91
-1000.26160232691 194.315389809309 1908.94478735092 121 123 120
-1009.97547372511 193.445916669067 1909.7502175512 132 134 131
-1019.498967009 193.29087140378 1904.53116153636 179 181 178
-1028.88068719078 193.847065508031 1893.28132181631 181 183 180
-1038.31538594355 194.399406795709 1882.02488083006 177 179 174
-493.890369544002 189.746700197945 2210.98809666866 188 194 184
-504.773078079922 187.92250886227 2219.71239471238 185 190 184
-515.049975607669 186.479683723593 2225.48798851079 181 186 180
-524.019501247028 185.920635954747 2224.37011697069 164 169 165
-535.134963376074 183.851131842413 2235.08162922961 156 162 158
-544.953745326749 182.664840917115 2238.89810310483 151 157 153
-555.09288621896 181.22870139003 2244.69087051063 140 146 142
-563.488332234352 181.047624736469 2240.62034377688 137 141 140
-572.572417025529 180.364335543161 2240.4964304842 137 141 140
-580.495024522902 180.55582550374 2233.46062849787 124 128 127
-587.963077997437 181.119195028712 2223.45727127138 122 126 125
-595.480387487677 181.678889163056 2213.44777686434 117 119 118
-603.832489459419 181.612711990249 2208.37466952911 110 112 109
-612.36113573764 181.420312911329 2204.28755000723 85 87 82
-620.147951061249 181.846999488855 2195.25270050309 80 82 77
-628.42544778957 181.898576782547 2189.18066599204 125 127 122
-637.461830856027 181.328969120594 2188.0544788494 147 149 144
-635.442952600885 190.277516150027 2110.68542449823 153 155 150
-640.039670617169 193.767482252477 2076.84651363605 164 166 161
-655.039556115952 188.123070842773 2116.30753521153 154 156 151
-669.275881374362 182.984485325139 2151.83176412363 109 111 106
-680.657040890259 180.316851613147 2167.55036983217 94 96 91
-690.125737305797 179.37313819164 2169.39451929689 103 105 100
-699.196320899567 178.797738567176 2168.26407938356 104 106 101
-707.89312832595 178.589102355197 2164.15601710446 100 102 97
-717.093929111835 177.889864766867 2164.01734007645 102 104 99
-725.812512361875 177.678706588289 2159.90656694481 106 108 105
-735.246382373895 176.7346437543 2161.75506345897 92 94 91
-745.005370533318 175.425902025699 2166.58724908261 105 107 104
-755.287231262982 173.510888824766 2176.39445565472 122 124 121
-764.642396224274 172.570257316131 2178.25276505763 129 131 128
-773.875517079589 171.751330599677 2179.11829724002 136 138 135
-782.273901421359 171.900894878218 2172.02323152607 127 129 126
-791.005366426408 171.685332726377 2167.91086242527 105 107 104
-800.240609903874 170.864747870807 2168.77613408361 107 109 106
-809.55957786668 169.92385176057 2170.63872108602 123 125 122
-818.862021130421 168.983473372662 2172.50360917852 129 131 128
-827.969044175401 168.283971499452 2172.37687602289 129 133 134
-836.896832089048 167.824369772393 2170.25602384966 127 131 132
-845.325557003054 168.08285537162 2162.14919787305 130 134 135
-853.303884815039 169.056265774061 2148.05009293639 148 152 153
-861.745153947063 169.427314755951 2138.93371798568 148 152 153
-870.381010951941 169.556495109991 2131.80907076763 133 137 138
-878.829255262862 170.040489611508 2121.68360055089 134 138 139
-886.973261663482 171.115602997753 2106.55586497648 159 163 164
-894.71796350661 173.016734236406 2084.42149473673 171 175 176
-902.640784976426 174.791483489816 2063.27291614126 158 162 163
-911.731366327814 174.545578291582 2059.11581135084 137 141 142
-921.135740536035 173.706870504225 2059.95978395123 141 145 144
-930.471663687362 172.986485689216 2059.80454041006 141 143 140
-938.987623161602 174.03449686105 2044.63021839499 143 145 142
-945.516806789302 179.785982985863 1989.38132094217 159 161 158
-951.848813801658 186.693469891288 1924.07615362145 88 90 87
-960.740654104766 187.944203121394 1906.83925611215 67 69 66
-970.499831541824 187.079458305961 1907.63901993475 146 148 145
-980.206519766552 186.331930018476 1907.43757858573 161 163 160
-989.906897236218 185.584413064172 1907.23668448304 163 165 162
-999.56546977893 184.953429483629 1906.0330134034 157 159 156
-1009.22300726961 184.322004203208 1904.82947265534 167 169 166
-1018.72992304783 184.27178962578 1898.60428198039 180 182 179
-1028.04509480226 185.148419430055 1884.33860169131 161 163 160
-1037.55197226164 185.440265690144 1875.08945369871 175 177 172
-497.106193671154 178.203573727127 2230.77236281834 186 192 182
-503.821866601914 179.129159284031 2217.83864278934 175 180 174
-513.55278544855 178.075146312957 2220.65804601304 162 167 163
-523.807803115596 176.652082124987 2226.43655851769 133 137 136
-534.204605285683 175.107755146837 2233.20514332527 132 137 133
-544.382589399668 173.688640379356 2238.99301849252 137 142 136
-553.655803584253 172.885165728679 2239.85350657199 161 163 160
-562.748004227727 172.204432698013 2239.72833346862 146 148 147
-571.162943107337 172.013305213769 2235.65540060916 130 134 133
-578.933123159754 172.309593207949 2227.63065758673 134 138 137
-586.416332111053 172.847302115575 2217.62547662267 107 111 110
-593.308840130123 173.869012564555 2203.66174838041 101 103 100
-600.429542309367 174.764050023323 2190.67780381178 96 98 95
-608.697683503141 174.803412908024 2184.60696898235 85 87 82
-617.752718325392 174.233542716158 2183.47845490221 95 98 91
-625.758383507295 181.445940393453 2112.92494620513 165 167 162
-637.33354767398 186.194491885232 2062.08765716493 170 172 167
-651.966596169144 181.020589691712 2098.57015746589 165 167 162
-667.614749483296 174.775736803797 2143.99846341842 157 159 154
-679.286839863304 171.912445867856 2161.69689239655 104 106 101
-688.642559165333 171.095889056598 2162.54687850778 107 109 104
-697.860134917527 170.399288086444 2162.40634138845 110 112 107
-706.947582224198 169.822276646952 2161.2738012281 109 111 106
-716.401379994739 168.886141517978 2163.11978999848 104 106 101
-725.480823812049 168.308564947233 2161.98825011454 92 94 91
-734.793605134257 167.492145616365 2162.84359426975 96 98 95
-744.665374305813 166.080862809613 2168.66966262631 123 125 122
-754.944223666751 164.196084216738 2178.47740564641 133 135 132
-764.186424438681 163.382638356108 2179.34155000651 131 133 130
-772.57096403785 163.517290608251 2172.24849157362 131 133 130
-780.78151812628 163.885954411707 2163.16067450891 116 118 115
-789.436940972033 163.778834524763 2158.049822343 102 104 101
-799.384131864306 162.136143827107 2165.88270238426 109 111 108
-808.807276859787 161.085135047335 2168.74050605361 129 131 128
-818.208431395284 160.034959825249 2171.60105180721 132 134 131
-827.050039341437 159.690448279974 2168.48296420035 128 132 131
-835.815229890172 159.461960265625 2164.36666065961 126 130 131
-844.427906876574 159.46626522172 2158.25292212394 131 135 136
-852.496838455808 160.286738362021 2145.15060022581 152 156 157
-860.866655256203 160.752350411707 2135.03520597699 150 154 155
-869.208576686496 161.330889852916 2123.91506814826 135 139 140
-877.970890146388 161.323482246814 2117.78268670995 133 137 138
-886.335814005877 162.01123132396 2105.65170361616 158 162 163
-894.148193139377 163.739146970657 2084.51703090596 170 174 175
-902.198628071348 165.227889413754 2065.36865429 157 161 162
-911.346330151197 164.858505421962 2062.2126737143 137 141 142
-920.563970800023 164.372555082725 2060.05571902145 141 145 144
-929.729189442941 164.001099630256 2056.89755793735 145 147 144
-938.033779474223 165.471351630436 2037.71751296147 145 147 144
-944.780269259086 170.614870900503 1986.47408670551 159 161 158
-951.404266333327 176.658902297723 1927.18135775727 47 49 46
-960.19324774364 178.096118430829 1907.9411908685 67 69 66
-969.776165459344 177.69509439769 1904.7307410086 73 75 72
-979.450720632263 177.064287075719 1903.52507492703 73 75 72
-989.124393894763 176.433117881156 1902.31951985564 77 79 76
-998.761496352561 175.915461118077 1900.11054257534 84 86 83
-1008.27185666343 175.852067388433 1893.88495674991 88 90 87
-1017.80815644439 175.786486169825 1887.65637986137 170 172 169
-1027.23350611776 176.285882102172 1876.40124501467 190 192 189
-1036.78582239861 176.441553776081 1868.15447223489 207 209 204
-491.212498750301 172.578849837418 2203.30527244342 182 188 178
-499.874516703096 172.257875453272 2200.20977489046 161 166 160
-510.208855036786 170.849225014369 2205.97811041802 142 147 143
-521.960541214021 168.478054952747 2219.63408139816 128 132 131
-532.557242582125 166.833701967844 2227.38591074948 118 120 117
-543.282337258547 165.071689013452 2236.12971432652 136 138 133
-551.522270630796 164.993218050634 2231.07063734462 129 131 128
-560.63945456128 164.31349135656 2230.94234382458 122 124 123
-568.068993021435 164.830673287305 2220.94415494632 129 130 132
-576.044603429218 164.985700563784 2213.9018345333 122 123 125
-583.564624168638 165.496249778353 2203.89213119979 103 105 104
-590.653384572902 166.360920318332 2190.9120124773 88 90 87
-597.965130817394 167.101877444431 2178.91231960203 92 94 89
-606.110648862668 167.244288963472 2171.84882894349 80 83 76
-616.873879610946 165.366426782775 2181.59610581596 159 162 155
-612.793528759068 175.225116902431 2093.39639507305 155 160 153
-612.855836019496 182.094547311399 2029.88167680264 159 164 157
-624.053806812557 180.078670501285 2040.58251097375 158 163 156
-636.316859016199 177.122329771656 2059.21512355153 158 163 156
-651.242044995242 171.815548589032 2097.67689095007 170 175 168
-666.901483590557 165.698352120055 2143.10369265634 162 167 161
-678.047629365241 163.356501517697 2156.83515428705 112 117 111
-687.287392146481 162.66174196593 2156.69184350835 104 109 103
-696.011158700218 162.435352894192 2152.58046364106 104 109 103
-705.501093097897 161.50560523364 2154.42192595284 106 111 107
-715.341612945091 160.226007225241 2159.24361988617 109 114 110
-724.910619644772 159.18114690834 2162.08344495414 114 119 115
-734.341109614469 158.253663283122 2163.93231961683 119 124 120
-744.211861317364 156.861556396483 2169.75846444836 123 128 124
-754.378926142091 155.12302926355 2178.57184500277 129 134 130
-763.078378665529 154.894665525746 2174.46350458294 126 131 127
-771.369913890593 155.127908968153 2166.37386554277 113 118 114
-779.492574919677 155.589376265084 2156.28908551937 102 107 103
-788.669736863064 154.893018217115 2156.15335089598 110 115 111
-798.526494046393 153.389786593558 2162.98946217079 122 127 123
-807.863763766819 152.464270107459 2164.84996498909 124 129 125
-817.276929463493 151.424348449939 2167.70898481839 124 129 125
-825.680703928968 151.647336054553 2159.60536599295 136 140 139
-834.29612257348 151.638357330093 2153.49132029666 134 138 137
-842.769527197962 151.855923677773 2145.37902631572 136 140 139
-851.525321868801 151.72792689788 2140.25570331798 147 151 150
-860.065488165018 151.94016514444 2132.13509190646 145 149 148
-868.490613134185 152.377287366095 2122.01263028337 135 139 138
-877.110964734791 152.583372210188 2113.88202842468 137 141 140
-885.414535259703 153.354079464891 2100.75055602998 158 162 161
-893.510031954661 154.573483557314 2083.61287973048 165 169 168
-901.560678590866 156.013153236595 2064.4648461952 155 159 158
-910.648549479621 155.751355440673 2060.30812150708 140 144 143
-919.811938222958 155.375266145138 2057.14996071796 139 143 142
-928.928140929307 155.110678033656 2052.9897077347 134 136 133
-937.241061043327 156.531369943811 2033.8089939972 154 156 153
-943.834869047519 161.875067027088 1979.56079280037 157 159 156
-950.665371781711 167.31184948432 1924.2748809966 109 111 108
-959.692305700185 168.140164369296 1910.04553858977 69 71 68
-969.051184646729 168.29298717089 1901.82267287939 87 89 86
-978.775421616275 167.550313146867 1901.61902876723 89 91 88
-988.416594491149 167.030453599723 1899.40930905515 88 90 87
-998.204745560317 166.064836306312 1901.21365015076 87 89 86
-1007.646170623 166.210402256994 1892.98074255249 90 92 89
-1017.24532090692 165.909583032417 1888.76031598006 97 99 96
-1026.66677530198 166.382172963261 1877.50573783371 164 166 163
-1036.1412045557 166.850850591835 1866.2445590411 185 187 182
-485.689456273078 166.563622735734 2177.80856967624 181 187 177
-497.98244286291 163.987327834706 2193.41338448785 146 151 145
-509.076129491368 162.124304251485 2203.11914307445 125 130 126
-520.293050958111 160.146669186558 2213.81775187398 124 128 127
-531.44578896334 158.172582972884 2224.52412077555 124 126 123
-542.00460460389 156.55456226426 2232.28060869658 125 127 122
-550.950582311894 155.994954218159 2231.16567727457 107 109 106
-559.726073762037 155.552044650292 2229.06402711015 88 90 89
-567.328355871519 155.927208886092 2220.0521016737 90 92 91
-574.97457589688 156.299188334113 2211.03494170086 104 106 105
-583.153783116055 156.317998781025 2204.9752594298 97 99 96
-590.398628531396 157.033446361075 2192.98398256098 103 105 102
-597.861157437135 157.628292895414 2181.97354477624 89 91 86
-605.223374822318 158.335427096653 2169.96764247246 119 122 113
-609.613355120752 174.65310009515 2012.16610665594 159 164 157
-625.617758379818 168.856690155551 2055.53339956655 160 165 158
-637.419957679141 166.303058722167 2071.19916177833 157 162 156
-651.765278970162 161.567619261315 2105.70079959222 180 185 179
-665.236020679518 157.418660795291 2135.27111926217 134 139 133
-676.406926538666 155.116145039021 2148.99962766254 104 109 103
-685.66898126689 154.422650357053 2148.85329138091 105 110 104
-695.053638102093 153.614554640899 2149.69988424583 103 108 102
-704.677834387037 152.578180087418 2152.53255936414 111 116 112
-714.525313059907 151.314445424254 2157.35358337035 118 123 119
-724.460050998617 149.938388625939 2163.1717008306 128 133 129
-734.005843051376 148.905485956136 2166.01415119048 124 129 125
-743.64426717145 147.759861654587 2169.85326583134 121 126 122
-753.143935196334 146.728882072815 2172.70146713283 126 131 127
-761.424070590358 146.94418856481 2164.61329796051 127 132 128
-769.848163770449 147.043560900502 2157.51515611421 109 114 110
-778.201122437156 147.253242715896 2149.41791384037 105 110 106
-787.901760646853 145.994950829416 2154.25724833491 114 119 115
-797.765746274467 144.513174253137 2161.09216077276 124 129 125
-807.204760153685 143.48313230114 2163.94792888384 127 132 128
-816.436550898354 142.678384757738 2164.81358971582 130 135 131
-824.757829791843 142.993832004903 2155.7123352627 138 142 141
-833.470953623199 142.858816381166 2150.59411554859 134 138 137
-841.782764931033 143.280136932174 2140.48607668241 136 140 139
-850.388268028217 143.363443389454 2133.36533825987 149 153 152
-858.946726081398 143.555524688978 2125.24249722782 146 150 149
-867.695347447016 143.522442833412 2119.11189209416 132 136 135
-876.175728897863 143.930961579304 2108.98261011506 137 141 140
-884.420356849104 144.779100938844 2094.85060239221 160 164 163
-892.461627223896 146.064617939217 2076.7118320127 163 167 166
-900.92213800689 146.791556802916 2063.56112993286 150 154 153
-910.012699024346 146.521584856595 2059.40409105892 139 143 142
-919.118782695347 146.250116389519 2055.24511899062 139 143 142
-928.010562575714 146.416782622138 2047.08074829479 140 142 139
-936.501436382579 147.458458643858 2030.90188640791 148 150 147
-942.886869182985 153.095743369741 1972.64792739049 174 176 173
-949.481129780536 158.931426973864 1912.35177095705 134 136 133
-958.772001400392 159.176443377747 1903.12946227222 109 111 108
-968.149126031276 159.309204254573 1894.90461270941 86 88 85
-977.851753510449 158.677146065306 1893.69544666409 108 110 107
-987.591905351965 157.935936643575 1893.48981261302 125 127 124
-997.361415266047 157.086240526613 1894.28824737336 130 132 129
-1006.98665589583 156.670160291034 1891.0727957827 137 139 136
-1016.68240573122 156.036629136997 1889.86449190567 107 109 106
-1026.15539968792 156.266519693413 1880.61949526329 97 99 96
-1035.59552029541 156.816584407045 1868.35469655871 159 161 156
-486.056134151345 156.821417884148 2182.82738222297 169 175 165
-495.90051425439 155.792814957907 2185.6325592362 121 126 122
-507.203048255028 153.842811977712 2196.32041132952 116 120 119
-517.894931150018 152.241725914059 2204.0602486471 114 118 119
-528.718352776373 150.528273941103 2212.79165371847 124 126 123
-538.604603766885 149.391554268142 2216.59957731227 119 121 118
-548.290458034058 148.370631598698 2219.42451718693 136 138 135
-557.441382836037 147.693834307687 2219.29224555986 145 147 144
-565.238430496811 147.931107237553 2211.26430503283 117 119 116
-572.576185472813 148.507771624344 2200.26924591016 102 104 99
-580.784798692745 148.510855695523 2194.20617562764 100 103 96
-588.700000277029 148.739287654103 2186.16351347185 83 86 77
-628.052420008586 157.038578998462 2076.42356143842 152 154 149
-639.234934915975 154.984919817627 2088.13435127815 176 178 173
