ply
format ascii 1.0
comment KinectMotionCapture
element vertex 750
property float x
property float y
property float z
property uchar red
property uchar green
property uchar blue
end_header
-686.362066482978 85.4567661064417 2487.55579004903 153 155 152
-694.01350816131 85.3546597783344 2482.5702155943 154 156 153
-701.129447430433 85.6676128672553 2473.61938696868 149 151 146
-707.468971193965 86.6017103342244 2458.71697125104 118 120 115
-712.679057821261 88.4654234449909 2434.88339007992 107 109 104
-719.063831844059 89.4911907454149 2418.96763915875 143 145 142
-726.815254488714 89.4760681389825 2412.96143123504 149 151 150
-736.103750553882 88.2184636776852 2418.86012418929 112 113 115
-744.985034134183 87.2724467668515 2421.78527246745 138 139 141
-754.085508809005 86.1213380130496 2426.69922156005 143 144 146
-762.918089912783 85.1775278966082 2429.63044180784 155 156 158
-771.728981766979 84.2347113155981 2432.56436612931 153 154 156
-780.405884217357 83.3953389925695 2434.50705202127 149 150 152
-789.833417123404 81.8403297743902 2443.41223849917 147 151 152
-798.992932185655 80.492656971555 2450.33471154128 144 148 149
-807.484088510477 79.7592795793302 2451.29261121952 146 150 151
-815.55843363172 79.4333679281386 2448.27022449504 151 155 156
-823.64341860144 79.1063031838829 2445.24675328573 150 156 156
-832.315139344034 78.1694560751124 2448.19802961877 150 156 156
-840.871593343871 77.3348903444535 2450.15573410729 150 156 156
-849.502109512527 76.3998619539356 2453.11214773802 159 163 162
-857.934835145615 75.6677284611515 2454.0773359454 157 161 162
-866.611911235545 74.6336012675395 2458.03588724458 156 160 161
-875.261534881859 73.6008074006875 2461.9981012039 160 164 165
-883.32519813298 73.2722915253563 2458.97705437178 163 167 168
-891.476308445621 72.8424627995683 2456.95328883409 167 171 172
-899.186163938344 73.0123098520436 2448.9364069378 168 172 173
-906.718465765562 73.4790267906921 2437.91759932969 177 181 184
-913.821690303167 74.6398805650333 2419.89621982116 175 179 182
-921.28134616539 75.3962765285942 2405.86241357728 171 175 178
-928.937836728241 75.9490620980939 2393.81995392354 176 180 183
-936.835678319985 76.1999903331241 2384.77171185085 179 183 184
-944.892432029365 76.2497837824737 2377.71954236305 183 187 188
-953.09174305036 76.099427122848 2372.66572411886 179 183 184
-961.470096083947 75.6513567295067 2370.61340780308 175 179 180
-969.503099264884 75.8920021741804 2361.5483254425 169 173 174
-977.578588567018 76.1294632315523 2352.47794945113 161 165 166
-985.651912999594 76.4619680635959 2342.39966596136 164 168 169
-993.982522722064 76.3011566463859 2337.32948994768 168 172 173
-1002.13800631867 76.6275614963518 2327.24096954404 164 168 169
-1010.30468775645 77.0480418991246 2316.14311687321 169 173 174
-1018.49082193258 77.5621590497784 2304.03466265967 172 176 177
-1027.29473224152 76.321420628288 2309.99378463533 183 185 184
-635.72259932601 80.8124377796445 2488.84885108641 167 173 163
-643.478530637986 80.6024359458479 2484.85820818031 162 167 160
-651.25116152224 80.3909223370104 2480.86548524752 140 144 143
-659.805843766599 79.6662486671568 2481.81543434563 130 134 133
-667.898970236051 79.2483828647086 2479.7986330761 118 119 121
-676.293219761546 78.6257026286799 2479.76064753478 110 112 111
-684.392442535679 78.2066422070394 2477.74308862845 109 111 108
-692.212914037898 77.9901399050146 2473.74440860691 125 127 124
-699.212715759677 78.3811527761497 2463.80018059475 152 154 149
-705.987822252357 78.9713348011423 2451.86761398005 166 168 163
-711.615699573333 80.4676603815018 2431.00616406561 161 163 158
-718.40337334105 81.1488172516849 2418.06434272081 158 160 157
-726.414469846561 80.9182300716354 2414.04191091786 128 130 129
-735.701833280349 79.6798660852804 2419.94045427995 126 127 129
-744.581499596964 78.7448515035103 2422.86577540882 153 154 156
-753.801259433406 77.5098984214246 2428.7727463177 149 150 152
-762.629517646816 76.5773525812833 2431.70447637258 155 156 158
-771.320934228205 75.7456556204906 2433.64533077401 152 153 155
-780.220953133668 74.7150955460587 2437.5762910027 150 151 153
-789.313250655411 73.4866201846858 2443.49915139606 149 153 154
-797.939403723069 72.6579163015403 2445.44814241601 147 151 152
-806.444819551568 71.9290925737935 2446.40401033184 147 151 152
-814.736014150108 71.3987160316281 2445.37071499073 148 152 153
-823.125916697905 70.7690564766699 2445.33329030632 148 154 154
-831.702525143024 69.9418665100482 2447.2884602154 149 155 155
-840.449565881161 68.9182425759499 2451.23825268016 149 155 155
-849.169242719561 67.8959463278582 2455.19169677015 155 159 158
-857.773413797881 66.9732268210186 2458.1513656974 156 160 161
-866.184839226495 66.2475863820422 2459.11919494514 157 161 162
-874.750327398293 65.3265548098644 2462.08368682531 160 164 165
-882.893999187786 64.8950474578846 2460.0606137232 161 165 166
-890.965405974475 64.560277587231 2457.03885728204 161 165 166
-898.674499676466 64.7111516519182 2449.02212041742 164 168 169
-905.918202064597 65.5394220808484 2434.00714724462 175 179 182
-913.029820428689 66.653396699085 2415.98484369076 174 178 181
-920.764165002074 66.9865365080991 2405.94910147993 172 176 179
-928.737720281554 67.0262517104367 2398.90734120502 180 184 187
-936.743081099686 67.0635226620728 2391.86161822377 179 183 184
-944.663681042907 67.2909610666694 2382.81035763425 180 184 185
-952.682455815943 67.419120560145 2374.7550342208 176 180 181
-960.7912759953 67.4485488945302 2367.6966610449 173 177 178
-968.781234684398 67.7628340591556 2357.6288290879 167 171 172
-976.866612288545 67.9780730985523 2348.55703734706 159 163 164
-985.039168667901 68.094703877521 2340.48255325874 167 171 172
-993.416968306853 67.8276764431252 2336.41445503677 165 169 170
-1001.53466734567 68.2246412080996 2325.32277700734 162 166 167
-1009.70552575555 68.6178013606899 2314.224475022 170 174 175
-1017.89559050378 69.1018393802032 2302.11584977735 177 181 182
-1026.51904765527 68.4472950854452 2302.04910412349 181 183 182
-632.456065599721 74.2324554161134 2472.14194132029 165 171 161
-641.844542394422 73.0114492219512 2478.0278206216 159 164 157
-650.415721846553 72.2915151340388 2478.97545821544 141 145 144
-658.82332436187 71.6713884008786 2478.93579957538 136 140 139
-666.623712113848 71.4490586081351 2474.93964123363 118 119 121
-674.736359411112 71.0266943574408 2472.92041572669 116 118 117
-682.709668704726 70.7027127467244 2469.91087286223 119 121 118
-690.551686377818 70.4765364452315 2465.90952948208 114 116 113
-697.571978335647 70.8415463403481 2455.96257261876 107 109 104
-704.093280153247 71.5974910112322 2442.04586860062 90 92 87
-710.013813128084 72.8406266007913 2423.1641782227 102 104 99
-717.084643602258 73.2911738804999 2412.20300209347 134 136 133
-725.756213683454 72.5608728075531 2413.1381388314 100 102 101
-735.174058725173 71.2433884384059 2420.02853458788 161 162 164
-744.178252626649 70.2215080572523 2423.94623126653 162 163 165
-753.2761638508 69.1033500935131 2428.86041348789 154 155 157
-762.105502979242 68.1816645540614 2431.79198005075 150 151 153
-771.028493714197 67.1637056185207 2435.72004034627 148 149 151
-780.036948400467 66.0500222447276 2440.64537443102 149 150 152
-789.012815111576 64.9380565788333 2445.57477077889 146 150 151
-797.205643983186 64.504641943533 2443.5455681863 147 151 152
-805.508253547542 63.9740159800686 2442.51084898178 143 147 148
-813.912479286544 63.3466092318135 2442.4716309151 140 144 145
-822.608266761387 62.4306247561626 2445.41984892123 144 150 150
-831.282146866607 61.5156775725378 2448.3707981059 154 160 160
-839.934067928613 60.601711250651 2451.32448506628 156 162 162
-848.564029970398 59.6887855112297 2454.28090964223 156 160 159
-857.260233073561 58.68136244586 2458.2372439476 158 162 163
-865.757914626367 57.8659491829929 2460.20223245271 159 163 164
-874.073300294848 57.2415120545771 2460.17385301248 161 165 166
-882.302730675072 56.7120244158016 2459.14826313977 160 164 165
-890.14468518489 56.6561098480989 2453.13110506743 166 170 171
-898.162617307359 56.4088726248225 2449.10786406718 170 174 175
-905.404345969983 57.1991063105509 2434.09323737207 173 177 180
-912.652083218323 58.0783736410284 2418.07017954459 170 174 177
-920.047012760936 58.8579840835255 2403.03670253004 169 173 176
-927.964189526947 58.9749083231564 2394.99408753486 181 185 188
-936.163279790208 58.7140698709458 2390.94827488799 187 191 192
-944.202535431548 58.7325190361722 2383.89837159969 181 185 186
-952.273572665396 58.7486150594923 2376.84450835345 173 177 178
-960.323298976136 58.8554229109905 2368.78537859986 174 178 179
-968.259146794891 59.2386205717858 2357.71643078278 169 173 174
-976.391168797798 59.3393794657722 2349.64704694305 161 165 166
-984.470390295048 59.6227454509828 2339.56815693987 164 168 169
-992.808554909322 59.4400721989809 2334.49709569273 170 174 175
-1001.04892279084 59.5327045337218 2326.41421232889 176 180 181
-1009.25260329672 59.8068875997291 2316.31981476012 177 181 182
-1017.36758558502 60.4455390191578 2302.20453772858 172 176 175
-1025.80312083313 60.3448796734587 2296.11318185435 179 181 180
-1034.55171655841 59.3257577904457 2300.06300867865 186 188 185
-632.414640252213 65.6103767412357 2475.19311845938 165 171 161
-641.320035223261 64.7005980830221 2478.11516234637 158 163 156
-650.048109465286 63.8888123354662 2480.051389653 140 144 143
-657.993228723309 63.5621747845999 2477.0451314639 137 141 140
-665.798896374527 63.3311475250573 2473.04833712641 132 133 135
-673.917190962324 62.9056190703963 2471.02865547256 127 129 128
-681.895923253975 62.5757054547177 2468.01821120298 118 120 117
-689.600633474356 62.4371195202503 2463.02608521687 117 119 116
-696.488035161233 62.8730147796952 2452.08783850146 121 123 118
-702.881174052364 63.688584633655 2437.17928433986 127 129 124
-708.678073033495 64.97743772356 2417.30497499109 121 123 118
-715.632101362939 65.4951579629699 2405.35051108321 119 121 118
-724.710495066117 64.4830033991111 2409.25892245269 92 94 93
-734.140929132695 63.186575359189 2416.14769172219 150 151 153
-743.280814774229 62.0825526773851 2421.0563582909 157 158 160
-752.509198394486 60.8853047787959 2426.96239397603 150 151 153
-761.936034146854 59.5008541287449 2434.85929092774 148 149 151
-770.967623935424 58.4025087132713 2439.78169749653 149 150 152
-779.966652254384 57.3058494560446 2444.70816310378 150 151 153
-788.492793745986 56.587503021462 2445.66165725656 146 150 151
-796.90059028021 55.963449620704 2445.62174447608 148 152 153
-805.093521278395 55.5269552903422 2443.5927775177 143 147 148
-813.699466565103 54.7152730525917 2445.54400525461 140 144 145
-822.288959129138 53.9041935351499 2447.49752487553 145 151 151
-830.861963946877 53.0938060486229 2449.45310024728 155 161 161
-839.606078565664 52.0978432374415 2453.40342529858 156 162 162
-848.140566496656 51.2891331091638 2455.36380293283 154 158 157
-856.835284435921 50.2956577019712 2459.32004557848 155 159 160
-865.245461625653 49.5812349718295 2460.28800105761 157 161 162
-873.561392562203 48.9595999108398 2460.25954619201 162 166 167
-881.710926513751 48.5224361953661 2458.23599669129 164 168 169
-889.555117073258 48.4528495980334 2452.21835530923 163 167 168
-897.575619409761 48.1974160025147 2448.19481514632 168 172 173
-905.178926356987 48.4908272956313 2438.17553028019 171 175 178
-912.344220515116 49.421608858599 2421.15469783514 171 175 178
-919.595566239615 50.3464605264654 2404.12314227951 175 179 182
-927.445220605274 50.5358092912565 2395.08107585511 190 194 197
-935.70552335967 50.1759837215191 2392.03557202847 192 196 197
-943.741456063888 50.1784598628135 2384.98612548746 185 189 190
-951.64139698143 50.4505526168556 2374.92963832839 179 183 184
-959.748985364381 50.4476601344488 2367.87150398912 185 189 190
-967.888216946045 50.4423312394386 2360.80918691319 186 190 191
-976.059185848277 50.4346520228985 2353.74291539678 181 185 186
-984.081353189679 50.7844006487111 2342.66328350043 164 168 169
-992.368698323281 50.6813568697596 2336.59042715572 159 163 164
-1000.6028756249 50.7555113672208 2328.50836500038 150 154 155
-1008.68906259176 51.274037200749 2315.40492516811 150 154 155
-1016.83924450052 51.7881253521465 2302.29327056316 170 174 173
-1025.21117900626 51.8522796201249 2294.1940434584 184 186 185
-632.374290732477 57.0036353516656 2478.24388068259 168 174 164
-640.636580691308 56.4831328358011 2477.21416646673 159 164 157
-649.36823299647 55.6791816410406 2479.14992662022 141 145 144
-657.008920456587 55.5350889119971 2474.16580479804 143 147 146
-664.973458049227 55.2012445864299 2471.1573825631 131 132 134
-672.949172303125 54.8662975452563 2468.14732818214 118 120 119
-681.081549648764 54.4366170786173 2466.12590001755 117 119 116
-688.934101364015 54.1932266509284 2462.123287384 117 119 116
-695.96289296624 54.5083048169279 2452.17540130875 115 117 112
-702.216664172106 55.3787465769289 2436.27616754019 144 146 141
-708.013434289644 56.6155624895307 2416.40225157964 148 150 145
-715.100581835819 57.0102154445263 2405.43918637201 100 102 99
-724.180209327606 56.0115989410837 2409.34740811996 95 97 96
-733.359374339657 54.9218583778477 2414.25137551274 111 112 114
-742.877494986294 53.5569170695137 2422.13706954089 135 136 138
-752.346865623163 52.1947205795551 2430.02859978494 139 140 142
-761.530781379348 51.0190583074896 2435.94012795163 142 143 145
-770.445382864752 50.0290437976471 2439.86892131651 147 148 150
-779.21989321281 49.1319629611469 2442.80726539141 150 151 153
-788.082909044078 48.1444011467382 2446.74273015061 149 153 154
-796.596084525927 47.4320441871349 2447.69758634293 149 153 154
-804.888624080082 46.9020896022119 2446.6641220481 148 152 153
-813.078886521264 46.4627194424423 2444.63549568326 149 153 154
-821.572567130324 45.7503826170708 2445.59302493617 149 155 155
-830.151876516811 44.9478948780523 2447.54779273131 150 156 156
-838.996600313469 43.8749187492198 2452.49321199329 151 157 157
-847.625991624402 42.9840693614555 2455.44988992453 154 158 157
-856.233351975217 42.0942924963496 2458.40907409615 154 158 159
-864.646969780247 41.3852644653373 2459.37658600009 155 159 160
-872.882987674646 40.855924524927 2458.3501736556 162 166 167
-880.957683021026 40.5053551580831 2455.3278081603 168 172 173
-889.042748908417 40.1537070729108 2452.30415132356 167 171 172
-897.138187202469 39.8010125155412 2449.27944309638 170 174 175
-904.737614630876 40.0702420757567 2439.26046578426 170 174 177
-911.828283112897 41.0465180581741 2421.24113927628 171 175 178
-919.144228387263 41.8392897666023 2405.2095570048 178 182 185
-927.247028953879 41.6533355644503 2400.16787643961 192 196 199
-935.186334307436 41.7305084386292 2392.12260461133 196 200 201
-943.280424479783 41.6287275043058 2386.07386201762 188 192 193
-951.120450931372 41.9645781740846 2375.01699682729 180 184 185
-959.387523371582 41.6822387367572 2370.96275702873 187 191 192
-967.568681242341 41.5737191503743 2364.90340691573 190 194 195
-975.96802609136 41.1135042450016 2362.84874319637 189 193 194
-984.009807992454 41.3505817606873 2352.77464733249 169 173 174
-992.184515428435 41.4100408114093 2344.70004536473 168 172 173
-1000.15714028663 41.9880654178274 2330.60269335741 159 163 164
-1008.12482208808 42.7347191601215 2314.4898996704 149 153 154
-1016.20718423496 43.3892244355561 2299.3709645909 155 159 158
-1024.68165703588 43.174993970112 2294.28297599271 181 183 182
-1033.90259827494 40.8044001159597 2314.30137058874 187 189 186
-630.878121282365 49.2397150376692 2472.40467693462 158 164 154
-640.430434253999 47.983715917241 2479.27788970045 149 154 148
-649.001068288516 47.2797350436821 2480.2257936157 138 142 141
-656.792464886281 47.0333426347646 2476.23082068489 144 148 147
-664.298409345808 46.9680744028569 2470.25537904415 135 136 138
-672.276860785696 46.6273714661389 2467.24523850524 125 126 128
-680.266470463192 46.2856267096989 2464.23346795911 114 116 115
-687.981378714718 46.1243237520828 2459.24012914347 121 123 120
-694.736713881698 46.5953977494158 2447.31058380882 138 140 137
-701.001813953414 47.4240289273771 2431.41004637146 148 150 145
-707.213620923007 48.3374066081164 2414.50824932309 160 162 157
-715.229482531858 48.0738478244774 2410.48530969295 108 110 107
-724.038046133148 47.2694462420536 2412.41147295746 117 119 118
-733.337143379896 46.1067492894458 2418.30835274263 118 119 121
-742.598393525434 44.9461349423462 2424.20995013781 137 138 140
-752.306800036494 43.4299612495444 2434.08791034527 135 136 138
-761.12577889528 42.5417232022735 2437.02068172576 138 139 141
-770.154746238416 41.4764219184561 2441.94332853969 144 145 147
-778.698629930066 40.7683197776363 2442.89434132406 148 149 151
-787.452461982614 39.8831295991557 2445.8354748831 149 153 154
-796.076748008315 39.0874789424337 2447.78437158561 145 149 150
-804.684664367215 38.292545159269 2449.73554950664 148 152 153
-812.86699555098 37.8509629063702 2447.7079187413 152 156 157
-820.954923414472 37.4966838870122 2444.68391167534 152 158 158
-829.44095621306 36.7900599628828 2445.64238028506 151 157 157
-838.574996186006 35.4701610930719 2453.57588669297 152 158 158
-847.477060857962 34.3280393410072 2459.52225961219 159 163 162
-856.252130692599 33.2752995930617 2464.47655825379 159 163 164
-864.220000937397 33.0084974434713 2460.45961620346 159 163 164
-872.537003986438 32.3925274132182 2460.43101262589 161 165 166
-880.364488210934 32.2972819281676 2454.41576393618 163 167 168
-888.608107747945 31.766890358668 2453.38840572106 167 171 172
-896.249616240572 31.9276911717379 2444.37214958234 168 172 173
-903.571483504454 32.5167144538064 2430.35597931093 165 169 172
-911.102761861304 32.9286814213769 2418.32975650977 172 176 179
-919.36376060998 32.4773396788077 2416.29233419868 193 197 200
-927.758338177304 31.8538596522447 2416.25406955716 196 200 203
-935.345202558548 32.3427982827576 2403.21277987971 200 204 205
-942.819459158358 33.0833830095029 2387.16181899204 193 197 198
-950.824259115883 33.1367050391669 2379.10843663474 182 186 187
-959.080326898004 32.8470638879586 2375.05558938125 184 188 189
-967.199356202935 32.8107421490161 2367.99587504857 191 195 196
-975.398206460989 32.687297125723 2361.93411606711 195 199 200
-983.441556167032 32.8998807515909 2351.86012932296 185 189 190
-991.703611722258 32.7716925218025 2345.79049518514 180 184 185
-999.55167483929 33.5672146350412 2328.68481341146 179 183 184
-1007.44801382753 34.4408036968422 2310.56521440973 159 163 164
-1015.46999893916 35.2244098701308 2293.43785957954 138 142 141
-1023.99225246739 34.9148549106414 2289.35184636091 153 155 152
-1033.28890565527 32.4339214211647 2311.37669759396 171 173 170
-629.704040846691 41.2636350462273 2468.54097102441 165 170 163
-639.428282882249 39.9394619009135 2476.4008349603 150 155 151
-648.164350165722 39.1514141607937 2478.33600226941 131 135 134
-656.422799142883 38.6301410602384 2477.30676941467 130 134 135
-663.925552554135 38.5512529328035 2471.33200213414 140 141 145
-671.901275432595 38.2051671533421 2468.32197601035 158 159 163
-679.159147875235 38.2990553950075 2460.36169896144 157 158 160
-686.455256378813 38.390149446987 2452.39665763658 135 137 136
-693.087611081488 38.917828472273 2439.47438310256 118 120 117
-699.234509693471 39.7918037097785 2422.58078999842 121 123 120
-706.548114593508 39.9596706800389 2413.60567594977 155 157 154
-715.492358206317 39.0762032370406 2416.52280246629 119 121 118
-724.285538625232 38.2809934530575 2418.45086125474 125 127 124
-733.823633932561 36.9643490637588 2426.33393537511 147 149 148
-742.940611188899 35.9109968639813 2431.24532733595 143 145 144
-752.389426307714 34.5992936076998 2439.13953008374 146 150 151
-760.36490444748 34.3282144323278 2435.12164987648 144 148 149
-769.284678880874 33.3652256439447 2439.0499667855 143 147 148
-777.724106126791 32.7482050974367 2439.00608815842 145 149 150
-786.710969269712 31.7012333071927 2443.93394105756 143 147 148
-795.341578308798 30.9134538657417 2445.88226822555 147 151 152
-803.955775221323 30.1263317766983 2447.8326417988 142 146 147
-812.14369654953 29.681733258072 2445.80408109097 145 149 150
-820.436582670624 29.1511593729234 2444.77057517754 147 151 152
-829.117399077546 28.2798179277386 2447.72078418735 148 152 153
-838.153563459594 27.0698094560316 2454.65828813098 154 158 159
-847.054453093883 25.946963245417 2460.6047569265 155 161 161
-855.917095346332 24.8262550015803 2466.55599313889 161 167 167
-863.879404525508 24.5517744889301 2462.53976529736 161 167 167
-872.191533205789 23.9388945697699 2462.51200214325 161 167 167
-880.013077928378 23.8304978846486 2456.49728903274 164 170 170
-888.251668979843 23.3006058251154 2455.47055702744 167 173 173
-895.811404511632 23.5237799835606 2445.45665431462 169 175 175
-902.983403441803 24.2447112503827 2429.44346515388 167 173 173
-910.865646411747 24.209857500151 2422.41329649004 176 182 182
-919.18327522554 23.6734670878207 2421.37671815246 197 203 203
-927.758464566184 22.8047313578377 2424.33986166488 196 200 201
-935.012845909213 23.6767244662876 2406.30037938494 198 202 203
-942.535949943684 24.2944445351743 2391.25133328411 197 198 200
-950.416196696313 24.4945426517651 2381.1974934357 189 190 192
-958.720488193771 24.1150158701096 2378.14679222517 180 181 183
-966.932740299469 23.898764956776 2373.09129227155 188 189 191
-975.069272774287 23.8447278998982 2366.02968056815 206 207 209
-983.055028346769 24.1155117568385 2354.95456032747 203 204 206
-991.008257088388 24.5457279798781 2341.86794545588 193 194 196
-998.824630719348 25.3786640946286 2323.75843271608 187 188 190
-1006.8819186277 25.880315353356 2309.65071638712 186 187 189
-1014.9738437724 26.4582422785206 2294.53054929965 133 135 134
-1023.5252969829 26.0599837675804 2291.44905309788 132 134 131
-1032.35087153564 24.9342015360253 2297.40492850222 151 153 148
-629.664347054442 32.6590939691498 2471.591885891 156 161 154
-638.584717028754 31.791513105066 2474.51219012847 137 142 138
-647.640672426657 30.8387782387047 2478.42324518613 129 133 132
-655.745354776747 30.4033371060112 2476.40528836376 135 139 140
-663.098864948204 30.3963437558918 2469.44102905797 141 142 146
-670.782641794585 30.2156435026344 2464.45162633974 147 148 152
-677.758527806229 30.4606039008412 2454.51052722206 106 107 109
-684.926770644909 30.6167986403148 2445.5535842377 97 99 98
-691.014143606334 31.4509688030617 2428.66752440808 103 105 102
-697.326295225726 32.1943650686687 2412.76133967885 142 144 141
-704.936235093873 32.1690648427815 2405.76512767342 157 159 156
-714.565368792731 30.8719429949514 2413.63678932882 136 138 135
-724.016170391308 29.6620090489441 2420.52278907162 164 166 165
-733.804741779967 28.2016425255456 2430.39035794136 158 159 161
-742.663666101556 27.3334944338933 2433.31809145805 166 167 169
-751.744161138266 26.2984445512042 2438.23422825446 146 150 151
-759.722190861156 26.018991023909 2434.21605167827 142 146 147
-768.645878607644 25.0694591781421 2438.14384479057 145 149 150
-777.088536906677 24.4549501547536 2438.09955633317 144 148 149
-785.968710123519 23.5074712640763 2442.03253412639 140 144 145
-794.713662895864 22.6444363192026 2444.97471742209 145 149 150
-803.331406583217 21.8653572999845 2446.92438692893 149 153 154
-811.830127822138 21.1696903212545 2447.88124324158 134 138 139
-820.117944829089 20.6394990899626 2446.84836891592 132 136 137
-828.697154933742 19.8618322466445 2448.8030837359 153 157 158
-837.637819402691 18.7561007520282 2454.7445437962 157 161 162
-846.35667580477 17.8164525623138 2458.69787262108 156 161 164
-855.226265110376 16.7145920194142 2464.64819224756 157 162 165
-863.366553537181 16.2682800757066 2462.62558035647 161 166 169
-871.762878404552 15.5767773069411 2463.59520416463 162 167 170
-879.824081214735 15.2109723612815 2460.57456258044 161 166 169
-887.582718476124 15.1688260711612 2453.56007865168 169 174 177
-895.146694687264 15.3672439751725 2443.54571192185 166 171 174
-902.467566221945 15.8854703098074 2429.5298523528 172 177 180
-910.559531057684 15.5924876317225 2425.49749297665 178 183 186
-919.004235138973 14.8958424137318 2426.46109288739 185 190 193
-927.308058440141 14.360212047406 2425.42623539461 187 192 195
-934.681207209302 15.0259535157259 2409.38784899478 191 192 194
-941.838429662409 16.0858977316074 2388.33669504404 193 194 196
-949.669083372978 16.3408844285606 2377.28121246877 187 188 190
-957.876411779643 16.1145878866476 2372.22659368723 171 172 174
-966.155758492133 15.8071894365818 2368.17088812406 171 172 174
-974.402075444762 15.5776924342143 2363.11141223078 191 192 194
-982.486146697627 15.6627904554954 2354.04012623659 195 196 198
-990.483464204621 15.9814937807867 2341.95599011117 201 202 204
-998.297362946771 16.7683625833613 2323.84690753949 198 199 201
-1006.57869198897 16.763576476887 2315.75916901295 197 198 200
-1014.72226048212 17.1479512839139 2302.64868131864 213 215 214
-1023.21985951473 16.8241405763517 2298.56578237732 193 195 192
-1031.88031553397 16.1090028073499 2299.50250642119 167 169 164
-619.53559346867 25.5149212888601 2464.81273105939 165 170 163
-628.651338071315 24.5726212498549 2468.71629729802 163 168 161
-637.900202846695 23.5480466267236 2473.61139496022 148 153 149
-647.117058871463 22.5251528115627 2478.51048269891 135 139 138
-654.759051906905 22.3366929043281 2473.52631478803 132 136 137
-661.816841053481 22.478869601269 2464.58295241873 111 113 112
-669.067226057918 22.5350424937806 2456.62370907987 109 111 110
-676.355878494078 22.5884490592031 2448.65969747679 132 134 133
-683.682774369833 22.6390609648769 2440.69092067818 132 134 131
-689.922047870396 23.3462226482238 2424.79416639855 135 137 134
-696.2428074415 24.0478920863496 2408.88701733394 142 144 141
-703.86290137398 24.0054616632269 2401.88958327308 129 131 128
-713.769936047005 22.568364999908 2411.74230734492 119 121 120
-723.61754472387 21.1346684232504 2421.60267874449 167 169 168
-733.278452836643 19.7859431428592 2430.47819813488 157 158 160
-742.013934483548 19.0100264550796 2432.41340658128 165 166 168
-750.85496408687 18.1535593266166 2435.34334249162 147 151 152
-759.079075756236 17.7033133366708 2433.31052058433 143 147 148
-767.890302020579 16.8480879078383 2436.24417250521 145 149 150
-776.452544608454 16.1552423067157 2437.19309429906 141 145 146
-785.336624578271 15.2212506376679 2441.12554903448 138 142 143
-793.760631809965 14.6099902099466 2441.08357956496 137 141 142
-802.390094153397 13.8384386725924 2443.03200709818 141 145 146
-811.003127779786 13.0675754056508 2444.98248302563 137 141 142
-819.899937357656 12.0579335840486 2449.92147577015 139 143 144
-828.666611176499 11.1297192781761 2453.86856688464 153 157 158
-837.121923692455 10.4413864319443 2454.83082103511 155 159 160
-845.566094298877 9.75340505614389 2455.79446470445 158 163 166
-853.999056578363 9.06577687805676 2456.75926590784 154 159 162
-862.680465833651 8.14168302990584 2460.71722695345 158 163 166
-871.250534624625 7.29784919043433 2463.68094390195 164 169 172
-879.474005182325 6.76948775396233 2462.65609481404 167 172 175
-887.226526652556 6.71148413466116 2455.64217559083 169 174 177
-894.708219458753 6.96409610083329 2444.63024752716 164 169 172
-902.243532825055 7.21293379642504 2433.611637874 174 179 182
-910.113618018232 7.14636569377028 2426.58306994745 179 184 187
-918.285948072988 6.76643659003415 2423.54883780433 179 184 187
-926.533346723096 6.30798583524725 2421.51289115772 184 188 191
-933.97731683513 6.85492986611697 2406.47390688875 188 192 193
-941.615358636316 7.24230797670602 2393.42673829661 198 199 201
-949.204064479974 7.77925261839266 2378.36947792829 195 196 198
-957.462425206008 7.46557651659913 2374.31640782414 177 178 180
-965.684840545144 7.22724038383688 2369.25993798845 172 173 175
-974.025403052403 6.83420501963847 2366.2047459447 186 187 189
-982.100355197175 6.89829440794645 2357.13465328677 190 191 193
-989.828717650275 7.64474571941368 2339.03635157631 195 196 198
-997.688678407183 8.30898703355604 2321.92953077082 200 201 203
-1006.05021567204 8.13343460571728 2315.84784690443 200 201 203
-1014.43783819697 7.95588942115455 2309.76267273092 204 206 205
-1022.88392921486 7.7009149762082 2304.67833330928 209 211 208
-1031.35066005369 7.44429718415193 2299.5914224877 193 195 190
-1040.78280408772 4.55720756479769 2329.66241218489 169 171 166
-616.198384497623 18.5353311302263 2448.11569349889 158 164 152
-627.962546585746 16.3066756089375 2467.81633537877 156 161 155
-636.735879061748 15.5407548915435 2469.74679394144 142 147 143
-645.807759742072 14.6141069419099 2473.65603318778 129 133 134
-653.308453437146 14.4942586580648 2467.68139054603 124 128 129
-660.53319674862 14.5330584859034 2459.7253928902 119 121 120
-667.349145958852 14.809732496519 2448.79648232494 111 113 112
-674.804909487941 14.7625118431265 2441.81956834181 113 115 112
-682.149890426303 14.7927410806124 2433.84858831133 116 118 115
-688.969491474181 15.1389626997674 2421.91135176898 119 121 118
-695.434323102335 15.7196441766276 2406.99422907908 123 125 122
-703.059177287616 15.6603699547166 2399.99648559309 101 103 100
-712.84107111619 14.3319767591061 2408.85685313759 96 98 97
-722.959132531594 12.7697090234982 2420.69918641825 85 86 88
-732.242721636841 11.6845340178728 2426.59779737651 146 147 151
-741.239154953749 10.7587632602812 2430.51620942896 162 163 167
-749.842767091454 10.0697620392577 2431.45995842353 149 153 154
-758.673990632794 9.22455016344317 2434.39108843212 146 150 151
-767.367013406036 8.45850501267245 2436.3315694986 136 140 141
-776.043728068653 7.69317031008954 2438.27408384993 136 140 141
-784.481902600185 7.08412782860204 2438.23034054426 138 142 143
-792.914544857417 6.47510931268189 2438.1872875706 141 145 146
-801.552982820321 5.7112276393827 2440.13457480127 132 136 137
-810.380918869469 4.79349119950401 2444.07423342725 138 142 143
-819.281803217317 3.8001179083714 2449.01267482196 145 149 150
-828.052354286004 2.88542256474328 2452.95924647689 148 152 153
-836.605884635623 2.12568089714124 2454.91711877316 153 157 158
-845.234966998675 1.29006185397276 2457.87344954338 146 150 153
-853.75262575595 0.53194846856866 2459.83579411429 149 153 156
-862.253647360627 -0.225433506785611 2461.80021297734 158 162 165
-870.486010311641 -0.753868731662416 2460.77425436564 162 166 169
-878.636643181514 -1.20677953000467 2458.7506091958 163 167 170
-886.39930678899 -1.28174835068876 2451.73546897107 164 168 171
-893.966333667518 -1.13249698933973 2441.72085101433 161 165 168
-901.727942549731 -1.13736454709754 2433.6979707057 176 180 183
-909.66781644148 -1.29535632942973 2427.6688616901 183 187 190
-918.040667581285 -1.90540330557834 2427.63327300283 182 186 189
-926.212356306372 -2.29086315124835 2424.59889519012 186 190 193
-934.020209232864 -2.22932945437554 2415.56238193463 190 194 195
-941.274371557865 -1.42602547881918 2396.51518051031 196 200 201
-948.852977974331 -0.926507839324464 2381.45951932221 191 195 196
-956.994575251107 -1.09939604413214 2375.40527564993 178 182 183
-965.265463573397 -1.4222014715258 2371.35066621758 181 185 186
-973.551800854635 -1.7462598361368 2367.29413214606 195 199 200
-981.715196814587 -1.85083364724498 2360.22906085653 202 206 207
-989.649852745538 -1.51714223997015 2347.14477768784 203 207 208
-997.567241976872 -1.04135700910271 2332.04690090577 189 193 194
-1005.9771454033 -1.37466085677554 2327.97497085749 191 195 196
-1014.19069924737 -1.27179280451348 2317.87979230648 188 192 191
-1022.5170878859 -1.31782097440505 2309.78653921821 193 195 192
-1030.99978877121 -1.65671799309597 2305.70553920686 192 194 189
-1040.12243266414 -3.66172137202725 2324.72755086286 183 185 180
-617.157315767136 9.42109784798123 2457.0899312445 161 166 159
-625.808800885229 8.73931655652479 2458.02744669196 154 159 153
-634.77005740359 7.90155763142331 2460.94232972669 138 140 137
-643.710152734223 7.06480589671432 2463.86009116889 126 127 129
-651.855858951188 6.61817866977482 2461.83680399991 121 123 122
-659.399803653228 6.48140846233025 2455.85704872021 151 153 150
-666.523563066072 6.57506860803647 2446.9055814183 140 142 139
-673.398065959866 6.82018187136199 2435.9694468136 108 110 105
-680.183285728738 7.13873267919404 2424.0365737217 114 116 111
-687.028419123779 7.45309338147118 2412.09623479795 117 119 114
-693.656659752522 7.91697731561458 2398.16695457995 124 126 123
-701.712124334515 7.60985151867011 2394.13918746507 97 99 96
-712.044086904677 6.0018764341446 2406.96263461305 89 91 90
-721.909624892007 4.62720526230645 2416.82037283064 92 93 95
-731.588144794852 3.33209339899943 2425.69355318472 132 133 138
-740.463687392629 2.49561689301359 2428.61936970154 149 150 154
-749.439672200543 1.58446687167699 2432.54029510384 143 144 148
-758.269190303183 0.750322664372693 2435.4716087948 139 140 144
-766.843658949533 0.0680006180375781 2436.41897713542 130 131 135
-775.179278806614 -0.463459193946553 2435.38014063743 139 140 144
-783.737361636189 -1.14536445272737 2436.32955273352 142 143 147
-792.175915266566 -1.75198247510502 2436.28575573382 135 136 140
-800.926437651336 -2.58272163153414 2439.22691865627 133 134 138
-809.655115408056 -3.41236777074339 2442.17080478073 136 137 141
-818.46232629457 -4.31534640555792 2446.11301092033 142 143 147
-827.437624534461 -5.36526416039321 2452.05000190727 150 151 155
-835.994686911085 -6.11695931476117 2454.00741223725 153 154 158
-844.904373905893 -7.16329447864009 2459.95258168506 157 161 164
-853.68622058233 -8.13379550568799 2464.90581804413 164 168 171
-862.261402192714 -8.95552937791233 2467.86883874352 171 175 178
-870.309468636336 -9.33620439818783 2464.84987566003 171 175 178
-878.286487353935 -9.64467822626672 2460.83190167525 173 177 180
-886.043069298278 -9.7355463341513 2453.81780254508 169 173 176
-893.679522124487 -9.68317755819229 2444.80246287554 167 171 174
-901.432128184542 -9.70647817218997 2436.78075460869 178 182 185
-909.292710061194 -9.80495959271643 2429.75345668245 183 187 190
-917.456902005386 -10.1949261495814 2426.72026656069 181 185 188
-925.761688428183 -10.7300803725523 2425.68528762211 181 185 188
-933.690803828237 -10.8338683963865 2418.64945109206 188 194 194
-941.352727718932 -10.5812343661237 2406.60710382953 201 207 207
-948.90222727912 -10.1179353503852 2391.55517038548 197 203 203
-957.070620901898 -10.3738820625313 2386.50548851745 183 189 189
-965.104837904799 -10.4177805474122 2378.44869111356 187 193 193
-973.274058220705 -10.6064806479646 2372.39080162063 200 206 206
-981.238214397868 -10.4427289911604 2361.31889899102 200 206 206
-989.255576074203 -10.2827550242691 2350.24036657808 198 204 204
-997.244516119045 -9.9854113200967 2337.14964506202 191 197 197
-1005.41183436417 -9.90359118555301 2327.06029186935 189 195 195
-1013.66233613946 -9.89537244660044 2317.96843878875 190 194 193
-1021.95511567887 -9.89011328984674 2308.87155775581 183 185 182
-1030.53039837958 -10.4466205094636 2307.80287871327 186 188 183
-1040.22521836644 -13.859188498958 2347.9200636212 187 189 184
-617.953781573878 0.430768662748132 2465.07619005541 165 168 161
-625.118002723115 0.435993215690628 2457.12783362693 136 138 133
-633.602309203445 -0.164879807945995 2457.0783118128 131 133 130
-641.766698105017 -0.615307571144696 2455.05294343254 129 130 132
-650.556101750792 -1.36669448321178 2456.98135813398 122 124 123
-658.721305777504 -1.81771417817816 2454.95564932101 128 130 127
-665.846748261181 -1.74622609989047 2446.0042706399 135 137 132
-672.429208927902 -1.3795299140871 2433.08864652918 114 116 111
-678.501187103476 -0.719633788267726 2416.2049668223 84 86 81
-685.083948657935 -0.288295193280858 2402.28168809963 96 98 93
-693.399779079128 -0.750418639430261 2400.23721124446 153 155 150
-701.857093792104 -1.28709291901613 2399.18320168003 180 182 179
-711.778901131811 -2.6349626023589 2409.03408750307 137 139 138
-721.249984343806 -3.75874288743766 2415.91708906908 146 147 149
-730.933232500045 -5.02681813412298 2424.78960816513 144 145 149
-740.187408289493 -6.07216588954651 2430.69178484766 152 153 157
-749.159164867896 -6.96936766248402 2434.61344144453 157 158 160
-758.103811785597 -7.86515843983962 2438.53823718224 155 156 158
-766.203387876133 -8.25079956829952 2435.51309934614 146 147 149
-774.427866218878 -8.70991030578405 2433.48001475644 145 146 148
-783.103450320903 -9.45903306271442 2435.42262750147 145 146 148
-792.088839797959 -10.4238825409366 2440.3504480392 147 148 150
-800.617498418595 -11.0990459500637 2441.30351434819 147 148 150
-809.238450601709 -11.8455841730904 2443.25293802743 140 141 143
-817.943502326071 -12.6630349260281 2446.19974042494 145 146 148
-826.724520478856 -13.5508502218147 2450.144935062 158 159 161
-835.478184917794 -14.4372339666577 2454.09377977964 154 155 157
-844.389371660972 -15.4644042661164 2460.03871159774 154 158 159
-853.53155234723 -16.7022805463238 2468.97867318737 162 166 167
-861.835738004758 -17.2999951550382 2468.9516210695 169 173 174
-869.965424695271 -17.7564090591093 2466.93059908431 167 171 172
-877.855215768589 -18.0021919082672 2461.9156584012 164 168 169
-885.60835113933 -18.1091172509067 2454.90179140045 167 171 172
-893.164843650226 -18.0081819180678 2444.88861530905 166 170 171
-901.063597078694 -18.1902499108169 2438.86470128801 168 172 173
-908.847291204593 -18.2348511422261 2430.83916950875 171 175 176
-916.940617818755 -18.5603795848974 2426.80672589881 173 177 178
-924.98418306426 -18.8178126232376 2421.77238551973 173 177 178
-933.174142690642 -19.2153332263804 2418.73599963688 181 187 185
-940.714591210021 -18.8544433978399 2404.69315249835 195 201 201
-948.496499391888 -18.7048814847967 2393.64403070931 195 201 201
-956.659105865356 -18.9711796558252 2388.5950983035 176 182 182
-964.790706587357 -19.1705921935308 2382.5419317243 176 182 182
-972.899460505504 -19.3036662269124 2375.48375449287 188 194 194
-980.946972268124 -19.3027442478532 2366.41749285028 178 184 184
-989.255524005039 -19.6447608480396 2362.35823383839 177 183 183
-997.292302225789 -19.5133915210624 2351.27735368479 195 201 201
-1005.34392010866 -19.3181442561326 2339.18676631063 192 198 198
-1013.24046026603 -18.7221891244982 2321.06763307451 187 193 191
-1021.45823007059 -18.6034100690994 2309.9641993973 185 187 184
-1030.03114621663 -19.1593783313511 2308.89581426747 196 198 193
-1039.86783639937 -22.7943559318243 2354.03479634991 193 195 190
-617.758367541198 -8.07852918918975 2467.13859996956 164 166 161
-624.426946655061 -7.87359945578875 2456.22826925709 137 139 134
-632.914422329027 -8.47212125153066 2456.17834575445 125 127 126
-640.766265551704 -8.78051894207915 2452.17599273091 122 123 125
-649.409648044615 -9.45206175913191 2453.11473264417 128 129 131
-657.129049972888 -9.69009789970876 2448.12079484961 136 138 135
-664.721013446932 -9.85784730340203 2442.13512869366 134 136 131
-671.165714184614 -9.45283259493232 2428.228908199 103 105 100
-677.104694812756 -8.76591022086101 2410.35406752891 83 85 80
-683.277499146637 -8.15664665281357 2393.45793865258 71 73 68
-692.172692102285 -8.90845732925349 2395.37315258953 173 175 170
-701.45984385702 -9.87304643126888 2400.26331429332 136 138 133
-711.647629570922 -11.3327512707975 2412.09643602925 67 69 68
-720.981720119828 -12.3634792277302 2417.98884159028 150 151 153
-731.173012938125 -13.8865411437188 2430.82961987586 144 145 149
-740.036953636855 -14.7003928625779 2433.75658439078 153 154 156
-749.001731576232 -15.5834886046805 2437.67907473281 158 159 161
-757.340738132273 -16.1145370858073 2436.63981451159 150 151 153
-765.56268824437 -16.5758905787269 2434.60705133634 141 142 144
-773.790037675317 -17.0379438685117 2432.57385646965 144 145 147
-782.692362198997 -17.9182703439842 2436.50413333598 145 146 148
-791.458564521633 -18.7276872330968 2439.44328334344 135 136 138
-799.884378151848 -19.3282530219751 2439.40106028211 135 136 138
-808.615016952552 -20.1360313936471 2442.34464409189 135 136 138
-817.52530784558 -21.0805240994204 2447.2817828801 145 146 148
-826.20672249259 -21.8857190402647 2450.23150276987 159 160 162
-834.770836950154 -22.621275613767 2452.18799054146 154 155 157
-843.596289560002 -23.5612296057711 2457.13570469331 162 166 165
-852.568738174397 -24.6357901944516 2464.08080329089 172 176 177
-860.886957293888 -25.2315595072169 2464.05223502579 172 176 177
-869.199331487752 -25.8272127878783 2464.02415559856 171 175 174
-877.096853992885 -26.0843128209607 2459.00827988186 175 179 180
-884.778330166644 -26.140468145306 2450.99553472602 174 178 179
-892.268069898533 -25.9972722320434 2439.98289059688 170 174 173
-900.106135384496 -26.1265542825172 2432.95848369544 169 173 172
-907.976118063026 -26.2581533217553 2425.93009981877 175 179 180
-916.014561267863 -26.5257238670109 2420.8966656056 183 187 188
-923.942917197509 -26.661623908745 2413.86100841882 183 187 186
-932.154478569731 -27.0657936544317 2410.82170400734 182 186 185
-940.01535790994 -27.0731084976992 2401.77875467908 215 221 219
-947.861414619361 -27.0172710945113 2391.72956145139 212 218 214
-955.919616905091 -27.1626823298532 2384.67772525441 194 200 196
-964.009511320859 -27.3104534344889 2377.62218055034 195 201 199
-972.229708472027 -27.591695529895 2372.56586025397 199 205 203
-980.330864598479 -27.6783195129401 2364.50082175928 193 199 195
-988.556846659901 -27.8980904364552 2358.43617082873 193 199 197
-996.603051743978 -27.7944355300554 2347.35418724326 197 203 201
-1004.51000250509 -27.3699512499471 2331.24982085286 191 197 193
-1012.46135721989 -26.8862345983307 2314.13207002701 195 200 196
-1020.79598268057 -26.9892548338347 2306.03793911861 177 179 174
-1029.50146374656 -27.8031496067638 2308.98467857228 181 183 178
-1038.93114629214 -30.3493498739826 2339.05531799744 199 201 196
-616.235946829428 -16.0152431051359 2461.30288700091 166 168 163
-623.572384621329 -16.119406783484 2454.34101412176 151 153 150
-632.065715319961 -16.7157484541828 2454.29035420538 148 150 149
-639.764916899657 -16.9630212491135 2449.29920188804 124 125 129
-648.417043313886 -17.6297759679329 2450.23683800234 117 118 120
-656.601436091257 -18.0877663574512 2448.20875290381 95 97 94
-664.192820551999 -18.2693045621785 2442.22319531761 103 105 102
-670.635581710819 -17.8998801623658 2428.31731059673 162 164 161
-676.283318319778 -17.121555562228 2408.46296028878 169 171 166
-682.459095943348 -16.5564070821947 2391.566576539 129 131 126
-691.638274080376 -17.437708230166 2395.46230627789 119 121 116
-701.062905586442 -18.4544236934244 2401.34313569259 143 145 140
-711.117050912341 -19.8103332455807 2412.18497451949 75 77 74
-720.452621811902 -20.8219697550877 2418.07714506486 177 179 176
-730.262481878597 -22.1031523023045 2427.9415853588 145 147 146
-739.135522812463 -22.9066844582865 2430.86738704198 147 149 148
-747.74172590098 -23.5739774848374 2431.81075553344 169 171 168
-756.217182454191 -24.1734804677283 2431.76233452994 164 166 165
-764.687205901046 -24.7729210109748 2431.71459138156 157 159 158
-773.495250115226 -25.5734745817338 2434.64873669584 160 162 159
-782.057946352974 -26.2391331977292 2435.59729001217 152 154 153
-790.500652755088 -26.8377268174391 2435.55319390787 150 152 151
-799.044123678692 -27.5027429619568 2436.50414473782 141 143 140
-808.198474414483 -28.5655080176217 2443.42675223166 103 105 102
-817.309213475541 -29.6257958741517 2450.35455541233 84 86 85
-825.885252391953 -30.3534971778902 2452.30953439538 45 47 46
-834.540239901308 -31.1462734943349 2455.26251953169 29 31 28
-842.802052505027 -31.6752560123339 2454.23288721872 8 10 5
-851.063507128935 -32.2045143359257 2453.20330030583 1 3 0
-858.800259812783 -32.342123422014 2446.19155857209 0 2 0
-867.331218274419 -33.0683861746637 2448.15215954101 154 156 153
-875.599570692345 -33.5989349685628 2447.12171522262 156 158 157
-882.995627237349 -33.4169586840563 2435.11297297643 166 168 167
-890.450765476479 -33.2390896451625 2423.09686850039 171 173 170
-898.851043179185 -33.838655731917 2423.05782953917 191 193 190
-906.74742043736 -33.9881806936572 2416.02619898228 193 195 194
-915.29151226409 -34.7169523384236 2417.98516759196 157 159 158
-922.701544754452 -34.3581809129574 2402.95091408339 137 142 138
-931.194853822552 -35.0245403459927 2403.90812835385 80 85 81
-939.013347492338 -34.9911021418608 2393.86267408679 0 2 0
-946.822248931775 -34.8975946225317 2382.81009104729 11 16 10
-954.629657150125 -34.7445710213594 2370.75009079002 118 123 117
-962.548016100507 -34.6587059444695 2359.6841084951 75 80 76
-971.558615161969 -35.8969438910642 2369.64817874424 5 10 6
-979.386408689731 -35.6266831635451 2355.56971131595 12 17 11
-987.592119303499 -35.7989129716873 2348.49977784619 41 46 42
-995.788044923255 -35.9110736111409 2340.42297992888 126 131 127
-1003.98228824211 -35.9636663394133 2331.33830771588 152 157 151
-1011.78747402696 -35.2752498992301 2310.20727017723 201 206 200
-1020.26492216183 -35.6451365774035 2306.12700728824 203 205 200
-1028.84918324542 -36.2011706331756 2305.05720655053 197 199 194
-1038.29520081503 -38.6632028973928 2335.12558580783 217 219 214
-606.041888913501 -23.3241075967014 2454.5320752049 155 158 149
-614.213161850992 -23.7828124502303 2452.50586953509 148 150 145
-622.717251734693 -24.3769728775412 2452.45386119179 119 121 118
-631.216482667503 -24.9711198688665 2452.4026994502 118 118 118
-638.920630111665 -25.2298335059432 2447.41071977853 119 118 123
-647.112851569674 -25.6909329693727 2445.38190616331 113 112 117
-655.005724546641 -26.019204204313 2441.37448520527 111 113 112
-662.765367483336 -26.2822718990288 2436.37583175921 113 115 114
-669.222429486635 -25.9494724160497 2422.4682588279 79 81 78
-675.17239420136 -25.3565955778143 2404.59229507431 76 78 75
-689.296266786462 -25.1114910788347 2382.6738902249 86 89 82
-700.529993372609 -26.9655403237709 2401.43205370904 11 14 7
-709.918340198431 -27.9611317540895 2407.31735560794 16 18 13
-719.661662035257 -29.1506771359074 2416.1821710582 85 87 82
-729.350901893019 -30.3370757962238 2425.05372733293 99 101 98
-737.480053140188 -30.7401462363235 2422.02470432287 80 82 79
-745.865685415935 -31.2738962935327 2420.97963260198 73 74 69
-754.251339487855 -31.8079314196963 2419.93455891178 66 66 64
-763.693282560489 -32.9226959441611 2427.82910061916 38 38 36
-772.513103181344 -33.7130133601292 2430.76150908221 29 30 25
-780.527549002798 -34.0531652448277 2426.73894783917 15 15 13
-787.902750438694 -34.0108218409188 2416.74879037066 10 10 8
-798.628827883891 -35.9496956030122 2437.58590304513 12 13 8
-808.197370376481 -37.2449103814593 2448.48842266598 11 12 7
-816.487373482915 -37.7747929633933 2447.45527471521 8 8 6
-824.777138524205 -38.3049291290764 2446.42215714137 2 2 0
-832.970953282989 -38.7721918974226 2444.39316092248 0 1 0
-840.98390969596 -39.1142346611447 2440.37079052838 9 12 5
-848.832245448206 -39.3320172012362 2434.35302211951 5 7 2
-856.532189881583 -39.4266306382243 2426.33807351212 13 15 10
-864.948440236646 -40.0232103838386 2426.29727366263 17 20 13
-873.112418863556 -40.4329786923333 2423.26392204007 17 19 14
-880.651331222378 -40.3471431081844 2412.24529251418 2 4 0
-888.704231377176 -40.6363731753833 2407.21011119869 4 7 0
-896.778246361677 -40.9272345627209 2402.17205890457 11 14 7
-905.301177706506 -41.5889987430507 2403.12580465733 14 16 11
-912.920947714279 -41.4524940660925 2391.08926404143 14 16 11
-921.522078755999 -42.1767921486256 2393.04110271333 14 17 10
-929.474496781586 -42.2900153689865 2384.9944556337 17 20 13
-937.887422104346 -42.8318645634093 2383.94599923069 19 22 15
-945.779744472618 -42.8278546586905 2373.89140907691 22 25 18
-951.683010911946 -40.5887836850995 2326.79184953211 27 30 23
-961.551254864042 -42.6489322144807 2350.75963569116 20 23 16
-970.389799981735 -43.6179189495833 2356.71347953032 22 25 18
-977.969278930788 -43.0252885687198 2336.61878848652 24 27 20
-985.429507600096 -42.1405181766397 2311.49905353514 24 27 20
-993.932288549431 -42.5760780482498 2308.42372957562 18 21 14
