ply
format ascii 1.0
comment KinectMotionCapture
element vertex 753
property float x
property float y
property float z
property uchar red
property uchar green
property uchar blue
end_header
-1398.03620593526 284.129405487602 2651.55758570403 95 100 96
-1400.21426384836 283.730221449421 2644.21924788269 113 118 114
-1402.39230123715 283.330769654394 2636.89074951398 82 87 83
-1404.5700799172 282.931086639751 2629.57211411342 110 115 111
-1410.74258848607 281.781231530145 2621.75276654575 131 136 132
-1416.91451944311 280.631196957194 2613.96512614351 140 145 141
-1416.094905661 280.793468909852 2607.06454531823 134 139 135
-1416.27398608439 280.767939634074 2600.03805063301 148 153 149
-1411.46026645425 281.679533595771 2593.59422996571 151 156 152
-1409.642930817 282.028297576166 2586.78015446077 151 156 152
-1405.82899532573 282.751676964768 2580.1767025322 162 167 163
-1407.00717005546 282.537459694682 2573.0077045193 160 165 161
-1406.18884229711 282.697828775939 2566.05481827375 156 161 157
-1408.36503233831 282.29560089451 2558.78621511254 162 167 163
-1398.56362723719 284.141962996661 2552.73196892488 172 177 173
-1385.76944476896 286.549981691744 2546.91508303964 172 177 173
-1372.97708493708 288.957365101537 2541.02628009116 165 170 166
-1359.18870508607 291.551447671433 2535.15769121913 167 172 168
-1183.79793401478 316.274740628236 2924.1521477612 143 147 146
-1204.0184102813 312.549224789392 2912.0942262869 143 147 146
-1226.23826700736 308.454121365311 2899.70375445298 139 144 140
-1240.44596869052 305.839899295979 2889.17149405799 177 182 178
-1246.64247030028 304.706643851951 2880.4322387781 176 181 177
-1253.83937415811 303.388370343327 2871.51262655323 156 161 157
-1261.03557159966 302.07022174849 2862.63008243468 144 149 145
-1276.23773600804 299.272028983688 2852.13207723114 179 184 180
-1285.43301806691 297.584158363279 2842.93772572832 156 161 157
-1291.62475308793 296.451628614097 2834.39486923223 158 163 159
-1294.81356050326 295.874124778053 2826.47896001101 149 154 150
-1304.00556214266 294.186680491072 2817.40395164073 128 133 129
-1320.20046828213 291.204428766406 2807.02601884561 160 165 161
-1335.39276195881 288.40730024072 2796.92426351713 162 167 163
-1340.57855388803 287.460213353059 2788.77877544843 159 164 160
-1341.76255972261 287.252993256157 2781.39871547188 154 159 155
-1347.94750053972 286.12101505265 2773.11266742014 155 160 156
-1358.13267540755 284.249126843214 2764.14045370446 147 152 148
-1365.31627302418 282.932171994561 2755.75163614455 137 142 138
-1366.49819147446 282.724910563551 2748.44378920819 129 134 130
-1364.67995825064 283.07238615656 2741.65408633653 114 119 115
-1372.86161413251 281.570410213509 2733.16719475929 121 126 122
-1376.04273880883 280.993061141171 2725.55171976623 152 157 153
-1378.22350390669 280.600508706898 2718.11469629192 173 178 174
-1374.40584207235 281.317257734815 2711.64976358843 112 117 113
-1373.58775669038 281.479032755287 2704.68891402345 113 118 114
-1375.76838231165 281.086067310781 2697.25689831877 112 117 113
-1377.94899070076 280.692953271062 2689.83472134453 113 118 114
-1380.12934278394 280.29966739108 2682.42237718531 110 115 111
-1383.30851147056 279.721431746489 2674.87307232466 97 102 96
-1382.49032654726 279.882362991483 2667.91520719878 103 108 102
-1387.66779878478 278.934096830948 2660.10294007817 52 57 51
-1392.84435716968 277.985746994498 2652.31697485106 82 87 81
-1399.019511245 276.852409907638 2644.42129229575 116 121 115
-1399.19960751876 276.827780555042 2637.35606092721 99 104 98
-1399.3797252073 276.802905425024 2630.28972869786 101 106 100
-1405.55327233073 275.669125878275 2622.45637630998 120 125 119
-1412.7247558855 274.350357672774 2614.52974642198 118 123 117
-1415.90031677088 273.770588601721 2607.12912524495 144 149 143
-1417.07801136509 273.56010030033 2599.9828964711 146 151 145
-1412.26408281796 274.457792317448 2593.54163895391 159 164 160
-1409.44781592743 274.985660989238 2586.84407949737 156 161 157
-1404.63493471234 275.882627169176 2580.35178448002 146 151 147
-1404.81492049582 275.855626470267 2573.28832528516 141 146 142
-1407.98996055473 275.274195486565 2565.90627537707 157 162 158
-1410.16640347719 274.877208831524 2558.6427411536 171 176 172
-1402.36035841318 276.326781591837 2552.39319427931 175 180 176
-1388.56686066429 278.88381450029 2546.68484951303 174 179 175
-1375.7733135416 281.2555625902 2540.80418754056 171 176 172
-1363.97950812071 283.442051473661 2534.75940135132 169 174 170
-1183.58650581197 308.647510189024 2924.22596173728 178 182 181
-1208.81534871777 304.064456553535 2911.05309807717 142 147 143
-1230.03525465146 300.211416012802 2898.89591385682 138 143 139
-1244.24372999287 297.635130079407 2888.3741491181 174 179 175
-1250.44063624189 296.517878888333 2879.64558805716 175 180 176
-1261.64221380987 294.489186279525 2869.8886331725 152 157 153
-1266.83594443464 293.554630533202 2861.44632835514 143 148 142
-1278.03517817783 291.526228677205 2851.79061523929 176 181 177
-1284.22823558158 290.409612034448 2843.21316171328 160 165 161
-1289.41947369042 289.475449781072 2834.86869555491 155 160 156
-1291.60794002048 289.088136238826 2827.14563115463 147 152 148
-1299.80018712104 287.607201319303 2818.2580655032 135 140 136
-1317.9979388213 284.30364885064 2807.48265045521 175 180 176
-1332.19076667191 281.729461202676 2797.56537205253 163 168 164
-1337.37713700347 280.7956946044 2789.41158031728 159 164 160
-1340.56212824039 280.226409029555 2781.65364470407 152 157 153
-1349.74892515052 278.563784693061 2772.81802972324 147 152 148
-1358.93449315491 276.901157421477 2764.03044148449 137 142 138
-1366.1183069117 275.603084175475 2755.64412524116 126 131 127
-1368.30054379907 275.216048650019 2748.16482755432 121 126 122
-1365.48200653719 275.739990321055 2741.55178556398 109 114 110
-1370.66389959265 274.806185310581 2733.57294004482 113 118 114
-1372.84551351786 274.418895502036 2726.11771684773 144 149 145
-1376.02667352907 273.849309489421 2718.50919622056 176 181 177
-1374.20830675095 274.190488628693 2711.71795246663 120 125 121
-1374.38980442224 274.16716671757 2704.59935345761 114 119 115
-1376.57074718071 273.77939538317 2697.16984475643 111 116 112
-1374.75286529637 274.120025296572 2690.35905995697 114 119 115
-1374.93443083571 274.096235174177 2683.23730570073 109 114 110
-1374.11663262255 274.254332599185 2676.26128386493 104 109 103
-1378.29580740216 273.501627672318 2668.55843164204 105 110 104
-1382.47444884554 272.748794649012 2660.87628650652 61 66 60
-1388.65114548529 271.631642154711 2652.93769295826 65 70 64
-1392.82857874728 270.878590612228 2645.30253310753 99 104 98
-1393.00909075962 270.853640511521 2638.22070884083 89 94 88
-1395.18779638402 270.4643040801 2630.876954608 96 101 95
-1400.36293824203 269.528695287559 2623.16003251041 120 125 119
-1407.53530009034 268.228749303452 2615.21928571983 125 130 124
-1412.70918922615 267.29275065734 2607.56023053915 142 147 141
-1415.88478524749 266.720654670393 2600.16647489355 144 149 143
-1414.06640877288 267.058475324392 2593.37200402937 143 148 144
-1409.25267670561 267.941950537364 2586.90780248944 138 143 139
-1405.4381376893 268.643043477094 2580.30400893758 136 141 137
-1405.61805552687 268.615790781601 2573.24293473023 143 148 144
-1406.79633147454 268.406258059783 2566.07501067662 164 169 165
-1408.97275749728 268.014530706016 2558.80845919714 173 178 174
-1401.16641806553 269.442031670956 2552.55604302838 168 173 169
-1390.36657225565 271.414818054718 2546.55190133176 173 178 174
-1379.56803324327 273.387109619452 2540.48682937478 170 175 171
-1372.76349123057 274.631054801856 2533.99177344313 169 174 170
-1214.61466715515 295.426523996047 2909.78851758564 139 144 140
-1233.83306986918 291.989703935263 2898.08759456652 133 138 134
-1250.0448415448 289.092120422542 2887.14140839851 172 177 173
-1257.24296871979 287.811393252136 2878.21429906734 173 178 174
-1267.44376293204 285.992034720715 2868.68802958592 142 147 141
-1271.63639015698 285.250483046659 2860.47138470149 144 149 143
-1281.83487952289 283.4314680452 2851.03556545505 175 180 176
-1281.02121358646 283.588015197678 2843.89637536656 158 163 159
-1285.21218468349 282.846724374853 2835.74473777989 150 155 151
-1288.40184767145 282.284957828122 2827.81228730579 151 156 152
-1296.59490033297 280.825565350692 2818.9163681568 134 139 135
-1318.79700754969 276.852611485633 2807.3600882123 176 181 177
-1333.99138458812 274.136707399609 2797.25479564867 159 164 160
-1339.17822952982 273.21634560693 2789.1061723414 157 162 158
-1338.36133996891 273.373090770441 2782.09318527376 152 157 153
-1345.54798587444 272.093649678746 2773.61618461883 145 150 146
-1352.7336839534 270.814280868308 2765.17630591942 136 141 137
-1360.91865883434 269.355478430665 2756.59672795783 127 132 128
-1365.10193460585 268.61458266335 2748.7555993189 130 135 131
-1365.28386454279 268.591565804156 2741.62043341227 109 114 110
-1368.46610096507 268.03006587765 2733.97852512832 108 113 109
-1371.64770826494 267.468496500514 2726.35180576819 122 127 123
-1374.82915991698 266.906845387884 2718.74040669188 155 160 156
-1374.01075285855 267.062854190483 2711.78593803646 147 152 148
-1372.19253357794 267.39814220442 2704.98260413207 116 121 117
-1374.37376325791 267.015486131109 2697.54737391807 109 114 110
-1371.55626707008 267.529817676452 2690.88332453452 107 112 108
-1371.73803708709 267.50570303056 2683.75323013417 110 115 111
-1368.92121228072 268.019585749334 2677.06245892257 103 108 102
-1373.10103365486 267.277482099935 2669.34571838029 96 101 95
-1375.28168073312 266.893990817467 2661.93236147606 106 111 105
-1380.460064953 265.97225035723 2654.11293217986 56 61 55
-1385.63753601067 265.050396027743 2646.31974537364 82 87 81
-1390.81457254522 264.128354150153 2638.55266465022 72 77 71
-1393.99260984152 263.564881169445 2631.07275424223 116 121 115
-1397.17001340872 263.001309955015 2623.60818189876 122 127 121
-1402.34530197396 262.078743122287 2615.90885421485 122 127 121
-1408.51875221047 260.976829475203 2608.11350365192 108 113 107
-1414.69138589399 259.874773103469 2600.34991356198 126 131 125
-1411.87423130497 260.386072772077 2593.66925791803 129 134 130
-1407.06002369929 261.255723293244 2587.19947338932 135 140 136
-1405.24267230639 261.587085943966 2580.36732946199 152 157 153
-1404.42386547857 261.738882940292 2573.41463807821 156 161 157
-1403.60545439546 261.890331366637 2566.45543014078 145 150 146
-1403.78554607093 261.862252142905 2559.38667428332 138 143 139
-1397.97550882055 262.909158159879 2552.91952345917 149 154 150
-1392.16632249607 263.955657579016 2546.41867892978 174 179 175
-1381.36705309925 265.897710799638 2540.35901011024 169 174 170
-1377.55629173535 266.584803896636 2533.59254086282 173 178 174
-1217.41020941955 287.351255617034 2909.19225069873 131 136 132
-1239.63429079046 283.435201522761 2896.83823927783 129 134 130
-1252.84235418529 281.111700877839 2886.56064897336 172 177 173
-1257.03699006915 280.380474754245 2878.28591030902 173 178 174
-1266.2370914019 278.76502763371 2868.97164287598 137 142 136
-1275.43621142567 277.14968858265 2859.70516922253 145 150 144
-1282.63174710547 275.888287256795 2850.90009510404 177 182 178
-1279.81570797551 276.395538767883 2844.17149685647 153 158 154
-1281.00427388471 276.195327259092 2836.62073864901 144 149 145
-1286.19613964352 275.287856431962 2828.28040095364 149 154 150
-1294.39016843603 273.84986782217 2819.3786378365 130 135 131
-1315.59311304373 270.113368424475 2808.00949389694 177 182 178
-1329.78818137754 267.614868507684 2798.08591730523 162 167 163
-1336.97682373423 266.354162018677 2789.55100419641 159 164 160
-1338.16124418651 266.154333919898 2782.16267648217 152 157 153
-1343.34729888187 265.247329820343 2774.04995641326 141 146 142
-1346.53194856843 264.693770138247 2766.32225502389 130 135 131
-1353.7176412377 263.433188730431 2757.90276022023 124 129 125
-1358.90192751732 262.526112126746 2749.86840290315 129 134 130
-1364.08530784317 261.61909979187 2741.86019761668 107 112 108
-1367.26783501692 261.065474983069 2734.21538145265 105 110 106
-1373.45027409333 259.981544718216 2726.08802505845 115 120 116
-1374.63166584116 259.781265681996 2718.80826063584 146 151 147
-1373.81318095298 259.934264243106 2711.85360167145 157 162 158
-1370.99499461905 260.440556915238 2705.20789406564 119 124 120
-1374.17618334823 259.886358143209 2697.61477267461 110 115 111
-1372.35813153277 260.215539649188 2690.79833695448 104 109 105
-1371.54022346187 260.36778445463 2683.82032464771 112 117 113
-1367.72363291293 261.049887370207 2677.2763220727 103 108 102
-1370.90435995758 260.495091283147 2669.70060356167 92 97 91
-1372.08565853789 260.293426603118 2662.4229926511 112 117 111
-1376.26506128128 259.561637643509 2654.73368876862 51 56 50
-1380.44416735941 258.829684453156 2647.06512804204 76 81 75
-1388.6194914714 257.391186953891 2638.88453744179 66 71 65
-1395.7946046897 256.129160744495 2630.87697291437 112 117 111
-1397.97328449366 255.750064435102 2623.54522288805 100 105 99
-1399.15248712888 255.547337240973 2616.34838792659 97 102 96
-1402.32962821114 254.991185105754 2608.91136522803 106 111 105
-1409.50197272206 253.728605595498 2601.0114172848 134 139 133
-1408.68272038322 253.878327368957 2594.08323458855 131 136 132
-1404.86728255634 254.557482558952 2587.49101460139 138 143 139
-1403.04968100495 254.883123106015 2580.65317899241 149 154 150
-1402.23117850984 255.031925021143 2573.69470213244 148 153 149
-1401.41259312038 255.180452045143 2566.729845126 140 145 141
-1400.59440024978 255.328541329399 2559.75850189957 136 141 137
-1399.77636500576 255.476348572777 2552.78069524651 141 146 142
-1393.96658775443 256.506259998725 2546.28513527601 172 177 173
-1385.16277976318 258.06518123356 2540.04086815607 166 171 167
-1377.35862228708 259.447026993844 2533.65415255914 173 178 174
-1368.55727860216 261.004781998288 2527.31231960273 169 174 170
-1224.21263739505 278.594808707705 2907.70358476473 134 138 137
-1236.42234550793 276.480322687322 2897.57076411338 131 135 134
-1253.63772083103 273.495243163333 2886.41448610241 175 179 178
-1258.83368376958 272.600485931678 2877.92766730867 170 174 173
-1267.03328080823 271.183371992143 2868.83069145646 140 145 141
-1273.22914660424 270.114713133892 2860.19496960767 144 149 145
-1281.42647915588 268.697935114799 2851.17753364958 171 176 172
-1280.6126470983 268.848524588533 2844.03843925456 155 160 156
-1284.80420640258 268.128413940196 2835.88655413079 156 161 157
-1287.99430724699 267.582495890712 2827.95400760564 149 154 150
-1296.18855360682 266.166089360835 2819.05758959094 140 145 141
-1316.39214999357 262.660628976919 2807.88634610456 176 181 177
-1330.58843593493 260.19994386885 2797.96510860932 166 171 167
-1336.77664360407 259.13218659525 2789.62033615171 167 172 168
-1337.96113292636 258.934740923285 2782.23187482557 162 167 163
-1341.14653234195 258.389114223154 2774.48338925347 118 123 119
-1345.33198532462 257.669488889471 2766.57068142577 120 125 121
-1350.51728413188 256.775740172043 2758.50173669042 124 130 126
-1354.70184387908 256.055989393484 2750.63312969413 123 129 125
-1360.8861089229 254.988231425583 2742.44244794671 110 116 112
-1366.06963780096 254.094410606952 2734.45192554726 105 110 106
-1372.25259396442 253.026547822102 2726.32161162253 117 122 118
-1374.4341544426 252.654700273605 2718.87573324143 124 129 125
-1371.61543407568 253.152672434576 2712.24196357078 168 173 169
-1370.79717000174 253.302461208567 2705.27522799872 155 157 154
-1368.97924951253 253.62608286395 2698.45701464233 124 126 123
-1371.16062691625 253.253623845545 2691.01763489631 113 115 112
-1370.34270994453 253.402870068177 2684.03675081711 108 110 107
-1369.5249553387 253.551923016764 2677.04931339355 105 110 106
-1368.70712333457 253.700789639593 2670.05537611373 102 107 103
-1370.88834527778 253.327648645327 2662.63066483777 112 117 113
-1373.06907328843 252.954282170949 2655.2156912659 107 112 106
-1377.24868823584 252.232966924449 2647.53866436981 81 86 79
-1385.42482155984 250.815950876214 2639.34951208887 62 67 60
-1395.59849304586 249.051108197156 2630.94182763023 110 115 108
-1397.77732197976 248.677133823364 2623.6097486295 110 115 109
-1397.95754380896 248.650730491907 2616.5377053573 107 112 106
-1399.13677191522 248.450277240532 2609.34231648383 119 124 120
-1407.30876887887 247.032621856706 2601.31414102513 121 126 122
-1408.48751103157 246.831664644701 2594.1465285743 138 143 139
-1404.6717697298 247.499587037571 2587.5541085251 139 144 140
-1399.85765795328 248.341003093149 2581.05026266554 138 143 139
-1399.03928730955 248.486768953229 2574.08337271514 138 143 139
-1400.21821121367 248.284686146218 2566.89812342385 142 147 143
-1401.3970117315 248.082276073854 2559.71734510396 141 146 142
-1400.57883137486 248.227120997878 2552.74202924429 148 152 151
-1393.7701732798 249.414183596992 2546.34676793342 165 169 168
-1386.96250452632 250.60077273855 2539.9123313639 161 165 164
-1380.15582662789 251.786888019624 2533.43865995168 166 170 169
-1371.3535961938 253.319941186979 2527.10496129455 174 178 177
-1209.98050801585 273.476584754058 2910.89738392312 143 147 146
-1228.20166689293 270.365646874169 2899.4046252407 136 140 139
-1246.42059627808 267.254999317952 2888.0086393417 178 182 181
-1257.62640671162 265.344917803081 2878.21360486566 164 168 167
-1264.82508146195 264.120762854053 2869.32583728752 139 144 140
-1270.02024730269 263.239568935693 2860.89405986711 148 153 149
-1277.21717044425 262.015640238573 2852.07499415982 164 169 165
-1279.40696004841 261.648984205611 2844.31306727755 154 159 155
-1284.60019335507 260.768034697098 2835.95708241224 147 152 148
-1282.78501577796 261.086937979731 2829.01727553573 138 143 139
-1290.98044354214 259.69197069646 2820.10702874658 139 144 140
-1308.183054197 256.754763605885 2809.5010399217 175 180 176
-1328.3859622754 253.303743689736 2798.41515189108 162 167 163
-1334.57499091912 252.251939847828 2790.06474725762 164 169 165
-1337.76100385195 251.71428239312 2782.30084006859 165 170 166
-1343.94862885109 250.662552146096 2774.00537374816 127 132 128
-1349.13468863208 249.78216514093 2765.92103430092 120 125 121
-1352.31918029531 249.244462548613 2758.2165351325 118 124 120
-1354.50290043258 248.877948778477 2750.70130158151 117 123 119
-1361.68816278758 247.654933819281 2742.33896090929 112 118 114
-1367.87223728129 246.603158503529 2734.18221224929 112 117 113
-1373.05509106893 245.722724739292 2726.22312392225 118 123 119
-1372.2364189374 245.869801254511 2719.26942443973 123 128 124
-1370.41763938549 246.187982951961 2712.46962043363 167 172 168
-1369.59936496357 246.334803537941 2705.50010228469 165 167 164
-1367.7811200235 246.652662849359 2698.67905764284 135 137 134
-1366.96323912969 246.799048562186 2691.69369211874 114 116 113
-1367.14527510702 246.773992833875 2684.55219260588 111 113 110
-1365.32772460925 247.09121712212 2677.70332491407 107 112 108
-1366.50980338055 246.894593264571 2670.40995867174 97 102 98
-1368.69107406083 246.526604068625 2662.97954939851 108 113 109
-1370.87232731003 246.15837630185 2655.55889002125 124 129 123
-1369.05521488232 246.474763734788 2648.69200248303 62 67 60
-1371.23623482015 246.106147939272 2641.28004508741 71 76 69
-1385.40894864795 243.683521620488 2632.31162725696 50 55 48
-1395.58269921939 241.945546420694 2623.92970009623 109 114 108
-1399.75981979531 241.234291363353 2616.35163894722 106 111 105
-1400.93922183745 241.036249451035 2609.16136595549 107 112 108
-1406.11447157886 240.153548738279 2601.49703602221 116 121 117
-1409.2912024081 239.61287070069 2594.09266232704 135 140 136
-1406.4739404262 240.098540816796 2587.38868492939 134 139 135
-1402.6583326429 240.754934015321 2580.77866735458 135 140 136
-1399.84201337778 241.239933020048 2574.03712473186 140 145 141
-1401.02094271901 241.040309546542 2566.85430358235 145 150 146
-1402.19998850446 240.840381851268 2559.67592952762 142 147 143
-1400.38292231214 241.15336589875 2552.80358065727 147 151 150
-1393.57373522964 242.32103312885 2546.40816875427 167 171 170
-1384.76856974385 243.830349908885 2540.16369578068 163 167 166
-1376.96320614597 245.168042657636 2533.77671149796 164 168 167
-1371.15542468051 246.163301919105 2527.16594247637 168 172 171
-1196.747953993 268.112586659188 2913.86858394497 166 170 169
-1219.98000556484 264.206605388829 2901.23858254639 153 157 156
-1239.20240384645 260.975937361698 2889.60284908165 174 178 177
-1252.41250959966 258.758036671409 2879.35882143522 170 174 173
-1258.61062198737 257.721250012145 2870.6695169126 145 150 146
-1267.81223851611 256.178559589043 2861.38347569788 152 157 153
-1281.01801961219 253.961266938829 2851.31844828838 165 170 166
-1285.21034887207 253.262348097449 2843.15922476271 154 159 155
-1287.39985127698 252.900836999481 2835.42337164532 133 138 134
-1282.58082922931 253.720002832157 2829.08754561723 130 135 131
-1286.7725738405 253.021146477045 2820.96056406919 133 138 134
-1305.97862142815 249.792673919458 2809.95690490404 170 175 171
-1327.18427970643 246.22716342998 2798.67462082636 163 168 164
-1335.37543135158 244.854194326168 2789.94579474477 157 162 158
-1337.56085999021 244.492957523549 2782.36945304308 151 156 152
-1344.74959452943 243.288674408725 2773.89152019533 142 147 143
-1349.93595561617 242.421621444897 2765.80972174238 147 152 148
-1355.1218894545 241.554589062898 2757.75396852435 162 168 164
-1354.30394137571 241.699012033655 2750.76912138091 149 155 151
-1357.48770241552 241.169099499093 2743.09221708301 113 119 115
-1362.67218131147 240.301884283195 2735.0931317408 101 106 102
-1368.85624278184 239.266137520768 2726.95410230398 109 114 110
-1373.03889961588 238.567453011484 2719.17316229507 122 127 123
-1371.21989544816 238.87993267933 2712.37601465285 152 157 153
-1369.40143195883 239.19220524887 2705.56683784771 164 166 163
-1363.58290939955 240.178320285338 2699.36604961736 147 149 146
-1362.76522763998 240.32162202098 2692.36958990047 121 123 120
-1363.94736882846 240.127775567271 2685.06744155273 115 117 114
-1363.12987249564 240.270697832263 2678.06332726955 106 111 107
-1362.31229958755 240.413463561905 2671.05271294958 94 99 95
-1365.49385680221 239.882093965356 2663.46970207969 104 109 105
-1365.67612139476 239.855987058856 2656.31813881797 114 119 113
-1364.8589245174 239.998049352643 2649.30139740733 35 40 33
-1364.0418892492 240.13991857385 2642.27813244435 72 77 70
-1378.2161458404 237.755143671424 2633.2900600113 49 54 47
-1387.39186082334 236.212446786254 2625.01633399584 104 109 103
-1395.56690210497 234.838154938575 2616.9157364696 103 108 102
-1399.74406618723 234.137331613175 2609.34717573257 113 118 114
-1405.91906739338 233.099585550802 2601.5601061137 121 126 122
-1408.09702476124 232.735176174846 2594.27236109095 124 129 125
-1406.27853511352 233.044067767494 2587.45125162564 127 132 128
-1401.46376636296 233.857626696991 2580.95249653943 136 141 137
-1398.64728902815 234.33414507938 2574.20802598886 143 148 144
-1397.82868684005 234.473703727795 2567.23419598021 146 151 147
-1399.0080173631 234.276191017811 2560.04728641883 141 146 142
-1398.18958941075 234.415103089219 2553.06595242898 142 146 145
-1394.37578382254 235.058532529887 2546.37157934221 166 170 169
-1383.57298722506 236.879566083677 2540.31982414583 162 166 165
-1376.7654610992 238.026894805036 2533.83765837936 167 171 170
-1367.96208285169 239.510317704033 2527.49553108712 169 173 172
-1221.77468988322 256.343124852035 2900.8692261853 160 164 163
-1232.98477812203 254.49195038713 2890.97957490138 178 182 181
-1247.19808066706 252.143055027588 2880.50397602036 170 174 173
-1253.39698421149 251.12232290223 2871.8009884745 135 140 136
-1268.60844658809 248.60797562801 2861.24435788951 148 153 149
-1282.81673571706 246.259811656719 2850.97481077185 165 170 166
-1283.00380511394 246.235306488935 2843.6371789359 150 155 151
-1281.18821518615 246.542705865026 2836.70113614311 129 134 130
-1278.37177079707 247.015974447664 2829.95188857443 131 136 132
-1286.56866701967 245.663949972513 2821.03035802333 137 142 138
-1306.77739587825 242.320975182917 2809.83298427459 172 177 173
-1326.98338003018 238.978370998047 2798.74328109714 160 165 161
-1336.17600596666 237.460974529015 2789.82645728438 157 162 158
-1336.35965196176 237.436720558666 2782.62289356581 158 163 159
-1340.54675948008 236.748761796561 2774.68884666684 114 119 115
-1344.73310041596 236.060890217697 2766.7755292875 109 114 110
-1352.92155291841 234.709586350664 2758.17545751576 128 134 130
-1354.10496216809 234.5191803678 2750.83676784453 135 141 137
-1355.28801883416 234.328781359434 2743.50254106275 151 157 153
-1356.47096392906 234.138262006864 2736.17254565229 141 146 142
-1360.6550033655 233.450192895484 2728.348966749 106 111 107
-1366.83925978128 232.430359300136 2720.21940450349 102 107 103
-1367.02112101978 232.405380101799 2713.08481656157 141 146 142
-1364.20242479877 232.87762767185 2706.42248210064 168 170 167
-1361.38416879698 233.34966801444 2699.74271984246 161 163 160
-1360.56654472903 233.489953438471 2692.74076665431 120 122 119
-1362.74904358473 233.132707646577 2685.28321625888 114 116 113
-1360.93146074847 233.438386877273 2678.42321627355 103 108 104
-1360.11418427424 233.578009580993 2671.40696634028 115 120 116
-1363.29610577602 233.054555543919 2663.81821698615 95 100 96
-1363.47850509426 233.028082664834 2656.66099522431 106 111 105
-1360.66201058192 233.498543696395 2649.91069211389 117 122 116
-1357.84595628881 233.968797500497 2643.14296120621 31 36 29
-1369.02318464491 232.118932044666 2634.52966869663 63 68 61
-1379.19955511494 230.434756650006 2626.10311291036 104 109 103
-1389.37455648486 228.750525615414 2617.7300065577 94 99 93
-1394.55188836718 227.894606119134 2610.02237974029 99 104 100
-1400.72768974454 226.872882181232 2602.22123998231 103 108 104
-1404.90429204103 226.182351638507 2594.68568737621 125 130 126
-1405.08410401818 226.154136811758 2587.62771749827 130 135 131
-1404.26500034825 226.29130503356 2580.68024526917 136 141 137
-1400.44898462301 226.925062753463 2574.05254245668 139 144 140
-1396.63378235866 227.55836069545 2567.40187788872 146 151 147
-1396.81429432888 227.528939186787 2560.31525421431 147 152 148
-1394.99751199223 227.830350880604 2553.42871056706 136 140 139
-1392.18220095117 228.297045743101 2546.62810947701 160 164 163
-1383.37574594412 229.756679952865 2540.38069014389 156 160 159
-1375.56900690265 231.050237894121 2533.99074961597 168 172 171
-1365.76664165732 232.674304979464 2527.73534592198 171 175 174
-1348.97705119781 235.45648003442 2522.03261327158 173 177 176
-1226.57549449861 247.999929455001 2899.83832910886 184 188 187
-1233.77871908726 246.831581306298 2890.83265913179 168 172 171
-1243.98617814249 245.173610189324 2881.21918987438 142 146 145
-1255.19385440421 243.352640378385 2871.446913654 140 145 141
-1272.40979456472 240.552266014933 2860.47620680439 163 168 164
-1287.62005395612 238.078751867835 2850.0104365156 168 173 169
-1283.80105368122 238.706908995768 2843.50269154669 150 155 151
-1281.98523212812 239.008518179812 2836.56948441162 126 131 127
-1280.16995385514 239.310069620518 2829.62430679497 129 134 130
-1290.3696322719 237.653179616613 2820.31609265854 146 151 147
-1310.57958568119 234.364406122991 2809.12905640331 174 179 175
-1329.78577119123 231.239186494975 2798.24019658525 153 158 154
-1336.97695397077 230.072363685162 2789.70680001482 156 161 157
-1336.15940293844 230.210982276458 2782.69087783656 170 175 171
-1336.34306768028 230.186303181846 2775.48612496436 135 140 136
-1340.53021903647 229.50892611104 2767.56172653479 119 124 120
-1349.72022362107 228.015845016349 2758.77346221101 112 118 114
-1353.90596817314 227.338482362539 2750.90406203963 111 117 113
-1354.08855798477 227.31357928302 2743.74108066601 121 127 123
-1356.27211083366 226.96238803312 2736.23951267843 119 124 120
-1359.45604747649 226.447970546503 2728.58170738298 111 116 112
-1368.64204637447 224.954902410939 2719.95933787122 115 120 116
-1366.82300601829 225.255808036682 2713.15117728416 132 137 133
-1365.0045061416 225.556416588502 2706.33089869973 163 165 162
-1359.18534733253 226.509210383301 2700.11919953187 167 169 166
-1359.36783279721 226.483344769598 2692.9592629036 126 128 125
-1358.55012298793 226.620355107981 2685.94781946028 117 119 116
-1357.73281379529 226.75716562696 2678.92982876854 109 114 110
-1355.91582454342 227.056771816971 2672.04943347387 109 114 110
-1360.09801908465 226.378106698008 2664.30805674927 102 107 103
-1361.28032896127 226.188296630062 2657.0036494447 109 114 108
-1361.46288764584 226.161301170731 2649.83963798825 107 112 106
-1355.64759720131 227.112014763446 2643.47451617321 31 36 29
-1361.82807330823 226.106691879972 2635.50828197867 42 47 40
-1370.00683003677 224.775311673819 2627.31787191999 111 116 110
-1380.18321066328 223.117992099742 2618.91975489508 100 105 99
-1387.36011986729 221.949447569403 2610.94237045207 94 99 95
-1393.53685920741 220.943739081459 2603.12176801657 106 111 107
-1398.71340018033 220.100877359584 2595.44974832266 123 128 124
-1399.89270651315 219.909436148982 2588.26097851976 128 133 129
-1399.0738738007 220.04347126268 2581.29955224331 135 140 136
-1396.25708108323 220.503028198928 2574.54919604499 138 143 139
-1395.43870533178 220.636551532783 2567.56936063969 146 151 147
-1395.61928708135 220.606841361152 2560.47969980291 147 152 148
-1393.8021842101 220.90254968743 2553.59023513302 141 145 144
-1388.98939198296 221.686443161747 2546.98237818356 162 166 165
-1382.17988911567 222.79552584213 2540.53640466691 156 160 159
-1379.36570607919 223.252887530798 2533.68169600681 168 172 171
-1368.56361707136 225.01233635201 2527.52683602455 171 175 174
-1353.76953901013 227.422226158102 2521.65848328138 173 177 176
-1232.37890348545 239.522749243071 2898.58647926173 192 196 195
-1234.57279848293 239.175946885759 2890.68541673489 153 157 156
-1242.7774896557 237.865961174224 2881.50437051452 148 152 151
-1255.98959921401 235.753457500594 2871.30451921048 152 157 153
-1270.201519461 233.480734207295 2860.96473302325 153 158 154
-1282.40849730969 231.529326589087 2851.11372158272 170 175 171
-1279.59097662424 231.985656245319 2844.38835168984 142 147 143
-1278.77664919744 232.120985849593 2837.24290837947 114 119 115
-1280.96688049653 231.774765613951 2829.49498570279 123 128 124
-1292.16847216195 229.984314867901 2819.99328560509 138 143 139
-1311.3786232983 226.910256050133 2809.00436791096 161 166 162
-1327.58263397959 224.317864943069 2798.68920038691 160 165 161
-1333.77344755581 223.330226417347 2790.33793018251 163 168 164
-1334.9581772505 223.144813725105 2782.94366956865 166 171 167
-1336.14279563925 222.959400656147 2775.55375877206 153 158 154
-1341.33106250308 222.132169986023 2767.44955884884 132 137 133
-1347.51941455046 221.144556589311 2759.19452070025 125 131 127
-1353.70696090432 220.156917614944 2750.97094438215 121 127 123
-1354.89015695647 219.971343041023 2743.63645001547 114 120 116
-1359.07511012763 219.304427458507 2735.79987222416 115 120 116
-1360.25787115243 219.118668606 2728.48218236917 109 114 110
-1366.44302072489 218.130887475409 2720.35212793468 105 110 106
-1364.62420197239 218.425969139942 2713.53837777559 123 128 124
-1362.8054474631 218.720886788758 2706.71261587318 151 153 150
-1360.98699291236 219.015514513402 2699.87481925356 176 178 175
-1359.1690806861 219.309994720556 2693.02499310992 145 147 144
-1358.35129002013 219.443995623303 2686.01347852576 122 124 121
-1353.53370783597 220.218961082125 2679.58324347481 109 114 110
-1352.71675849737 220.352434769058 2672.547605607 109 114 110
-1355.89961028935 219.84460810078 2664.93927675434 105 110 106
-1360.08184985037 219.17637431083 2657.20734085765 107 112 106
-1359.26452478942 219.309320961011 2650.17649684149 114 119 113
-1351.4496336129 220.563783000989 2644.0725166126 59 64 57
-1349.63354761081 220.856399712445 2637.13998963543 26 31 24
-1356.81423624501 219.706622131672 2629.04436726086 98 103 97
-1371.98967883806 217.275117598456 2619.98446475155 90 95 89
-1383.16536470988 215.484451454551 2611.49502153287 97 102 98
-1389.34283391141 214.49481381907 2603.66314922873 105 110 106
-1394.52026563088 213.665216105912 2595.97988273357 119 124 120
-1397.69847311206 213.155774980496 2588.55133615577 113 118 114
-1399.87695987667 212.806382609267 2581.24969978874 123 128 124
-1399.05813967819 212.937173362734 2574.28430087904 135 140 136
-1399.23842485503 212.907572156726 2567.20634813041 141 146 142
-1400.41760312435 212.717455449831 2560.02400564296 143 148 144
-1393.60572968759 213.808113195136 2553.65089891658 160 164 163
-1385.79610670178 215.058351797514 2547.33648474296 153 157 156
-1378.98628308102 216.148043690123 2540.88222704827 147 151 150
-1378.16928114155 216.276793011297 2533.83424755645 164 168 167
-1372.35978870976 217.205493376954 2527.22820799824 165 169 168
-1361.55813730147 218.934095943513 2521.02312477755 172 176 175
-1237.18103176656 231.235322394861 2897.5544039283 186 190 189
-1240.37682861544 230.735873136744 2889.44913242541 160 164 163
-1243.57223334443 230.236468253053 2881.35923397228 152 156 155
-1252.77809529894 228.790328579406 2872.01093556993 143 148 144
-1264.9877127085 226.87102178066 2862.08190354603 152 157 153
-1274.19092764112 225.4252567148 2852.83746215429 166 171 167
-1276.38180228258 225.084056850869 2845.06978591759 143 148 144
-1280.57533052633 224.427432330813 2836.90911433377 125 130 126
-1285.76994901934 223.613065295682 2828.57048271916 132 137 133
-1293.96784211092 222.325509105509 2819.66988736608 137 142 138
-1309.17383123634 219.933947474517 2809.45900816484 157 162 158
-1327.38176743959 217.069333775048 2798.75684610366 154 159 155
-1334.57412951321 215.940009004601 2790.21762114183 158 163 159
-1338.7622033133 215.283846298357 2782.2706239717 163 168 164
-1339.94684938969 215.100793475325 2774.89149008462 157 162 158
-1343.13317909766 214.602304144254 2767.15725794042 140 145 141
-1342.31532921187 214.734520241528 2760.14614148551 126 132 128
-1348.5036681033 213.762875414396 2751.90876333712 123 129 125
-1352.68958375786 213.106627058367 2744.04602200637 120 126 122
-1359.87706969121 211.977340055194 2735.69741405015 120 125 121
-1362.06061972692 211.636289638279 2728.21616924479 111 116 112
-1365.2443985064 211.137459113128 2720.58126987488 105 110 106
-1366.42672368818 210.953886951633 2713.28296217517 109 114 110
-1366.60859678495 210.927764234351 2706.14668294821 133 135 132
-1362.78916325398 211.53187904007 2699.63005633392 159 161 158
-1358.97030993768 212.135749347553 2693.0904903964 151 153 150
-1354.15166485829 212.896986466618 2686.67773175076 129 131 128
-1350.33404165704 213.500379234849 2680.0895759113 110 115 111
-1347.51699302617 213.945899825957 2673.33415054853 106 111 107
-1349.70048924443 213.603453289122 2665.85351006952 105 110 106
-1354.88330082677 212.788181439071 2657.96603711682 106 111 105
-1356.06629441893 212.602927716202 2650.64912488132 110 115 109
-1348.25076384566 213.835206021234 2644.53699051799 76 81 74
-1343.43578887966 214.594532621126 2637.98806454672 38 43 36
-1348.61778718958 213.778546992073 2630.1316106966 101 106 100
-1362.79540846196 211.545054615075 2621.17447039179 90 95 89
-1376.97134324461 209.311557951489 2612.29256413379 100 105 101
-1382.1500732439 208.495422115897 2604.56368590457 108 113 109
-1389.32696876156 207.364183068346 2596.62689212577 109 114 110
-1394.50444844146 206.547716758536 2588.95585066032 109 114 110
-1396.68329250367 206.203420912277 2581.64572212147 116 121 117
-1395.86460567002 206.331175207768 2574.67185053728 130 135 131
-1397.0441185939 206.143790301619 2567.47936178743 135 140 136
-1398.22375194457 205.956190142001 2560.29126000664 139 144 140
-1395.40725507357 206.397842657879 2553.5101167158 171 175 174
-1387.59665078066 207.626048570625 2547.20107362931 151 155 154
-1378.78867142121 209.011061659566 2540.9424336443 153 157 156
-1376.97291861702 209.29410665448 2533.98660676668 160 164 163
-1372.16164904553 210.048875639479 2527.28796752618 162 166 165
-1368.34938630886 210.64583284416 2520.47407136029 176 178 175
-1357.54820018038 212.343548641986 2514.22696434764 174 176 173
-1240.98189385882 223.129599357683 2896.74221753626 194 198 197
-1243.1756864197 222.793084394046 2888.86552918584 157 161 160
-1245.36922761287 222.456576332597 2880.99867256718 152 156 155
-1251.56973439506 221.499910983394 2872.29249011755 153 158 154
-1260.77511484903 220.078117185257 2862.9891511506 170 175 171
-1269.97927587588 218.656497985698 2853.73365909025 151 156 152
-1272.17056835351 218.320378529645 2845.95510731915 134 139 135
-1277.36619154162 217.51922142792 2837.58206776064 125 130 126
-1283.56284366369 216.563069001739 2829.03641430738 131 136 132
-1293.76448601226 214.986921935946 2819.73813846074 138 143 139
-1309.97315558557 212.480828282537 2809.33354485645 161 166 162
-1327.18088858137 209.820025638845 2798.82413901025 155 160 156
-1333.37258995083 208.864410996254 2790.4725555496 158 163 159
-1336.55991525949 208.373759179591 2782.70782720068 163 168 164
-1339.74685134258 207.883090947755 2774.95829351043 154 159 155
-1340.93121590925 207.702396929772 2767.58336991331 139 144 140
-1339.11252001354 207.986495545128 2760.74370054471 128 134 130
-1343.29984568553 207.340702105435 2752.8464013201 126 132 128
-1349.48793247985 206.38506258658 2744.62673647948 125 131 127
-1356.67614729896 205.274487533778 2736.26973259362 127 132 128
-1357.85942342063 205.093389936485 2728.94624065388 116 121 117
-1357.04099707328 205.222068332702 2721.95385580254 110 115 111
-1362.22637364849 204.421145245104 2713.990865427 104 109 105
-1366.41042658938 203.775145891963 2706.21192998937 112 114 111
-1365.59196714586 203.903349811647 2699.22965398277 132 134 131
-1360.7720818434 204.650902665394 2692.85067444115 167 169 166
-1355.95315266531 205.398137817293 2686.44330991089 149 151 148
-1351.13470406578 206.145158132211 2680.00760724251 118 123 119
-1347.3172847591 206.737002969978 2673.39908321842 111 116 112
-1345.50068413917 207.018890104159 2666.48447348369 109 114 110
-1349.68421593363 206.371769094992 2658.7247019058 105 110 104
-1353.86721343621 205.724430215233 2650.98557837286 108 113 107
-1349.05083063771 206.470180326535 2644.46777319659 93 98 91
-1341.2359956624 207.67985319343 2638.31350526515 75 80 73
-1342.41965569244 207.496255762115 2630.96299993884 68 73 67
-1352.60017477918 205.919640376248 2622.4897914937 90 95 89
-1366.77786049289 203.723969718389 2613.5800674357 101 106 102
-1375.95567970307 202.302074280859 2605.34448343293 100 105 101
-1385.13250963909 200.880108976209 2597.15681346115 103 108 104
-1392.30925728248 199.767605230831 2589.24591564571 111 116 112
-1395.48786398782 199.273662773381 2581.81840728065 123 128 124
-1395.66833699423 199.243741476076 2574.73276981261 133 138 134
-1396.84792497458 199.058797368776 2567.53996833756 135 140 136
-1396.02933612669 199.182924434715 2560.55837249063 160 165 161
-1393.21275156209 199.616077592136 2553.77153061293 167 171 170
-1385.40192005168 200.822103803627 2547.45687790664 148 152 151
-1380.58867569529 201.563717324621 2540.81196998874 161 165 164
-1377.77388312728 201.99573319201 2533.95386954181 153 157 156
-1372.96216543241 202.736517003636 2527.25772831306 160 164 163
-1366.15369924812 203.786054878394 2520.70730300728 172 174 171
-1354.35304356651 205.608101248312 2514.53893843489 179 181 178
-1237.76850252413 216.111542194073 2897.472747865 197 201 200
-1241.96667888237 215.475377099958 2889.15237962064 153 157 156
-1250.17235771072 214.229802107221 2879.9925668797 146 150 149
-1254.36920346852 213.593871218711 2871.72445458218 149 154 150
-1260.56937687714 212.653316573904 2863.05792474853 175 180 176
-1265.76700630136 211.865156515351 2854.62975454465 150 155 151
-1269.96206040988 211.229492548194 2846.43195270718 136 141 137
-1276.16003024167 210.289194453476 2837.85182175322 127 132 128
-1281.35542393472 209.501362659746 2829.50205934622 128 133 129
-1288.55331935221 208.408976947199 2820.78623445291 128 133 129
-1307.76795877604 205.489262585642 2809.78762212573 158 163 159
-1326.9799942454 202.569881356572 2798.89113905184 149 154 150
-1336.17614782045 201.173471292982 2789.97567357557 156 161 157
-1334.35707306817 201.451968961062 2783.1447973684 165 170 166
-1335.54189339392 201.273644397585 2775.75460526535 162 167 163
-1335.72555399742 201.247435918964 2768.54837199943 149 154 150
-1336.91045849313 201.068935764145 2761.16402649448 127 133 129
-1341.0979781548 200.433717185875 2753.26117516522 125 131 127
-1345.284970733 199.798458875073 2745.37888142152 122 128 124
-1351.47321533925 198.858829302577 2737.17956377941 124 129 125
-1351.65596571494 198.832232952486 2730.00848890309 117 122 118
-1353.84024728654 198.501161008744 2722.50936725696 113 118 114
-1360.02652703279 197.561427473158 2714.37740673431 107 112 108
-1368.21346405565 196.317267813684 2705.96093314136 110 112 109
-1367.39478589758 196.442438980374 2698.98394892083 124 126 123
-1361.57402194673 197.328138679215 2692.7629437814 163 165 162
-1354.75383221234 198.365612877182 2686.65776237905 151 153 150
-1350.93528497778 198.946507564999 2680.07223946795 118 123 119
-1347.11755683277 199.527091024015 2673.46369431457 115 120 116
-1345.30080184051 199.803197408729 2666.54891106174 107 112 108
-1346.48437059013 199.622835297992 2659.20544712855 105 110 104
-1350.66787544852 198.986134765013 2651.45791701016 113 118 112
-1348.85116175966 199.261633098375 2644.53154181067 88 93 86
-1344.035353422 199.99300262191 2637.9851687357 82 87 80
-1343.21941951065 200.115882696746 2630.89846984866 36 41 35
-1347.40218449965 199.478448842792 2623.17906900572 82 87 81
-1357.58243506649 197.928673440516 2614.74517395537 99 104 100
-1366.76179757794 196.530941797646 2606.48454240257 94 99 95
-1380.93742536631 194.373214021024 2597.68666455137 106 111 107
-1390.11397936773 192.975419826283 2589.53573213627 110 115 111
-1394.29226457257 192.337498084978 2581.9908929212 129 134 130
-1394.4728025527 192.307169365999 2574.90227859703 132 137 133
-1396.65170860277 191.97276015993 2567.60034287059 140 145 141
-1394.83394048711 192.245775200167 2560.72183674235 172 177 173
-1393.01623187536 192.518537457854 2553.83140878852 151 155 154
-1387.20272281827 193.398584516467 2547.32078789892 154 158 157
-1383.38809457675 193.974381435709 2540.58594836081 162 166 165
-1379.5740418106 194.549845089883 2533.8282594172 156 160 159
-1375.76056129397 195.124886309227 2527.04775140179 166 170 169
-1368.95135719785 196.155054427065 2520.5053684933 171 173 170
-1352.15602605669 198.703306220017 2514.76650799762 179 181 178
-1228.54096366487 209.974434226058 2899.52594752044 195 199 198
-1237.75099354688 208.600408171554 2890.09218212301 153 157 156
-1246.95956588365 207.226623244731 2880.70631675922 145 149 148
-1253.16105700199 206.301922931387 2872.00530942487 144 149 145
-1259.36174269204 205.377317007877 2863.33588236695 184 189 185
-1265.56162459987 204.452865055018 2854.69803522435 133 138 134
-1269.75697075442 203.827716699084 2846.5001100697 128 133 129
-1275.95538338089 202.903445844063 2837.9198819814 136 141 137
-1278.14608247622 202.57760070834 2830.16622863196 137 142 138
-1281.33830935098 202.102179203356 2822.22628323574 134 139 135
-1300.55485901119 199.233782731517 2811.20811345088 165 170 166
-1322.77324725022 195.917124069808 2799.7201939972 148 153 149
-1335.97591319083 193.946708854925 2790.04199563111 153 158 154
-1331.15265339416 194.668001475287 2783.76670679684 163 168 164
-1331.33655631194 194.641458399987 2776.55064378519 165 170 166
-1331.52048413557 194.614878684514 2769.33356802499 159 164 160
-1336.71019110195 193.840711581442 2761.2300594765 133 139 135
-1339.89701900078 193.365497046984 2753.50134699172 129 135 131
-1343.08345918749 192.890265694426 2745.78776958153 124 130 126
-1348.27120369668 192.116054007616 2737.75158799939 125 130 126
-1349.4549333682 191.939640321663 2730.40607419524 120 125 121
-1353.64115208943 191.314758127176 2722.57449132616 116 121 117
-1358.82724036547 190.540417195798 2714.60290230044 106 111 107
-1365.01346949077 189.616599049714 2706.49933372776 108 110 107
-1365.19541636524 189.589256309723 2699.35886104612 117 119 116
-1360.37476263746 190.308774777496 2692.97981306306 153 155 152
-1354.55470572819 191.177387744113 2686.72215266082 155 157 154
-1347.73473925178 192.195179410636 2680.57778718862 128 133 129
-1343.91691112652 192.764445886935 2673.96099830503 117 122 118
-1344.10051220602 192.735972531424 2666.75465959256 105 110 106
-1345.28445927552 192.557997356432 2659.40829730387 105 110 104
-1348.46808025578 192.081178949221 2651.7938754028 112 117 111
-1345.65164506743 192.50015471706 2644.99529758299 99 104 97
-1343.83528588917 192.769556764688 2638.04852115877 89 94 87
-1339.01957419631 193.486649169716 2631.47371641171 40 45 39
-1341.20344533383 193.158297323844 2623.99355658255 45 50 44
-1348.38562996245 192.083328470745 2615.91046462602 90 95 91
-1362.56451606509 189.963355496317 2607.02577876485 100 105 101
-1380.74006422593 187.246458562007 2597.74806048511 99 104 100
-1388.91760054765 186.022240305777 2589.7110856128 103 108 104
-1395.09526974134 185.096349676019 2581.93984354771 122 127 123
-1395.27573750534 185.065769564848 2574.85370358715 118 123 119
-1397.45496131673 184.736494283676 2567.5541858492 154 159 155
-1395.63673260471 185.003813235278 2560.6782406128 152 157 153
-1393.81903976547 185.270806329867 2553.79032651973 140 144 143
-1387.0057279342 186.283375245146 2547.38026667438 154 158 157
-1383.19079628408 186.847969359137 2540.64525668572 157 161 160
-1379.37644004303 187.412200216187 2533.88736768008 156 160 159
-1379.55822129944 187.379469844483 2526.74758310217 165 169 168
-1371.74944809316 188.539393618477 2520.30298349319 172 174 171
-1359.94655952515 190.29535328261 2514.15092904167 178 180 177
-1233.3443337552 201.730520688351 2898.49205922202 193 197 196
-1239.54794320594 200.82146155793 2889.7250544168 141 145 144
-1247.75518552214 199.618770928968 2880.55950586951 138 142 141
-1253.9568106094 198.710033161183 2871.86107712943 151 156 152
-1260.15787016519 197.80144281869 2863.19423440063 188 193 189
-1264.35410259947 197.186741900632 2854.97288801789 138 143 139
-1267.5479871493 196.718951637491 2846.97634877721 133 138 134
-1273.7469824996 195.81064075952 2838.39048241712 134 139 135
-1277.94156624068 195.196138694312 2830.23378618885 131 136 132
-1280.13239433948 194.875327688576 2822.48982098651 127 132 128
-1295.34402018674 192.645664128053 2812.24179763621 159 164 160
-1324.57498028668 188.360925086222 2799.40528458106 143 148 144
-1336.7770755143 186.572388641206 2789.91998140854 147 152 148
-1333.95627353265 186.986048051652 2783.27703991456 158 163 159
-1333.13869001981 187.10597622107 2776.25164363978 164 169 165
-1331.31983501453 187.372561624021 2769.39938848546 161 166 162
-1336.50990974648 186.611650849741 2761.29574000946 136 142 138
-1336.69353795888 186.584490689762 2754.08975085731 132 138 134
-1340.88139570834 185.970338817753 2746.19630569269 127 133 129
-1344.06780526162 185.502828068511 2738.49221533223 128 133 129
-1347.25382476629 185.035271113688 2730.80331981098 120 125 121
-1352.44102066571 184.274229616093 2722.80272093407 116 121 117
-1354.62540933652 183.953242369288 2715.31024165083 115 120 116
-1360.81236207045 183.04540671176 2707.19555271132 112 114 111
-1361.99515648306 182.870982570771 2699.88872828539 122 124 121
-1361.17682522934 182.989699362434 2692.89125563059 156 158 155
-1352.35445306191 184.28161659723 2687.08585249437 160 162 159
-1344.53396184893 185.426504275686 2681.08308857926 140 145 141
-1339.71549819254 186.131095131367 2674.60241689943 122 127 123
-1339.89937109888 186.102279322095 2667.38508655197 109 114 110
-1340.08326926997 186.073246719955 2660.16653599502 105 110 104
-1344.26778672978 185.457553356613 2652.40198578643 108 113 107
