ply
format ascii 1.0
comment KinectMotionCapture
element vertex 770
property float x
property float y
property float z
property uchar red
property uchar green
property uchar blue
end_header
1075.8866385027 428.79805848208 3000.84180501037 109 110 104
1066.86323447988 428.264396671883 3003.66883983367 105 106 100
1061.1929404098 428.197889796005 3000.15966281646 108 109 103
1054.4136238254 427.977795360225 2998.76188902298 117 118 112
1047.09141928924 427.682105625382 2998.41839071112 120 121 115
1035.96289020531 426.849143564409 3005.45795832112 120 121 115
1028.13918200562 426.481017053815 3006.16544250164 108 111 104
1021.40992403069 426.268325450763 3004.76277939793 104 107 100
1017.36620038313 426.439938404034 2998.08972853271 97 100 93
1014.89771341436 426.840961312677 2988.25759942886 96 99 92
1013.44684744998 427.393773697489 2976.32251075174 89 92 85
1009.30275767398 427.564352400763 2969.65844582369 79 84 77
1003.55793219486 427.506714025365 2966.15546714595 73 78 71
995.716565445685 427.146173909148 2966.86434277147 74 77 70
991.00321169156 427.242122179949 2961.25736351192 78 79 73
984.204304533768 427.035661570884 2959.86076665622 78 77 72
976.893988956857 426.754887227434 2959.51608238965 78 77 72
970.612066778985 426.626376880642 2957.06722577288 67 66 61
966.356162755961 426.799828646633 2950.41307353072 77 76 71
957.530180183395 426.296925866204 2953.22173200284 135 136 130
941.701923350918 424.746035726923 2970.74114052351 83 84 78
920.987337805191 422.452098439271 2998.75766263328 91 92 86
909.363272870713 421.511922504577 3007.85249031555 87 90 83
900.756092759534 421.023039040052 3010.64151143369 89 92 85
893.152639761725 420.685204755388 3011.32859205303 92 93 87
883.609431597052 420.051349726128 3016.21312175418 95 96 90
876.524042870272 419.791224493099 3015.84785213888 113 114 108
870.889597524368 419.754710737049 3012.33474269289 111 112 106
868.596923475156 420.236588229703 3001.48050340858 109 110 104
864.347435287335 420.421695621692 2994.82549395557 109 110 104
860.54180259985 420.68018851767 2987.12486513366 114 113 108
853.876720912683 420.496342795367 2985.71576850597 122 121 116
852.357570114988 421.12197215668 2972.78055884957 144 145 140
852.635163876849 422.039330670251 2955.66077283418 155 156 151
861.14985882186 424.272820411582 2919.69640398506 206 207 202
1251.73443003425 431.747532101012 2949.9204453634 156 155 150
1239.6335204104 430.854054534278 2957.04830384751 144 143 138
1231.26311406525 430.430105760823 2957.80595940532 140 139 134
1222.91707167091 430.008955309803 2958.56137146573 142 141 136
1215.20034332616 429.667732718192 2958.25444675674 149 148 143
1195.45843131458 427.78878928293 2979.14387533917 156 155 150
1185.44086202991 427.147953955923 2983.06672514292 159 158 153
1180.82836491492 427.200928598767 2977.45178997192 164 167 160
1176.20143733901 427.2546627755 2971.83788518365 159 162 155
1152.09172558282 424.78788051369 3001.16594336113 125 130 123
1132.86218709661 422.941614295282 3022.00906926332 112 115 108
1132.45284981532 423.53878478116 3008.97546972718 108 109 103
1126.17629466364 423.374880339319 3006.52699757873 110 111 105
1122.79133196359 423.591528226571 2998.78959289196 110 111 105
1113.05411829188 422.975798349655 3002.68679992255 116 117 111
1106.78546146402 422.816346511794 3000.23751396453 132 133 127
1095.39767651702 421.979899750322 3007.30031300009 134 135 129
1088.02541086828 421.673959419725 3006.96177370905 135 136 130
1082.91773131411 421.670328789333 3002.39639149738 120 121 115
1077.23768374695 421.592423843604 2998.88836339338 114 115 109
1068.76648068721 421.141469224253 3000.6598782962 110 111 105
1061.42673830166 420.842208531518 3000.31827233688 107 108 102
1054.64896575927 420.619222244052 2998.92043125404 111 112 106
1045.68330995736 420.100141094307 3001.74195453192 122 123 117
1037.29089153111 419.657848044096 3003.50622418507 121 122 116
1030.00479415902 419.365985837181 3003.15964826457 111 114 107
1024.88641485016 419.37173852723 2998.59523180733 106 109 102
1019.75432785064 419.378010554501 2994.03178706475 96 99 92
1013.00697964753 419.163634847932 2992.63101958965 94 97 90
1012.10110062855 419.759970077378 2979.6417717444 89 92 85
1008.49527289931 419.987436573133 2971.9238219353 81 86 79
1004.33261868359 420.141234478988 2965.26182390432 74 79 72
994.923136836128 419.563116632 2969.12885323948 72 75 68
989.698259561041 419.571974436683 2964.5736297301 74 77 70
982.909361583963 419.362449954125 2963.1764534514 79 80 74
976.63568727848 419.226925717511 2960.72703160663 85 84 79
970.357698848733 419.09229189572 2958.27797320078 65 64 59
966.106532607704 419.248663411341 2951.62381473716 68 67 62
955.770101468265 418.536036308052 2957.58528681575 119 120 114
939.95267705966 417.031220461567 2975.10260397589 78 79 73
920.246013836642 414.954876778395 3001.01542675183 94 95 89
908.627749944026 414.038498450873 3010.10915584048 88 91 84
900.520723022112 413.628931925975 3011.84714715665 91 94 87
892.430520665425 413.221084655475 3013.58383386022 96 97 91
883.381316133503 412.671644398175 3017.41775840242 101 102 96
876.299891090471 412.41048090884 3017.05216024301 122 123 117
870.669508395897 412.36468794217 3013.53891450129 114 115 109
868.861030108853 412.889438494529 3001.63619878621 106 107 101
863.659987709277 412.914571833015 2997.0786896009 108 109 103
860.335350907419 413.223933645534 2988.32943549234 115 114 109
854.615974269723 413.177967114534 2984.82413937637 120 119 114
852.160055364854 413.627813447105 2973.98549563081 130 129 125
849.186650403838 414.005633809497 2964.1987723886 139 140 135
853.565595379297 415.511019855033 2937.66017892774 200 201 196
1258.73685707479 425.058688263724 2938.41154759023 147 148 142
1247.21774183873 424.258891505592 2944.48073684868 145 145 137
1238.20039929083 423.762234921267 2946.30236574806 143 143 135
1223.73842538196 422.597704297142 2957.66467861966 144 144 136
1212.38858243966 421.810900931476 2963.71843817942 149 149 141
1196.2754442804 420.434352219128 2978.24618374104 154 154 146
1188.65260220315 420.101529950573 2977.93067188111 160 160 152
1178.06619528871 419.40128326931 2982.90995849672 167 168 160
1174.04937724501 419.516380270528 2976.2358845188 163 164 156
1154.67116461766 417.7172026166 2997.09113507825 131 132 124
1136.01664565065 415.999568791362 3016.87534377633 112 115 108
1131.50666414056 416.049884454016 3011.25108144207 109 112 105
1128.14247885605 416.247115257175 3003.51253497104 108 111 104
1123.0168906777 416.22519373748 2998.94919795229 110 113 106
1113.85570102277 415.693666097649 3001.78872165708 114 117 110
1105.29784014805 415.237708913441 3003.56809544634 123 126 119
1093.9197018261 414.421094688222 3010.62954930421 131 134 127
1087.690059675 414.260673589802 3008.17680376137 130 133 126
1080.33458219519 413.956818859439 3007.83671473056 121 124 117
1074.67112239887 413.871360332336 3004.32738998015 116 119 112
1069.55869347928 413.858912145261 2999.7626469461 106 109 102
1062.77136594282 413.631304320981 2998.36577170262 107 110 103
1054.88664639538 413.261575195586 2999.07874208886 111 114 107
1047.01871988114 412.893812586062 2999.79016520677 114 117 110
1039.7121451074 412.599477477782 2999.44523841401 116 119 112
1033.50061216073 412.449527733481 2996.99062057177 117 120 113
1027.28749132262 412.300634294926 2994.53611872219 111 114 107
1019.46195505806 411.939443880504 2995.24359686767 97 100 93
1012.71924581133 411.722043488293 2993.84248903009 92 95 88
1008.10281889509 411.789247421601 2988.22731807146 91 94 87
1006.6336363399 412.280869066347 2976.29511835502 89 94 88
1004.58403247021 412.700466911056 2965.42093683213 77 84 77
996.742140774769 412.34405110488 2966.12975868928 67 72 66
990.471536849347 412.200267540502 2963.68026425312 69 74 67
982.13206587961 411.776632086248 2965.43935149405 73 76 69
977.405686887334 411.845280792861 2959.83420125514 77 78 72
971.637170084936 411.774195292251 2956.33366585969 82 83 77
967.889540181083 411.98285592992 2948.62907447874 73 73 65
956.030131524892 411.076326904588 2957.74409267399 117 117 109
935.693980771034 408.991210418855 2984.71753148178 96 96 88
917.010015866425 407.122192242727 3008.52534683122 99 99 91
906.404851742045 406.368857600703 3015.51600595612 94 95 89
900.286789152874 406.240923984592 3013.05274529923 100 101 95
892.690916264175 405.90660552852 3013.73906337713 94 95 89
884.130148898324 405.435836729585 3016.52325931313 115 116 110
875.591546614113 404.966950602035 3019.30566984708 118 119 113
873.343705824168 405.392682863239 3008.44879782087 103 104 98
872.00258747602 405.954094124079 2995.49949980218 107 108 102
865.833035177059 405.82947134809 2993.04051592912 109 110 104
860.130316319856 405.773712611111 2989.53373210247 114 115 109
853.002142658357 405.513768596726 2989.1722779098 117 118 112
851.027429876915 406.003518836721 2977.28525766031 139 138 133
847.133448339591 406.219863972303 2969.59354506565 143 142 137
850.142441137764 407.452846373716 2946.19651165091 199 198 193
1253.39062660306 416.865337376715 2948.1273118961 150 151 145
1251.11980793441 417.165987232041 2938.27998410361 142 142 134
1240.8626538228 416.531195544473 2942.22383716548 142 142 134
1226.99757849508 415.469273643194 2952.52615389822 144 144 136
1212.60648620434 414.341066311423 2963.88125213977 145 145 137
1200.10744722917 413.432923801121 2972.0492147395 148 148 140
1195.46394546676 413.456586125323 2966.43776290553 156 156 148
1189.614521616 413.33861849088 2962.94559485389 165 165 157
1174.27234625945 412.08544746235 2976.3972970255 163 163 155
1150.17324086161 409.774999445878 3005.72059361677 136 136 128
1130.95576415418 408.040709561541 3026.55991035222 114 115 109
1127.05886108567 408.149521912203 3019.87528369914 109 112 105
1121.97788157968 408.117679971303 3015.30820607661 106 109 102
1120.93287528264 408.578665854914 3003.33912281785 109 112 105
1111.78495692145 408.056253125675 3006.17699981297 112 115 108
1103.24028919868 407.606555165223 3007.9552824247 121 124 117
1094.15121272939 407.089402717085 3010.78777765415 133 136 129
1089.62131516022 407.132754822496 3005.16546334317 133 136 129
1085.6371284678 407.246067224082 2998.48851957931 124 127 120
1078.26820298406 406.942717100364 2998.14961887531 117 120 113
1069.2390611455 406.433163545899 3000.97657771567 107 110 103
1060.79324977199 405.995280012212 3002.74574614076 104 107 100
1052.92171123059 405.628673729387 3003.45746352585 106 109 102
1043.96975633455 405.126168913327 3006.27735911263 111 114 107
1040.50021098456 405.313717288634 2998.54845545882 114 117 110
1033.2020472345 405.020534972087 2998.20298903757 118 121 114
1028.6120718225 405.071430393365 2992.58585442269 115 118 111
1019.70856438247 404.57556984818 2995.40126249018 105 108 101
1012.4332758723 404.286723121124 2995.05364797359 98 101 94
1007.29055225187 404.271742434494 2990.49191088642 96 99 92
1003.71717794231 404.461053751415 2982.77199464104 86 91 85
1003.26256594404 405.056964407058 2968.73826673548 79 86 79
998.041411469482 405.041590693783 2964.18330211754 73 78 72
992.285745465122 404.958964346564 2960.68214044234 73 78 71
983.938275902173 404.539673800619 2962.44207521792 71 74 67
979.205113015953 404.593516628474 2956.83765248065 70 73 66
973.42925627787 404.513035508846 2953.33800165434 97 98 92
968.659147151361 404.56718771838 2947.73710937064 107 107 99
957.302187343457 403.751207276615 2955.80085818594 122 122 114
937.963107289824 401.869554895963 2980.67167182479 121 121 113
918.767152903879 399.995195349987 3005.52952923611 114 114 106
904.678562377356 398.793627821133 3019.87225327933 112 113 107
896.598817453709 398.393965783629 3021.60756717976 114 115 109
890.00815030586 398.19486088305 3020.19219914553 143 144 138
884.392728221622 398.128986789618 3016.67810771011 142 143 137
877.795486668899 397.931360092894 3015.26353000811 102 103 97
874.573435532475 398.19614583039 3006.50620472108 106 107 101
871.79059335969 398.52589116323 2996.70388050575 104 105 99
866.10160569354 398.460310637136 2993.19634985171 104 105 99
859.45236636775 398.26388768489 2991.78614570791 110 111 105
852.330655684187 398.002809003132 2991.4241421863 117 118 112
849.895444127732 398.396086662311 2980.58479055792 135 132 127
846.942332738583 398.722699485527 2970.79774443521 145 142 137
849.957274775594 399.894398218585 2947.40167522986 198 197 192
1252.37141151868 409.209425076601 2950.41351887819 149 150 144
1244.57671934611 408.862718756792 2950.11368859602 144 144 136
1236.80106276863 408.518349631524 2949.81210178452 143 143 135
1221.13282943033 407.279153188572 2963.2923340288 145 145 137
1209.80044096705 406.528101611909 2969.34390232296 148 148 140
1199.12485082875 405.849769487721 2974.33061649994 152 152 144
1196.88674835222 406.13492154623 2964.48074595712 156 156 148
1191.0329145462 406.00907892329 2960.98940321887 165 165 157
1176.87146241485 404.928675222593 2972.32283272027 164 164 156
1149.21825767718 402.286730306468 3007.99721481068 139 139 131
1128.83205222847 400.472408915022 3030.95123110015 115 116 110
1124.94921249429 400.565652487112 3024.2657287583 106 109 102
1119.88195575261 400.523670367848 3019.69767339202 106 109 102
1119.42959011414 401.022780547746 3006.67054760089 108 111 104
1114.89268946012 401.048490441998 3001.04928900674 111 114 107
1106.90645131612 400.671032627066 3001.77151157097 116 119 112
1097.23145514001 400.094285119328 3005.66221262242 130 133 126
1090.98957235832 399.922264651216 3003.21084295622 133 136 129
1085.311875101 399.818295528531 2999.70300156018 128 131 124
1079.06731045821 399.648456616778 2997.25205753719 121 124 117
1067.80717149503 398.880657223237 3004.30154584845 108 111 104
1057.70837052232 398.249261376148 3009.23585837895 103 106 99
1050.4070120841 397.952311725698 3008.89052966748 105 108 101
1044.76160620131 397.855405810135 3005.37987238448 109 112 105
1040.19993124451 397.891272430292 2999.76057781307 113 116 109
1033.99101351358 397.729661220134 2997.30601103078 118 121 114
1028.86003587741 397.700571998345 2992.74356951733 115 118 111
1019.42056306753 397.14686952581 2996.61268069972 106 109 102
1015.35263814776 397.25061165003 2989.94344661605 99 102 95
1007.01108839022 396.831323221022 2991.7026133814 97 100 93
1003.97063463331 397.066271365038 2982.92980311213 87 92 86
1001.94253565571 397.430663509699 2972.05504868184 81 88 81
998.298367102749 397.598966732524 2964.34196556568 74 79 73
994.102377552995 397.70196671794 2957.68418321727 74 79 72
985.230904968136 397.222358385237 2960.49657408264 72 75 68
981.520789177539 397.390625909425 2952.7893796154 70 73 66
974.713143813487 397.171708483816 2951.39410629925 82 83 77
970.954675633119 397.339731507672 2943.69123470554 100 100 92
957.061235333294 396.22322122937 2957.01025902103 130 130 122
942.243731634114 394.983004098837 2972.42320484196 125 125 117
921.525802755718 392.98036748456 3000.43291753409 120 120 112
906.92576186107 391.751533191482 3015.82617049984 133 134 128
895.873014967908 390.973475663224 3023.86207324282 137 138 132
888.307144088001 390.643561830505 3024.54560526207 149 150 144
883.680635660443 390.695761782093 3018.9317004882 132 133 127
877.575438704582 390.557783797721 3016.46729683693 106 107 101
873.393201064574 390.673202425801 3009.80798369393 105 106 100
869.661177122816 390.851276196587 3002.10250591095 104 105 99
864.941203527406 390.902745645847 2996.49720298155 103 104 98
859.249229120727 390.82830692933 2992.98991569166 109 110 104
852.131371995781 390.565976969771 2992.62759865577 115 116 110
849.232377565645 390.868071073591 2982.83631923544 128 125 120
846.752185143705 391.231451935012 2972.00195244186 139 136 131
846.070975824088 391.842870690087 2956.98363608718 185 184 179
851.294285174938 393.261166621178 2928.36314079458 207 206 202
1252.59144064606 401.699194696268 2950.57712876662 147 148 142
1244.79824820001 401.353590474794 2950.27713769681 143 143 135
1241.30607199299 401.475023914443 2942.55162833524 142 142 134
1221.3563730061 399.807972907592 2963.45467730102 146 146 138
1206.3917408695 398.677815055643 2975.86546952772 150 150 142
1196.33801326551 398.080949240934 2979.79023523085 154 154 146
1195.31644443629 398.474325709313 2967.82070918216 158 158 150
1193.6477754776 398.800867195511 2956.91454893473 165 165 157
1171.76175114435 396.899280656225 2982.01324049151 165 165 157
1149.44640989054 394.941265473984 3008.15607909095 145 145 137
1133.75785331224 393.709812172505 3022.64237753958 121 122 116
1125.17873774073 393.265117990401 3024.4233741269 107 110 103
1117.7882005425 392.952680746302 3024.08662465073 105 108 101
1119.66315040667 393.678734141919 3006.8288944367 107 110 103
1116.2785259651 393.820192989525 2999.09329420775 108 111 104
1110.57630257928 393.703375360323 2995.58819545646 116 119 112
1100.88425084125 393.136906502734 2999.48016842545 126 129 122
1091.7950433915 392.637505858437 3002.3122421942 129 132 125
1086.67875321645 392.589204509347 2997.74895816974 130 133 126
1080.42988959403 392.413542476482 2995.29830061025 124 127 120
1070.27920361846 391.792225768805 3000.23676006585 112 115 108
1057.39705819461 390.855459551062 3010.44826681689 105 108 101
1049.54820815569 390.494851414954 3011.1578122112 104 107 100
1043.91003044151 390.389714036759 3007.64671044899 105 108 101
1038.26455389958 390.285286141952 3004.13600357766 109 112 105
1030.44072187389 389.92891819824 3004.8432118973 119 122 115
1026.41117059032 390.015385183902 2998.17097333419 117 120 113
1017.52389488238 389.535757299862 3000.98477558149 110 113 106
1012.93523174968 389.560344324621 2995.36816574678 102 105 98
1005.67109760671 389.271872698063 2995.01954621417 101 104 97
1002.11298034415 389.422209521244 2987.29921881866 94 99 93
1000.09883550789 389.75916087392 2976.42388813258 91 96 90
996.467717117139 389.908133486043 2968.71035101233 76 81 75
993.843344040075 390.180810085167 2958.89527116704 72 77 70
986.52550012268 389.894727854882 2958.55114910971 74 77 70
982.811475396834 390.042854701179 2950.8450345149 72 75 68
977.020844385394 389.943509084729 2947.34740248021 64 65 59
971.728692442134 389.906284439099 2942.79930970122 67 68 60
961.873567292254 389.316003308337 2947.71062416167 129 129 121
949.541884444619 388.421444839243 2957.87195564884 138 138 130
931.279834396743 386.795886545964 2980.63172113861 149 149 141
912.652079682905 385.115827232594 3004.42990732563 152 153 147
898.605258127866 383.991313496261 3018.76702207105 145 146 140
889.062151850345 383.418963066583 3023.65004192664 128 129 123
883.457817968772 383.334720576096 3020.13540873494 109 110 104
877.841707954376 383.250779486452 3016.62181956354 103 104 98
873.178614402498 383.288105408461 3011.01154404949 103 104 98
868.491765967699 383.325176408353 3005.40339559469 106 107 101
864.258466304173 383.422324018662 2998.74908709949 107 108 102
859.521258976863 383.45881885836 2993.14544875174 109 110 104
853.81792242277 383.375071273168 2989.63964245538 111 112 106
849.50718895492 383.471213676498 2982.99227178782 128 125 120
846.097519014318 383.686344787277 2974.25290873435 133 130 125
846.812838903205 384.437332921267 2956.09390076838 154 153 148
848.81659267286 385.363758479223 2934.80249787891 198 197 193
1247.87120525028 393.678661081739 2959.2285860642 144 145 139
1243.79376838906 393.718022133292 2952.56153270702 143 143 135
1232.35664923704 392.994242854138 2958.62178591014 144 144 136
1222.19203451192 392.401349759533 2962.55659413053 148 148 140
1209.04180247203 391.49509841707 2971.7868504277 147 147 139
1199.5792543352 390.972653651088 2974.65305782892 151 151 143
1196.14658998779 391.083470287713 2966.92273373482 156 156 148
1187.9162977274 390.691088495587 2967.6671096359 164 164 156
1183.26835628579 390.677463711622 2962.05672456723 164 164 156
1165.02742363278 389.224439444309 2980.79335035185 147 147 139
1146.91061456523 387.778459417343 2999.51872248314 125 126 120
1132.42312586419 386.713335386238 3011.88508898086 108 111 104
1120.92874817523 385.964291873817 3018.95527193851 106 109 102
1115.85167493931 385.901342461932 3014.38884404219 106 109 102
1113.64031607646 386.148489535044 3004.5375131705 107 110 103
1111.96099241257 386.456605392025 2993.63275377291 116 119 112
1102.83296924038 385.962555137457 2996.46840189923 123 126 119
1094.30197521867 385.532483878553 2998.24474538032 126 129 122
1086.92195617114 385.227270099799 2997.90688058542 130 133 126
1079.55351739851 384.923640760606 2997.56794324082 126 129 122
1070.5244540271 384.438347603202 3000.39430310741 113 116 109
1062.07892178674 384.016378144507 3002.16281886091 105 108 101
1053.65566900939 383.596400179871 3003.92953634503 103 106 99
1046.90121794763 383.360482094285 3002.52968922343 102 105 98
1040.15089965929 383.125728968077 3001.12968413916 105 108 101
1033.40490781261 382.89216823446 2999.72902425695 116 119 112
1025.58307628031 382.539188111272 3000.43597130744 117 120 113
1016.70260265111 382.067578142327 3003.24897062235 114 117 110
1012.1212831425 382.078198145624 2997.63204595161 105 108 101
1005.39518174649 381.849318856949 2996.22949601735 102 105 98
1001.31338699858 381.920256807101 2989.56230067521 99 104 98
998.781454475784 382.169818879785 2979.73953173364 96 101 95
997.250916879755 382.537345080794 2967.81583780625 79 84 78
994.625563661322 382.784563219451 2958.00146666978 75 78 71
987.305876179537 382.497594095235 2957.65777028445 72 75 68
982.048797442626 382.448258459342 2953.10684168051 69 72 65
975.243345176771 382.222195525955 2951.71154691894 66 67 61
970.979937067726 382.291362850937 2945.06060924533 62 63 55
962.647030040347 381.890302361192 2946.81855961398 108 109 101
953.829455299907 381.43226614943 2949.62561210022 134 134 126
937.042301481771 380.040272979035 2969.23515637096 141 141 133
919.872253384358 378.595703037851 2989.884609077 131 132 126
904.797436941596 377.390097688203 3006.32388450714 127 128 122
893.747356471569 376.654396878314 3014.35851566223 115 116 110
886.165789016484 376.327673134231 3015.04337123367 107 108 102
879.565812520283 376.117932936504 3013.62909384687 103 104 98
874.412981794888 376.082232063759 3009.06852527068 105 106 100
869.242111987158 376.046504006893 3004.50980732698 107 108 102
864.05339737337 376.010761313573 2999.9524434894 107 108 102
858.846524431605 375.97500169782 2995.39694068019 108 109 103
853.149748606961 375.881908262033 2991.89077668541 110 111 105
850.251454388263 376.131951669535 2982.10070481827 128 125 120
848.238195317235 376.494842664108 2970.220221428 134 131 126
847.092911814098 376.969846775231 2956.2511069552 148 147 142
849.099547411719 377.840266259661 2934.96081335748 196 195 191
1253.66049194865 386.743248035768 2949.84241653811 147 148 142
1241.56264495432 385.972607815435 2956.96700428548 146 146 138
1234.42188967743 385.69303773263 2955.6027115887 148 148 140
1223.6402506729 385.05097644113 2960.59800879205 150 150 142
1213.51281486817 384.47296560985 2964.52913453752 148 148 140
1204.02997504921 383.958571164086 2967.39695715009 151 151 143
1196.38066956018 383.627803706885 2967.08375780834 154 154 146
1189.94124533261 383.419234745823 2964.65091647292 164 164 156
1182.31850935195 383.092017521109 2964.33501893666 166 166 158
1166.44512148371 381.928845984997 2978.83615303066 151 151 143
1145.97235509812 380.293853745977 3001.79376119061 129 130 124
1137.91940559992 379.917612646162 3002.52191006454 113 116 109
1125.23562836768 379.068051788377 3011.70913793479 110 113 106
1118.9824927575 378.874794350912 3009.25929111733 108 111 104
1113.88114967408 378.800924746642 3004.69529649533 108 111 104
1109.34160577319 378.786619577008 2999.07525028212 111 114 107
1101.36849770232 378.419349600874 2999.79605200237 122 125 118
1091.71428706447 377.877733280105 3003.68404009629 126 129 122
1084.35037971193 377.573187209917 3003.34448111712 131 134 127
1074.75574528887 377.03630814822 3007.22703464698 129 132 125
1067.98412438024 376.793627960202 3005.82912488844 116 119 112
1060.66362447805 376.494023894899 3005.48556989865 104 107 100
1055.56029577798 376.428038437847 3000.92156017486 102 105 98
1047.70053061315 376.072834402737 3001.63194820971 101 104 97
1042.58619005354 376.008278451097 2997.06864730777 103 106 99
1035.28655150635 375.713383728854 2996.72335434032 113 116 109
1026.37697897157 375.247259344495 2999.53881775771 118 121 114
1015.34611394916 374.553683397139 3006.56602536556 115 118 111
1007.03557569481 374.149518921075 3008.322293824 108 111 104
1002.46488396518 374.147224274756 3002.70473542897 103 106 99
997.345339909735 374.087877574041 2998.14177198697 99 101 96
995.889184186588 374.426923791526 2986.21237160265 110 112 107
994.377935705035 374.764399282236 2974.28768879597 93 95 90
993.331016066147 375.156944568232 2961.316005672 79 82 75
987.054294566294 374.982567354243 2958.86780391705 74 77 70
981.287568875308 374.865248518616 2955.36847616958 68 71 64
975.000102499056 374.692107452917 2952.92120355581 61 64 57
969.724716110946 374.63186532717 2948.37241502379 70 71 63
964.43326265678 374.571722579481 2943.82481909902 66 67 59
957.61777605312 374.344046003418 2942.43045957826 137 138 130
945.806612642696 373.55965527565 2951.53819018419 126 127 119
926.599971380394 371.944016770097 2976.39068877294 120 121 115
910.993363013837 370.723849683257 2993.88223864963 121 122 116
898.435833790195 369.841185140744 3005.06764475392 99 100 94
888.876258805309 369.293836747545 3009.95152487316 96 97 91
880.321059052487 368.85892300251 3012.73458828477 96 97 91
875.166592654106 368.810902982012 3008.17446633625 100 101 95
870.473849935308 368.817731947553 3002.56758204763 104 105 99
866.235002030102 368.879074953396 2995.91464255394 105 106 100
860.069541000268 368.721200018948 2993.45610478443 107 108 102
853.425356369381 368.509190149697 2992.0460691245 109 110 104
850.528718182129 368.733236743162 2982.25648374448 119 116 111
848.51721904538 369.064678190232 2970.37661061484 129 126 121
848.300369100147 369.611148522079 2954.31421973339 141 140 135
847.542401293111 370.100828486481 2939.30596632329 161 160 156
1268.72695098786 380.634808583297 2924.5438248337 147 148 142
1246.71486581548 378.949226889638 2948.64405979069 150 150 142
1233.43136587873 378.085779299429 2957.88540926322 150 150 142
1227.527833094 377.922316890669 2954.39918216388 150 150 142
1216.17125885522 377.239740118813 2960.45123894096 150 150 142
1209.69073594392 377.02207000188 2958.02228897495 150 150 142
1200.81604870387 376.5756961203 2959.82971522449 154 154 146
1191.37366884904 376.074403432227 2962.69360587553 163 163 155
1178.99732778295 375.289660968645 2970.84760295517 163 163 155
1167.2756662202 374.566035498872 2977.93745763081 151 151 143
1152.08691024903 373.504508742682 2991.37078626502 130 131 125
1132.89942596224 372.050692599274 3012.20034210853 113 116 109
1128.96547435518 372.077431808692 3005.52102578752 109 112 105
1118.64605121732 371.482383693443 3010.47390914926 106 109 102
1111.82271747587 371.228638105589 3009.08088632146 106 109 102
1104.43416557017 370.919960820649 3008.74386785287 110 113 106
1099.33660477818 370.837332844879 3004.17950981933 120 123 116
1091.96113895423 370.531193242381 3003.8412611027 123 126 119
1084.0346884387 370.17075123352 3004.55773062393 129 132 125
1075.00453093023 369.700607951428 3007.38381850918 129 132 125
1068.23409693473 369.455051811239 3005.98587295785 119 122 115
1060.91431980279 369.15520754927 3005.64225929998 107 110 103
1055.81263654445 369.078029744037 3001.07837577093 104 107 100
1049.60048698976 368.890812677923 2998.62472232449 101 104 97
1045.57035340121 368.924627339647 2991.95382049787 103 106 99
1039.34318619216 368.738524619561 2989.50148063883 109 112 105
1029.8738116187 368.224508063099 2993.37229309441 114 117 110
1019.36252990895 367.603452317846 2999.34714145842 112 115 108
1010.49847308187 367.148837627779 3002.15826038415 109 112 105
1006.97439107552 367.240272586721 2994.43657099492 106 109 102
1000.7758710028 367.059744242269 2991.98153749777 106 108 103
995.100010575957 366.934079214193 2988.47406150235 105 107 102
992.028323656692 367.078926115102 2979.70647769569 101 103 98
990.997722864891 367.438501987952 2966.73414209638 87 90 83
987.321624894439 367.527406519831 2959.02584701831 63 66 59
980.527770931565 367.29375954402 2957.62970181393 63 66 59
973.224668479132 367.007506394895 2957.28426780723 59 62 55
968.978808763657 367.042693671592 2950.63259254431 67 68 60
964.70515987859 367.077483700536 2943.98340799511 61 62 54
960.404316228034 367.111869829928 2937.33666125345 118 119 111
949.578196625956 366.456455037216 2944.34489744643 130 131 123
933.828613982752 365.274742574522 2961.84827376906 120 121 115
915.711101774698 363.834265244071 2984.59061881563 121 122 116
902.145179607218 362.874051152957 2997.87658854966 103 104 98
892.077448390776 362.285698787069 3003.81103868661 97 98 92
883.505952257346 361.857023057585 3006.59540482985 95 96 90
876.88729532889 361.639159812022 3005.18299344167 99 100 94
870.267563887859 361.42194547962 3003.77090158984 103 104 98
866.032643974555 361.465669759542 2997.11804131198 105 106 100
860.345437862749 361.353040493386 2993.61126018038 107 108 102
855.116769083373 361.292338055505 2989.05831192614 109 110 104
851.275993885906 361.386662290542 2981.36458700805 123 120 115
849.729661715796 361.738109839777 2968.43849430842 127 124 119
847.193405660633 361.98457901404 2957.61198559837 132 131 126
847.367170554301 362.537683516754 2940.51035745359 159 158 154
856.148459895533 364.061340685139 2903.53530611966 204 205 200
1265.25491052207 372.725959818872 2931.07223659003 147 148 142
1248.18162584887 371.549754587669 2946.68525633507 151 151 143
1231.83225094122 370.435257404962 2961.22769892974 149 149 141
1226.54815896649 370.319983910994 2956.68079099435 148 148 140
1215.1985847724 369.655123778023 2962.73179050994 148 148 140
1212.34242059677 369.762325890777 2953.94564392282 150 150 142
1204.05613767917 369.376334697708 2954.69486274252 153 153 145
1193.4061976067 368.774040497132 2959.67743150747 161 161 153
1179.24021911895 367.848084145464 2971.00749651478 164 164 156
1167.51929237596 367.144286790116 2978.09680176776 155 155 147
1148.80461977984 365.793863912107 2997.87742082263 133 134 128
1135.48039102043 364.936837372861 3008.12645113478 115 118 111
1126.30169367001 364.461565776982 3010.96616524772 110 113 106
1119.46947063527 364.203830910026 3009.57379396039 104 107 100
1109.19095228928 363.625539744833 3014.52261645744 103 106 99
1104.10884502628 363.531651273881 3009.95739293126 108 111 104
1096.73709527429 363.224717221632 3009.6188318283 115 118 111
1087.67762165015 362.759559053409 3012.44741542037 117 120 113
1082.03058653903 362.615267701056 3008.93805982811 126 129 122
1073.5733350679 362.206751813523 3010.70729360085 128 131 124
1068.48618003675 362.117169199086 3006.14241567458 124 127 120
1060.05803437252 361.711725901592 3007.90897590411 112 115 108
1056.61909461498 361.781267718821 3000.18021920973 109 112 105
1049.30720418324 361.483251580986 2999.83585681893 103 106 99
1045.28155468455 361.500378654348 2993.16496183933 102 105 98
1037.97222615974 361.204166986366 2992.82056612859 107 110 103
1028.51238787327 360.701048029041 2996.6902612753 110 113 106
1020.15923469533 360.304014138403 2998.44992097145 109 112 105
1012.89594553744 360.012310320556 2998.10130486587 109 112 105
1009.89334352947 360.135125289083 2989.32785130421 105 108 101
1002.62429531485 359.844777393849 2988.97971628263 99 101 96
994.838199523578 359.504193079931 2989.6831703764 97 99 94
988.634291365835 359.318847780617 2987.22873546475 116 118 113
986.586097965079 359.543393273456 2976.35894797157 118 121 114
985.522342228422 359.868643027774 2963.39064946543 80 83 76
981.312103856596 359.886502566557 2956.73597729396 66 69 62
977.586013876508 359.954737634885 2949.0328892938 64 67 60
972.810324306697 359.920986122142 2943.43440069866 62 65 56
969.529403479035 360.038649045172 2934.68592118997 56 59 50
963.695802912902 359.903277809162 2931.19300452932 51 54 45
955.35255895973 359.516738593965 2932.95152345225 119 122 113
939.073575598828 358.328832220507 2951.50675655427 118 119 113
919.937679594242 356.845944678302 2976.34969979434 112 113 107
901.43499638928 355.419739378463 3000.13028595349 106 107 101
891.373073820465 354.846795978919 3006.06408094322 101 102 96
884.264661209576 354.574338008641 3005.70116782942 97 98 92
877.644152827046 354.352347289143 3004.28902245214 97 98 92
869.581961506715 353.982576604651 3006.02203979771 102 103 97
864.877131635031 353.959503631481 3000.41696427685 105 106 100
860.622625146091 353.985289083355 2993.76629040913 106 107 101
855.866734892832 353.961359152568 2988.16579447598 107 108 102
851.086759903554 353.937047136525 2982.56769759186 117 114 109
849.079138980321 354.20554381798 2970.68901410478 127 124 119
847.940045040825 354.569745121115 2956.72205068179 124 123 118
849.494797387529 355.223476637176 2936.48182927509 138 137 133
855.98122249465 356.407232865483 2904.74120315172 203 204 199
1271.67846303726 365.69688548589 2920.62752387922 146 147 141
1251.49797018105 364.298270569667 2941.54462814999 150 150 142
1239.41786863544 363.590642608798 2948.66609404457 151 151 143
1226.78999244396 362.834487955156 2956.84185065284 150 150 142
1216.65280670995 362.291536395168 2960.77299140604 146 146 138
1210.17504994878 362.064327807539 2958.34402722218 150 150 142
1200.70245562816 361.578376963034 2961.21024107445 153 153 145
1200.81353527443 361.92459441326 2947.13186137228 161 161 153
1180.07991472928 360.459062039833 2970.10862370295 165 165 157
1171.30992587178 360.032751449065 2971.90621291114 157 157 149
1154.33959639155 358.88859041567 2988.51346014829 135 136 130
1134.55706203646 357.493978032455 3010.39913821133 117 120 113
1121.89524676765 356.720564812948 3019.5825472667 112 115 108
1111.03717794436 356.104202316769 3025.58848174827 106 109 102
1110.01483491796 356.356010197835 3013.62223974069 105 108 101
1104.35864010583 356.200329009378 3010.11397984653 107 110 103
1098.12704450233 355.99464185944 3007.66251322693 113 116 109
1089.06239533716 355.53744229915 3010.49160413476 116 119 112
1080.5917951136 355.132819284779 3012.26193469739 125 128 121
1074.38772958623 354.930963319719 3009.80791670585 128 131 124
1067.06755503845 354.629736884939 3009.46461169275 124 127 120
1059.7587114154 354.329856566025 3009.12002276961 113 116 109
1055.77236580471 354.330206943603 3002.44602809526 110 113 106
1050.11423462669 354.181204173188 2998.93777812271 104 107 100
1044.99500110388 354.082255715953 2994.37575326288 103 106 99
1038.7756934009 353.884626344846 2991.9232324009 106 109 102
1029.85364693797 353.441179790958 2994.73901670197 109 112 105
1022.03295760819 353.098054466789 2995.44562131348 109 112 105
1016.89950275864 353.001613100018 2990.88504439861 109 112 105
1014.94142390765 353.198898097048 2980.00787663926 104 107 100
1006.06114394795 352.760364377919 2982.82005158304 107 108 103
996.681024407907 352.275038034856 2986.68219527938 100 101 96
990.992718073361 352.131687631937 2983.17650142753 97 98 93
985.294634290031 351.988637014928 2979.67143375501 118 119 113
983.207252593374 352.184018387607 2968.8060960575 101 104 97
979.012568613194 352.185239125467 2962.15068062224 66 69 62
977.348169549416 352.426306157231 2950.24202354332 70 73 66
973.08498424337 352.426020001397 2943.59276068434 64 67 58
969.805708573523 352.520861355415 2934.84469115569 61 64 55
964.476088746432 352.423990602571 2930.3016383525 57 60 51
957.63064568031 352.184451589949 2928.91000336153 83 86 77
945.813630514666 351.471118850993 2938.01676199304 122 123 117
925.650697834302 349.95640736278 2964.96057820797 113 114 108
905.14903839827 348.401634809353 2992.94005418531 107 108 102
893.112790241309 347.654652555896 3003.07140827733 102 103 97
885.510909143897 347.333607706459 3003.75793888493 98 99 93
878.40240525693 347.06047526278 3003.39505037784 98 99 93
869.858031365545 346.647999437447 3006.17636031888 102 103 97
863.722026015285 346.47008649286 3003.71568168195 104 105 99
859.47714333945 346.47844539292 2997.06457381725 105 106 100
854.731123365998 346.439782180063 2991.46355616516 106 107 101
850.429844656444 346.447001621157 2984.81751114908 115 112 107
848.429463408929 346.684237474296 2972.93918352334 125 122 117
848.224808732936 347.103783628494 2956.8788008726 125 124 119
850.242854828919 347.750129538327 2935.59295607348 134 133 129
853.067730130724 348.484109908566 2912.22453664076 203 204 199
1264.5025127004 357.511610235496 2933.51929192469 147 148 142
1260.9717496637 357.519337768981 2925.80024153 151 151 143
1243.94818487541 356.431553906113 2941.40642530542 152 152 144
1236.7813662731 356.1442439458 2940.04464840333 152 152 144
1220.53506328786 355.115809520216 2954.57578874073 147 147 139
1206.20146283372 354.241182935576 2965.91956658168 150 150 142
1194.35129924219 353.568250078128 2973.01965700488 152 152 144
1186.73850380538 353.242558351757 2972.70307419011 157 157 149
1179.14166129571 352.918512156089 2972.38478750643 165 165 157
1168.01535859932 352.303190367238 2978.41464454877 159 159 151
1154.58926313447 351.496411072808 2988.67154347061 140 141 135
1136.56018207637 350.305592786562 3007.38285713472 120 123 116
1122.72589286491 349.459998413177 3018.68134800044 114 117 110
1117.07413516197 349.294597876541 3015.17292911852 106 109 102
1111.99341063389 349.177969552109 3010.60789757004 104 107 100
1106.90211754452 349.061694659901 3006.0440403977 104 107 100
1097.24105161553 348.562816868879 3009.93159768719 111 114 107
1084.78205324938 347.827708312665 3019.09596456672 113 116 109
1076.33578664592 347.429535203207 3020.86396523908 122 125 118
1071.83915058302 347.365495280348 3015.24130176633 124 127 120
1068.44053749762 347.396130219668 3007.50989405259 127 130 123
1061.12638914643 347.095735023476 3007.16603073716 117 120 113
1056.58351732163 347.031995281641 3001.54748787458 115 118 111
1052.57125629984 347.015166540995 2994.87622611223 107 110 103
1044.71023991224 346.670230936281 2995.58647530057 104 107 100
1036.8654431309 346.326754947921 2996.29524078486 106 109 102
1029.03615504224 345.984688504448 2997.00258725733 104 107 100
1023.37184757431 345.829801866758 2993.49503227462 104 107 100
1018.23397952581 345.721606503011 2988.93489673769 110 113 106
1014.67674019743 345.752067466301 2981.21765544043 108 111 104
1006.85765288583 345.413358079258 2981.92400927203 92 93 88
998.526754307152 345.030035866758 2983.68134750155 102 103 98
991.784648031955 344.785713005812 2982.28060331736 94 95 90
986.084819347798 344.633541983332 2978.77615341076 93 94 88
981.927521596818 344.618388381127 2972.11779967185 122 125 118
977.742796669407 344.60270254729 2965.46190762155 129 132 125
977.111649141275 344.903805487412 2951.45113431551 83 86 79
973.361407935265 344.931510262705 2943.75095206574 71 74 65
970.589627320312 345.048633629205 2933.95282837636 64 67 58
965.761343490753 344.98466871343 2928.35977262861 52 55 46
959.410756475494 344.785928397822 2925.91876007062 50 53 44
947.585191457507 344.095729580366 2935.02571755252 112 113 107
930.378218936483 342.918042174453 2955.67195478222 125 126 120
909.357547467751 341.390216337094 2984.70131194709 109 110 104
897.298528825475 340.668333423171 2994.83408655206 103 104 98
887.244816223341 340.126596989524 3000.76614764867 102 103 97
878.679214160973 339.719441378768 3003.54946246471 103 104 98
871.095850329769 339.401786987705 3004.23425711919 103 104 98
864.000142669158 339.129036486335 3003.86997740615 103 104 98
857.383120152082 338.900775619294 3002.45791324329 103 104 98
852.180500950458 338.803989290371 2997.90328031036 108 109 103
849.773561405706 338.968190000666 2987.06723360541 119 116 111
848.713193869135 339.261025240072 2973.09498285373 118 115 110
848.510747248471 339.638151199819 2957.03543814566 121 120 115
848.688385541003 340.055702734452 2939.93677175691 134 133 129
849.238377930929 340.513328843747 2921.79944302272 202 203 198
1265.98722891999 350.056013676574 2931.56001536634 151 152 146
1244.60566725688 348.677270993182 2954.59250824288 152 152 144
1245.42172145419 348.999473324034 2939.44757306293 150 150 142
1238.24990380277 348.709983110303 2938.08653511366 149 149 141
1222.60353468958 347.767505296152 2951.55757520494 150 150 142
1202.22994675465 346.457516456891 2973.4939577424 147 147 139
1187.40119279509 345.573170321022 2985.88662079497 149 149 141
1179.22903437102 345.203383027595 2986.62525518038 155 155 147
1169.89095257399 344.743065638684 2989.47859482801 164 164 156
1168.85880992567 344.929857525424 2977.5150535987 158 158 150
1154.84198952577 344.104962257623 2988.82933580182 142 143 137
1132.13324850581 342.597778982041 3016.0002584195 121 124 117
1122.39571564829 342.103315904506 3019.89453496454 114 117 110
1117.90600452719 342.021013689369 3014.27169884296 105 108 101
1113.97536530714 341.984115164338 3007.59363959042 103 106 99
1106.01204698236 341.630264873311 3008.31323983253 103 106 99
1098.63697811353 341.323134368075 3007.97497985432 110 113 106
1086.73892336046 340.657424332132 3016.08337100798 112 115 108
1079.41230491682 340.353956364838 3015.74069600146 121 124 117
1074.90224086423 340.275385856814 3010.11958593633 122 125 118
1069.81620060718 340.152169197619 3005.55518973613 129 132 125
1063.052271027 339.895736814576 3004.15692885659 119 122 115
1057.39748225327 339.728906129631 3000.64881548554 116 119 112
1055.03128901887 339.827776952902 2990.8149262757 108 111 104
1046.61309140249 339.440605014339 2992.58015251014 105 108 101
1038.76001772519 339.099035368791 2993.28961044086 110 113 106
1030.92280956544 338.758866811388 2993.99761770874 104 107 100
1025.25091394199 338.594843246781 2990.49096314401 102 105 98
1019.5707840707 338.431157249924 2986.98479605954 108 111 104
1013.88222628332 338.267781387605 2983.47961329062 108 111 104
1006.59831637506 337.974729696009 2983.13287109721 106 107 102
998.796791756509 337.639507746382 2983.83757183376 99 100 95
993.101865915475 337.477851711564 2980.33291564067 97 98 93
986.357029688271 337.23054496776 2978.93248799548 97 98 92
981.683680675217 337.155308949575 2973.32587466905 107 110 103
976.474117211317 337.037055993269 2968.77262495689 136 139 132
973.807226498933 337.131736407766 2958.965684305 118 121 114
970.078445738231 337.140232118636 2951.26405477658 76 79 70
967.328113873981 337.232614635658 2941.46461983153 67 70 61
965.539148610868 337.408180909377 2929.56892173419 59 62 53
959.192624925952 337.203053802812 2927.12770224307 58 61 52
949.856488655119 336.746390149178 2930.98521972071 99 100 94
934.120458057813 335.74728003958 2948.48269107062 126 127 121
916.027725796021 334.54430115554 2971.21726809373 109 110 104
899.531817497796 333.472258147313 2990.79300295154 103 104 98
888.981038473855 332.903634159774 2997.77453895473 105 106 100
880.407090574647 332.50298170644 3000.55844020723 105 106 100
872.33538481635 332.145050870386 3002.29201810365 104 105 99
864.279551872009 331.788342495931 3004.02414904441 102 103 97
857.663292792485 331.555936795475 3002.61211785816 102 105 98
851.989757878626 331.405864028803 2999.10526924167 108 109 103
850.994839157963 331.663867672757 2985.12778568548 115 114 109
848.997862181569 331.838125379303 2973.25069083045 117 116 111
848.797741037772 332.172865539549 2957.1919727424 121 120 115
847.134535936138 332.383398068966 2944.27975288395 112 111 107
847.239976064318 332.753221610562 2927.18869694818 182 183 178
853.177123876977 333.643060982585 2896.50848336206 200 201 196
1243.62525300471 341.095441683331 2956.87344341237 153 152 147
1243.83751984232 341.33584598576 2942.78885104649 152 151 146
1228.14558735766 340.427185685948 2956.26337331143 152 151 146
1221.64473877463 340.183489488964 2953.83687307593 150 149 144
1207.91099196818 339.414762468652 2964.12031065081 148 147 142
1190.0543229429 338.344421715303 2981.80885094239 149 148 143
1179.48247784733 337.803106070027 2986.7831989021 155 154 149
1164.20453641961 336.917203115491 3000.21996526184 164 163 158
1162.61368900092 337.032149168695 2989.31225959015 160 159 154
1149.21793419027 336.282573872067 2999.56505388269 142 143 135
1132.38716760791 335.278947394041 3016.15617236152 123 126 117
1124.3963089414 334.924426277617 3016.87824777742 117 120 111
1121.0566634583 334.91360828371 3009.14258690497 109 110 102
1115.38454472658 334.731774387051 3005.63638684213 105 106 98
1106.26994552622 334.295464036014 3008.46918814872 103 104 96
1098.32605556638 333.945971540815 3009.18694749109 111 112 104
1086.99794584572 333.344561523819 3016.2386836775 114 115 107
1081.36437711083 333.167316312857 3012.72892989932 119 120 112
1076.84669831129 333.074441788725 3007.10884870633 124 125 117
1071.19468693632 332.897797250494 3003.60072683265 129 132 123
1064.980941413 332.679834759385 3001.14796608127 124 127 118
1058.214002737 332.420909561513 2999.74979524278 118 121 112
1054.74786082523 332.411684208489 2992.02538912634 108 111 102
1045.24034641532 331.947036594405 2995.89840207967 105 108 101
1039.0270843299 331.731784063528 2993.44553204224 106 109 102
1029.56874189938 331.270588561808 2997.31407068132 104 107 100
1024.98204534018 331.180123056389 2991.70009262128 103 106 99
1019.30561847345 331.007760077496 2988.19404609323 104 106 101
1014.15301173634 330.876395320428 2983.63579177539 102 104 99
1007.3988102069 330.623256841745 2982.23658200099 102 105 98
999.595069546919 330.289923997432 2982.94143449071 98 101 94
993.898353373986 330.119210399275 2979.43691971106 98 101 94
987.671599577172 329.908441539518 2976.9851448111 95 98 91
984.02843012864 329.898630666111 2969.27655802293 98 101 94
978.808673883201 329.76809778289 2964.72451796118 115 118 111
974.084981735641 329.677354611518 2959.12277766009 111 114 107
969.339795508066 329.586280630339 2953.52296442518 110 113 106
965.58512206656 329.574131709825 2945.82415033999 86 89 82
962.803071976129 329.640126126901 2936.02819108768 63 66 59
955.973894965235 329.389798109694 2934.63560655696 57 60 53
947.652924906347 329.022316288371 2936.39167185193 64 65 59
936.876101465805 328.460402822822 2943.39322538892 121 122 116
922.702211984798 327.627831875767 2957.73456119626 116 117 111
905.67885023918 326.565921926124 2978.3615805931 105 106 100
892.663425481519 325.819776097979 2990.58873777372 105 108 101
882.136929286738 325.270481621995 2997.56763415114 102 105 98
874.057227453104 324.916309365183 2999.30183422662 103 106 99
865.515462176086 324.524857844709 3002.0826377022 104 107 100
859.3692468064 324.326359852853 2999.62337290459 100 105 98
853.688159003001 324.166286797632 2996.11744262407 108 111 104
852.217522254846 324.348937520791 2983.18871057105 118 120 115
850.216709873855 324.491477909059 2971.3124926254 114 115 110
850.476827376446 324.821424385904 2954.20860009803 123 124 119
847.885556257433 324.921877657904 2943.39032657778 114 115 110
846.616042830098 325.133536037406 2929.43872916207 136 135 131
846.188052203547 325.417850459653 2913.40158570891 203 202 198
1261.54464276074 334.61278373109 2940.3678023384 147 150 143
1258.0375816612 334.566265872215 2932.64772001418 156 155 150
1241.64382713036 333.648078488178 2947.1893347507 156 155 150
1237.54240226957 333.562509406306 2940.52771085283 154 153 148
1217.65731870982 332.405181764683 2961.41255338972 148 147 142
1209.37441097006 332.035468828444 2962.1610736739 147 146 141
1202.91485245951 331.79037023012 2959.73092127487 147 146 141
1189.89080228022 331.097294057508 2968.94494987514 153 152 147
1173.37247211442 330.164070548106 2984.5022548734 165 164 159
1161.68939196527 329.560626351706 2991.58573250046 163 162 157
1147.71134596821 328.79882493179 3002.89501339225 146 147 139
1129.71885914677 327.759382607206 3021.59936625412 126 129 120
1119.99749288539 327.288040210473 3025.49163528493 119 122 113
1117.84166922899 327.339222814322 3015.64012787324 111 112 104
1116.22104572099 327.429163508366 3004.73545132277 109 110 102
1110.54247261489 327.239526523048 3001.23001790735 105 106 98
