ply
format ascii 1.0
comment KinectMotionCapture
element vertex 768
property float x
property float y
property float z
property uchar red
property uchar green
property uchar blue
end_header
1012.06895002789 468.601938672756 2820.08937877493 134 139 135
1020.47596990435 468.790319313595 2810.383354044 128 133 129
1020.57192109294 468.124073684081 2801.11389337972 129 134 130
1032.10956326561 468.629524679917 2791.18430323689 140 145 141
1050.94483200204 469.876999337708 2780.76277678651 154 158 157
1085.42307922004 472.713712655774 2769.26400271737 161 165 164
1308.03232831621 493.242224109522 2725.34489374797 102 104 101
1320.80596979803 493.811799882836 2714.51173356681 125 127 122
1340.90404867879 495.117685080747 2703.07111233883 175 177 172
942.508690038955 467.983942260273 3046.14503201508 169 174 170
919.046690468523 464.856371134934 3036.60742896164 126 131 127
915.043535032203 463.768471731535 3027.29495528885 132 137 133
903.847959745685 461.933994561353 3017.99987910857 130 135 131
890.582135147948 459.889417558447 3008.775469316 119 124 120
877.297990074324 457.848735032557 2999.63115390479 116 122 118
873.248819173099 456.770427574137 2990.51605529775 124 130 126
870.22071828993 455.800103540305 2981.42568183097 126 132 128
869.245136299833 455.043620550464 2972.34108261869 133 138 134
870.325720856286 454.500257491947 2963.2464770848 142 147 143
880.680293700523 454.911086757559 2954.01283238137 150 155 151
907.54430614445 457.013999115945 2944.43793152552 157 162 158
949.914741835709 460.697069667339 2934.41707917829 109 111 108
979.942867649312 463.102829685547 2924.48112040609 71 73 70
992.441580054253 463.70841496129 2914.85797047467 84 86 83
990.480940636831 462.836234551017 2905.59351543131 83 85 82
985.41211563971 461.649250905589 2896.44688771433 81 86 82
987.578939012921 461.199871315964 2887.0963266684 91 96 92
991.816570950203 460.960440844922 2877.67272488825 110 115 111
995.020210877714 460.615520512927 2868.27922782624 111 116 112
996.15156034803 460.060780780857 2858.96650803268 115 120 116
999.355973221586 459.71544262566 2849.56996474458 119 124 120
1001.52359297048 459.265254998895 2840.21668926308 118 123 119
1004.72973916876 458.919310705649 2830.81408534679 125 130 126
1010.0150426595 458.781425429017 2821.30144924158 129 134 130
1014.26396031817 458.538495169357 2811.82930593378 124 129 125
1017.47487096223 458.190927865874 2802.40571294337 128 133 129
1029.0147563908 458.673689141377 2792.49140879554 135 140 136
1044.73162377146 459.569029137933 2782.27725343502 151 155 154
1075.05458081084 461.911181819994 2771.07176595043 163 165 164
1297.76356810517 481.901227319023 2727.30391488266 101 103 100
1308.44678723853 482.240170019007 2716.65738292626 129 131 126
1326.45581051777 483.297632900575 2705.41601533943 168 170 165
1359.12480595264 485.790610820523 2692.95207501106 182 185 178
934.3508482153 457.573374062904 3047.03921347898 162 167 163
924.202497769904 455.871922249218 3037.62177080021 139 144 140
911.986617571077 453.96491041085 3028.25866737232 134 139 135
898.726458978908 451.957338556751 3018.96805840643 117 122 118
886.474918543876 450.057747291429 3009.75767052646 120 125 121
876.262721169337 448.369752440405 3000.61664836155 119 125 121
877.351837016234 447.827456964805 2991.48089844148 113 119 115
873.292568630018 446.766858703996 2982.39183228293 119 125 121
875.405761900048 446.329459521361 2973.27173904478 129 134 130
873.39626903772 445.478191011077 2964.20599269557 123 128 124
883.756254855813 445.868405868451 2954.97202793061 126 131 127
909.602921838195 447.805200716075 2945.41962560582 148 153 149
949.931262370889 451.179831256025 2935.45185855112 125 127 124
978.940953579471 453.412365986824 2925.55247890301 94 96 93
991.443706596211 453.992390227277 2915.93966559408 104 106 103
993.615740606984 453.542577765564 2906.56589123608 97 99 96
987.508532705634 452.271777695207 2897.4461341808 88 90 87
989.675245773233 451.822889970551 2888.09552229111 88 90 87
990.805748195572 451.271527285424 2878.78286145052 107 109 106
992.971434102305 450.822590819985 2869.43697615973 118 120 117
995.136916768352 450.373589116134 2860.0920885574 129 131 128
996.264388682227 449.822481534231 2850.79292482918 134 136 133
997.390496888768 449.271454364397 2841.49987333032 124 126 123
1000.59328966955 448.924025304791 2832.11304758971 130 132 129
1008.99586300339 449.084286637859 2822.45883557444 133 135 132
1013.24407063414 448.836864677397 2812.9949675476 125 127 124
1019.57654442198 448.791558800283 2803.40564891649 129 131 128
1025.91405514313 448.744973966137 2793.79599965163 144 146 145
1043.7196697883 449.809267683282 2783.47212377518 151 153 152
1064.67195403929 451.172487620769 2772.87321914386 160 160 160
1289.56978958769 470.825120311836 2729.10919575096 96 97 92
1303.38713936919 471.446173307559 2718.26241449564 125 126 121
1313.03448173826 471.662714037378 2707.67355830712 132 133 127
1341.52554198581 473.680921537915 2695.58252711546 136 137 131
925.256245097148 446.465236817156 3038.60604489648 151 156 152
908.923693916712 444.188796629831 3029.22000580585 132 137 133
889.48603560404 441.612057040785 3019.9214990993 121 126 122
877.219696626816 439.751174141374 3010.73607778137 122 127 123
874.194645834264 438.806224158172 3001.6033270412 116 122 118
875.280860005152 438.267589132431 2992.47780493868 118 124 120
872.245700318543 437.324834526617 2983.38970849216 122 128 124
874.356936241317 436.888334135401 2974.27750819594 137 142 138
874.405416397853 436.250094343948 2965.19249944786 150 155 151
887.864564431931 436.922069126257 2955.91658406074 161 166 162
915.790820962782 438.999769451983 2946.32876412336 166 171 167
953.044182068455 441.975568911494 2936.42332930586 111 113 110
980.002587832944 443.939309221411 2926.57544057632 83 85 82
992.5104949934 444.493664620126 2916.96802030967 100 102 99
995.7166352125 444.144452936454 2907.56797193728 122 124 121
991.675614101291 443.095181648364 2898.38318712327 128 130 127
991.771302938509 442.446678710804 2889.0949880558 127 129 126
992.901091618654 441.898498681358 2879.78199822618 127 129 126
995.066767577807 441.44994945959 2870.43572316104 127 129 126
995.156564879807 440.802437725137 2861.17434927346 133 135 132
997.320566539416 440.353982335357 2851.8355840314 138 140 137
998.445147917849 439.806183670721 2842.54470805433 136 138 135
1003.72736957757 439.654895454938 2833.06114556615 131 133 130
1013.17428647453 439.898567627783 2823.35340759505 132 134 131
1014.30230438558 439.349540053538 2814.04942387894 127 129 126
1021.67798126382 439.392901953892 2804.4058610132 129 131 128
1026.97543209241 439.237653479252 2794.85748040906 142 142 142
1043.74683457716 440.164538043307 2784.60285212752 151 151 151
1059.49161226154 440.989370342418 2774.34095851861 158 158 158
1106.57080917512 444.757073450685 2761.96996442449 164 164 162
1193.39552469985 452.241134359897 2746.68834280265 167 167 165
1299.13184241362 461.467758566994 2729.66332475392 137 138 133
1314.00564986981 462.157121829785 2718.72488239551 95 96 91
1322.61568407397 462.256879928031 2708.19504196352 101 102 97
1335.42088548609 462.745160094614 2697.3096627494 136 137 131
922.200847946686 436.668019722083 3039.55685735571 148 153 149
899.689189971102 433.845236398644 3030.14458946181 123 128 124
884.345037127698 431.721657715073 3020.88146159135 120 125 121
877.209644148384 430.393288365742 3011.71270700367 114 119 115
872.121784661174 429.264758863917 3002.58813037759 113 119 115
873.204877280595 428.729699445846 2993.47278931462 120 126 122
868.102994940582 427.604094332121 2984.40870777553 121 127 123
870.210492874886 427.168775015042 2975.31218221866 124 129 125
873.349394320878 426.831764023272 2966.20425062549 138 143 139
886.813132980041 427.475553756846 2956.93911797602 152 157 153
915.785086676317 429.586282430689 2947.34821380426 172 177 173
956.158213024104 432.766959453327 2937.39577129396 118 120 117
982.096872534556 434.570144358151 2927.57505232271 56 58 55
996.680054624914 435.29380874831 2917.91878877683 77 79 76
999.887935822534 434.942205733586 2908.51350825283 102 104 101
996.880742232007 434.006244098525 2899.29058232583 128 130 127
993.867017649135 433.071423017189 2890.09493795296 133 135 132
997.070827389069 432.720410219654 2880.70865479083 140 142 139
997.161764582298 432.078179835892 2871.43502125108 137 139 136
997.250317089591 431.436333074665 2862.1729451972 132 134 131
993.179827657843 430.407883466031 2853.09880089639 134 136 133
994.300087581844 429.863924762744 2843.82326652037 132 134 131
1000.62083072274 429.80238651403 2834.30667964856 129 131 128
1016.31420659188 430.606803983883 2824.30151083428 133 135 132
1020.56651633094 430.349319538368 2814.83028907441 128 130 127
1026.90550698327 430.283297805757 2805.23460136043 126 128 125
1030.12124819167 429.92817115507 2795.7986715859 138 138 138
1047.94442291451 430.914391127288 2785.48263297773 149 149 149
1061.61031517591 431.513722161802 2775.349129159 159 159 159
1088.86834900167 433.35259692217 2764.27756789208 165 165 163
1299.29028217429 451.216171712461 2730.87870090584 148 149 144
1319.40159130788 452.350709331766 2719.57039161813 82 83 78
1320.68813297213 451.769149809322 2709.58193842332 109 110 105
1325.11602593693 451.472212071829 2699.35643068487 145 146 140
1354.70313218341 453.450357818292 2687.11656279965 171 172 164
925.304087725692 427.477661577693 3040.55673576867 157 162 158
899.694633946832 424.429144912228 3031.11726488842 116 121 117
888.453977569558 422.7363699997 3021.86804696351 98 103 99
880.285163860434 421.335660196687 3012.69070174143 108 113 109
875.19345415707 420.225805592147 3003.56151606614 109 115 111
869.062682549476 419.021883513236 2994.47494725369 113 119 115
867.046392926536 418.203494160351 2985.40317911833 120 126 122
865.024965630488 417.386126686433 2976.35363075585 132 137 133
870.224933348843 417.23901565944 2967.23949205468 138 143 139
879.560166903172 417.472995933845 2958.05061203202 144 149 145
910.608829037425 419.707666684184 2948.45530850368 146 151 147
953.067658536193 422.982635391773 2938.4908643488 152 154 151
982.121179678932 425.011612604492 2928.62080361146 62 64 61
997.745694470567 425.799461739636 2918.94744866091 64 66 63
999.917510394742 425.350907488865 2909.57325278811 67 69 66
997.942638657057 424.523503271046 2900.32323037414 101 103 100
991.813584550641 423.318629462026 2891.22877683476 113 115 112
996.053251906635 423.060350573298 2881.81709114222 133 135 132
996.141144198246 422.42415424518 2872.55052826115 135 137 134
997.26564397187 421.882585164977 2863.25416745091 138 140 137
993.19030106991 420.870634424258 2854.1835638514 137 139 136
994.30897255603 420.329909329386 2844.91276378246 129 131 128
1002.71245821755 420.446156237536 2835.30384682864 124 126 123
1020.49627057768 421.404165742195 2825.19853127522 128 130 127
1020.58287512821 420.76717623938 2815.93985861812 127 129 126
1026.92288345216 420.691359006004 2806.35054621881 129 131 128
1029.09451242088 420.240838172228 2796.97940988312 132 134 133
1047.96878608244 421.281582748924 2786.61271194579 140 142 141
1059.55049116818 421.666407860097 2776.6170757602 153 155 154
1074.27875919855 422.327547127967 2766.37229772603 161 163 160
1320.61311328437 442.158825135076 2720.71912885071 85 87 82
1326.08866013137 441.950175456536 2710.42070201633 112 114 109
1326.32694503393 441.278672955185 2700.50976909168 128 131 124
1336.00185242001 441.437103725594 2689.86081784312 184 187 180
906.898027269099 415.681411026331 3032.13297907797 121 126 122
895.652665010631 414.022649840055 3022.86695485779 93 98 94
882.331435627241 412.180133158156 3013.66869621309 112 117 113
873.113474447349 410.715282574947 3004.54393699187 115 121 117
866.975421612942 409.53342741015 2995.46569607562 117 123 119
867.017620286662 408.912853711059 2986.38941184294 115 121 117
866.024814248311 408.199743249806 2977.33442940074 115 120 116
869.160094245877 407.859372811588 2968.24788533322 126 131 127
876.430288366371 407.890081531022 2959.09830486521 137 142 138
907.492544475728 410.052113701201 2949.52391409692 153 158 154
954.11022203702 413.595988774772 2939.50349488088 145 147 144
983.17835765183 415.557112491377 2929.64318778585 82 84 81
995.701819598124 416.034220988214 2920.05179662102 76 78 75
995.797842173056 415.402174260418 2910.74359315227 67 69 66
993.81689108464 414.586505806415 2901.50803786456 85 87 84
984.566149596099 413.127965278627 2892.52642721451 97 99 96
987.762858185572 412.774120593363 2883.17448139454 122 124 121
989.921608482905 412.328279841802 2873.8566637563 128 130 127
995.199154730189 412.15703633886 2864.41678371537 135 137 134
994.238598198767 411.436133313547 2855.22387451101 134 136 133
997.437607170531 411.081231750779 2845.86265310944 127 129 126
1006.88655414629 411.273162231977 2836.20380692413 124 126 123
1021.5543986433 411.918569632957 2826.25152653197 128 130 127
1019.55370664473 411.105435103572 2817.10291245804 126 128 125
1022.76435106011 410.747282513549 2807.6924215813 128 130 127
1023.88848646422 410.207223902019 2798.39602121666 129 131 130
1040.6787296345 411.025942788613 2788.17606791421 136 138 137
1055.39588644236 411.659935994337 2778.01232230034 152 154 153
1071.17323244252 412.380917505224 2767.71896108819 161 163 160
1117.30962705946 415.714283741662 2755.33273053558 159 161 158
1317.63278409811 431.61319984269 2722.16810831878 93 95 90
1326.25158864878 431.666992266102 2711.65001423302 135 137 132
1323.34116389696 430.73221352059 2701.98448276799 138 140 135
1330.91862658896 430.694067726841 2691.51584138336 112 114 109
1372.10119811675 433.516378696577 2678.28322875866 147 149 144
916.16563092161 407.090870098472 3033.16492817634 114 119 115
901.827051818385 405.192664284107 3023.86513518981 103 108 104
882.31629848724 402.843720350868 3014.64432989706 113 118 114
871.028449587837 401.226856406737 3005.52448181693 112 118 114
866.94649024124 400.248295171967 2996.44646298684 112 118 114
868.018674763337 399.724330120468 2987.36827220912 118 124 120
868.056264616966 399.110135027885 2978.30578476023 131 136 132
867.057672577183 398.406137855856 2969.26688121781 136 141 137
874.328534237563 398.424648642949 2960.12910954705 141 146 142
903.335129089585 400.333761690731 2950.60713621927 148 153 149
951.009676092782 403.855589101297 2940.59468870015 151 153 150
979.054026740535 405.659573299208 2930.77722551239 137 139 136
990.543183787725 406.021822857114 2921.22902929966 142 144 141
990.633620850908 405.396452424415 2911.93873049471 103 105 102
989.683781944583 404.681934355116 2902.68990153536 73 75 72
983.53813772062 403.521471836707 2893.6221566853 72 74 71
983.616468832089 402.898135911487 2884.38463397693 103 105 102
987.850865742994 402.631584391613 2875.00621314544 115 117 114
996.248157045269 402.720211307905 2865.45535545021 127 129 126
1001.53030143376 402.540693794394 2856.0038564418 123 125 122
1003.69149796683 402.094231595241 2846.67561068531 117 119 116
1008.97883691074 401.91326711506 2837.20211071769 126 128 125
1016.35503134843 401.908296732421 2827.61163115461 131 133 130
1014.34769324786 401.106967821826 2818.47998349355 126 128 125
1018.59845659549 400.835577138226 2809.03141708964 125 127 124
1017.62932413602 400.123026871925 2799.8681305919 135 137 136
1029.19759525048 400.466526429504 2789.98116240992 136 138 137
1046.00515931585 401.246527083519 2779.7259233383 146 148 147
1065.96861773512 402.285883285949 2769.19700897797 153 155 152
1116.31326859244 405.860406630714 2756.56239462413 159 161 158
1318.83910166477 421.443722619186 2723.31534542946 121 123 118
1329.55818038797 421.65655824346 2712.64623609891 107 109 104
1329.79375564252 420.996374927692 2702.73605397347 96 98 93
1330.02674062896 420.336161433722 2692.83654493979 136 138 133
1356.52149466059 421.846473689468 2680.81554152952 153 155 150
921.321682792069 398.110245355792 3034.1738617008 117 122 118
902.853548940972 395.900347075117 3024.84487347689 107 112 108
883.329751852217 393.607166500987 3015.62075217893 115 120 116
868.938426008341 391.760434347282 3006.50304354607 110 116 112
867.947323828145 391.062928166646 2997.42278200576 108 114 110
865.919475754272 390.278191994076 2988.36578020607 112 118 114
868.020529921749 389.845832528064 2979.29523787442 121 126 122
867.018875255805 389.150348651515 2970.26070049668 126 131 127
874.291125171806 389.15634617141 2961.12952952622 132 137 133
902.276412017474 390.910304337315 2951.63690463639 154 159 155
951.011056327961 394.404528055625 2941.62513112685 155 157 154
976.995606495286 395.968964239573 2931.86389110448 113 115 112
987.450177869491 396.221399125166 2922.35335814913 145 147 144
985.460970882304 395.42831485867 2913.12998277581 139 141 138
988.658539421426 395.070292676151 2903.77881852622 98 100 97
985.62331535504 394.191773442734 2894.6188546261 80 82 79
986.739957816724 393.660630837899 2885.34537632895 85 87 84
987.8554434694 393.129711353788 2876.07805105757 102 104 101
994.173500139062 393.030511527466 2866.61484893107 133 135 132
1001.53787112124 393.016429415253 2857.08838196456 132 134 131
1006.82397999431 392.828777493678 2847.62798922901 125 127 124
1008.98564890426 392.382266231414 2838.29765007276 129 131 128
1014.27698578544 392.193132469402 2828.81514340114 133 135 132
1012.26460128002 391.403068453289 2819.69265152238 134 136 133
1016.51439459989 391.127239115019 2810.2546255173 133 135 132
1016.58599003455 390.508907620216 2801.042116906 137 139 138
1029.20332139425 390.914728660649 2791.10386105205 141 143 142
1044.97165734079 391.573363995796 2780.9215183468 145 147 144
1064.94329607658 392.568699759992 2770.40484874533 152 154 151
1104.83818830541 395.173414398311 2758.48326848812 157 159 156
1316.89783565104 411.026178154538 2724.68577688656 88 90 87
1330.76717397128 411.4725195696 2713.79765979724 89 91 88
1328.90110175686 410.648979217361 2704.04844298978 127 129 126
1325.97944750341 409.741757865587 2694.40302953846 146 148 143
1333.56357079489 409.677226286897 2683.93373476454 140 142 137
930.602701692821 389.458798540097 3035.21321412737 124 129 125
904.909508994854 386.70024734375 3025.82887437947 114 119 115
886.404866828509 384.548449075386 3016.6006692722 115 120 116
872.004662909302 382.744048335623 3007.47578690704 112 118 114
872.045403340329 382.140128880923 2998.38856843557 112 118 114
866.915527702403 381.110109874307 2989.34328807493 113 119 115
867.98183861579 380.59307711533 2980.28402473441 119 124 120
865.942456437304 379.821140938695 2971.26510443674 129 134 130
873.215753716755 379.81469605912 2962.14314718748 150 155 151
897.070167612853 381.164317101557 2952.73139714028 153 158 154
942.717259762898 384.287370537937 2942.80806715253 169 171 168
971.820403379886 386.046692027818 2933.01408984381 70 72 69
983.313285960095 386.363812309392 2923.49964575967 108 110 107
984.433197563385 385.835273186797 2914.20951586458 140 142 139
986.590532395779 385.39122948086 2904.89611744578 133 135 132
986.668438187146 384.778933739986 2895.64812698134 106 108 105
987.78409890346 384.250891081593 2886.37677371859 81 83 80
988.898343498991 383.723105404936 2877.11157272421 94 96 93
992.093850496512 383.362732026349 2867.77242627227 129 131 128
1001.54255658205 383.503503650032 2858.17214620111 128 130 127
1007.87176639975 383.391945305664 2848.67209933648 133 135 132
1006.90309701983 382.695960272101 2839.48809767737 127 129 126
1008.0184115961 382.167003738744 2830.21934538876 132 134 131
1012.26579715887 381.887166745598 2820.79677269721 133 135 132
1020.69565071432 381.938526482979 2811.14081890402 133 135 132
1023.90427711598 381.573942556429 2801.74673136565 133 138 134
1034.4379615299 381.787687470295 2791.91983113698 138 143 139
1044.98153742707 381.999193923748 2782.05159816229 142 147 143
1061.81941258864 382.703124774649 2771.74394961504 148 153 149
1086.01095670457 383.979301146189 2760.88019081327 152 157 153
1304.45835465 399.809713937697 2726.79652276605 120 125 121
1326.72515560876 400.884654946886 2715.33280747095 108 113 109
1329.05511741128 400.399938996143 2705.27993837557 122 127 123
1325.07830480975 399.424671193768 2695.71997992441 119 124 120
1333.71527157511 399.429136121048 2685.17469164668 130 135 131
1362.35418183924 400.978859697254 2672.93861718512 157 162 158
1026.35958585591 388.389818521606 3046.40136640983 153 158 154
938.860677024079 380.688224031383 3036.24933690359 126 131 127
906.965187515799 377.501117260417 3026.81306650454 116 121 117
887.416483349093 375.319285850527 3017.57714366221 112 117 113
875.071772232117 373.723372064041 3008.44938178546 110 116 112
873.044816591717 372.959287097758 2999.36512191847 109 115 111
867.910349546358 371.948235330583 2990.32055956407 111 117 113
865.871265029533 371.186629981918 2981.28868003769 118 123 119
864.862272231171 370.508494916476 2972.26802956919 127 132 128
871.100747842238 370.407382665115 2963.16893504018 150 155 151
890.818705092507 371.373813671588 2953.83855799793 145 150 146
935.448508316022 374.305732024277 2943.9667156134 148 150 147
966.63697101794 376.162065935809 2934.16056925831 66 68 65
980.207629052728 376.620408851967 2924.61860233587 81 83 80
979.245799010164 375.932158276851 2915.39480457777 92 94 91
980.359145965345 375.407710020924 2906.12879501219 136 138 135
981.471302153915 374.883464863286 2896.86911541471 143 145 142
984.663461916206 374.521958669586 2887.54646579605 102 104 101
983.69143004451 373.835346368479 2878.36837086382 82 84 81
985.84133222476 373.392500109535 2869.08743326292 127 129 126
991.118670650496 373.192372712805 2859.67980369144 135 137 134
1003.70245488353 373.557118814543 2849.94141514924 132 134 131
1005.85979511918 373.112193799127 2840.62898219389 127 129 126
1010.10579491329 372.828155733041 2831.21628962846 134 136 133
1011.2191773131 372.302100217301 2821.95306655072 135 137 134
1020.69635417467 372.418611938194 2812.25054551352 132 134 131
1025.99693621723 372.212369311972 2802.74520862615 131 136 132
1040.72264589778 372.72566637255 2792.67700652835 134 139 135
1050.22598354948 372.83597024849 2782.86361401188 138 143 139
1063.9297126599 373.263459963669 2772.74991624079 141 146 142
1079.74425153524 373.847282469322 2762.44147104743 141 146 142
1322.67588101042 390.328918094371 2716.86486728164 91 95 94
1326.05351684556 389.924399669194 2706.74807612547 103 107 106
1326.27707297108 389.281885585168 2696.87156942672 145 149 148
1329.65517644014 388.876388250389 2686.75260885857 147 151 150
1357.25237807255 390.282547418507 2674.62565075594 150 154 153
1083.13012949783 383.158609182834 3047.96542034799 150 155 151
913.14945423804 368.625361637425 3027.81772678449 118 123 119
886.360759909168 365.935626936087 3018.54858763023 112 117 113
871.939126231556 364.216725869809 3009.42512641335 111 117 113
869.906689929596 363.464107250001 3000.35291330551 108 114 110
865.799624245056 362.552465561958 2991.31391025263 109 115 111
863.755699716783 361.80221292023 2982.29129127039 115 120 116
863.778263735391 361.212616087758 2973.26951294222 122 127 123
865.871223771059 360.782974987062 2964.23273148395 135 140 136
881.44644692762 361.387672439402 2954.98931773824 142 147 143
921.94245988739 363.895822908246 2945.23230488168 139 141 138
963.521757736548 366.473905056621 2935.26093316284 66 68 65
976.056665894141 366.825110116717 2925.7589175954 78 80 77
977.168593694526 366.303940685181 2916.49682159075 73 75 72
977.238751389793 365.70407839832 2907.27010445564 109 111 108
980.428613497504 365.340988123953 2897.95968479278 134 136 133
983.619792500983 364.977548478387 2888.6448101043 131 133 130
982.643871435157 364.299498292544 2879.4736438314 105 107 104
983.749161826066 363.778915281619 2870.23993589695 125 127 124
990.069414765843 363.650128417435 2860.80112387936 131 133 130
1004.74443495732 364.145549079029 2850.98355509317 128 130 127
1008.9900809343 363.857239140271 2841.57841285197 137 139 136
1012.19290217626 363.490138649737 2832.21355601235 143 145 142
1015.39678698586 363.122638819581 2822.84431034596 142 144 141
1021.7408007112 362.987737037119 2813.30429627078 135 137 134
1027.04259639403 362.773911040908 2803.80195832451 132 137 133
1037.58503315137 362.946342375108 2793.98166028831 133 138 134
1044.99299557622 362.884485591338 2784.30945259793 137 142 138
1063.94239896807 363.670110869091 2773.88763553656 142 147 143
1074.51717129709 363.834973976483 2763.92990942368 140 145 141
1122.89694846912 366.767119072276 2751.37229040013 141 146 142
1313.36398467713 379.422075627378 2718.77537353119 94 98 97
1317.78725507353 379.092982576988 2708.60815521548 98 102 101
1323.26493291333 378.839476643265 2698.3492841176 111 115 114
1332.95848556445 378.889886334493 2687.73801854089 109 113 112
1350.0349979877 379.471272935877 2676.48263691185 147 151 150
930.699406887304 360.58701751538 3028.88347888716 123 128 124
887.367984836207 356.724295250508 3019.52386272809 115 120 116
870.868293122306 354.892613411003 3010.39840095276 111 117 113
865.727600989226 353.918577931284 3001.34056912783 105 111 107
863.683933676446 353.178665028324 2992.3051648684 107 113 109
863.706695985242 352.594470246809 2983.27641613789 115 120 116
864.763477934935 352.087925473029 2974.24871154932 119 124 120
865.818483589114 351.581721267091 2965.22756136774 137 142 138
879.324810122145 351.998954740923 2956.02437521345 147 152 148
919.840118009136 354.410551807246 2946.2880685391 156 158 155
964.556007417564 357.119701720008 2936.27493161493 145 147 144
978.135619833572 357.521563733538 2926.75454436441 114 116 113
979.246872823155 357.003403358281 2917.49213731559 85 87 84
978.275167497058 356.332785523287 2908.2934472554 95 97 94
979.382200404552 355.815119060623 2899.04853744628 93 95 92
983.613936486596 355.525858102979 2889.70773005178 129 131 128
982.634986752212 354.856341235051 2880.54075300124 125 127 124
984.781846532177 354.414660322045 2871.27234405844 120 122 119
990.059845277931 354.200081278472 2861.87908788405 131 133 130
1004.74090008602 354.66462920677 2852.06989553683 135 137 134
1008.98631571175 354.371423582584 2842.67015853541 144 146 143
1013.23426161826 354.077601263255 2833.26074796304 136 138 135
1013.29947624522 353.482293465223 2824.05139704011 140 142 139
1017.54968259278 353.187478075388 2814.6328208722 139 141 138
1021.80196649309 352.891934172499 2805.20447159567 130 132 129
1033.39310036352 353.119199233733 2795.34409121517 127 132 128
1047.09223206308 353.493354463354 2785.31121840093 132 134 131
1070.24821595086 354.535495564951 2774.63138577772 144 146 143
1082.92978070964 354.827821741046 2764.52847363593 139 144 140
1121.88487235186 356.974985141864 2752.60408260389 135 139 138
1313.50393256467 369.240108366957 2719.99550552282 86 90 89
1314.7703466981 368.684408590831 2710.06954841745 97 102 98
1322.3529570387 368.571418733004 2699.66157172599 133 135 134
1327.83441904711 368.309268042668 2689.39520034543 153 158 154
1344.91520589801 368.854943995465 2678.16163582099 169 174 170
1383.10718501235 370.865043954418 2665.07191702115 157 163 161
895.612087678927 348.045696555341 3020.51975873551 115 119 118
872.897569595172 345.810470070755 3011.37125801632 113 119 115
864.646872997533 344.630530023609 3002.31833471116 107 113 109
861.56293864627 343.82699520469 2993.29454262608 109 115 111
861.58229468573 343.248882353846 2984.27559653364 109 114 110
861.598740422215 342.67119488459 2975.26826738687 119 124 120
862.650303603378 342.168605250551 2966.2598562727 137 142 138
878.236448663497 342.706427748279 2957.04189184431 157 162 158
921.888261715416 345.244105935508 2947.26981477262 150 152 149
966.628235668764 347.845745893282 2937.26790766365 143 145 142
982.294301298085 348.366900248409 2927.70402219478 157 159 156
983.406159767242 347.851411857955 2918.43585960271 121 123 120
983.475386940942 347.262421785356 2909.20230336577 93 95 92
983.541703811665 346.673857094346 2899.9803640745 92 94 91
986.733115903036 346.305969736315 2890.66828352077 113 115 112
983.666845617194 345.497768962856 2881.57053356656 123 125 122
989.988029687799 345.349363566879 2872.14838325526 123 125 122
996.313943940287 345.199696022711 2862.70613647895 132 134 131
1005.77950307625 345.267775375447 2853.11086405263 134 136 133
1006.88888120115 344.75140324246 2843.85497560462 137 139 136
1009.0430986491 344.307716290779 2834.55535524493 129 131 128
1010.15051632174 343.791170988161 2825.30857807331 133 135 132
1015.4461946913 343.564390777859 2815.84861596924 138 140 137
1022.84130276779 343.481217701214 2806.25881996937 141 143 142
1032.33978796264 343.540887873748 2796.52323630349 137 139 138
1044.9944600185 343.814605530529 2786.56354478487 136 136 134
1068.15956203971 344.804850277977 2775.89939688075 147 147 145
1081.89519002503 345.14351196917 2765.74154231391 148 150 147
1116.664869757 346.912600791414 2754.11658353106 132 134 131
1217.7268562076 353.181553994593 2737.72242993976 139 139 137
1312.58914433693 358.997812689538 2721.29050184011 134 136 133
1318.06462531077 358.73059459778 2711.0581687819 154 156 151
1320.38337206256 358.248569493203 2701.0532863772 148 148 146
1324.81042935528 357.908190728025 2690.88152215299 134 136 131
1336.62295217385 358.063192848266 2680.095374691 96 98 93
1363.2206771281 359.206582744665 2668.01821833737 119 124 120
905.932301937268 339.481623441878 3021.52569121181 118 122 121
881.137888664288 337.164059230424 3012.34820483274 111 117 113
870.813188448223 335.865223699011 3003.28056717596 107 113 109
862.546570593538 334.713874698192 2994.26794025983 108 114 110
860.489852743914 333.997409775622 2985.26555304799 106 111 107
857.390259510267 333.209866501787 2976.29501792843 111 116 112
859.475744578844 332.782697341768 2967.28945801794 138 143 139
876.105438330182 333.359050469302 2958.07314231447 159 164 160
923.936170318566 336.078536971572 2948.25164523336 172 174 171
966.61987207958 338.429867738492 2938.30200235973 54 56 53
980.211065551688 338.774830947192 2928.7928594615 97 99 96
983.402552523999 338.405217626149 2919.48351937503 151 153 150
982.427282021406 337.750897342961 2910.2827366115 120 122 119
982.490639856636 337.168155264162 2901.06771496307 103 105 102
982.551367176211 336.585827698642 2891.86419205924 111 113 110
980.522172615573 335.862528945965 2882.74429736833 109 111 108
986.842633152906 335.704491628741 2873.33625814852 104 106 103
994.212923795353 335.61578042069 2863.86670303828 125 127 124
1001.58891916848 335.525596594216 2854.37171320178 134 136 133
1001.64805565317 334.942570133086 2845.17735317553 123 125 122
1003.79800080422 334.499989444348 2835.89592179584 122 124 121
1009.09000185735 334.267033447843 2826.45962297302 111 113 110
1016.48150649297 334.172497609719 2816.89898115271 114 116 113
1027.02504243582 334.285659559024 2807.14140744748 129 129 129
1034.43034966703 334.18775279125 2797.52177397067 135 135 135
1041.84198810891 334.088281920901 2787.87624341175 136 136 134
1057.6629323227 334.541590783366 2777.68528024293 151 151 149
1078.75468566904 335.337270536173 2767.08844417435 154 154 152
1121.95286247614 337.578171389416 2754.92286387385 138 138 136
1313.77641910161 348.909706275605 2722.43294173766 130 130 128
1323.46687600253 348.909535298445 2711.89143538906 86 87 82
1323.67956335825 348.290149311385 2702.03952388488 65 66 61
1324.94426855427 347.739175858637 2692.11488798236 78 79 74
1331.48462874138 347.529497222602 2681.76583184864 142 144 139
1348.58865186958 347.999868670845 2670.5100344453 154 159 153
912.120566016386 330.59690105701 3022.52224329496 120 124 123
884.205773434482 328.138096425933 3013.32421148448 113 119 115
872.838228822273 326.801340968767 3004.25217785184 108 114 110
866.63980395413 325.815713769439 2995.22809042265 108 114 110
862.506563819688 324.970896901938 2986.23306766284 104 109 105
860.442348478851 324.266205140116 2977.25155570744 105 110 106
858.373048888203 323.562468479996 2968.29209555501 109 114 110
876.048246388696 324.171704276726 2959.07259683693 136 141 137
916.623100379762 326.293605169965 2949.39089290449 165 167 164
965.568270142837 328.956738823305 2939.35520862726 69 71 68
980.205542185243 329.342095625162 2929.83411498019 52 54 51
980.270408089773 328.764687066316 2920.60624263539 75 77 74
980.332737348114 328.187617332686 2911.3895271138 170 172 169
980.392661949897 327.61096312509 2902.1844240711 149 151 148
982.537308803931 327.171034918603 2892.92411125594 97 99 96
980.504554017295 326.458696905186 2883.80809657557 95 97 94
981.601330864475 325.951046030644 2874.59858325643 114 116 113
990.015818444299 325.918054215013 2865.10727690941 110 112 109
998.437423539733 325.883384306501 2855.5854830273 109 111 108
1001.63239731971 325.509101504679 2846.26438728171 113 115 112
1002.7338410256 324.999593115878 2837.03687647789 120 122 119
1010.12164936073 324.893879996741 2827.50560282764 121 123 120
1018.56421198397 324.853822777693 2817.89453959515 119 121 118
1028.06312311377 324.879019460062 2808.19574522812 124 124 124
1034.42133391338 324.701384525644 2798.63916373703 125 125 125
1039.73380537587 324.455612517334 2789.12415633023 127 127 125
1049.25391721541 324.47542332058 2779.3349849383 142 142 140
1072.45356110942 325.358274559946 2768.63437287938 149 149 147
1128.29630545892 328.295056870382 2755.66115728297 139 139 137
1307.58831699299 338.364096744844 2724.10132770911 116 116 114
1323.60243686081 338.743052285255 2713.11526851076 108 109 104
1323.81254550952 338.129299339479 2703.26761560792 132 133 128
1329.29678124148 337.84453035108 2693.01517940665 152 153 148
1332.67292406078 337.42708829756 2682.91855485176 149 151 146
1349.78492968691 337.860987170249 2671.66856503234 122 127 121
1384.88422796781 339.402775962862 2658.7997419741 147 154 147
1131.32066548233 336.746393395089 3043.79549143737 115 120 116
922.456325013112 321.961418279212 3023.53655102896 124 128 127
888.31109638515 319.175168606589 3014.30213182387 115 121 117
880.048099882214 318.073848653099 3005.21683260866 110 116 112
870.734858812741 316.908079548955 2996.18945573967 110 116 112
867.637656181993 316.145858858027 2987.18074286691 112 117 113
863.495117462867 315.318217632002 2978.20871829275 111 116 112
862.46336370493 314.691743402504 2969.23355731759 112 117 113
870.788249547519 314.663804986821 2960.14411049057 134 139 135
907.21795514704 316.42439421115 2950.55987689242 146 148 145
962.430252158606 319.367944104701 2940.44652796808 89 91 88
981.238908265058 319.986881028347 2930.85212619674 75 77 74
982.344681173465 319.48098447961 2921.60086739988 68 70 67
978.233446273122 318.64628160719 2912.49439625224 62 64 61
979.333418363062 318.141277999453 2903.26851826354 152 154 151
980.431986804425 317.636418610783 2894.04886249026 145 147 144
980.48411211406 317.066217560231 2884.87084158661 107 109 106
980.533659826414 316.496309349491 2875.70421542312 105 107 104
987.903778190687 316.382992762395 2866.26308490175 111 113 110
996.326488315356 316.333337407577 2856.75309924878 109 111 108
1001.61438138646 316.087039523539 2847.35047271098 111 113 110
1000.6180288315 315.451005726675 2838.22503509023 114 116 113
1008.00641114335 315.332789478777 2828.70519649185 131 133 130
1015.4010038323 315.213090756901 2819.15991870043 130 132 129
1027.00065132655 315.349588133447 2809.36278168125 124 126 125
1033.35919302416 315.161983193551 2799.81475304829 125 127 126
1040.77346679132 315.037237621539 2790.18448698059 123 125 122
1052.4003959074 315.167064425169 2780.2707582605 132 134 131
1078.76907524044 316.189182711479 2769.37160536027 142 144 141
1126.22190508717 318.481231286388 2756.95892352232 135 137 134
1306.66060051342 328.179106691263 2725.39075012692 125 127 124
1329.00847485506 328.90487639278 2713.9505376124 114 116 111
1329.21931804665 328.296077310113 2704.09397874647 94 96 91
1334.70723413017 328.003126496835 2693.83399440956 77 79 74
1333.8601620181 327.330573854099 2684.07060751254 78 80 75
1341.46598363384 327.161592612208 2673.61881582474 86 91 85
1372.34718519095 328.372108824049 2661.1466516973 146 151 145
1135.37899346162 327.731616576375 3054.62575029971 151 156 150
1119.00348528047 326.101736550438 3044.70876479002 115 120 116
923.473934217124 312.703018514103 3024.51861237929 130 134 133
889.307267878463 310.009067921156 3015.27687007482 117 123 119
878.962650083691 308.805598556493 3006.19383410442 110 116 112
873.794111058777 307.926590122993 2997.15590774063 109 115 111
869.655542622495 307.113476277645 2988.14950542908 112 117 113
865.509409743063 306.301918959155 2979.17575998109 109 114 110
863.435916821303 305.619623918421 2970.2112854607 100 105 101
870.722864997095 305.512533365258 2961.14030233527 140 145 141
898.840841287363 306.677557657577 2951.70575719147 157 159 156
955.11900134636 309.552078161193 2941.61339441357 120 122 119
982.271124628105 310.637801289778 2931.869617096 95 97 94
983.375629010331 310.134989592826 2922.62066250926 90 92 89
978.216696632099 309.253204605215 2913.54216125505 67 69 66
976.181696800713 308.562213259 2904.41123531646 78 80 77
980.411326257498 308.249543187435 2895.106306667 93 95 92
983.597610222752 307.873434354766 2885.82678619586 126 128 125
983.646799115306 307.308991690769 2876.6567943578 191 193 190
988.926957276111 307.057466966811 2867.29522027076 190 192 189
993.16313578384 306.742588188053 2857.96184356785 179 181 178
999.497599139064 306.551541825809 2848.52719667248 171 173 170
1000.59427872876 306.048418753474 2839.31418144931 158 160 157
1006.9352903237 305.855489672318 2829.85186613273 139 141 138
1014.33102424557 305.723272862908 2820.31546014111 135 137 134
1023.83333832002 305.713065145309 2810.64096047221 118 120 119
1030.19127681301 305.51569175937 2801.1066490071 119 121 120
1037.60574372348 305.378577733325 2791.49054099823 116 118 115
1052.39131047856 305.669769263985 2781.39959775992 121 123 120
1077.71960771468 306.570638948673 2770.57845875779 136 138 135
1124.14263728152 308.688995835083 2758.25457458557 137 139 136
1320.4937398964 318.863276346802 2725.63383559428 105 107 104
1338.63873470356 319.294690612561 2714.47845566722 65 67 62
1342.02024999725 318.872379436894 2704.36286527917 71 73 68
1341.1774859796 318.20701876834 2694.57180456983 86 88 83
1337.16003366981 317.360620627542 2685.05191938474 122 124 119
1338.42380046855 316.816725610665 2675.12474202916 149 154 148
1349.21075142113 316.813775959838 2664.389336156 163 168 162
1126.1696637237 317.299554693482 3055.53639638538 148 153 147
1112.88382401101 315.905532190898 3045.67220626039 124 129 125
930.711907996292 303.823125035498 3025.5266506174 139 143 142
893.414920653575 301.035065383358 3016.25663469104 116 122 118
880.988021299117 299.739497647499 3007.16643185332 109 115 111
871.659907178224 298.632562779788 2998.14060943212 110 116 112
865.436651521434 297.712969308588 2989.1552796014 118 123 119
860.243396650025 296.856678423036 2980.204248264 117 122 118
860.244322712505 296.30864868261 2971.23419070042 113 118 114
865.448877799064 296.066904334281 2962.20549573488 106 111 107
892.535203470695 297.106340278391 2952.81298403394 144 146 143
940.499574152616 299.358135972822 2942.9101902034 129 131 128
969.742241990645 300.504598034331 2933.17122543403 101 103 100
976.055824775327 300.309680777686 2923.83589827957 108 110 107
976.10844204958 299.750372829588 2914.64340275347 110 112 109
973.024153754507 299.010115304882 2905.55127866937 96 98 95
975.16083826774 298.572546383845 2896.32453068195 80 82 79
979.389440922128 298.255046080148 2887.02855624956 79 81 78
985.714056115558 298.057088928468 2877.64760737747 109 111 108
989.948506952612 297.737970152096 2868.32685175249 142 144 141
993.137672945042 297.35836175059 2859.03929640121 188 190 187
996.327716082326 296.978234293509 2849.74719246827 188 190 187
999.518943115894 296.59757097201 2840.45030578494 180 182 179
1005.86048500875 296.394733734863 2830.996709063 130 132 129
1014.30764099038 296.309163520619 2821.4158818807 116 118 115
1021.71118622831 296.162574068571 2811.86009344768 108 110 109
1029.12050310226 296.014442250568 2802.27864433466 111 113 112
1034.4317599258 295.74676984327 2792.79376379436 107 109 106
1043.95760983894 295.713334444058 2783.03830920927 117 119 116
1070.34618701315 296.616323461936 2772.182481367 133 135 132
1116.78846429952 298.625650656901 2759.89353361628 136 138 135
1326.95332223394 309.082170957351 2726.40332076942 106 108 105
1349.33273997658 309.706488466198 2714.93360776354 61 63 58
1348.49423113497 309.048441445294 2705.1149772463 76 78 73
1340.25309039158 307.985047176296 2695.88766660317 82 84 79
1335.17291432171 307.097022689062 2686.45796662099 107 109 104
1329.02616302279 306.152543261316 2677.15262755184 103 108 102
1336.6346894415 305.957442664229 2666.71787535905 91 96 90
1374.97367602568 307.425401066458 2653.56854828677 102 107 101
1122.12558882428 307.225417594466 3056.50379027692 157 162 156
1112.97277564925 306.110441631512 3046.69082031346 133 138 134
944.18058185629 295.274413941776 3026.56567690845 130 134 133
896.486325104847 291.992264975851 3017.23554765219 117 123 119
881.974095272977 290.615336945543 3008.13998250278 109 115 111
872.639140232156 289.537628734085 2999.11358441515 108 114 110
864.330469171803 288.521566632138 2990.14025083774 112 117 113
859.131229573724 287.684361660783 2981.19499928784 118 123 119
860.170525744222 287.200811813438 2972.2209935473 106 111 107
867.459027849908 287.068790583374 2963.17094911413 120 125 121
886.220189446182 287.578054889876 2953.91577028196 118 120 117
928.99024178825 289.423985736694 2944.14113084185 148 150 147
961.371180644262 290.67848249059 2934.37863689776 90 92 89
969.76957420628 290.59067349289 2925.02211124745 79 81 78
970.860969386074 290.095704822613 2915.82282856975 77 79 76
967.769423044154 289.369753055838 2906.74764562427 81 83 80
974.086093173031 289.163869226844 2897.41059582449 87 89 86
978.314298029644 288.841721687868 2888.12279342604 84 86 83
986.73365296025 288.748528768556 2878.67583500038 75 77 74
992.016737742599 288.481782300978 2869.31804942811 73 75 72
996.25490129412 288.156945669576 2859.98797266312 67 69 66
999.446177055743 287.774236337315 2850.69316278247 78 80 77
1002.63884909069 287.390995123657 2841.39374186956 104 106 103
1006.88269783174 287.064030089688 2832.03905594761 164 166 163
1015.33279139234 286.962960680553 2822.46227912352 179 181 178
1021.68700586614 286.746990115687 2812.9657972135 152 154 153
1030.15044161272 286.642431181144 2803.33225604519 113 115 114
1036.51554453836 286.423511679294 2793.78956284932 112 114 111
1046.04565599965 286.371645040944 2784.0354305806 102 104 101
1067.17803212452 286.934215524015 2773.51684034114 118 120 117
1111.5327715654 288.72206971325 2761.38996888477 135 137 134
1334.47328442251 299.336493163873 2727.10138722072 108 110 107
1349.47237161452 299.521396212792 2716.15983083716 62 64 59
1348.63099235455 298.871462593204 2706.34514149442 47 49 44
1340.38288243916 297.83468711387 2697.11962597246 56 58 53
1337.41376836825 297.075660390568 2687.52359660716 114 116 111
1332.3211955164 296.207254354697 2678.12824218241 163 168 162
1336.7553541783 295.834066841635 2667.96103519437 201 206 200
1359.21249872153 296.391207623749 2656.21211905673 203 208 202
1133.6189600179 298.041379795816 3057.66046676083 150 155 149
1126.53882739651 297.068478135938 3047.84104825181 117 122 118
902.675128914491 283.115230503268 3018.22215063128 117 123 119
880.880379745681 281.384438465244 3009.11376144331 105 111 107
872.577037672841 280.392560751318 3000.08902190032 108 114 110
865.301737500059 279.459576535145 2991.11244351564 108 113 109
862.17994060428 278.75344035873 2982.15144698632 115 120 116
864.260922312215 278.328693539063 2973.16364855942 117 122 118
867.384301478705 277.959783287273 2964.16329399834 111 116 112
878.852312539672 278.036999112225 2955.03033326644 116 118 115
913.290971800351 279.336473260689 2945.43965233313 160 162 159
951.943707652243 280.850334741904 2935.60190298647 114 116 113
965.563216934217 281.025353239425 2926.15602446203 94 96 93
970.832288207669 280.755203245519 2916.86580008499 95 97 94
969.828561258855 280.153138496143 2907.73574357955 99 101 98
971.96104139038 279.71671588292 2898.5268306875 107 109 106
977.235163890429 279.444957973434 2889.21543806063 107 109 106
984.608433896507 279.281719614462 2879.81491151274 102 104 101
991.987888830345 279.117169410646 2870.38886984312 100 102 99
994.127830446906 278.678277827014 2861.14879338713 78 80 77
996.267648705265 278.239193390973 2851.90949464749 70 72 69
999.45767336341 277.854119335283 2842.6230316379 73 75 72
1002.6488544488 277.468460459507 2833.33196581105 97 99 96
1008.99598003792 277.244476134855 2823.8778709268 134 136 133
1019.55622095289 277.23465086224 2814.18133620527 178 182 181
1034.33717844088 277.437851595763 2804.21134595772 138 142 141
1047.02600934573 277.530220112266 2794.30001214345 120 125 121
1055.51102714599 277.405508531785 2784.58980591617 104 109 105
1075.6038910367 277.866496458173 2774.12318086954 109 114 110
1109.4342327205 279.015765965307 2762.67673724427 141 146 142
1351.72327874711 289.453263065146 2717.23227738493 49 54 48
1344.53467450745 288.494522746574 2707.89031282839 66 71 65
1337.33530451832 287.537384153506 2698.59551489028 107 112 106
1336.47802006573 286.89722549583 2688.84218634876 142 147 141
1335.617318089 286.257104664857 2679.10435926896 161 163 158
1334.753185611 285.617079527053 2669.38202766926 188 190 185
1351.91649507078 285.863926743739 2658.10882092046 193 195 190
1147.19625249623 288.920204444326 3058.84855283037 139 144 138
1130.78001793488 287.480271435681 3048.90342215496 136 141 137
909.907326859479 274.272313578464 3019.2137785418 121 127 123
886.022111345592 272.493692125514 3010.08571887502 101 107 103
877.714673293413 271.527965223184 3001.05023199952 105 111 107
872.518308995274 270.725771609695 2992.05257188902 95 100 96
868.35515012135 269.978799327365 2983.08485499548 100 105 101
869.39596966428 269.500363833826 2974.09703301159 125 130 126
868.349603262054 268.915504147849 2965.14158620748 138 143 139
875.648230549268 268.756714658949 2956.07670220567 120 122 119
900.703892174371 269.498228937992 2946.67346754487 158 160 157
943.548054138065 271.133821256758 2936.79804324822 140 142 139
967.622116511313 271.809231314126 2927.14465440273 108 110 107
974.984831889901 271.636766709172 2917.80249807435 106 108 105
977.120497321069 271.200027386566 2908.57945323854 107 109 106
976.114237005286 270.606001781855 2899.45188831167 111 113 110
978.247835642517 270.169277740349 2890.23822672659 114 116 113
984.57530752817 269.941152227086 2880.87817505407 119 121 118
990.907296713739 269.711705686411 2871.49791916386 120 122 119
993.045419767543 269.2733797773 2862.26547862951 120 122 119
994.133033860446 268.782984633975 2853.07825572673 108 110 107
999.423135225574 268.499180226479 2843.70771899549 100 102 99
1004.71680681086 268.214314217473 2834.32213637468 83 85 82
1013.17044262883 268.082705378382 2824.76355543628 80 82 79
1024.78944898386 268.103162632517 2815.00872466161 104 108 107
1038.52589501725 268.223378802052 2805.09140297659 157 161 160
1053.32984583464 268.39136973829 2795.05638569592 173 178 174
1062.87557498314 268.301407638921 2785.27401476889 143 148 144
1079.81579839607 268.56484334027 2774.99569505376 103 108 104
1109.44218722768 269.43231554405 2763.8248583315 138 143 139
1355.24564603285 278.851810852811 2708.32953193902 81 86 80
1349.104944922 277.967331790727 2698.9292719649 108 113 107
1344.01399353891 277.134213347465 2689.48690147641 129 134 128
1343.1546824833 276.501377106135 2679.73456474767 156 158 153
1338.0496157418 275.66993825995 2670.35450845468 190 192 187
1346.73178927558 275.483528326731 2659.8168873183 199 201 196
1385.15299013575 276.678300147964 2646.60165686315 192 194 189
1164.93630257164 279.949959059841 3060.09655569946 60 65 59
1117.37542184195 277.002464934995 3049.78384894722 142 147 143
1077.0270152567 274.428442983188 3039.78166826935 151 156 152
1009.60600040763 270.524821756466 3029.85294047019 115 119 118
