ply
format ascii 1.0
comment KinectMotionCapture
element vertex 753
property float x
property float y
property float z
property uchar red
property uchar green
property uchar blue
end_header
-1248.16783845485 91.4261314175909 2809.44890413429 150 154 157
-1255.23974728251 90.8287435657811 2809.57563201913 148 152 155
-1262.15017010081 89.8660235350559 2812.74677605585 142 146 149
-1269.20092232567 89.2695952860206 2812.87614163256 141 145 148
-1276.07411050374 88.3089810696037 2816.05216705541 151 155 156
-1282.86494228716 87.2284532699965 2820.24623268702 152 156 157
-1289.6901266796 86.270685638675 2823.4280009334 157 161 162
-1296.49266593822 85.3142436918506 2826.6128319362 160 164 165
-1303.47596592016 84.7214555937076 2826.75060556784 164 168 169
-1310.45270623034 84.1289659399201 2826.8891970218 162 166 167
-1317.42296985364 83.5366823644739 2827.02883645404 167 171 172
-1324.53841849843 83.1851613597828 2825.13386888039 146 150 151
-1331.89376406048 83.1933527300141 2820.18495500541 154 158 159
-1339.43182426556 83.4397092949274 2813.19699775849 168 172 173
-1347.25271773561 84.0429209947139 2803.14950326358 167 171 172
-1355.29395143875 84.8818138437481 2791.05851675592 167 171 172
-1363.66110048105 86.0746679467855 2775.90262423304 161 162 166
-1371.82634888368 86.9050904829821 2763.79594346157 160 161 165
-1380.52277646227 88.3262079625775 2746.58298360418 160 161 165
-1388.13619364658 88.3164631306094 2741.60167088205 159 160 164
-1395.9699178465 88.5423443457275 2734.57711070637 162 163 167
-1403.93751238922 88.8845512872568 2726.52737032801 164 165 167
-1411.9416053977 89.2242564043503 2718.4733220141 154 155 157
-1419.54993902742 89.0892622182123 2714.50090089618 141 142 144
-1426.95194074427 88.717517809741 2712.57046671958 140 141 143
-1434.81196099678 88.8162376890136 2706.55064692504 141 142 144
-1445.71606566299 91.9683896505998 2673.94087531574 158 160 159
-1465.45577844414 103.674440385507 2566.63974184973 162 164 161
-1477.00743829261 106.9084963263 2532.94125639258 78 80 77
-1485.87459967764 107.440844340433 2522.76338046435 95 97 94
-1494.66209794267 107.853231646482 2513.60368930172 100 102 99
-1503.88000798124 108.612681791263 2501.36582948462 103 105 102
-1512.89155845797 109.135415840094 2491.17020023814 90 92 89
-1046.86133717058 101.942364437686 2798.26369276635 133 138 134
-1054.53535601164 99.4785372355984 2813.43670389934 162 167 163
-1062.07408045476 97.2683265927969 2826.61031661803 155 160 156
-1069.36579608112 96.0542650109544 2831.75015393064 136 141 137
-1076.56839693954 95.2133183754938 2833.8768280912 137 142 138
-1083.69027473952 94.8674794603267 2831.98104323341 123 127 126
-1090.82987004571 94.397566409012 2831.09130144735 113 117 116
-1097.94753655265 94.1738114928191 2828.18827380072 107 111 110
-1105.09075269319 93.703040690557 2827.29808241479 108 112 111
-1112.22789271567 93.354855873799 2825.40039909971 107 111 110
-1119.36222236855 93.3741112552285 2820.47903756688 109 111 108
-1126.51883929088 94.1267328747943 2809.50636029407 106 108 105
-1133.74040065622 95.3649161127946 2794.49331096797 97 99 96
-1141.04214416424 96.71998116235 2778.46202021346 93 95 92
-1148.40706103975 97.8255165375538 2764.43911738882 95 97 94
-1155.69715570839 97.342760953602 2763.53062799242 83 85 82
-1162.91734506997 96.2516351908373 2767.67138051471 83 85 82
-1169.9941942992 94.3120239593629 2778.88630545048 91 93 90
-1177.15854032313 93.3465675602233 2782.02600884718 116 118 115
-1184.25660130214 92.1401820559891 2787.18975263149 144 146 143
-1191.4439750545 91.5402485661435 2787.30231814893 131 133 130
-1198.59751909053 90.8197586750686 2788.42686972542 101 105 104
-1205.79922785341 90.3409018370182 2787.52940010032 107 111 110
-1212.803880249 89.1396035277543 2792.7050275954 128 132 133
-1219.73979827132 87.820154114703 2798.89723097884 142 146 147
-1226.67495653022 86.6230142309342 2804.08151998027 156 160 161
-1233.69873329888 85.7873680527196 2806.23049637146 154 158 159
-1240.74866764368 85.0723166147693 2807.36820377165 149 153 154
-1247.69454936783 84.1189237535249 2810.53489818378 145 149 152
-1254.71532864598 83.4053414664017 2811.67624009497 144 148 151
-1261.72423932239 82.692453051248 2812.81882104146 144 148 151
-1268.72115222057 81.9800925785461 2813.96313811817 146 150 153
-1275.59253141834 81.0308487339069 2817.13911907885 154 158 159
-1282.50074877479 80.2014594929319 2819.30250012409 155 159 160
-1289.32946634386 79.2547244112193 2822.48379839708 154 158 159
-1296.26536861239 78.5457131660587 2823.6357204196 154 158 159
-1303.25703347429 77.9554380088578 2823.77244354594 154 158 159
-1310.24216446673 77.3653999300653 2823.90998143623 147 151 152
-1317.14779382512 76.6579887709702 2825.0656771252 152 156 157
-1324.11729858691 76.0687371450818 2825.20516300559 149 153 154
-1331.47210327053 76.0663622832498 2820.25634445484 159 163 164
-1339.17139990805 76.5310235926752 2811.23231676021 172 176 177
-1347.08010876547 77.2267145884145 2800.16593278499 168 172 173
-1355.30070853124 78.2691081956496 2786.03641207598 157 161 162
-1363.58987615938 79.3067454422659 2771.89834702883 163 164 168
-1371.48889604226 79.7576953146167 2762.84919089377 162 163 167
-1379.7131714004 80.5544093194467 2750.73547294618 150 151 155
-1387.41241512087 80.6508572834028 2744.7354828266 151 152 156
-1395.53673854481 81.2089412704685 2734.65048117828 158 159 161
-1403.60583061967 81.6482503184881 2725.58013169481 162 163 165
-1411.4011091925 81.7380154542311 2719.56841486115 152 153 155
-1419.00630204796 81.5954276073517 2715.59640569093 138 139 141
-1426.6266008238 81.4517878433567 2711.62251416133 138 140 139
-1435.28132640947 82.3419348507663 2698.44690515072 142 144 143
-1446.89751038162 86.0976611913307 2659.70031790427 170 172 171
-1465.5906768544 96.4878802911838 2561.60291684741 160 162 159
-1477.02929524985 99.5201026518862 2528.92699718379 75 77 74
-1485.53377652235 99.6848558526599 2521.81865120064 97 99 96
-1494.32262974193 100.07574393052 2512.6586072964 88 90 87
-1503.02414157371 100.349937531963 2504.51769775868 89 91 88
-1511.89417840387 100.735477085197 2495.34777697369 144 146 143
-1046.33048486226 95.0139756686621 2795.32488409797 142 147 143
-1053.9349820653 92.9580277000521 2807.48219542162 154 159 155
-1061.51677645873 90.6636621057254 2821.6583419824 146 151 147
-1068.82334985671 89.4652269069043 2826.79628398142 133 138 134
-1076.05910877616 88.5106866403585 2829.92680645497 133 138 134
-1083.19195582627 88.1616132317192 2828.02990148628 131 135 134
-1090.35608779551 87.5705335637058 2828.14510385589 124 128 127
-1097.46054125505 87.5820769571695 2823.22749100461 114 118 117
-1104.60159041038 87.3512459032102 2820.32132370771 113 117 116
-1111.75781620534 86.9993095239231 2818.42150874941 112 116 115
-1118.91844692038 86.6467341927918 2816.52114576578 114 116 113
-1126.08448224468 87.2519787181887 2806.55536834261 108 110 107
-1133.31779281346 88.6909929603679 2789.52470943895 103 105 102
-1140.65848562785 90.6018764060173 2768.44841855361 96 98 95
-1148.04036239531 91.5512553700217 2755.431737834 90 92 89
-1155.27866771768 90.2335942232112 2761.58620036075 90 92 89
-1162.45090219883 88.6803379653955 2769.7649027656 88 90 87
-1169.52464114742 86.7739836139442 2780.98036853393 98 100 97
-1176.68460856237 85.8200314255813 2784.12034779048 129 131 128
-1183.82186623626 84.8673169503903 2787.26315782898 137 139 136
-1191.034069581 84.3885380746462 2786.36437833679 120 122 119
-1198.16389236987 83.5556319848742 2788.50011359568 106 110 109
-1205.36579492595 83.0770315509496 2787.6026191111 114 118 117
-1212.43667570216 82.1276224750103 2790.7539441581 139 143 144
-1219.44967715723 81.0621154831173 2794.92024477139 150 154 155
-1226.35895639769 79.7635637981666 2801.11571748388 152 156 157
-1233.3510366395 78.8187542093005 2804.27662399039 146 150 151
-1240.40690377537 78.1090282878675 2805.41357698877 150 154 155
-1247.45089860667 77.399939255991 2806.55200990335 147 151 154
-1254.43435409759 76.5748645483481 2808.70599031204 145 149 152
-1261.45185388148 75.867132427111 2809.84748580977 144 148 151
-1268.29534319621 74.8113219747814 2814.03515526928 145 149 152
-1275.11088029381 73.7572598741276 2818.22606812727 149 153 154
-1282.01709025423 72.9365387892918 2820.38967685638 150 154 155
-1288.90599907492 72.1168303030659 2822.55544199881 148 152 153
-1295.9719619092 71.6445907052271 2821.6748952368 147 151 152
-1302.96933347849 71.0569679687208 2821.81089921475 147 151 152
-1310.03032115004 70.584776567437 2820.93097319672 140 144 145
-1316.79884592992 69.6525987492601 2824.11998510665 140 144 145
-1323.69576881506 68.9514432079527 2825.27651056932 156 160 161
-1331.05009536182 68.9385578392513 2820.32777936626 163 167 168
-1338.82915545261 69.4962984784453 2810.28562517619 169 173 174
-1346.82262281822 70.2791690691984 2798.20074715768 164 168 169
-1355.1327869932 71.400284028728 2783.05215493183 164 168 169
-1363.16126853041 72.0608427478162 2771.97091655387 159 160 164
-1371.24232842696 72.7177831737829 2760.88312623614 156 157 159
-1378.71579474435 72.5764204003357 2756.92755253292 159 160 162
-1386.78618759501 73.1140785547575 2746.84909462327 163 164 166
-1394.80410417635 73.5353294566856 2737.78541936307 165 166 168
-1403.06866355437 74.1797412979318 2726.67452211974 167 168 170
-1410.86052441716 74.2565255569337 2720.66326598075 157 158 160
-1418.67814782725 74.3316063677319 2714.6485590454 141 143 142
-1426.4111295934 74.2924186282972 2709.65264317591 138 140 139
-1435.06924243124 75.1499530628981 2696.47693760905 139 141 140
-1446.56908064055 78.6931545228982 2658.75311640087 165 167 166
-1465.4866009775 89.0495689341358 2558.61219186645 153 155 152
-1477.170562533 92.2209785467721 2523.88967381711 82 84 81
-1485.81123940167 92.4804442216349 2515.75639490861 95 97 94
-1494.23543925934 92.5148520768206 2509.66609792943 90 92 89
-1502.4270987434 92.3251110041104 2505.6212656362 108 110 107
-1046.0363820695 87.1159212631938 2800.42106139266 147 152 148
-1053.49461720556 85.6906274920703 2807.55628879248 149 154 150
-1061.0062143186 83.7933147345299 2818.71684837103 143 148 144
-1068.25733456434 82.9663278215127 2820.83743083646 133 138 134
-1075.52921803343 81.9034720260091 2824.9716577918 131 136 132
-1082.70828383521 81.3147555688226 2825.08499028396 128 132 131
-1089.92164519966 80.3721532609132 2828.21827640177 127 131 130
-1097.03660903529 80.2552416523229 2824.30737729756 117 121 120
-1104.17497405806 80.0193882661748 2821.40179845941 111 115 114
-1111.31233562415 80.0174282856609 2816.48011443164 106 110 109
-1118.4758044077 79.7792863367734 2813.57116855067 107 109 106
-1125.64865033563 80.7109834432983 2800.58037993985 106 108 105
-1132.90115099732 82.3394877271913 2781.53145301439 102 104 101
-1140.26583309897 84.3115286548984 2759.44407998484 102 104 101
-1147.64622508993 84.8773498082912 2749.45189620572 100 102 99
-1154.86994819781 83.2288339568046 2758.63235136403 97 99 96
-1162.03858401914 81.5836184539642 2767.81967239868 94 96 93
-1169.11992090912 79.7097442162706 2779.03386418488 114 116 113
-1176.2485479805 78.5349479913559 2784.19395058106 141 143 140
-1183.38676734617 77.5933701619247 2787.33661127815 124 126 123
-1190.62352521316 77.2303909304135 2785.42677547432 112 114 111
-1197.8105820709 76.6362980384308 2785.53912488859 123 127 126
-1204.96161065073 75.9272583945746 2786.66420049407 131 135 134
-1212.03608176717 74.9888458616107 2789.81480826009 143 147 148
-1219.05289966514 73.9370135150818 2793.98083686091 144 148 149
-1226.04157712124 72.8867623446472 2798.15013278981 152 156 157
-1233.08305629463 72.066979385345 2800.29685825033 154 158 159
-1240.15026296675 71.3623241230191 2801.43238278822 149 153 154
-1247.15975552549 70.5442205614991 2803.58309556651 142 146 149
-1254.1035668778 69.6132061114348 2806.74998941606 139 143 146
-1261.12697365996 68.9108633759452 2807.89097383132 139 143 146
-1268.03071695839 67.9821327410132 2811.06286192277 141 145 148
-1274.68570161146 66.6014386907726 2818.29797251358 142 146 147
-1281.53338549682 65.6761001956218 2821.47684755528 143 147 148
-1288.35830247753 64.7520354202765 2824.65880068653 144 148 149
-1295.6129137745 64.6188517761684 2820.73051725656 146 150 151
-1302.54601655854 63.9214830312597 2821.88251770934 150 154 155
-1309.53719673783 63.337213474235 2822.01952577442 149 153 154
-1316.37645765874 62.5286706179338 2824.19145727693 155 159 160
-1323.27389006829 61.8333055307411 2825.34790390501 159 163 164
-1330.47158026002 61.5860880724261 2822.43495156338 155 159 160
-1338.56690423188 62.5668861127721 2808.32122674257 158 162 163
-1346.64748553067 63.431468465451 2795.21733486826 156 160 161
-1354.96362107518 64.5143690056827 2780.06809808711 166 170 171
-1362.99863342195 65.1475769660168 2768.98611672997 171 172 174
-1370.81181376876 65.4441714264544 2760.95600671796 177 178 180
-1378.47317639418 65.5166951467987 2754.96080693873 170 171 173
-1386.25709287159 65.6979990031183 2747.94233959651 162 163 165
-1394.47026256189 66.3190212074673 2736.8381573469 163 164 166
-1402.53145954253 66.7158656048693 2727.76914522241 163 165 164
-1410.42478470102 66.8896918616331 2720.73704401559 157 159 158
-1418.45672338074 67.1713348834612 2712.679673631 144 146 145
-1426.30479887912 67.2310680893005 2706.66120687243 139 141 140
-1434.6302492506 67.7271877712491 2696.55126895089 135 137 136
-1446.12437199098 71.1731075551025 2658.82841718728 160 162 161
-1466.20917488498 82.3585480186963 2548.4620476919 159 161 158
-1477.79375021679 85.3299391295227 2514.76014629551 89 91 88
-1486.45740438139 85.5691882503952 2506.62405319589 96 98 95
-1494.90482710946 85.5887414082766 2500.53113752783 97 99 96
-1502.99112011094 85.2812095711551 2497.50721137594 120 122 119
-1045.50431089082 80.1744115387205 2797.48243938566 157 162 158
-1053.05401029245 78.4221975659133 2807.63041508191 146 151 147
-1060.4944150392 76.9055177127829 2815.77555510035 141 146 142
-1067.77626051405 75.9705890996102 2818.9005148664 131 136 132
-1074.99742006804 75.268068089678 2820.01658110557 126 131 127
-1082.17405845478 74.7967805977004 2819.12222018159 127 131 130
-1089.40464221417 73.8642491743378 2822.25333052501 127 131 130
-1096.53566631388 73.7383141648762 2818.34069122634 120 124 123
-1103.70687364143 73.2664171074642 2817.44700967171 115 119 118
-1110.83786963614 73.5972410438481 2809.50170182295 111 115 114
-1118.01729178729 73.4671776623719 2805.58303360551 104 106 103
-1125.20991377793 74.4794142629457 2791.5818778629 102 104 101
-1132.47662088342 75.7151169490187 2775.55527378084 102 104 101
-1139.84916054958 77.5152473164472 2754.47530026097 107 109 106
-1147.17087317594 77.031552486582 2753.56286760384 106 108 105
-1154.37516327643 75.2975482055931 2763.75366011551 100 102 99
-1161.55879936723 73.9076347662554 2770.92306267993 93 95 92
-1168.69824091541 72.5203551024672 2778.0977332573 126 128 125
-1175.8494926871 71.4750682612545 2782.24696806809 144 146 143
-1182.99404726277 70.5443146147281 2785.38880966333 118 120 117
-1190.16408935624 69.8403320272255 2786.51125890839 111 113 110
-1197.37566750928 69.3619811740307 2785.61255630924 130 134 133
-1204.46835171827 68.4338476662423 2788.76110438829 138 142 141
-1211.53836125982 67.5070367166357 2791.91223838013 146 150 151
-1218.62050023437 66.6935023790904 2794.05387328232 144 148 149
-1225.7229183817 65.992782686711 2795.18475300335 147 151 152
-1232.69273947892 64.9575609659537 2799.35660278357 149 153 154
-1239.67725777216 64.0354497721273 2802.51839320114 145 149 150
-1246.73047115002 63.3373297101258 2803.65564680921 141 145 148
-1253.7233944648 62.528642811457 2805.80840253274 139 143 146
-1260.75005562216 61.8319131634452 2806.94872577061 142 146 149
-1267.71099603463 61.0249651482548 2809.10546819199 145 149 152
-1274.48557673075 59.8871466188733 2814.30964010325 150 154 155
-1281.28584149817 58.8618606376828 2818.50262334561 149 153 154
-1287.99619278862 57.7280418029029 2823.71455990519 144 148 149
-1295.12424440598 57.3667023693851 2821.8182856803 148 152 153
-1302.12229349058 56.7851878570666 2821.95418902254 155 159 160
-1309.11372017132 56.2039185671931 2822.09115842459 162 166 167
-1315.95369275418 55.4039303696244 2824.26297858752 165 169 170
-1322.92678156145 54.8236774981705 2824.40199350232 143 147 148
-1330.04909602033 54.462046610461 2822.50643600842 143 147 148
-1337.90067969476 55.0809011541688 2811.44738326438 164 168 169
-1345.8049616432 55.6961596265987 2800.38176355742 165 169 170
-1354.01960873616 56.6336720894248 2786.25326190755 166 170 171
-1362.3028274038 57.5664876773283 2772.1162152996 163 164 166
-1370.6547947339 58.4945951088025 2757.97060166378 164 165 167
-1378.51148898833 58.7695751319286 2749.93511829419 165 166 168
-1385.92131677914 58.5024505125593 2746.99550459041 161 162 164
-1393.73811372139 58.665534702649 2739.9729819414 162 163 165
-1401.79006991508 59.0415573852962 2730.90517784573 162 164 163
-1410.19804851514 59.7368930637317 2718.76856152706 157 159 158
-1418.126939979 59.8923310546971 2711.73231054919 146 148 147
-1426.0869619399 60.0456639060596 2704.69193994439 140 142 141
-1434.19079831733 60.3037349747623 2696.62565922808 138 140 139
-1445.91008706601 63.8656114510035 2656.85878824485 166 168 167
-1466.21927313131 74.9735610792098 2544.4492469292 163 165 162
-1477.93029150763 77.964110301432 2509.72382863798 88 90 87
-1487.22369020501 78.7144313269187 2496.46888522557 89 91 88
-1496.07568175956 79.0368295278265 2487.3013826648 84 86 83
-1504.45413030178 78.9334392228816 2482.22508543278 87 89 86
-1045.21163101328 72.3067571684154 2802.57859932027 162 167 163
-1052.7499937116 70.5856017784468 2812.72766770965 139 144 140
-1060.10467308278 69.4341491501357 2817.85948264069 137 142 138
-1067.27227650719 69.0760233699618 2815.95826412106 129 134 130
-1074.44440104453 68.717218870808 2814.05624291191 120 125 121
-1081.67073140334 68.0196862299293 2815.17189099727 114 118 117
-1088.92697889251 66.9850001335591 2819.30799504656 115 119 118
-1096.08830256476 66.6259580175221 2817.40732234728 115 119 118
-1103.24555475812 66.3784201654684 2814.49941727252 112 116 115
-1110.37230042941 66.9139038146431 2804.53872667855 107 111 110
-1117.5620291875 66.8868987265633 2799.61057349021 107 109 106
-1124.7689558729 67.8629282203645 2785.60772795639 97 99 96
-1132.04975162278 69.0570625660109 2769.57947516354 113 115 112
-1139.43555932651 70.8020004883535 2748.49799121837 117 119 116
-1146.72742276788 69.6508468193759 2753.63764441878 84 86 83
-1153.95456849339 68.1688670887169 2761.80954678951 109 111 108
-1161.17150339443 67.0221583257436 2766.95853892329 100 102 101
-1168.35492619156 65.8773729445676 2772.11146783561 142 144 143
-1175.50492544762 64.7345103110021 2777.26880301352 137 139 138
-1182.57910563374 63.3731594134969 2784.45178980931 114 118 117
-1189.7285304895 62.5647124594343 2786.58477416513 126 128 127
-1196.96700746231 62.1965174635791 2784.67473756258 139 143 142
-1204.06328758001 61.2794697273102 2787.82256743075 140 144 143
-1211.10489933602 60.2540974389813 2791.98543222305 142 146 147
-1218.11840573329 59.2303936750397 2796.15155973522 146 150 151
-1225.29072924887 58.7540657900094 2795.25775055535 150 154 155
-1232.30160667164 57.8417146720504 2798.41646607532 147 151 152
-1239.20426908231 56.7131132563996 2803.60438960414 145 149 150
-1246.11892339566 55.6951122195171 2807.78307852278 146 150 153
-1253.14996792766 55.0040481873992 2808.92308008996 147 151 154
-1260.16911063096 54.3136204218058 2810.06432499066 144 148 151
-1267.17616701215 53.6237262394177 2811.20731705648 143 147 150
-1274.00280851524 52.6108518422608 2815.39673568396 153 157 158
-1280.74235993119 51.4919572318049 2820.60522920683 155 159 160
-1287.5100753996 50.4826003763745 2824.80223246049 156 160 161
-1294.57123699841 50.0117715053478 2823.92228114919 157 161 162
-1301.49727182355 49.3264988574744 2825.07513178682 156 160 161
-1308.41128678047 48.6418750036964 2826.22972099311 152 156 157
-1315.16878428401 47.7442895265231 2829.4197776755 145 149 150
-1322.1287255207 47.1679797847713 2829.56042294529 145 149 150
-1329.39300023381 47.0177594266132 2825.63121871244 150 154 155
-1337.07430790669 47.3978628865723 2816.60941834559 167 171 172
-1345.12979717479 48.1993944725135 2803.50882385032 170 174 175
-1353.42022407549 49.2084140888141 2788.36298991872 165 169 170
-1361.87299761848 50.3180947869862 2772.18894390037 149 150 152
-1370.131846009 51.1057753967929 2759.06300786492 145 146 148
-1378.1724768626 51.5729761253378 2748.98844962367 168 169 171
-1385.68119486507 51.4058072123883 2745.02854467811 171 172 174
-1393.40325136186 51.4475919021594 2739.02609188145 167 168 170
-1401.55860167318 51.9069468430995 2728.93723799169 166 168 167
-1409.97031909224 52.5724544949368 2716.8004739103 162 164 163
-1418.01084870256 52.8160745495455 2708.74213156049 150 152 151
-1425.64815061267 52.6400571595744 2704.76620340559 141 143 142
-1433.86357614063 52.9836259145913 2695.67784450095 137 139 138
-1445.57943284199 56.4425534487299 2655.91191319805 163 165 164
-1465.6378966377 67.0473506285703 2545.55035976984 164 166 163
-1477.70284854772 70.2596429171341 2507.75688715026 88 90 87
-1487.36964371922 71.2876536109153 2491.43155348494 89 91 88
-1496.48579152467 71.794295399788 2480.21498612167 86 88 85
-1505.01103958173 71.782222174819 2474.11220133087 84 86 83
-1037.20125666053 66.6032395456725 2793.51567490516 137 139 136
-1044.85984104608 64.6870298690175 2805.66586847236 169 171 168
-1052.28206313528 63.439262544297 2811.79719521102 132 134 131
-1059.61597496038 62.4147658558299 2815.92334010816 130 132 129
-1066.81126148256 61.9433952311526 2815.02665222605 130 132 129
-1074.00571593474 61.4717491420526 2814.13006890678 128 130 127
-1081.16577593066 61.2198220023074 2811.2218249939 116 118 115
-1088.41993938497 60.3080647947528 2814.34993802264 116 118 115
-1095.59491813838 59.9456170823921 2812.44781048721 117 119 116
-1102.75707761816 59.8015113525371 2808.53109326038 109 111 108
-1109.89883685353 60.3116718970755 2798.56859574986 106 108 105
-1117.09145271818 60.7093235351535 2789.60797528781 104 106 103
-1124.32466581596 61.4306756263361 2777.61789424539 96 98 95
-1131.62707519429 62.6915858816198 2760.57908124932 154 156 153
-1139.00987606242 63.8379563848354 2744.53846487388 111 113 112
-1146.30622969837 62.5943555215922 2750.68548827915 108 112 111
-1153.51254584055 60.8119892033033 2761.88408267944 96 100 99
-1160.70480801842 59.4658077343729 2769.05205332386 95 99 100
-1167.89977623619 58.4458351960907 2773.19576591631 133 137 138
-1175.08508077883 57.5351202536505 2776.33246938537 118 122 123
-1182.22657386808 56.518163689832 2780.48260714652 114 120 120
-1189.34004459295 55.5027857876696 2784.63647804447 130 134 137
-1196.55756650686 55.0247132269087 2783.73703296624 144 148 149
-1203.65749414738 54.118631033548 2786.88437876776 146 147 149
-1210.7028393614 53.1070257565976 2791.04674139163 148 149 151
-1217.7201087313 52.0970871237835 2795.21236305708 148 149 151
-1224.78372823896 51.301604101878 2797.35626154176 148 152 153
-1231.79014036502 50.4007925782972 2800.5152636465 148 152 153
-1238.68858863145 49.2891843455378 2805.70390859341 150 154 155
-1245.59892076588 48.2854933714366 2809.88309920939 140 144 145
-1252.67312034646 47.7062942985379 2810.00949332231 141 145 146
-1259.68999449643 47.0217767482512 2811.15124602945 138 144 144
-1266.69496681771 46.337895464489 2812.29424207013 145 151 151
-1273.51981884079 45.3390827032563 2816.48408725206 156 160 161
-1280.43414186175 44.5519760027685 2818.6465949969 155 159 160
-1287.33113607502 43.7659110207066 2820.81102226242 155 159 160
-1294.21082358957 42.9807719119936 2822.97784713211 156 160 161
-1301.1399633796 42.3010970165719 2824.13053581574 153 157 158
-1308.05720506275 41.6221203766539 2825.28470747394 151 155 156
-1314.89035710786 40.8396173723715 2827.45733275301 158 162 163
-1322.00574862986 40.473886124976 2825.56240973012 158 162 163
-1329.35798368529 40.4189402674557 2820.61405029762 157 161 162
-1336.97129006086 40.6731741246651 2812.60899493071 164 168 169
-1344.86980700891 41.2349901654951 2801.54423540046 163 167 168
-1352.8209632017 41.7932138955493 2790.47291626388 159 163 164
-1361.00125899047 42.5538578007907 2777.35685432893 146 150 151
-1369.24481743344 43.3102027620063 2764.23290890986 156 160 161
-1377.27069830771 43.7542477482068 2754.1604926274 162 166 167
-1385.15102667155 43.9900971618042 2746.12216290975 168 172 173
-1392.96873181178 44.1212019827158 2739.09961113953 161 165 166
-1401.42780569104 44.8628618186409 2725.94880934088 168 172 173
-1409.84582597982 45.4983158730535 2713.8113378437 161 165 166
-1417.57212310982 45.4175394210623 2708.81636569967 153 157 158
-1425.20905862058 45.2337516267449 2704.84050373232 146 150 151
-1433.53558605808 45.657387031421 2694.73038201534 137 141 142
-1445.47830693751 49.2157991941116 2652.92026294987 157 161 160
-1464.34957360008 58.5195704819453 2552.78788269877 168 170 167
-1477.11282720523 62.2409683824511 2508.85956258655 99 101 98
-1486.89777648347 63.3295724383371 2491.51139704983 101 103 100
-1496.01225560074 63.8094754068102 2480.29510834472 96 98 95
-1504.02259187438 63.3829685442052 2478.28866155809 98 100 97
-1037.12066829743 58.0960691327963 2804.63341407326 148 150 147
-1044.56953859105 56.8662527657582 2810.76136800034 146 148 145
-1051.8689229266 56.0705015526592 2812.8758451346 139 141 138
-1059.07627192621 55.5989298397651 2811.97765245617 140 142 139
-1066.23812871078 55.3423194865642 2809.06919664777 128 130 127
-1073.46870955928 54.7623851080712 2809.17607723937 136 138 135
-1080.7437184669 53.8608263086038 2812.30156202163 129 131 128
-1087.95351340962 53.2816188896843 2812.41103465696 122 124 121
-1095.1340639393 52.9163377522187 2810.50821925851 110 112 109
-1102.28385471715 52.9773790613634 2804.57713112875 109 111 108
-1109.44138982165 53.3560915241656 2795.62069814507 106 108 105
-1116.63086384103 54.0508193698843 2783.63638586379 94 96 93
-1123.87738492555 54.9538244252694 2769.6287914903 98 100 97
-1131.21506436512 57.0181836834679 2744.52148382173 171 173 170
-1138.58720695157 56.956980295025 2739.5704162573 133 135 134
-1145.87632721377 55.4148141862188 2748.74243016911 96 100 99
-1153.08020682698 53.5595829083232 2760.94920761928 104 108 107
-1160.23837286545 51.9193270920043 2771.14574952671 138 142 143
-1167.42904655329 50.9136304901211 2775.2897201872 130 134 137
-1174.62804423555 50.1194071243246 2777.41672095877 125 129 132
-1181.78882821017 49.2212730272692 2780.55645131854 131 136 139
-1188.92696148247 48.3243753861667 2783.69924536464 137 142 145
-1196.09490909078 47.6376366374679 2784.82191057802 146 147 149
-1203.25094746474 46.9514201904678 2785.94630088673 146 147 149
-1210.2684385548 45.8494879601715 2791.12006451162 148 149 151
-1217.25236593632 44.749601843567 2796.29777103179 152 153 155
-1224.27699115493 43.8590693451617 2799.45471344955 149 153 154
-1231.39810375804 43.2804351139153 2799.57525160711 148 152 153
-1238.3004839077 42.1852986114562 2804.76336250052 140 144 145
-1245.21451811986 41.1953442828535 2808.94181467538 139 143 144
-1252.19613984071 40.4130579032481 2811.0959112462 142 146 147
-1259.16033679484 39.6317024147128 2813.25217987342 142 148 148
-1266.16038424638 38.9539005688579 2814.39601476748 148 154 154
-1272.86917270031 37.7645427770791 2820.61621998662 155 159 160
-1279.77337365906 36.9866510446355 2822.77996663769 154 158 159
-1286.66021444883 36.209775671304 2824.94587705867 154 158 159
-1293.72171574175 35.7396418261194 2824.06588152523 155 159 160
-1300.71532460569 35.1676969822351 2824.20231377938 158 162 163
-1307.56374644835 34.3929406442772 2826.37301307743 158 162 163
-1314.53886616285 33.8219646376553 2826.51175011673 159 163 164
-1321.65685220563 33.4536518594968 2824.61675038009 161 165 166
-1329.24350526814 33.6910399450297 2816.61506555182 160 164 165
-1336.86656824304 33.925929343597 2808.60884356194 166 170 171
-1344.85717840073 34.5609281364304 2796.52447125246 164 168 169
-1352.47838783191 34.6895605915156 2789.52644749595 159 163 164
-1360.57134897207 35.3174741823971 2777.42956131632 144 148 149
-1368.44983066533 35.6411232181913 2768.38354373688 154 158 159
-1376.55711413338 36.1617792308271 2757.29283977261 165 169 170
-1384.81304185563 36.7786216060053 2745.1754052139 171 175 176
-1393.02808304182 37.2919350559957 2734.07127305984 163 167 168
-1401.19403633805 37.7023017763048 2723.98146525773 161 165 166
-1409.19875777406 37.9110533096695 2715.92744311264 161 165 166
-1416.91908704665 37.8201160775165 2710.93324247999 152 156 157
-1424.9886335654 38.0244417739815 2702.87138247184 146 150 151
-1433.43147384108 38.5223771427613 2691.73886283578 139 143 144
-1445.0308570231 41.6765171481397 2652.99595648482 155 159 158
-1463.18067502765 50.1273462067437 2559.00245808071 174 176 175
-1476.76338580348 54.4233257593307 2507.91583092427 95 97 94
-1486.54842544871 55.4687449133272 2490.5677678362 96 98 95
-1495.28687773816 55.628337335278 2482.42255014588 99 101 98
-1502.90650942725 54.9070033083962 2483.48917923049 90 92 89
-1036.37782979019 51.7597379115135 2795.67289774014 154 156 153
-1043.91370482288 50.3367743403582 2803.80611710157 141 143 140
-1051.26071202013 49.4429316082197 2806.92259660294 136 138 135
-1058.53494232697 48.7603537066977 2808.03222767519 137 139 136
-1065.75254023472 48.2880096351485 2807.1327580276 123 125 122
-1072.98903253683 47.7106847727442 2807.23889403267 128 130 127
-1080.23629167547 47.0289591176467 2808.35188870289 136 138 135
-1087.44304444618 46.5563802495909 2807.45377308262 132 134 131
-1094.637255616 46.1877802410624 2805.54926165718 105 107 104
-1101.80002581365 46.2345845506258 2799.61635099645 99 101 98
-1108.98256735816 46.3832196162002 2792.67301772265 97 99 96
-1116.17872051276 47.0477504498374 2780.68795144754 100 102 99
-1123.43316858348 47.7081495073963 2768.69562119243 90 92 89
-1130.76438210442 49.3974477187742 2746.61316943677 169 171 168
-1138.15344717328 49.8415673764704 2736.61998353661 121 123 122
-1145.44542035519 48.2234546228634 2746.79976879063 98 102 101
-1152.62727262609 46.0951762422196 2762.03331574604 107 111 110
-1159.75961329883 44.2801864152869 2774.24891485862 133 137 138
-1166.92794392072 43.1865291337786 2779.40359254116 130 134 137
-1174.13492340319 42.5036966091352 2780.52161678924 131 135 138
-1181.33002501261 41.8214117455042 2781.64112188342 139 144 147
-1188.48977136833 41.0378111326316 2783.77299301385 143 148 151
-1195.60607546264 40.1534099593233 2786.91823803456 150 151 153
-1202.61330164118 38.9657038501593 2793.10119564036 151 152 154
-1209.64463082582 37.9830584011916 2797.26499084843 152 153 155
-1216.68200892155 37.1031502711351 2800.42031380362 151 152 154
-1223.88115089747 36.7295155848836 2798.51496003263 148 152 153
-1230.92619376514 35.9521173819684 2800.66112914643 148 152 153
-1237.91160012215 35.0750995907206 2803.82268998702 142 146 147
-1244.78437611446 33.9984518124376 2809.01444661485 142 146 147
-1251.8143224179 33.3249264850133 2810.1545390469 146 150 151
-1258.78191315269 32.5518950666629 2812.31036222921 146 152 152
-1265.67915356732 31.6799265911351 2815.48291236098 145 151 151
-1272.49795851971 30.709568493367 2819.67343724724 142 146 147
-1279.40555881811 29.9400875563691 2821.83649726255 147 151 152
-1286.29576387391 29.1715381334736 2824.00196591693 155 159 160
-1293.36009133029 28.7015825786095 2823.12161722547 155 159 160
-1300.29025016914 28.0334885914173 2824.27414823992 154 158 159
-1307.27758094586 27.4649298073328 2824.41135504517 155 159 160
-1314.40215896766 27.0939873611638 2822.51553959366 152 156 157
-1321.53091878565 26.7226292050961 2820.61920337347 153 157 158
-1329.20451501459 27.0389927105339 2811.59853320614 155 159 160
-1336.83998904905 27.2543386850105 2803.59081385631 158 162 163
-1344.759835424 27.7609862237158 2792.52353782396 156 160 161
-1352.39090947969 27.8729548369857 2785.52432690427 153 157 158
-1360.3169497802 28.2755227647689 2775.46447936351 154 158 159
-1368.10900781274 28.4800846863911 2767.43700738712 161 165 166
-1376.03070901989 28.7793012353134 2758.38566060993 172 176 177
-1384.37836262546 29.4639175476838 2745.24891362481 173 177 178
-1392.6904913237 30.0473508669947 2733.12479376686 169 173 174
-1400.55365875509 30.1434289396066 2726.09666081317 174 178 179
-1408.55193326985 30.3338707754749 2718.04373169241 171 175 176
-1416.37302354679 30.3291832707751 2712.02904244834 157 161 162
-1424.65766043192 30.707381118209 2701.92426808282 152 156 157
-1433.21373085481 31.2743756128175 2689.76950876212 137 141 142
-1445.15699712977 34.6155135563916 2647.95989381844 143 147 146
-1463.30555951196 42.8187870390911 2553.96744430611 165 167 166
-1476.29299453281 46.5040894286493 2507.99538800094 92 94 91
-1486.07540548706 47.5064371781629 2490.64776638497 99 101 98
-1494.56168640404 47.4573127962856 2484.55018230451 104 106 103
-1035.89931399007 44.5503792988425 2794.74391217416 165 167 164
-1043.28600616131 43.6654452059092 2797.85541576481 144 146 143
-1050.70630011721 42.576581962895 2802.97887755666 132 134 131
-1057.9159894847 42.2060104881682 2801.07243973544 128 130 127
-1065.22075173625 41.4261611072447 2803.18620386067 120 122 119
-1072.408721105 41.1570750118775 2800.27428194181 109 111 108
-1079.69275648002 40.3779488300255 2802.39063075417 104 106 103
-1086.9015580927 40.0062096054342 2800.48430679473 101 103 100
-1094.11479969907 39.6339162740086 2798.5771899408 115 117 114
-1101.29594679987 39.6660850189066 2792.64226476218 122 124 121
-1108.49676092517 39.7974608854016 2785.69669662982 121 123 120
-1115.72144716641 40.1283007389376 2776.73224992082 107 109 106
-1122.98523067925 40.7583310585315 2764.73859436396 91 93 90
-1130.31737315238 41.98773473814 2746.6884667267 170 172 169
-1137.70528519453 42.4076806402038 2736.69548837818 109 111 110
-1145.00636909004 40.9199979110061 2745.86610608799 107 111 110
-1152.21337599037 39.0354728988828 2759.08025751341 109 113 112
-1159.34378872209 37.15576765271 2772.30395474557 132 136 137
-1166.53386627386 36.1780316568776 2776.4481664358 136 140 141
-1173.73171207337 35.400959715718 2778.57502551912 137 141 142
-1180.89165249078 34.5253971284625 2781.71504197732 140 145 148
-1188.02891638458 33.6511273565409 2784.85764465828 141 146 149
-1195.11747809242 32.6791393324097 2789.01426951986 152 153 155
-1202.17801929204 31.7087597127827 2793.17462720827 155 156 158
-1209.24169932522 30.8386401553777 2796.32640179057 153 154 156
-1216.35071417642 30.1667068709964 2797.45662274271 148 149 151
-1223.59470566786 29.8884080977152 2794.53773385541 141 145 146
-1230.57241750406 28.922648239812 2798.70841599271 142 146 147
-1237.56410189797 28.0564881348192 2801.86916477808 143 147 148
-1244.39867654011 26.8984441045116 2808.07359016089 144 148 149
-1251.3843095912 26.1329528660327 2810.227141912 147 151 152
-1258.35263964641 25.3684444833157 2812.38285038639 146 152 152
-1265.2506720897 24.5077429064467 2815.55527200669 142 148 148
-1272.12612027508 23.6483904931374 2818.73050845589 146 150 151
-1278.97877574401 22.7903706622975 2821.90858579205 149 153 154
-1285.86966109097 22.0303480355376 2824.07394709509 152 156 157
-1292.93413073594 21.5607716166938 2823.1935796609 151 155 156
-1299.93107344108 20.99476827768 2823.32982049338 151 155 156
-1306.92143251881 20.4291519885338 2823.46664163561 152 156 157
-1313.90532046866 19.86382850299 2823.60426956526 154 158 159
-1321.0313068482 19.4902880042755 2821.70828520091 152 156 157
-1328.54697468358 19.5943496360189 2814.72349711799 154 158 159
-1336.33286680166 19.9823724819444 2804.68093727707 158 162 163
-1344.49572209753 20.7480789118351 2790.55935138236 158 162 163
-1352.38680602689 21.1289550230937 2780.50392331469 157 161 162
-1360.41279489259 21.6014281897078 2769.423491324 160 164 165
-1367.85785459464 21.4075278857508 2765.47160095415 164 168 169
-1375.78374601666 21.6850944452253 2756.41954800866 168 172 173
-1384.03909387433 22.2427915724786 2744.30258183926 166 170 171
-1392.45077614348 22.8907504356251 2731.15794099155 166 170 171
-1400.01462275327 22.6886556408652 2727.19124829779 169 173 174
-1407.69735343507 22.5792706096442 2722.20178832861 157 161 162
-1415.61358562365 22.6557834385665 2715.16708473131 151 155 156
-1424.21662199628 23.2907780624581 2701.99883843237 153 157 158
-1433.10692438859 24.1080662718709 2686.77864850367 137 141 142
-1445.16643197236 27.4335646109714 2643.94664115127 147 151 150
-1462.72442607477 34.924960393656 2555.06844153315 157 159 158
-1475.94209210808 38.6768076676291 2507.05210431876 104 106 103
-1485.35656695456 39.3583891675107 2492.77454524364 102 104 101
-1493.71133566979 39.2041310408535 2487.70133707264 99 101 98
-1027.31728343174 40.1159831129667 2771.64040443812 143 145 142
-1035.45375231572 37.2343678212333 2794.81878209281 166 168 165
-1042.81055244097 36.4605199910813 2796.92603639417 142 144 141
-1050.20666569029 35.487843746339 2801.04452272274 133 135 132
-1057.47293154509 34.9151617177978 2801.14693093771 128 130 127
-1064.75570879329 34.2432347342154 2802.25522708465 121 123 120
-1071.90620202784 34.1672785055533 2797.33209916878 111 113 110
-1079.12953505412 33.7924038254012 2795.42397003194 105 107 104
-1086.34267076753 33.5158617146001 2792.5089271372 92 94 91
-1093.57771534819 33.1396735803908 2790.59933992655 89 91 88
-1100.77066880047 33.2557238359277 2783.65479311916 92 94 91
-1107.99502934394 33.3693552241532 2776.70633326246 93 95 92
-1115.24694179159 33.5789168438349 2768.74649536397 97 99 94
-1122.53675445618 33.6877216121763 2761.78988018024 107 109 104
-1129.88806087626 35.7512920766308 2734.66549982594 164 166 163
-1137.26934217971 35.2658329346853 2733.74563799632 105 107 104
-1144.59428101502 34.0001255454479 2740.89683945265 106 110 109
-1151.79813343768 31.9584761402392 2756.12741278486 117 121 120
-1158.95145523013 30.2137864651603 2768.34020844478 127 131 132
-1166.0934658549 28.8613927667171 2776.52239391257 148 152 153
-1173.27436977464 27.9960185632611 2779.65952715012 152 156 157
-1180.43253072637 27.1318244675322 2782.79949546786 161 166 169
-1187.56798750553 26.2689573135194 2785.94229363765 158 163 166
-1194.60338200867 25.1185747563314 2792.12163771283 159 160 162
-1201.62834494757 24.0665720566345 2797.29433740751 159 160 162
-1208.7445544781 23.4002422324001 2798.4236457497 158 159 161
-1215.95031702797 23.0215871687872 2796.51747899121 156 157 159
-1223.19691121735 22.7379889840636 2793.59851952714 148 152 153
-1230.1391075344 21.6906617712842 2798.78153569418 146 150 151
-1237.17354642363 20.930900205254 2800.92898167634 145 149 150
-1244.10146869701 19.9821055507836 2805.10559231073 148 152 153
-1251.04856257674 19.1298048619345 2808.27186923037 148 152 153
-1257.92289910671 18.1841576808907 2812.45539902873 147 153 153
-1264.71636546739 17.1457380591219 2817.65695235723 147 153 153
-1271.58720450475 16.2979966304255 2820.83273342373 156 160 161
-1278.43530799874 15.4515542808484 2824.01134833056 154 158 159
-1285.44306175998 14.8883235987748 2824.14599243672 151 155 156
-1292.57115222306 14.5128872531914 2822.24975048783 152 156 157
-1299.63728953642 14.0434434830695 2821.36917458915 153 157 158
-1306.49559943095 13.2937079010255 2823.53857402551 154 158 159
-1313.55130508796 12.8247196596112 2822.65929873626 151 155 156
-1320.68007049119 12.4487028167361 2820.76297408755 149 153 154
-1328.35135916166 12.7223925150526 2811.74270426983 154 158 159
-1335.98474168802 12.9004259160617 2803.73534418918 158 162 163
-1344.14843019968 13.6310521995725 2789.61374669638 158 162 163
-1352.04081637534 13.987685219617 2779.55797969065 162 166 167
-1360.06796995701 14.4332390617244 2768.47747324137 166 170 171
-1367.7862528047 14.5072551890156 2761.46771939527 155 159 160
-1375.81478234475 14.8546178734489 2751.39498691563 159 163 164
-1383.89040237973 15.1987417343162 2741.31638634995 158 162 163
-1392.11153128869 15.631072262992 2730.21170774972 157 161 162
-1399.87981535027 15.6035606359852 2724.20366851565 145 149 150
-1407.36246604301 15.3010995729912 2721.25506000149 142 146 147
-1415.3869830913 15.4524237943207 2713.19895898254 144 148 149
-1423.55704408718 15.6920395284686 2704.11653505989 144 148 149
-1432.7750438845 16.7437012184763 2685.83153165484 132 136 137
-1443.91484400659 19.2351711462571 2651.1787123323 145 149 148
-1461.32304988389 26.4045517478576 2563.32774051284 168 170 169
-1475.35065050887 30.663387077192 2508.15470288987 129 131 128
-1484.63788728255 31.2204838092144 2494.90127756716 103 105 102
-1491.73463369713 30.1596951716841 2500.06480197716 112 114 111
-1034.90659444794 30.2097004976677 2791.882261808 166 168 165
-1042.33444691565 29.2491863032085 2795.99675524143 133 135 132
-1049.73445037546 28.2901749966363 2800.11447983986 130 132 129
-1056.97823369345 27.8172079025312 2799.21174404858 129 131 128
-1064.24409107696 27.2472418984946 2799.31443635455 122 124 121
-1071.42259975396 27.0636036780405 2795.39578295197 116 118 115
-1078.65150825934 26.6859525551965 2793.48672507122 108 110 107
-1085.84028683097 26.5962399753978 2788.55885559848 107 109 106
-1093.06194552433 26.4088972961719 2784.63482708451 97 99 96
-1100.25152621613 26.6995110960045 2775.67486727442 89 91 88
-1107.48328868454 26.9870469764331 2766.70941126484 90 92 89
-1114.75316819934 27.3669758667817 2756.73150833006 93 95 90
-1122.06928868854 27.8388946628197 2745.73966517597 124 126 121
-1129.4437113497 28.6875638345755 2730.70832516654 158 160 157
-1136.81584429917 27.7268666562082 2734.82977254832 109 111 108
-1144.11270312067 26.1043120275879 2746.01664689911 103 107 106
-1151.36264464631 24.6750681626227 2755.19325270892 129 133 132
-1158.53319552138 23.0603186824611 2766.39562872138 127 131 132
-1165.69715520408 21.8266079710286 2773.56707543088 149 153 154
-1172.83446401403 20.6896800997825 2779.73366577064 152 156 157
-1179.97337200593 19.7428826308124 2783.88394137518 161 166 169
-1187.10699029966 18.8913902321116 2787.02693902207 154 159 162
-1194.19230512351 17.9476212651759 2791.18413503043 157 158 160
-1201.27779230179 17.0988367616179 2794.33313202484 155 156 158
-1208.34063248059 16.2513456964257 2797.48495182467 155 156 158
-1215.51546194682 15.7771873334543 2796.59082420362 158 159 161
-1222.57999996933 15.0244367476246 2798.73449552872 151 155 156
-1229.70533238749 14.4578688265266 2798.85471557085 146 150 151
-1236.69871518491 13.6141755121507 2802.01519324001 149 153 154
-1243.71387319685 12.8640630777704 2804.16501995102 151 155 156
-1250.52303041067 11.7464875695824 2810.37251070621 150 154 155
-1257.39298943529 10.815211194235 2814.55630867761 147 153 153
-1264.12967711308 9.70207574873202 2820.77307177845 147 153 153
-1271.04856378777 8.95770565293388 2822.93465719221 150 154 155
-1277.89211717249 8.12287303075065 2826.11404962072 150 154 155
-1285.01600096405 7.74555217147835 2824.21809733362 156 160 161
-1292.08078450083 7.27673214442381 2823.33768873565 158 162 163
-1299.14440768638 6.80783673292265 2822.45742514119 153 157 158
-1306.06942664897 6.15756878767496 2823.61055063756 149 153 154
-1313.12524497994 5.68896156253204 2822.73126028387 148 152 153
-1320.17987344504 5.22028083319354 2821.85211861198 150 154 155
-1327.92405581084 5.56291432606626 2811.8148834328 157 161 162
-1335.6359372029 5.81234138314329 2802.78985204695 160 164 165
-1343.88235543947 6.59763832874605 2787.65009930214 159 163 164
-1351.77878873119 6.9298558975058 2777.59389153748 158 162 163
-1359.80976148909 7.34829144965793 2766.51297989264 159 163 164
-1367.44247265367 7.31687243003348 2760.52162937585 143 147 148
-1375.37942665261 7.55091593191418 2751.46855077132 152 156 157
-1383.45366311235 7.8709703077022 2741.39018625378 154 158 159
-1391.67318236238 8.27655825547619 2730.28577895511 150 154 155
-1399.54170120573 8.3244877975405 2723.25710497428 131 135 136
-1407.13043185662 8.10519039327098 2719.28735220176 140 144 145
-1414.84030418933 7.97299434924867 2714.294565187 146 150 151
-1423.00640752594 8.19145430697507 2705.21293113855 145 149 150
-1432.33075193405 9.28541031243174 2685.90661780727 143 147 148
-1443.69382311813 11.8629497538413 2649.21033471878 154 158 157
-1460.39163442539 18.2767477570306 2567.49660886836 172 174 173
-1474.99849290156 22.8292873653028 2507.2115938019 132 134 131
-1484.16411253232 23.2669734595788 2494.98134714148 108 110 107
-1490.01144823735 21.3536047077076 2510.38062764912 128 130 127
-1026.74654977 24.4959692889528 2780.82266806536 155 157 154
-1034.35813307894 23.1677071955706 2788.94594981978 163 165 162
-1041.92022027644 21.8423619036835 2797.07564098374 138 140 137
-1049.23306092374 21.1804367902736 2798.18039932537 134 136 133
-1056.53419706394 20.5189860673901 2799.28637680227 131 133 130
-1063.70801182843 20.3280322965922 2795.36832843746 117 119 116
-1070.93799308712 19.9481056159797 2793.45938294478 115 117 114
-1078.1370020219 19.7548898878203 2789.53819645325 105 107 104
-1085.35131048635 19.560400880851 2785.615104024 105 107 104
-1092.54384026607 19.6444968928141 2778.6706942388 98 100 97
-1099.77744706607 19.6331604795024 2772.72933696915 100 102 99
-1107.01631056992 19.8986842718176 2763.76305276037 97 99 96
-1114.28891991107 20.3466791577789 2752.77670254309 123 125 120
-1121.5886190285 22.3649605967932 2724.65095437516 162 164 159
-1128.99764486751 21.6010738767059 2726.75166498397 132 134 129
-1136.34677245342 19.8234754585681 2739.94779900066 117 119 116
-1143.65217513142 18.5109886955331 2748.10948901267 113 118 114
-1150.90783267031 17.2014619556925 2756.27737912883 120 125 121
-1158.10190253913 15.8033093665599 2765.46087551333 121 125 124
-1165.25547993728 14.4999871065987 2773.64148828829 139 143 144
-1172.35943952613 13.1997635597846 2781.82804464342 154 160 160
-1179.49399397782 12.2672507942821 2785.97906619452 156 162 162
-1186.57763762966 11.2453125571913 2791.14436370945 160 165 168
-1193.67865762845 10.4070649069213 2794.29139455126 162 163 165
-1200.72889045439 9.47947349260275 2798.45268571381 161 162 164
-1207.78174612027 8.6438786353138 2801.60596046232 158 159 161
-1214.91255301558 8.08051292515225 2801.72524862042 156 157 159
-1222.00047895515 7.42724256123001 2802.85805219593 149 153 154
-1229.15438440721 6.95444703914802 2801.96653217914 148 152 153
-1236.22378424859 6.30202591806392 2803.10140519699 143 147 148
-1243.2812804241 5.65021632722257 2804.23800238026 143 147 148
-1250.13870504742 4.64143537456593 2809.43149604331 145 149 150
-1256.86329023848 3.45628713132384 2816.65740593554 157 163 163
-1263.64836894327 2.45202544560888 2821.85991604019 156 162 162
-1270.45502442786 1.53863741768476 2826.05156681081 150 154 155
-1277.40685063119 0.892962388627266 2827.20133482674 152 156 157
-1284.5280790523 0.513454168986766 2825.30595994325 157 161 162
-1291.59037983206 0.045210363149889 2824.42585966123 156 160 161
-1298.51975634801 -0.599335606822959 2825.57818602335 153 157 158
-1305.30008992062 -1.41921160295225 2828.76542852291 152 156 157
-1312.48507505146 -1.71095132377078 2825.85393867682 152 156 157
-1319.67955275514 -2.00347494253711 2822.94126627813 149 153 154
-1327.80264639023 -1.2475582988799 2807.81698108648 153 157 158
-1335.52411547102 -1.02018229961792 2798.79081128443 160 164 165
-1343.86109929723 -0.186180965959237 2782.63170086125 159 163 164
-1351.43099837932 -0.226495985064218 2776.64845261705 164 168 169
-1359.46322624375 0.165041841392655 2765.5672149078 164 168 169
-1367.27787474831 0.293335217297075 2757.53736489329 162 166 167
-1375.22164206106 0.50550440496766 2748.48349363271 162 166 167
-1383.11182759222 0.628657166686003 2740.44423058147 152 156 157
-1391.03836586267 0.749344744788827 2732.40043741526 144 148 149
-1399.00125501626 0.867537396428197 2724.35211444405 129 133 134
-1406.89716646005 0.897626741818147 2717.32006901015 137 141 142
-1414.82411986648 0.925619091641572 2710.28415524521 159 163 164
-1422.89093540523 1.03680284182492 2702.22288133322 157 161 162
-1432.22039845273 2.08172931279915 2682.91605834354 145 149 150
