ply
format ascii 1.0
comment KinectMotionCapture
element vertex 751
property float x
property float y
property float z
property uchar red
property uchar green
property uchar blue
end_header
-285.621239868127 494.118465104399 2124.99871805523 149 153 154
-288.272089695603 494.153051936001 2130.96539082023 171 175 176
-289.057916853475 493.727032832282 2137.51129628649 176 180 181
-290.776446763181 493.530991284313 2143.76809064799 177 181 182
-286.887555163982 491.95519576976 2151.71430389877 176 180 181
-284.860798313153 490.839870924825 2159.07140578559 173 177 178
-286.572429257241 490.644006287943 2165.30269733231 171 175 176
-288.284160665786 490.447898966265 2171.5342086654 167 171 172
-291.87102069104 490.710745066824 2177.22389441038 166 170 171
-288.893279582018 489.366502776958 2184.80290105039 169 173 176
-292.481022691527 489.628813496449 2190.49552750254 171 175 178
-298.890441457653 490.578569733127 2195.40953859287 175 179 182
-307.188192400738 491.985846120996 2199.82891241165 174 178 181
-311.731368864529 492.474956875246 2205.31667395547 164 168 171
-319.104606200255 493.650658719954 2210.05455531315 168 172 173
-334.026953025942 496.657167848134 2212.80332635506 172 176 177
-340.479983086883 497.600811542407 2217.87539849617 137 141 142
-487.237420658099 549.590356367661 1918.84521745085 219 225 225
-457.88558325615 541.591429023366 1937.3016772949 190 194 195
-418.366709164622 531.079415996122 1959.28653217391 180 181 183
-390.750601729702 523.549686493522 1976.69007435512 183 183 185
-381.513800756877 520.600400433777 1987.29317858683 192 190 193
-375.025948330762 518.338905428105 1996.84693508315 193 191 192
-369.448197117665 516.307344704869 2006.02763807037 191 189 190
-362.935544816225 514.048255797498 2015.49083657476 190 190 190
-359.182615712333 512.475798451601 2023.94395946762 190 192 191
-352.646806314711 510.219048316767 2033.32172776859 189 195 193
-348.874816314081 508.648347769229 2041.70519043821 190 196 194
-335.831145569348 504.796302276218 2053.19038884645 189 198 195
-328.326871036798 502.315472558933 2062.72821320456 188 197 194
-317.097337132984 498.923845592967 2073.44606050571 186 192 190
-306.776184482313 495.762243603138 2083.78545470562 183 189 187
-293.64877115925 491.918930212106 2094.96524632567 178 182 181
-287.007925213951 489.672587949781 2103.96053452008 173 177 176
-285.938195329469 488.793836229035 2111.12392946234 168 172 173
-285.795813424488 488.143052999227 2117.97706366135 142 146 147
-283.786184187678 487.037163427759 2125.40464298233 157 161 162
-285.502363559665 486.841682563194 2131.65306424413 170 174 175
-285.351723349253 486.191233458914 2138.47574792302 176 180 181
-287.066707612982 485.995500891422 2144.71957307004 176 180 181
-284.106764287661 484.66338184898 2152.37231337642 175 179 180
-280.204061084862 483.104766200472 2160.27809331807 173 177 178
-280.975064676357 482.682230528363 2166.77023202157 172 176 177
-283.618892665619 482.713593127509 2172.70972748845 167 171 172
-288.140104475452 483.198348256544 2178.11225964083 164 168 169
-286.09554580731 482.094772593494 2185.41068468739 164 168 171
-288.741787985659 482.125234990864 2191.3585752249 166 170 173
-296.089882630818 483.288579943408 2195.99530520553 163 167 170
-304.387413727774 484.677244958081 2200.40304155451 177 181 184
-309.870843820721 485.385170248519 2205.62175015248 180 184 187
-314.417507894629 485.865732581519 2211.11706348344 150 154 155
-329.341238972757 488.835067796286 2213.8475043205 141 145 146
-338.623014300741 490.444435073995 2218.15256606337 169 173 174
-342.25026625105 490.695446613654 2223.98474738727 122 126 127
-507.438636566507 548.601010108622 1895.80830956664 184 188 187
-490.992597293799 543.857015688882 1909.68426117792 176 180 181
-474.5180006041 539.116049686691 1923.45609668132 178 182 183
-446.980623365304 531.662080782672 1941.20070894837 186 190 191
-404.673810224572 520.593099507826 1964.17181311778 191 195 196
-386.242673380019 515.412040540064 1978.19511662938 194 195 197
-378.840223034216 512.9474510486 1988.12124746428 192 193 195
-371.423607463976 510.484239887323 1997.99565580267 191 192 194
-363.992796364631 508.022453885916 2007.81825869508 188 189 191
-356.547759905458 505.562110936049 2017.58895668174 189 193 194
-351.862236373733 503.780437662311 2026.34377164761 190 194 195
-345.316164241925 501.548334924928 2035.69992652693 191 195 196
-338.757305243752 499.317494428532 2045.00940319049 192 196 197
-326.625464329671 495.734839924975 2056.15287700732 188 194 194
-320.96405840444 493.732414425186 2065.04230992162 187 196 193
-312.506982354363 491.055074898855 2074.81482336741 180 186 184
-302.17632161654 487.928755831141 2085.1411916932 178 184 182
-289.967745875124 484.353943603102 2096.00564436048 180 184 183
-284.250212892114 482.357222327039 2104.68936083558 179 183 182
-285.038661307882 481.936799371116 2111.2476026109 155 159 160
-283.96216593843 481.066426393466 2118.39116853323 152 156 157
-281.948817593429 479.971437114562 2125.81182140851 159 163 164
-280.863207826876 479.101728339298 2132.9219667034 175 179 180
-282.575259625031 478.906378250895 2139.15514565776 182 186 187
-284.287426723098 478.710841528295 2145.38863486704 177 181 182
-282.258183594901 477.616990059184 2152.75006285864 176 180 181
-279.287224537911 476.299149617107 2160.36998965063 174 178 179
-279.119452425046 475.654992803903 2167.13396757916 172 176 177
-280.824090844269 475.459546964285 2173.33956165823 165 169 170
-283.467028579485 475.488095322802 2179.27397502212 161 165 166
-284.233619593345 475.068062927972 2185.75131112792 160 164 165
-286.878158830154 475.096036141663 2191.69130743699 166 170 173
-293.286189492257 476.019503047577 2196.58263803946 164 168 171
-299.701281788583 476.941886154383 2201.50043187424 170 174 177
-303.298173209333 477.19190326212 2207.21926267012 178 182 185
-308.783102606832 477.88877348955 2212.4374873265 174 178 179
-320.877442841089 480.150174783804 2215.90589226448 151 155 156
-333.931492417157 482.63298587151 2219.18190508156 139 143 144
-340.389653379221 483.549485188319 2224.2549606915 129 133 134
-504.6809518503 541.883959865315 1881.32877282536 233 237 238
-497.425529325391 539.430252599191 1891.80765960995 205 209 210
-486.485017430516 536.082418022893 1903.62623720579 176 180 181
-471.850530571253 531.84137557155 1916.75302464804 179 183 184
-450.756236628933 526.037042477326 1932.18400631836 188 192 193
-420.426796508003 518.000074796742 1950.88405160162 189 193 194
-399.253519081402 512.204176203217 1966.02803719985 191 195 196
-384.4941493265 507.976529982923 1978.69868758345 191 195 196
-378.929839663766 505.985613028913 1987.95495676086 190 194 195
-366.894440416174 502.432508294812 1999.47608478331 190 194 195
-358.531887145273 499.774636302361 2009.61183356398 186 190 191
-348.305100416514 496.672017760433 2020.3388289979 188 192 193
-347.309421023605 495.802074973782 2027.78272040171 189 193 194
-341.681089696567 493.817428863288 2036.80617779229 190 194 195
-335.115290456821 491.611010191581 2046.10437633823 191 195 196
-319.26516779517 487.177543436162 2058.49258005656 196 200 201
-310.810542245673 484.528926532112 2068.29325471329 193 197 198
-302.340428719659 481.881978052582 2078.03654988217 176 180 181
-293.854610620004 479.236614819861 2087.72253788898 176 180 181
-286.283024894136 476.815343109987 2097.04805078691 170 174 175
-282.420065757687 475.285216564506 2105.11937918553 143 147 148
-284.137412302967 475.089889542496 2111.37223106114 138 142 143
-283.058330951973 474.227599668278 2118.5112989892 155 159 160
-281.975058260048 473.365606802791 2125.63499280562 145 149 150
-280.887580416771 472.503912543279 2132.74326224345 174 178 179
-277.927328408129 471.198538854829 2140.41081306303 176 180 181
-277.764993803411 470.559515364565 2147.19822030496 175 179 180
-276.664157190315 469.698774007963 2154.2574928617 173 177 178
-275.559083148286 468.838378315196 2161.30125090938 171 175 176
-276.324348235222 468.421633097375 2167.77573945987 172 176 177
-278.026156466429 468.226456816743 2173.97099579097 165 169 170
-278.78943506842 467.809565864261 2180.43801690296 159 163 164
-281.430024839474 467.835511898403 2186.36206976472 159 163 162
-285.012428414182 468.082438870304 2192.0251590778 161 165 166
-290.479356635738 468.77136855409 2197.17153565247 164 168 169
-293.127377249871 468.795863068561 2203.12226136465 170 174 175
-298.603810991044 469.483332351551 2208.30300805001 171 175 176
-305.029257226422 470.390964449378 2213.24900199382 180 184 185
-315.236908293408 472.181275345142 2217.20864781006 184 188 189
-326.402002467965 474.19072355134 2220.96512367252 170 174 177
-337.581577234704 476.198309263933 2224.77418725467 138 142 145
-337.424563689044 475.555868696443 2231.57919318231 146 150 153
-502.922737584141 534.731410186532 1874.18144281356 193 197 198
-489.252561244445 530.754223409972 1887.15786146851 182 186 187
-479.227893624675 527.664679378804 1898.64354010147 189 193 194
-468.266471515477 524.355807722727 1910.41001034042 195 199 200
-455.447521783769 520.606793365626 1922.79460229136 186 190 191
-429.731437422934 513.765698486796 1939.8946848347 187 191 192
-409.494323658835 508.255020657558 1954.79728668102 190 194 195
-391.064823830318 503.189709515813 1968.89974523018 191 195 196
-383.665060901448 500.777333305962 1978.86881865003 191 195 196
-376.251114280976 498.366380886914 1988.78612970988 190 194 195
-366.053342162983 495.294979847823 1999.64055980391 191 195 196
-355.83704420004 492.225490349661 2010.42741391347 191 195 196
-346.52701443046 489.378421120871 2020.82223930872 190 194 195
-342.751918337324 487.85537604449 2029.22425683534 191 195 196
-333.411782283561 485.011319489634 2039.51013456521 192 196 197
-325.908246626278 482.609457629519 2049.10055839336 193 197 198
-310.970275893309 478.447958540689 2061.14986018621 195 199 200
-302.50405704312 475.829565657359 2070.92657305413 188 192 193
-295.880406002619 473.652799977471 2080.0287005492 175 179 180
-288.314063728466 471.257407728398 2089.3900202924 177 181 182
-284.455091852029 469.742691353451 2097.4858817809 168 172 173
-281.518701458537 468.448472514191 2105.2499977111 139 143 144
-282.302873698028 468.033526470998 2111.795820718 145 149 150
-281.220480095066 467.179418138613 2118.92775630089 153 157 158
-282.000603677407 466.764593744473 2125.45862424014 141 145 146
-281.845225335646 466.130311301585 2132.27485197215 178 182 183
-278.883020492091 464.838247556753 2139.94355550006 175 179 180
-278.719943833696 464.204494422669 2146.73153506912 176 180 181
-276.681818313875 463.132610564767 2154.07385368121 169 173 174
-276.511729913964 462.499307333645 2160.83608407345 173 177 178
-277.276650726926 462.085186979013 2167.31095160335 176 180 181
-278.040218240063 461.671035399482 2173.78077488248 163 167 168
-277.863181116245 461.038001483835 2180.51737605646 160 164 165
-279.563043268729 460.842617028965 2186.70527554837 159 163 162
-284.084611718725 461.303011258418 2192.09375163909 161 165 166
-287.669386034176 461.544176234769 2197.76200522555 164 168 169
-287.489003110394 460.910821639261 2204.48598163955 170 174 175
-291.076778484723 461.151278488191 2210.16493049485 173 177 178
-299.384513868443 462.482802130809 2214.57447728967 171 175 176
-308.646489660285 464.031190679471 2218.76752845821 184 188 189
-321.699732536716 466.450732467581 2221.99967221157 149 153 156
-334.770120882422 468.868038652285 2225.29499131148 130 134 137
-337.448660568088 468.885342454648 2231.35355949298 149 153 156
-508.490777606309 529.334647053481 1864.17114965683 230 234 237
-488.416053655193 523.869814185786 1879.70561715991 180 184 185
-480.229424589091 521.251318995808 1890.52032750697 184 188 189
-464.684586531835 516.885744215882 1904.08485656639 191 195 196
-448.194161798491 512.304556571988 1917.89880133687 189 193 194
-427.998104730325 506.852716690255 1932.99098584814 190 194 195
-414.207700058245 502.93300522446 1945.55730717141 194 198 199
-399.472179950078 498.797561489982 1958.37564746412 192 196 197
-385.632542798531 494.883081875204 1970.76248135727 192 196 197
-374.535169013506 491.625481621233 1982.05563072637 190 194 195
-367.109330829128 489.242043814765 1991.9461620261 191 195 196
-356.898465756637 486.206224772814 2002.77444515647 194 198 199
-351.290825155467 484.261665555623 2011.89910290027 193 197 198
-341.971477794807 481.447062851499 2022.28076059258 190 194 195
-338.189701008178 479.940445123782 2030.6683453816 191 195 196
-327.914045038255 476.911296301635 2041.26028383607 193 197 198
-320.401486752511 474.536718338576 2050.83443403741 192 196 197
-304.523173527882 470.206520034215 2063.18317001443 193 197 198
-294.189626342559 467.18346007316 2073.56401392064 181 185 186
-286.625645799291 464.8142372455 2082.95062431043 168 172 173
-281.837731160622 463.098070995859 2091.36663887 168 172 173
-281.694111757581 462.468501181521 2098.22857152125 148 152 153
-280.616059553104 461.622006923235 2105.38143299361 122 126 127
-282.330648280047 461.426738907913 2111.62408288399 149 153 154
-282.179316859578 460.797490667503 2118.45851437348 143 147 148
-283.892747489747 460.601995551888 2124.69672109828 131 135 136
-281.868611125477 459.539483834947 2132.0968957823 175 179 180
-278.903499766995 458.260804311334 2139.76418710906 176 180 181
-277.803140831537 457.4158645844 2146.835209511 171 175 176
-276.698771402792 456.571323620113 2153.89066447275 161 165 166
-275.589958523489 455.727000594044 2160.93068839077 176 180 181
-274.476899337126 454.883024258611 2167.95516548524 181 185 186
-275.237008513582 454.471763912524 2174.41490303403 162 166 167
-275.056548467623 453.844433078737 2181.14146717379 161 165 166
-276.753576486257 453.649318639208 2187.31901455574 160 164 163
-280.332420912413 453.885934441056 2192.96330853735 159 163 164
-282.97285101546 453.906201647137 2198.88225424585 159 163 164
-285.614557686142 453.926083009154 2204.80662502053 167 171 172
-290.144065165032 454.377081831768 2210.2186454015 174 178 179
-297.509471506895 455.474303901477 2214.87790379235 182 186 187
-307.717050167681 457.216944316711 2218.80811315523 164 168 169
-321.718959821984 459.819812364704 2221.78189294018 193 197 200
-335.739688636263 462.420316142056 2224.82405190095 176 180 183
-340.311991312235 462.865498990427 2230.39129055939 134 138 141
-335.414171074745 461.157884691844 2238.40464642565 139 143 146
-483.91532630564 516.120758331491 1873.69009001348 213 217 220
-471.145187142645 512.450827648408 1886.30583533113 182 186 187
-464.775142922331 510.295218902312 1896.36291262438 188 192 193
-453.800872688372 507.061326492294 1908.129018265 187 191 192
-438.212201233334 502.750507500682 1921.5644434253 187 191 192
-416.158435751353 496.932364143308 1937.32162564977 194 198 199
-402.351170955667 493.059183850498 1949.85472598526 192 196 197
-391.282838839581 489.835274787885 1961.27790125609 192 196 197
-379.272999417666 486.398046544182 1972.96615722901 192 196 197
-369.086786285358 483.393862920121 1983.90594112836 191 195 196
-362.57517009246 481.252945317323 1993.44759367605 191 195 196
-354.202904328956 478.682875099105 2003.60271531906 194 198 199
-347.664342515102 476.544683968804 2013.04604540934 193 197 198
-336.485836784472 473.33239772741 2024.06657666116 191 195 196
-327.139568415248 470.552203516986 2034.37000564666 192 196 197
-315.922514575747 467.343971192174 2045.24997475618 194 198 199
-307.468333628997 464.782392845368 2055.10632270178 192 196 197
-297.141681185717 461.792899257279 2065.53395748453 190 194 195
-291.441663523691 459.878729553914 2074.33575267741 174 178 179
-285.730488200993 457.96574189401 2083.09593892091 166 170 171
-281.868809474691 456.48290069393 2091.20187472311 172 176 177
-281.723504756393 455.858580438037 2098.06179344801 148 152 153
-279.711694218828 454.805763208737 2105.51385210277 118 122 123
-281.424908693347 454.610480833387 2111.75139059708 155 159 160
-281.271389781949 453.986626796399 2118.58110597914 143 147 148
-282.983438425088 453.791168760898 2124.81420506741 136 140 141
-280.021528643283 452.525455691693 2132.50064053888 175 179 180
-277.988009796839 451.474325965622 2139.87316589868 177 181 182
-278.757487794071 451.065202545144 2146.36903718573 163 167 168
-276.714806489609 450.01478590474 2153.70799433967 157 161 162
-273.728777491596 448.751219692224 2161.30623530153 175 179 180
-269.797010403834 447.27465047821 2169.15590655823 181 185 186
-270.552659220641 446.866548723835 2175.6001488128 165 169 170
-273.186607643173 446.885298321375 2181.49500019584 163 167 168
-275.822077936955 446.903705828517 2187.39528601058 158 162 161
-279.400560148729 447.135106696567 2193.03401370248 157 161 162
-282.039776543461 447.152748791649 2198.94772481473 156 160 161
-283.737766742135 446.956988732037 2205.12843697185 161 165 166
-288.26636802374 447.400135039959 2210.53213515323 168 172 173
-293.743517415224 448.055540633892 2215.69529557322 184 188 189
-303.951395950979 449.774411515733 2219.61068245155 176 180 181
-318.90061461146 452.555448348334 2222.31780096801 171 175 178
-331.031081899662 454.695954366903 2225.84401162845 188 192 195
-341.282891564709 456.409188476381 2229.9198764391 158 162 165
-341.121648920762 455.783079375367 2236.71856236414 129 133 136
-481.249244236591 508.819733768255 1866.97460590177 193 197 200
-468.482517735747 505.191520095823 1879.62935970174 172 176 179
-454.775901946414 501.352349136442 1892.55762178387 186 190 191
-446.552479786785 498.795471281922 1903.27462854582 186 190 191
-432.801756208474 494.960997243899 1916.04209244262 190 194 195
-421.784946380211 491.768511366064 1927.67546980139 192 196 197
-405.227647948777 487.299824577837 1941.31215278852 193 197 198
-393.245712335253 483.899033054129 1953.12794339302 194 198 199
-384.007242912148 481.139233131413 1963.84355560054 192 196 197
-379.362877439581 479.445197071608 1972.80651192231 193 197 198
-365.478697989782 475.624865432417 1985.08833811769 193 197 198
-358.036286978321 473.295666268608 1994.95158119818 192 196 197
-350.579693537263 470.967934074441 2004.7630938651 193 197 198
-342.183810100546 468.429204165313 2014.85031434687 191 195 196
-329.142873271902 464.830090357659 2026.50535107471 189 193 194
-316.079051713741 461.233435542504 2038.07697376627 191 195 196
-305.774272869566 458.275927584527 2048.60601498776 192 196 197
-297.307054920818 455.74471134651 2058.43312814614 188 192 193
-292.539082434129 454.063396921067 2066.94518762475 150 154 155
-289.619989180543 452.807000289841 2074.79740340741 154 158 159
-284.83360669991 451.127497356987 2083.24225386835 171 175 176
-280.037278510457 449.448978616654 2091.65079922938 160 164 165
-278.957492740446 448.618397313367 2098.80727091941 132 136 137
-279.738338446363 448.211482826959 2105.34581386362 118 122 123
-280.517661643919 447.80450622361 2111.87959383781 149 153 154
-280.362172075685 447.186115098749 2118.70451253151 134 138 139
-280.2037028814 446.567837600686 2125.51936921819 144 148 149
-277.236941812638 445.315784137155 2133.19641677194 178 182 183
-276.134874168747 444.486862802363 2140.2712082486 177 181 182
-275.965217358472 443.869409856013 2147.0450480886 160 164 165
-272.980737450471 442.61892909199 2154.65730198521 160 164 165
-269.050839379443 441.158094462719 2162.52384652782 175 179 180
-266.051156285409 439.908982183677 2170.08144698671 177 181 182
-267.742353345093 439.714722643663 2176.23788489971 161 165 166
-271.31432575732 439.941836284571 2181.849736251 156 160 161
-274.889268161875 440.168440352643 2187.4722928841 156 160 159
-277.52526183522 440.183927891763 2193.37267838963 159 163 164
-281.105163791552 440.40959740667 2199.01398786098 160 164 165
-283.745110298382 440.42440385233 2204.92769043325 157 161 162
-290.161950881878 441.280167848148 2209.80991549651 158 162 163
-293.752339491971 441.504234522256 2215.48821888568 159 163 164
-303.017659769037 442.988750996207 2219.65336198812 173 177 178
-311.348552920929 444.261707339933 2224.11191271088 183 187 190
-322.530261994174 446.163405830416 2227.8611198835 173 177 180
-336.568614934215 448.692898297499 2230.92480996768 178 182 185
-341.143434122042 449.121810469641 2236.49111948823 128 132 135
-497.80910196992 505.958656744839 1852.61611633253 237 241 244
-476.815320223471 500.4727833996 1868.6222679227 184 188 191
-459.453563714422 495.833906575651 1883.06102704241 183 187 190
-445.732036362286 492.040940421015 1895.96402573181 189 193 194
-429.231489104201 487.618820718058 1909.84081472249 189 193 194
-419.135752100554 484.673420543971 1921.15363154767 193 197 198
-412.700806883253 482.571783766486 1931.00381923487 192 196 197
-403.491448183849 479.840316436247 1941.84633059211 190 194 195
-388.737708310783 475.84896970791 1954.68799977483 193 197 198
-378.568280077454 472.911442336956 1965.73125696054 190 194 195
-372.993293077236 471.026396958147 1975.01565406921 189 193 194
-362.790249134412 468.092324247692 1985.93721282835 192 196 197
-353.492711791377 465.370159838938 1996.45820754195 194 198 199
-344.178313952594 462.649844255807 2006.9168407686 192 196 197
-335.772072053973 460.141065661476 2016.98544102622 192 196 197
-320.866572476684 456.166028639773 2029.2730242437 184 188 189
-309.64319881212 453.032266037729 2040.17654536583 195 199 200
-296.54431898522 449.481539302175 2051.64700016189 195 199 200
-290.84987551156 447.608944930149 2060.49573971137 183 187 188
-287.931747731621 446.365701161822 2068.35891511502 142 146 147
-287.7960099195 445.750961228546 2075.26040240166 156 160 161
-284.865972670167 444.508791576271 2083.08003842028 180 184 185
-280.066160345416 442.849009403254 2091.48747715756 138 142 143
-278.984509182509 442.026398980526 2098.64205540608 134 138 139
-279.764063013005 441.622052957502 2105.17835248588 120 124 125
-279.609127911689 441.008883330931 2112.00862638724 146 150 151
-279.451225889799 440.395833082504 2118.82888908563 137 141 142
-278.355703629654 439.574256478308 2125.93261936766 169 173 174
-277.255977480165 438.753021658926 2133.02095721755 178 182 183
-275.215723880737 437.723603938128 2140.38218558299 173 177 178
-275.981118780873 437.320093873654 2146.8655120874 168 172 173
-272.05597472366 435.874624060806 2154.75940789228 157 161 162
-268.122254556059 434.430016143575 2162.62200643593 176 180 181
-265.119380828947 433.194486856341 2170.17540726699 183 187 188
-266.809184221163 433.000316292937 2176.32672694101 158 162 163
-270.38034780838 433.222086300293 2181.93313061559 156 160 161
-273.013337173313 433.235451705554 2187.82009288609 159 163 162
-274.705525907595 433.04057923826 2193.97982572231 160 164 165
-278.283393058966 433.261147917771 2199.61035996122 155 159 160
-280.920899128041 433.273557695672 2205.51348853586 153 157 158
-288.281170749497 434.323795857968 2210.12494855921 155 159 160
-290.925265556754 434.335162004209 2216.05188093297 159 163 164
-298.299570507806 435.383553213315 2220.7133488666 160 164 165
-304.735924213586 436.223377004213 2225.65795851752 181 185 188
-314.968565454972 437.89148117226 2229.63323302308 181 185 188
-327.109971803805 439.97233473365 2233.16332585554 183 187 190
-334.52409451502 441.015535935142 2237.96935262947 133 137 140
-332.453049817593 439.987050987656 2245.21684858718 144 148 149
-477.815344604187 494.036129578758 1860.47782639847 199 203 206
-463.210979218647 490.076081262311 1873.89385395554 182 186 189
-451.332905579023 486.743009649434 1886.13801851925 189 193 196
-436.679643948162 482.788305849893 1899.37494912653 192 196 197
-420.163190075185 478.420506596415 1913.22697506181 190 194 195
-410.973748199384 475.718463978582 1924.16201090451 192 196 197
-401.767498228621 473.01825690516 1935.03487142905 193 197 198
-398.069419972418 471.565834215759 1943.76742836712 191 195 196
-384.225215394243 467.830799814116 1956.25059661389 192 196 197
-374.968341593303 465.135870059322 1966.9397616242 193 197 198
-367.540617120159 462.857626393188 1976.88970357666 192 196 197
-356.403624764184 459.751500946961 1988.13139022065 194 198 199
-346.171102083008 456.85476813621 1998.96707465988 194 198 199
-335.920062710556 453.959989132517 2009.73524378507 191 195 196
-326.576354373559 451.274293496046 2020.10783912101 192 196 197
-313.508916515048 447.762338094639 2031.71950997391 192 196 197
-304.128327154331 445.080647900271 2041.95677310121 188 192 193
-291.946041906045 441.780153170967 2053.09202692469 196 200 201
-289.030836052225 440.549734984587 2060.97414826835 152 156 157
-287.037860652863 439.526597628142 2068.51580544014 139 143 144
-285.969720689785 438.710620174976 2075.72473583524 172 176 177
-283.966491542615 437.68848089116 2083.22802395941 143 147 148
-280.094123781489 436.253933881014 2091.32476389359 144 148 149
-279.010594914243 435.439324645921 2098.47742212493 130 134 135
-277.92310882247 434.625108012675 2105.61470680294 119 123 124
-278.698859070176 434.223534211206 2112.13863216088 146 150 151
-277.604213532045 433.409806309864 2119.25057280002 140 144 145
-277.44086015654 432.802469896748 2126.05327408486 173 177 178
-274.466328817387 431.577440039756 2133.71946246056 168 172 173
-274.295272625567 430.970727326247 2140.49395846941 170 174 175
-274.121213763693 430.364152567086 2147.25832227252 161 165 166
-272.068059025949 429.346401033727 2154.57901665997 154 158 159
-269.070125427527 428.123507321768 2162.15966568386 174 178 179
-263.246249010459 426.284764822876 2170.54828936067 182 186 187
-265.874255089515 426.296201036392 2176.41646069923 160 164 165
-267.56273907695 426.101973665559 2182.56284581666 158 162 163
-270.193064876542 426.112867201431 2188.43928720467 157 161 160
-273.76761250739 426.328707390359 2194.05358237056 158 162 163
-277.345115708431 426.544046895244 2199.67853488361 155 159 160
-280.92533302269 426.758877621534 2205.31417217343 153 157 158
-287.342919468161 427.588119924361 2210.18149304499 154 158 159
-289.040405089172 427.392042740108 2216.36013158825 158 162 163
-294.522570265453 428.014945079345 2221.52139378068 156 160 161
-297.169828373067 428.02294882609 2227.45887704816 171 175 178
-306.452091893139 429.46297513717 2231.65790930885 175 179 182
-320.487531725612 431.924163516898 2234.66673094808 183 187 190
-334.541772492688 434.383025837836 2237.74388822087 140 144 147
-461.418912187382 483.682162776349 1859.3071545137 218 222 225
-453.221785844625 481.209088149845 1870.17377243836 189 193 196
-447.760064192615 479.354058377179 1879.89672284539 184 188 191
-435.863049635618 476.062429641526 1892.09672835833 185 189 192
-426.6999776009 473.389029308396 1903.14775349173 188 192 193
-413.843610781125 469.896600967589 1915.55448908397 185 189 190
-407.403218282311 467.84258724163 1925.41544780669 189 193 194
-396.347356120684 464.764597956821 1936.97611866059 192 196 197
-388.956510850333 462.508611106585 1947.07796667579 190 194 195
-372.331500138274 458.205190671079 1960.56758775952 190 194 195
-365.828224363234 456.157900845638 1970.19838929869 192 196 197
-358.388604380351 453.907172248439 1980.12153712904 192 196 197
-352.783033218719 452.067205339597 1989.32084142676 194 198 199
-344.391620666876 449.614752359037 1999.47913216384 194 198 199
-333.207668227378 446.5504725724 2010.57288438046 192 196 197
-322.930013213177 443.692738440984 2021.26562303739 195 199 200
-307.998341950481 439.815328082058 2033.51860130303 191 195 196
-299.535645391631 437.370491243443 2043.4170369267 185 189 190
-291.057050546206 434.927262139245 2053.25838939014 190 194 195
-290.92617326112 434.322487903517 2060.18328565824 139 143 144
-288.93258251908 433.30989178991 2067.72838434965 156 160 161
-286.933184723956 432.297750750759 2075.2531389238 172 176 177
-285.859958041495 431.490051669714 2082.44748083508 146 150 151
-281.985944628125 430.071400226157 2090.54814641362 148 152 153
-279.036205385825 428.857244220572 2098.31324816635 122 126 127
-277.01311946572 427.847402278899 2105.75057588247 109 113 114
-274.984398186501 426.838074899469 2113.16730548238 148 152 153
-276.690050481165 426.642945048055 2119.37686338066 143 147 148
-274.65293586468 425.634321230429 2126.76287435643 173 177 178
-272.609937645381 424.626197444614 2134.12828538453 169 173 174
-270.561502513804 423.618637393928 2141.47293711328 173 177 178
-272.258970683064 423.423941400742 2147.65238287335 157 161 162
-272.07920212232 422.823081556354 2154.39915578164 151 155 156
-268.139512424264 421.410776621153 2162.25905601798 174 178 179
-261.370775301172 419.390766151487 2170.92240338048 183 187 188
-260.233923717374 418.588678258391 2177.88499013607 162 166 167
-262.858847670174 418.597611498644 2183.74013789764 159 163 164
-268.312254757924 419.214077249949 2188.78963419662 155 159 158
-272.828158380416 419.627166179155 2194.12814082549 156 160 161
-276.40506479602 419.837252976102 2199.74756130637 157 161 162
-279.040346235167 419.844497306962 2205.64009809576 155 159 160
-281.677340129662 419.851492954469 2211.53790686807 152 156 157
-284.315591256655 419.858141098116 2217.441093125 157 161 162
-287.902054016529 420.066609979355 2223.09497297188 158 162 163
-293.385897277716 420.678602573387 2228.25557772268 153 157 160
-299.823497004824 421.49169527232 2233.18793699451 155 159 162
-312.909768777809 423.716751895509 2236.41992281558 189 193 196
-330.760633058338 426.94840730126 2238.49488961381 181 185 188
-338.184012905008 427.958723026657 2243.31452414931 143 147 148
-451.440264394061 474.838276887961 1855.64081536238 216 220 221
-440.491357907576 471.785617438698 1867.61458360746 194 198 201
-432.272586965668 469.343705471008 1878.4205138491 189 193 196
-426.790223658264 467.511721799711 1888.08230495974 185 189 192
-422.214867800877 465.883652639802 1897.34312850434 188 192 195
-413.954479365187 463.446120695195 1907.99730646564 183 187 188
-404.758831627653 460.807681758209 1918.94945719442 184 188 189
-396.466572379353 458.373554221106 1929.48745443969 188 192 193
-387.237587083905 455.738682107246 1940.31808125532 191 195 196
-378.913430507101 453.307954823544 1950.73979671355 191 195 196
-367.806366333338 450.272251252963 1962.13706151799 193 197 198
-363.141145649003 448.653557360214 1971.07108264855 189 193 194
-356.6186845571 446.631852919348 1980.64680613882 192 196 197
-345.460207069481 443.60159740392 1991.85755202497 194 198 199
-337.057932618056 441.179197204295 2001.99448841038 194 198 199
-327.713832366006 438.556627798279 2012.40548323975 195 199 200
-319.279534319389 436.137642455427 2022.42567825446 192 196 197
-304.337261822785 432.308898750448 2034.66909277145 187 191 192
-295.866357912565 429.893786102349 2044.55675142839 192 196 197
-290.166768003884 428.084817215426 2053.42562405126 173 177 178
-290.033482053913 427.485332872345 2060.34584620252 131 135 136
-288.036902105818 426.483437101684 2067.88660219408 162 166 167
-287.896756406093 425.884500615748 2074.7817013273 175 179 180
-286.822374580858 425.084690271287 2081.97673495515 155 159 160
-282.013308228617 423.48090707752 2090.38609914851 139 143 144
-277.194512527707 421.878205722991 2098.75909417132 125 129 130
-274.23379503916 420.678323982394 2106.49151884855 105 109 110
-274.069878618627 420.081537372711 2113.29971927366 152 156 157
-273.903435969396 419.484999525459 2120.0977683398 145 149 150
-271.861638543059 418.487300891457 2127.47421957191 171 175 176
-267.940596084645 417.08903564663 2135.4131463023 175 179 180
-266.82400118992 416.293118205002 2142.45390885173 171 175 176
-267.579442952023 415.89829786897 2148.90669656752 155 159 160
-270.211914343455 415.904213549082 2154.78703233746 152 156 157
-265.327539321689 414.307905422435 2162.92150956703 177 181 182
-259.49294790216 412.512549973175 2171.29774285158 184 188 189
-259.29389483281 411.918743972534 2177.97736958673 160 164 165
-261.91804032436 411.925153232597 2183.8271045428 155 159 160
-266.428860068102 412.331017149088 2189.14124520898 155 159 158
-270.94408032606 412.736256591338 2194.47132986162 157 161 162
-273.575417430138 412.741400941265 2200.34789628994 158 162 163
-277.15299453213 412.945893562984 2205.96720405106 156 160 161
-278.842565982587 412.75082556248 2212.11709597598 153 157 158
-281.478592144714 412.755138683704 2218.00961814102 149 153 154
-282.221809128205 412.360302486104 2224.41700763565 154 158 159
-288.650108217021 413.161458886062 2229.30637048357 147 151 154
-296.034012242704 414.160873235042 2233.97255647442 141 145 148
-310.070644785024 416.553174440871 2236.94231465624 176 180 183
-328.875336559829 419.938473863908 2238.7593384005 187 191 194
-448.8288126516 467.037899956975 1856.60646779345 204 208 209
-435.122410635403 463.422058040573 1869.67652183965 192 196 199
-420.474600878634 459.608655821224 1883.0238336299 189 193 196
-414.061486678393 457.59895667526 1893.01312021223 187 191 194
-408.553931905056 455.790523567509 1902.59624894019 186 190 193
-404.873669475923 454.383148883971 1911.42339350498 184 188 189
-396.585414177739 451.977419805222 1921.99418593219 186 190 191
-388.281583727618 449.573369317005 1932.50821064711 189 193 194
-380.883482425457 447.370644582966 1942.6158163277 189 193 194
-369.78261386139 444.371014515838 1954.05978816074 191 195 196
-365.121826013842 442.770184794093 1963.02061702534 188 192 193
-361.37488410205 441.369871970119 1971.60372320577 190 194 195
-352.07363938279 438.774218716195 1982.19082567828 193 197 198
-337.205318610584 434.984760004619 1994.73453996456 195 199 200
-326.014280540101 431.994937418838 2005.84899300081 194 198 199
-319.435345164506 430.002798944798 2015.23463397057 195 199 200
-312.843864456677 428.012046330162 2024.57364251713 190 194 195
-305.311548785211 425.823688830464 2034.19200726942 185 189 190
-297.765016433649 423.636845586446 2043.75854429668 191 195 196
-292.062758771705 421.849046211708 2052.63180641882 177 181 182
-290.069490480702 420.857280915282 2060.19125379519 149 153 154
-288.070623211063 419.866033194314 2067.73024003131 161 165 166
-285.134519578397 418.676764392148 2075.56168060747 172 176 177
-284.055874347946 417.885115704495 2082.74696691271 96 100 101
-282.973057425826 417.093826740233 2089.91699165493 105 109 110
-280.952474581139 416.104650065231 2097.37665976704 128 132 133
-279.860572852921 415.314202400992 2104.51348555758 106 110 111
-277.829448558387 414.326013831742 2111.93463917071 153 157 158
-276.728439690982 413.536388388062 2119.03817104542 150 154 155
-271.877083563363 411.955331508833 2127.30394077414 171 175 176
-267.015738479813 410.375314369464 2135.53327990458 181 185 186
-264.958383708158 409.389711796357 2142.85867755978 162 166 167
-267.588815882572 409.393148385272 2148.73080597072 156 160 161
-270.220791668898 409.396298135768 2154.60848441539 154 158 159
-264.393037859263 407.621344928994 2163.02298531317 174 178 179
-260.435436780641 406.242485991543 2170.83842917857 178 182 183
-258.352542962119 405.259273914428 2178.07051459229 155 159 160
-260.975466459654 405.263022917778 2183.91496199976 149 153 154
-261.713935159555 404.87211513327 2190.30627321992 157 161 160
-266.226068515939 405.269732607775 2195.62008470063 159 163 164
-271.687022407056 405.863757089519 2200.68436158109 157 161 162
-278.098958044994 406.653945844327 2205.50697476857 154 158 159
-278.842690316608 406.261988832695 2211.91716617179 154 158 159
-280.531609986651 406.066844577065 2218.06459002029 149 153 154
-281.273231343844 405.674922300047 2224.46696594162 150 154 155
-287.701915021844 406.462726370799 2229.35025575464 156 160 163
-293.189299200167 407.053116310109 2234.50943942899 149 153 156
-302.480430781424 408.42848016428 2238.7015015951 142 146 149
-317.48485565649 410.980623189015 2241.46907839864 161 165 168
-324.901580784701 411.960030918895 2246.24449157847 147 151 152
-440.71807798281 458.07280412271 1859.79879835804 192 196 197
-426.081009851188 454.30554960345 1873.21419791664 190 194 197
-413.253099988208 450.936078613818 1885.80514646917 192 196 199
-404.993265565063 448.556075774613 1896.49863125844 181 185 188
-401.312766987436 447.164404674576 1905.33388444817 186 190 193
-394.864764108505 445.181839999588 1915.21169651149 183 187 188
-387.483764753993 443.00348603687 1925.398184801 192 196 197
-379.167419997534 440.629542327237 1935.88568321561 190 194 195
-371.757428710351 438.454295919175 1945.9664920887 187 191 192
-363.410833350365 436.083684680822 1956.34285086678 189 193 194
-364.280946747603 435.68303211621 1963.21678070248 189 193 194
-359.606111612823 434.101929577488 1972.13790945341 192 196 197
-350.297920167907 431.538526328456 1982.71958105986 196 200 201
-328.94246507882 426.421411225385 1997.61572506424 195 199 200
-316.81256709293 423.273325227296 2009.04077639705 194 198 199
-308.368353970433 420.913188104211 2019.06224138605 195 199 200
-306.401609253382 419.929135877464 2026.72503522244 195 199 200
-303.501078893949 418.749385634068 2034.69363288714 182 186 187
-298.735435768272 417.17797676357 2043.2837294404 186 190 191
-290.240791263775 414.823231812968 2053.12135692774 183 187 188
-288.243799841592 413.842251741594 2060.67379027424 168 172 173
-286.241207861891 412.861825532282 2068.20577952786 148 152 153
-284.23302369028 411.881923334308 2075.7173369023 152 156 157
-283.151776300918 411.098323517083 2082.89804353693 93 97 98
-282.999626274892 410.510761757014 2089.75575436581 148 152 153
-282.844740366833 409.923422544976 2096.6034479061 134 138 139
-281.752630546193 409.140833431269 2103.74353354517 109 113 114
-279.720435221833 408.163130662842 2111.16825984268 152 156 157
-278.61898272378 407.38135499061 2118.27510053849 151 155 156
-273.765567931975 405.818927582238 2126.54498852321 173 177 178
-267.026947843344 403.867208589348 2135.36234117272 179 183 184
-264.967073446845 402.892288237512 2142.6860571725 164 168 169
-267.597457337692 402.893044189547 2148.55538487973 157 161 162
-270.229163586587 402.893473988823 2154.43034534993 154 158 159
-263.456770902981 400.945170034625 2163.12539207271 170 174 175
-258.554116729252 399.38779475559 2171.21565353298 174 178 179
-256.467472511416 398.41552991481 2178.44072596104 155 159 160
-259.08867073432 398.416770655016 2184.27718417591 149 153 152
-257.937604598042 397.639693252764 2191.20278539871 157 161 160
-262.447372154019 398.029605360571 2196.50294836103 160 164 163
-267.906366252264 398.61322748544 2201.55338141111 155 159 160
-277.153865677613 399.973166566367 2205.57277851718 153 157 158
-278.84205987494 399.778207306472 2211.71762562429 153 157 158
-279.583284274252 399.389053180989 2218.12027538477 151 155 156
-278.427408999157 398.611932653314 2225.02799399057 148 152 153
-283.906804822687 399.192696981583 2230.15237038484 161 165 166
-290.34116629038 399.96652201271 2235.04791508438 158 162 165
-297.732882526785 400.93320355676 2239.72244050304 130 134 137
-309.886810782355 402.867189134312 2243.20537094212 144 148 151
-315.396575190982 403.444022377651 2248.44001805954 144 148 149
-444.478345220377 452.297304548274 1850.63012557245 218 222 223
-433.515790103583 449.356095398632 1862.62451203544 188 192 193
-420.699205721749 446.027339613015 1875.28321532809 187 191 194
-409.695703950391 443.090692765585 1887.12752626429 185 189 192
-401.428129623371 440.740352665979 1897.81007278586 178 182 185
-396.822203613596 439.170213378747 1906.99396923517 189 193 196
-391.286293286989 437.406528783305 1916.50007121944 186 190 191
-382.977044328748 435.060690847801 1927.03073043401 190 194 195
-374.652210117016 432.716547112724 1937.50459428647 185 189 190
-366.311573580732 430.374043338376 1947.92175161288 192 196 197
-357.955554183626 428.033282480984 1958.28196675604 191 195 196
-357.896503644846 427.441415915619 1965.48261990536 192 196 197
-352.288833020453 425.685474671781 1974.72624969291 193 197 198
-340.194105650116 422.572891080747 1986.30522601177 198 202 203
-323.449065465251 418.493232408586 1999.49047265141 195 199 200
-312.234582969764 415.579600142319 2010.56598371173 191 195 196
-308.417991518944 414.21795890863 2018.91583904481 194 198 199
-305.521066031791 413.050875832254 2026.90581827988 188 194 194
-302.616910307486 411.884455753476 2034.87030066596 184 190 190
-294.12945440546 409.557921376518 2044.7514996822 181 185 184
-285.626093587197 407.233038825529 2054.57561876067 176 180 179
-281.76163370366 405.876507704293 2062.75004522001 166 170 169
-283.477959399392 405.680208407923 2068.9984930382 156 160 159
-282.397552037439 404.904353225477 2076.18720808693 151 155 154
-284.112062652283 404.708083332294 2082.42893542916 99 101 100
-285.826731417365 404.511715719453 2088.67118825715 113 115 112
-287.541553755847 404.315229253889 2094.9139362357 126 128 125
-286.450943577613 403.540185817342 2102.06528272114 107 112 108
-280.676474632857 401.801831607537 2110.70165559187 161 167 167
-280.510645640979 401.220668077654 2117.51168958662 158 164 164
-274.717658268999 399.484253434078 2126.08053170717 157 163 163
-269.851461931951 397.941580118532 2134.31543601958 178 184 184
-266.852952075372 396.78479440124 2141.93475361442 158 164 164
-269.484277512666 396.782625430701 2147.80665947857 154 160 160
-271.17697099407 396.58795453566 2153.9683936041 152 158 158
-264.400979269374 394.663779933759 2162.66531180255 163 169 167
-259.49553069048 393.125169763297 2170.75704549132 179 185 183
-253.637695964823 391.395648409212 2179.08854513701 151 157 155
-256.256442998125 391.394457621167 2184.91436742566 155 161 159
-256.989116254422 391.009390201029 2191.28784859991 156 161 157
-261.498687469202 391.391331591745 2196.58225029235 155 160 156
-266.012422910484 391.77262537422 2201.89263309819 158 163 159
-274.315060249383 392.91969112133 2206.16586577054 157 162 158
-277.893760186119 393.107987602946 2211.77911700201 158 162 161
-278.633162260456 392.721679830229 2218.17679786515 154 158 157
-278.422786153977 392.144087125347 2224.82462060886 156 160 159
-281.056545467744 392.140495694791 2230.70373589004 152 156 155
-285.590911874219 392.518926746583 2236.08798102529 156 160 159
-292.980517547362 393.46991616729 2240.74569217354 145 149 150
-302.281290997084 394.80185092301 2244.94520482578 126 130 131
-444.573981907717 445.726366670249 1842.9403392808 225 229 230
-437.280980000705 443.590713277134 1853.48050375009 208 212 213
-429.056899477551 441.264305611966 1864.34057294959 186 190 191
-416.229838318061 437.978721499567 1876.98670533209 187 191 194
-408.889492247371 435.848247642702 1887.35436028888 178 182 185
-400.615882673444 433.527264986091 1898.0339628967 175 179 182
-396.925410082728 432.167681418842 1906.85337194159 191 195 198
-389.544868594627 430.041567530811 1917.0745418477 191 195 196
-379.386684503639 427.341654391977 1928.31049253953 187 191 192
-371.975688440457 425.218860545299 1938.42068667761 185 189 190
-364.550542302419 423.09760213427 1948.47931375476 192 196 197
-358.034708457975 421.169442080039 1958.13870194457 190 194 195
-351.505917866298 419.242614543703 1967.75175457589 193 197 198
-340.340695386306 416.360363915475 1979.02997114246 194 198 199
-330.080921073286 413.671586425339 1989.89576771666 197 201 202
-317.023992482178 410.411237423906 2001.70530852885 194 198 199
-312.286603016527 408.8735024862 2010.42156534254 190 194 195
-310.322091274797 407.909872457913 2018.10647230814 192 196 197
-306.495629370669 406.564962413608 2026.42931475723 190 196 196
-298.944149005201 404.457441470325 2036.02756072675 187 193 193
-289.51872698742 401.96986869663 2046.22185358507 182 186 185
-281.006859034786 399.674903697664 2056.03234669462 181 185 184
-278.066665498988 398.525367399539 2063.87368728508 156 160 159
-278.84752439017 398.138749055291 2070.42509310524 156 160 159
-281.492387066321 398.133086482018 2076.34505440617 149 153 152
-286.005805334125 398.507918143992 2081.64925074195 101 103 102
-287.721238488811 398.31128882649 2087.89417637211 97 99 96
-287.567007275245 397.734112989306 2094.75071728755 111 113 110
-284.603460142382 396.586829878036 2102.50584407101 116 121 117
-279.760104770018 395.060180657266 2110.83566918315 149 155 155
-278.654874924232 394.294424339264 2117.93859910881 146 152 152
-274.732130533875 392.959436834889 2125.91115715216 167 173 173
-271.739252630273 391.815127251146 2133.56019088466 182 188 188
-266.860984524163 390.292154822461 2141.76271319315 163 169 169
-267.612313044404 389.908034771601 2148.20605582546 151 157 157
-266.480904885312 389.144865637537 2155.21342421712 149 155 155
-260.638498519755 387.434832391558 2163.61451011123 163 169 167
-253.842358809054 385.536618070906 2172.25301274909 175 181 179
-250.804518016768 384.396974330684 2179.73805385773 152 158 156
-254.364507900342 384.582611145672 2185.2792301321 154 160 158
-258.871655467741 384.956922457576 2190.55981606452 156 161 157
-260.548209037311 384.763515287212 2196.66242371035 157 162 158
-263.170458299965 384.758955310696 2202.49912196094 159 164 160
-268.633517662222 385.320791467658 2207.5508940199 157 162 158
-275.049712756252 386.070686465081 2212.36295334151 157 161 160
-276.7336565822 385.87608158668 2218.49224339067 154 158 157
-277.469088132183 385.492774746325 2224.87707710667 161 165 164
-278.202861716935 385.109508104884 2231.25670952472 148 152 151
-284.635761647314 385.857138947767 2236.12936116099 155 159 160
-292.977301628178 386.980570375348 2240.53303926867 158 162 163
-298.474451604692 387.537857235331 2245.70851090884 133 137 138
-436.464200445903 436.850958454123 1846.19283298296 213 217 218
-435.5756578146 436.070225023716 1854.09082430174 187 191 192
-426.427866776063 433.583689920061 1865.31656170234 183 187 188
-415.427322867298 430.72004625091 1877.21794498762 183 187 190
-405.325516643692 428.048012618413 1888.68081731207 178 182 185
-398.882816206325 426.135338574872 1898.62244158754 183 187 190
-390.587338118781 423.845566052559 1909.23962611283 190 194 197
-383.197053100825 421.746656969444 1919.4417958919 192 196 197
-373.027926377807 419.082026586619 1930.65939442078 181 185 186
-367.451841513279 417.364493448355 1940.04454481124 186 190 191
-361.864271697601 415.648122607416 1949.38871666526 189 193 194
-357.189300227179 414.121845314406 1958.34395301867 187 191 192
-347.882136336048 411.652818214938 1968.98902389112 194 198 199
-333.93218432663 408.242328047419 1981.28447289094 193 197 198
-322.735626789073 405.400325369661 1992.47175897919 195 199 200
-313.372191047864 402.93752477957 2002.91183459333 193 197 198
-311.410448936557 401.984048115472 2010.61250593397 189 193 194
-309.443142963714 401.03113912136 2018.29287814432 191 195 196
-303.755007502307 399.325716834157 2027.27058180975 187 193 193
-295.267221083915 397.057026792631 2037.1870735687 189 195 195
-285.833391986487 394.601927077056 2047.37065437695 194 198 197
-280.106368964862 392.900807285121 2056.20576350081 193 197 196
-276.231161522203 391.57676365551 2064.36172630357 188 192 191
-276.077179968739 391.005046667689 2071.22171156725 183 187 186
-277.78657584034 390.809065046537 2077.44463087015 162 166 165
-282.297419840628 391.176002522235 2082.73521450175 156 158 157
-286.812970483007 391.542402788323 2088.04200478442 152 154 151
-289.462594772838 391.533207236751 2093.97648546365 101 103 100
-287.433498580597 390.586516801188 2101.43229779476 80 82 79
-280.715499438183 388.703711066095 2110.3697201993 134 138 139
-277.734124543335 387.571332100019 2118.0689947162 157 161 162
-275.683967594959 386.62691128398 2125.44711648402 155 159 160
-272.689103947858 385.495937112294 2133.09719682116 170 174 175
-266.868499410818 383.804687344559 2141.59108753634 156 160 161
-266.678254974064 383.23625099295 2148.31943606616 145 149 150
-265.544445942411 382.481277054588 2155.3221354836 154 158 159
-259.697164837625 380.792805764935 2163.71966453932 168 172 173
-253.838630265832 379.105625080016 2172.07529747542 167 171 172
-253.627766483595 378.539266574737 2178.72840226014 156 160 161
-256.245942992471 378.532722560745 2184.5487265568 156 160 159
-258.865853194487 378.52597073194 2190.3744274904 157 162 158
-258.650839661015 377.959864710939 2197.01228446747 160 165 161
-262.217625776512 378.139122998624 2202.57466675073 160 164 163
