ply
format ascii 1.0
comment KinectMotionCapture
element vertex 780
property float x
property float y
property float z
property uchar red
property uchar green
property uchar blue
end_header
-1167.31429100037 -146.353423595428 2434.99994277954 22 25 14
-1157.7855348587 -145.986691117287 2428.99990081787 23 26 15
-1149.2418050766 -145.740658044815 2424.99995231628 24 27 16
-1138.36777210236 -145.194575190544 2415.99988937378 24 27 16
-1127.07853317261 -144.588872790337 2405.99989891052 24 27 16
-1123.76487255096 -145.005226135254 2413.00010681152 24 27 16
-1124.12011623383 -145.902678370476 2427.99997329712 23 26 15
-1122.09570407867 -146.500051021576 2437.99996376038 27 29 18
-1122.76554107666 -147.458374500275 2453.9999961853 26 28 17
-1113.34574222565 -147.095084190369 2447.99995422363 25 27 16
-1094.92039680481 -145.530477166176 2421.99993133545 24 26 15
-1095.51250934601 -146.489933133125 2437.99996376038 23 25 14
-1089.32113647461 -146.548449993134 2438.99989128113 23 25 14
-1087.12244033813 -147.148132324219 2448.99988174438 22 25 16
-1088.84286880493 -148.288920521736 2467.99993515015 22 25 16
-1086.51626110077 -148.889303207397 2477.9999256134 20 23 16
-1076.29477977753 -148.408532142639 2470.00002861023 18 21 14
-1086.90476417542 -150.812193751335 2509.99999046326 16 19 12
-1070.18995285034 -149.430856108665 2486.99998855591 14 17 10
-1055.20308017731 -152.143016457558 2532.00006484985 9 11 6
-1057.44826793671 -153.467640280724 2553.99990081787 15 16 10
-1055.46259880066 -154.191717505455 2565.99998474121 21 22 16
-1053.00521850586 -154.85605597496 2576.99990272522 21 22 16
-1050.084233284 -155.460640788078 2586.99989318848 15 18 11
-1048.72369766235 -156.305968761444 2601.0000705719 13 16 7
-1043.68436336517 -156.610742211342 2605.99994659424 11 14 5
-1047.76859283447 -158.29810500145 2634.0000629425 14 17 8
-1056.83898925781 -160.767152905464 2674.99995231628 15 16 8
-1037.83023357391 -158.969417214394 2644.99998092651 18 18 10
-1046.65172100067 -161.43923997879 2686.00010871887 19 19 11
-1046.73945903778 -162.587150931358 2704.99992370605 23 20 11
-1420.24338245392 -152.409195899963 2414.99996185303 89 73 57
-1413.36405277252 -152.378648519516 2414.99996185303 87 68 51
-1408.24174880981 -152.538105845451 2417.99998283386 112 90 69
-1401.37374401093 -152.509078383446 2417.99998283386 95 70 50
-1394.51503753662 -152.480810880661 2417.99998283386 75 48 29
-1388.81349563599 -152.579382061958 2420.00007629395 90 61 45
-1391.10481739044 -153.561249375343 2436.00010871887 97 68 54
-1162.80007362366 -147.36744761467 2345.00002861023 19 22 11
-1208.75132083893 -154.890149831772 2464.99991416931 19 22 11
-1163.21623325348 -150.726974010468 2398.9999294281 17 20 9
-1164.83342647552 -151.787713170052 2415.99988937378 20 23 12
-1155.33602237701 -151.403933763504 2410.00008583069 22 25 14
-1151.11863613129 -151.711657643318 2414.99996185303 22 25 14
-1150.66909790039 -152.522355318069 2427.99997329712 22 25 14
-1141.67129993439 -152.202799916267 2423.00009727478 24 27 16
-1131.76763057709 -151.758059859276 2415.99988937378 26 29 18
-1130.2889585495 -152.444377541542 2427.00004577637 26 29 18
-1131.06870651245 -153.445184230804 2443.00007820129 26 29 18
-1131.76465034485 -154.446378350258 2459.00011062622 30 32 21
-1111.33027076721 -152.55880355835 2428.99990081787 28 30 19
-1111.98389530182 -153.560802340508 2444.9999332428 27 29 18
-1098.08707237244 -152.553424239159 2428.99990081787 24 26 15
-1086.97664737701 -151.923298835754 2418.99991035461 23 25 14
-1086.19618415833 -152.738094329834 2431.99992179871 23 25 14
-1082.68439769745 -153.176426887512 2438.99989128113 23 26 17
-1068.54891777039 -152.107864618301 2421.99993133545 23 26 17
-1082.57055282593 -155.059069395065 2469.00010108948 21 24 17
-1090.23869037628 -157.131403684616 2502.00009346008 19 22 15
-1076.07841491699 -156.063973903656 2484.99989509583 16 19 12
-1075.78325271606 -157.006606459618 2500 17 20 13
-1059.36813354492 -159.652799367905 2542.00005531311 15 17 12
-1066.96808338165 -161.853790283203 2576.99990272522 14 15 9
-1065.74261188507 -162.736222147942 2591.00008010864 13 14 8
-1067.71194934845 -164.121523499489 2612.99991607666 11 12 6
-1056.57494068146 -163.497224450111 2602.9999256134 7 10 3
-1048.31612110138 -163.312911987305 2599.99990463257 12 15 6
-1043.27940940857 -163.631439208984 2605.00001907349 16 19 10
-1050.54831504822 -165.897592902184 2641.00003242493 14 17 8
-1044.19124126434 -166.02835059166 2642.99988746643 16 17 9
-1024.87647533417 -164.086371660233 2611.99998855591 19 19 11
-1034.95597839355 -166.85625910759 2655.99989891052 20 20 12
-1043.63763332367 -169.438123703003 2697.00002670288 23 20 11
-1433.21359157562 -160.457089543343 2437.00003623962 96 83 67
-1421.5886592865 -159.898191690445 2428.99990081787 83 67 51
-1411.18407249451 -159.471973776817 2423.00009727478 93 75 55
-1404.88040447235 -159.50733423233 2424.00002479553 101 78 60
-1398.00381660461 -159.477695822716 2424.00002479553 73 47 30
-1394.00637149811 -159.777760505676 2428.99990081787 75 47 33
-1393.98741722107 -160.538882017136 2440.99998474121 94 66 52
-1401.86500549316 -162.221059203148 2467.00000762939 101 72 58
-1179.2356967926 -155.067682266235 2365.00000953674 22 25 14
-1188.09878826141 -157.090052962303 2395.99990844727 23 26 15
-1184.46815013885 -157.473713159561 2401.99995040894 21 24 13
-1200.42407512665 -160.480082035065 2447.99995422363 19 22 11
-1174.6838092804 -157.914683222771 2408.99991989136 17 20 9
-1154.01124954224 -156.00560605526 2380.00011444092 17 20 9
-1149.41251277924 -156.260177493095 2384.0000629425 18 21 10
-1132.81106948853 -154.87664937973 2362.99991607666 19 22 11
-1140.16175270081 -156.770721077919 2391.99995994568 21 24 13
-1141.1966085434 -157.813131809235 2407.99999237061 22 25 14
-1140.26308059692 -158.59380364418 2420.00007629395 22 25 14
-1130.83577156067 -158.195301890373 2414.00003433228 20 23 12
-1131.69062137604 -159.238934516907 2430.0000667572 21 24 13
-1130.14686107635 -159.955352544785 2440.99998474121 24 27 16
-1117.96057224274 -159.165054559708 2428.99990081787 24 26 15
-1100.81040859222 -157.654464244843 2405.99989891052 25 27 16
-1097.88799285889 -158.175602555275 2414.00003433228 25 27 16
-1093.11676025391 -158.435076475143 2417.99998283386 25 27 16
-1086.07995510101 -158.367320895195 2417.00005531311 25 27 16
-1084.01739597321 -160.002157092094 2441.99991226196 21 24 15
-1080.02054691315 -160.394281148911 2447.99995422363 20 23 14
-1090.02470970154 -162.883460521698 2486.00006103516 21 24 15
-1097.21052646637 -164.979889988899 2517.99988746643 21 24 15
-1089.9350643158 -164.914533495903 2516.99995994568 20 23 16
-1067.17610359192 -162.490844726563 2480.00001907349 17 20 13
-1057.02114105225 -161.967620253563 2471.99988365173 15 18 11
-1060.80627441406 -165.707439184189 2529.00004386902 9 11 6
-1076.03526115417 -169.182628393173 2582.00001716614 9 11 6
-1072.76165485382 -169.775232672691 2591.00008010864 10 11 5
-1067.38460063934 -170.040532946587 2595.00002861023 11 12 6
-1065.25647640228 -170.830428600311 2607.00011253357 10 11 5
-1061.44177913666 -171.358600258827 2615.00000953674 9 12 5
-1055.97257614136 -171.62498831749 2618.99995803833 11 14 5
-1051.68485641479 -172.08831012249 2625.99992752075 13 16 7
-1051.33867263794 -173.207372426987 2642.99988746643 14 17 8
-1042.60551929474 -172.950521111488 2638.99993896484 17 18 10
-1031.54110908508 -172.300755977631 2628.99994850159 18 18 10
-1028.32555770874 -172.962069511414 2638.99993896484 20 20 12
-1078.84454727173 -182.734236121178 2788.00010681152 22 19 10
-1436.83791160583 -168.317437171936 2454.99992370605 93 81 67
-1415.87483882904 -166.639223694801 2430.99999427795 76 60 44
-1404.91104125977 -166.127607226372 2424.00002479553 81 62 47
-1396.88014984131 -165.959611535072 2421.99993133545 78 57 40
-1396.33119106293 -166.68313741684 2433.00008773804 74 51 37
-1396.30007743835 -167.475700378418 2444.9999332428 98 72 59
-1400.75647830963 -168.816685676575 2464.99991416931 105 77 65
-1158.30409526825 -158.633515238762 2322.99995422363 23 26 15
-1215.38197994232 -167.363435029984 2450.99997520447 23 26 15
-1211.10641956329 -167.694434523582 2456.00008964539 21 24 13
-1171.01109027863 -163.041844964027 2388.00001144409 19 22 11
-1161.52667999268 -162.623167037964 2381.99996948242 19 22 11
-1158.38325023651 -163.092523813248 2388.99993896484 19 22 11
-1145.56288719177 -162.197068333626 2375.99992752075 19 22 11
-1153.91170978546 -164.305731654167 2407.00006484985 19 22 11
-1145.88832855225 -164.093911647797 2404.00004386902 21 24 13
-1140.25497436523 -164.223864674568 2405.99989891052 22 25 14
-1133.67211818695 -164.217814803123 2405.99989891052 21 24 13
-1134.58859920502 -165.304273366928 2421.99993133545 21 24 13
-1131.22963905334 -165.776908397675 2428.99990081787 21 24 13
-1120.42844295502 -165.158033370972 2420.00007629395 23 26 15
-1111.06061935425 -164.744392037392 2414.00003433228 25 27 16
-1094.86591815948 -163.307577371597 2392.99988746643 26 28 17
-1094.70736980438 -164.259746670723 2407.00006484985 26 28 17
-1084.52975749969 -163.71101140976 2398.9999294281 27 29 18
-1090.12615680695 -165.551155805588 2426.00011825562 27 29 18
-1094.23875808716 -167.186960577965 2450.00004768372 26 28 17
-1068.92585754395 -164.319410920143 2407.99999237061 24 27 18
-1066.78593158722 -165.000706911087 2417.99998283386 21 24 15
-1082.57138729095 -168.480172753334 2469.00010108948 17 20 11
-1084.57398414612 -169.844642281532 2489.00008201599 17 20 11
-1070.88136672974 -168.752938508987 2473.00004959106 15 18 9
-1059.42988395691 -168.002858757973 2461.99989318848 13 16 9
-1054.57746982574 -170.463368296623 2497.99990653992 15 18 11
-1070.03200054169 -174.082204699516 2551.00011825562 15 18 11
-1065.61398506165 -174.494132399559 2556.99992179871 5 8 1
-1067.37625598907 -175.930142402649 2578.00006866455 10 11 5
-1061.62261962891 -176.138147711754 2581.00008964539 11 12 6
-1066.06984138489 -178.052619099617 2608.99996757507 10 11 5
-1063.87293338776 -178.875625133514 2621.00005149841 9 12 5
-1064.43524360657 -180.176764726639 2640.00010490417 11 14 5
-1062.0926618576 -181.000515818596 2651.99995040894 13 16 7
-1057.30032920837 -181.415200233459 2657.99999237061 14 17 8
-1045.76051235199 -180.669903755188 2647.0000743866 17 18 10
-1035.85147857666 -180.197909474373 2640.00010490417 18 18 10
-1038.84029388428 -181.97874724865 2665.99988937378 20 20 12
-1081.93337917328 -190.859243273735 2796.0000038147 22 19 10
-1425.2268075943 -174.420893192291 2447.00002670288 90 80 68
-1405.52270412445 -172.819584608078 2424.99995231628 81 69 57
-1396.91138267517 -172.573551535606 2421.99993133545 82 66 53
-1395.21372318268 -173.183351755142 2430.99999427795 76 58 44
-1395.18785476685 -174.007460474968 2443.00007820129 66 44 31
-1399.08075332642 -175.330579280853 2461.99989318848 72 50 39
-1402.87566184998 -176.654100418091 2480.99994659424 74 57 47
-1202.19433307648 -171.202152967453 2411.00001335144 20 23 12
-1168.56861114502 -169.182136654854 2382.99989700317 22 25 14
-1157.14693069458 -168.462738394737 2372.99990653992 22 25 14
-1161.78584098816 -170.086562633514 2395.99990844727 22 25 14
-1169.67797279358 -172.207683324814 2426.00011825562 20 23 12
-1161.58950328827 -171.986743807793 2423.00009727478 19 22 11
-1161.62502765656 -172.972992062569 2437.00003623962 19 22 11
-1147.84419536591 -171.901404857635 2421.99993133545 21 24 13
-1136.50524616241 -171.18526995182 2411.99994087219 22 25 14
-1144.43159103394 -173.379495739937 2443.00007820129 22 25 14
-1134.49478149414 -172.877267003059 2436.00010871887 22 25 14
-1120.43297290802 -171.736896038055 2420.00007629395 24 27 16
-1104.16066646576 -170.242220163345 2398.9999294281 25 27 16
-1109.05289649963 -172.012403607368 2424.00002479553 26 28 17
-1094.71046924591 -170.802623033524 2407.00006484985 26 28 17
-1094.02620792389 -171.722128987312 2420.00007629395 25 27 16
-1101.81152820587 -173.99026453495 2451.99990272522 25 27 16
-1092.90075302124 -173.633366823196 2447.00002670288 24 26 15
-1078.69303226471 -172.42543399334 2430.0000667572 23 26 17
-1064.5809173584 -171.21796309948 2413.00010681152 20 23 14
-1079.94103431702 -174.765020608902 2463.00005912781 19 22 13
-1084.13815498352 -176.538527011871 2487.99991607666 17 20 11
-1062.65354156494 -174.126088619232 2453.9999961853 12 15 6
-1058.5685968399 -174.55230653286 2460.00003814697 10 13 6
-1055.83143234253 -176.328390836716 2484.99989509583 12 15 8
-1065.97423553467 -179.168403148651 2525.00009536743 14 17 10
-1065.41562080383 -180.234879255295 2539.99996185303 9 12 5
-1065.19460678101 -181.372746825218 2555.99999427795 6 9 2
-1069.4432258606 -183.291599154472 2582.99994468689 10 11 5
-1069.43416595459 -184.501305222511 2599.99990463257 11 12 6
-1066.88332557678 -185.285627841949 2611.00006103516 10 11 5
-1067.92771816254 -186.709061264992 2631.00004196167 9 12 5
-1062.81781196594 -187.068432569504 2635.99991798401 11 14 5
-1061.68723106384 -188.137829303741 2651.00002288818 13 16 7
-1055.70375919342 -188.356041908264 2654.00004386902 14 17 8
-1039.03865814209 -186.658337712288 2630.00011444092 16 17 9
-1038.98429870605 -187.941819429398 2648.00000190735 18 18 10
-1036.49604320526 -188.799858093262 2660.00008583069 20 20 12
-1421.78511619568 -181.51544034481 2453.00006866455 90 80 70
-1402.13489532471 -179.853826761246 2430.99999427795 75 61 50
-1401.55863761902 -180.634692311287 2441.99991226196 76 60 47
-1401.50094032288 -181.490138173103 2453.9999961853 70 50 39
-1402.52089500427 -182.494029402733 2467.99993515015 72 52 41
-1175.75681209564 -172.907546162605 2345.00002861023 20 23 12
-1192.23356246948 -176.287025213242 2391.00003242493 19 22 11
-1209.45382118225 -179.814085364342 2438.99989128113 18 21 10
-1167.73223876953 -174.568668007851 2368.00003051758 19 22 11
-1159.75177288055 -174.337089061737 2365.00000953674 15 18 7
-1179.58760261536 -178.307667374611 2418.99991035461 16 19 8
-1168.58327388763 -177.634820342064 2410.00008583069 18 21 10
-1163.90061378479 -177.920743823051 2414.00003433228 20 23 12
-1168.78843307495 -179.681226611137 2437.99996376038 21 24 13
-1166.87572002411 -180.410325527191 2447.99995422363 22 25 14
-1146.40653133392 -179.29083108902 2433.00008773804 23 26 15
-1138.34750652313 -179.063558578491 2430.0000667572 24 27 16
-1131.24001026154 -178.98416519165 2428.99990081787 24 27 16
-1119.51160430908 -178.168460726738 2417.99998283386 26 29 18
-1112.44964599609 -178.090155124664 2417.00005531311 26 28 17
-1109.5142364502 -178.675442934036 2424.99995231628 25 27 16
-1109.72225666046 -179.776966571808 2440.00005722046 25 27 16
-1107.13911056519 -180.436864495277 2448.99988174438 22 24 13
-1112.14911937714 -182.34971165657 2474.99990463257 21 23 12
-1099.60198402405 -181.389644742012 2461.99989318848 21 23 12
-1082.24582672119 -179.619640111923 2437.99996376038 20 23 12
-1075.17027854919 -179.544627666473 2437.00003623962 21 24 13
-1083.4493637085 -182.048678398132 2470.99995613098 23 26 17
-1072.37339019775 -181.31148815155 2460.99996566772 21 24 15
-1063.08627128601 -180.869430303574 2454.99992370605 15 18 9
-1059.42845344543 -181.385561823845 2461.99989318848 10 13 4
-1065.56987762451 -183.596655726433 2492.00010299683 9 12 3
-1046.90742492676 -181.53503537178 2463.99998664856 14 17 10
-1048.24137687683 -182.936549186707 2483.00004005432 11 14 7
-1065.83261489868 -187.211841344833 2540.99988937378 7 10 3
-1073.10998439789 -189.719423651695 2575.00004768372 12 15 8
-1083.93108844757 -192.890584468842 2618.00003051758 10 11 5
-1073.9551782608 -192.378267645836 2611.00006103516 11 12 6
-1070.148229599 -192.971542477608 2618.99995803833 10 11 5
-1061.42902374268 -192.681029438972 2615.00000953674 9 12 5
-1061.60342693329 -194.011941552162 2632.99989700317 11 14 5
-1050.46856403351 -193.280085921288 2622.99990653992 13 16 7
-1039.78717327118 -192.622229456902 2614.00008201599 14 17 8
-1039.82281684875 -193.954348564148 2631.99996948242 15 16 8
-1037.01615333557 -194.771066308022 2642.99988746643 19 19 11
-1033.76173973083 -195.514515042305 2653.00011634827 21 21 13
-1413.52689266205 -189.800247550011 2474.99990463257 64 50 41
-1417.89650917053 -191.300868988037 2494.99988555908 52 38 29
-1198.22943210602 -183.709695935249 2403.00011634827 18 21 10
-1193.59743595123 -184.003189206123 2407.00006484985 18 21 10
-1156.89420700073 -179.328635334969 2345.99995613098 20 23 12
-1180.08518218994 -184.963583946228 2420.00007629395 15 18 7
-1183.62438678741 -186.55863404274 2440.99998474121 16 19 8
-1162.94515132904 -184.332922101021 2411.99994087219 18 21 10
-1161.12625598907 -185.088410973549 2421.99993133545 20 23 12
-1172.12700843811 -187.907665967941 2459.00011062622 21 24 13
-1167.76323318481 -188.281998038292 2463.99998664856 21 24 13
-1151.59618854523 -186.7466121912 2444.00000572205 23 26 15
-1136.47973537445 -185.364723205566 2426.00011825562 22 25 14
-1128.91697883606 -185.205951333046 2424.00002479553 22 25 14
-1128.31354141235 -186.193734407425 2437.00003623962 23 26 15
-1121.19913101196 -186.11241877079 2436.00010871887 25 27 16
-1119.12655830383 -186.871990561485 2446.00009918213 25 27 16
-1107.90657997131 -186.104103922844 2436.00010871887 25 27 16
-1106.23800754547 -186.941057443619 2447.00002670288 24 26 15
-1102.26595401764 -187.396511435509 2453.00006866455 23 25 14
-1098.264336586 -187.852472066879 2459.00011062622 22 24 13
-1080.47187328339 -185.940697789192 2434.00001525879 21 24 13
-1070.7596540451 -185.40446460247 2427.00004577637 21 24 13
-1070.29604911804 -186.472967267036 2440.99998474121 23 26 17
-1065.40155410767 -186.778008937836 2444.9999332428 22 25 16
-1050.09531974792 -185.250073671341 2424.99995231628 19 22 13
-1065.45221805573 -189.146414399147 2476.0000705719 16 19 10
-1063.43078613281 -189.987540245056 2486.99998855591 13 16 7
-1039.68298435211 -186.933070421219 2447.00002670288 18 21 12
-1045.70639133453 -189.226493239403 2476.99999809265 17 20 13
-1069.18597221375 -194.728970527649 2549.00002479553 10 13 6
-1082.69226551056 -198.474928736687 2598.00004959106 12 15 8
-1083.09972286224 -199.853077530861 2615.9999370575 10 11 5
-1080.94394207001 -200.773343443871 2628.00002098084 11 12 6
-1077.0902633667 -201.388418674469 2635.99991798401 10 11 5
-1075.2249956131 -202.385976910591 2648.9999294281 9 12 5
-1051.922082901 -199.334621429443 2608.99996757507 11 14 5
-1053.66718769073 -201.020583510399 2631.00004196167 13 16 7
-1047.33920097351 -201.178878545761 2632.99989700317 13 16 7
-1041.79239273071 -201.490417122841 2637.00008392334 15 16 8
-1038.18690776825 -202.184334397316 2645.99990844727 19 19 11
-1052.45840549469 -206.393733620644 2700.99997520447 21 21 13
-1173.45142364502 -191.535621881485 2420.00007629395 15 18 7
-1160.17615795135 -191.51671230793 2420.00007629395 17 19 8
-1159.74175930023 -192.536950111389 2433.00008773804 16 18 7
-1166.82291030884 -194.823756814003 2461.99989318848 19 21 10
-1155.37285804749 -194.024950265884 2451.99990272522 19 21 10
-1133.67545604706 -191.486030817032 2420.00007629395 21 23 12
-1128.92282009125 -191.796243190765 2424.00002479553 22 24 13
-1133.41176509857 -193.689450621605 2447.99995422363 23 26 15
-1126.26683712006 -193.605110049248 2447.00002670288 24 27 16
-1109.06493663788 -191.780731081963 2424.00002479553 23 26 15
-1098.35934638977 -191.064581274986 2414.99996185303 22 28 16
-1092.67890453339 -191.219255328178 2417.00005531311 24 30 18
-1091.48418903351 -192.165523767471 2428.99990081787 26 32 20
-1088.44065666199 -192.795872688293 2437.00003623962 27 33 21
-1077.3663520813 -192.002683877945 2427.00004577637 26 29 18
-1065.46676158905 -191.05176627636 2414.99996185303 25 28 17
-1063.71998786926 -191.920876502991 2426.00011825562 25 28 17
-1065.83774089813 -193.502441048622 2446.00009918213 23 26 15
-1060.48786640167 -193.7395632267 2448.99988174438 18 21 10
-1062.86978721619 -195.401161909103 2470.00002861023 18 21 12
-1058.72631072998 -195.876583456993 2476.0000705719 17 20 11
-1054.12745475769 -196.273297071457 2480.99994659424 14 17 8
-1074.83386993408 -201.417207717896 2546.0000038147 13 16 7
-1072.11983203888 -202.210441231728 2555.99999427795 12 15 6
-1082.68940448761 -205.535784363747 2598.00004959106 11 14 5
-1075.64401626587 -205.538854002953 2598.00004959106 10 13 6
-1084.64217185974 -208.627864718437 2637.00008392334 10 13 6
-1092.20480918884 -211.480051279068 2673.00009727478 9 12 5
-1070.34969329834 -208.636209368706 2637.00008392334 11 12 6
-1052.72352695465 -206.583887338638 2611.00006103516 14 15 7
-1060.46998500824 -209.516599774361 2648.00000190735 14 15 7
-1055.28891086578 -209.917843341827 2653.00011634827 20 20 12
-1045.3417301178 -209.369987249374 2645.99990844727 15 15 7
-1043.67351531982 -210.484221577644 2660.00008583069 25 22 15
-1048.9444732666 -213.023245334625 2691.99991226196 27 24 17
-1171.30696773529 -193.415477871895 2361.99998855591 19 22 11
-1192.42370128632 -197.988346219063 2417.99998283386 22 25 14
-1179.89039421082 -196.993723511696 2405.99989891052 21 24 13
-1173.27928543091 -196.982339024544 2405.99989891052 20 23 12
-1151.15630626678 -194.351881742477 2374.00007247925 19 22 11
-1146.0884809494 -194.587469100952 2377.00009346008 16 18 7
-1146.28207683563 -195.724099874496 2391.00003242493 16 18 7
-1148.78678321838 -197.270542383194 2410.00008583069 18 20 9
-1154.50870990753 -199.390381574631 2436.00010871887 18 20 9
-1139.35947418213 -197.909310460091 2417.99998283386 18 20 9
-1128.99744510651 -197.247430682182 2410.00008583069 19 21 10
-1122.87437915802 -197.322711348534 2411.00001335144 20 22 11
-1125.08356571198 -198.871716856956 2430.0000667572 20 23 12
-1113.844871521 -198.047906160355 2420.00007629395 21 27 15
-1101.29141807556 -196.979150176048 2407.00006484985 21 27 15
-1089.26701545715 -195.992827415466 2394.99998092651 21 27 15
-1089.51771259308 -197.216555476189 2410.00008583069 23 29 17
-1087.89229393005 -198.113471269608 2421.0000038147 24 32 19
-1081.29703998566 -198.110729455948 2421.0000038147 29 32 21
-1078.25601100922 -198.763132095337 2428.99990081787 27 30 19
-1068.11535358429 -198.106780648232 2421.0000038147 26 29 18
-1070.73616981506 -199.823915958405 2441.99991226196 25 28 17
-1076.73180103302 -202.196165919304 2470.99995613098 25 28 17
-1075.64389705658 -203.259646892548 2483.99996757507 22 25 14
-1070.61493396759 -203.587174415588 2487.99991607666 19 22 13
-1065.56677818298 -203.915178775787 2492.00010299683 18 21 12
-1071.54619693756 -206.371188163757 2522.0000743866 14 17 8
-1084.96391773224 -210.300609469414 2569.9999332428 12 15 6
-1085.53993701935 -211.775690317154 2588.00005912781 11 14 5
-1085.1868391037 -213.08758854866 2604.00009155273 11 14 5
-1089.30361270905 -215.300142765045 2631.00004196167 11 14 7
-1089.1627073288 -216.694861650467 2648.00000190735 10 13 6
-1083.61971378326 -217.026263475418 2651.99995040894 10 13 6
-1074.40400123596 -216.621533036232 2647.0000743866 11 12 6
-1064.00763988495 -215.971753001213 2638.99993896484 13 14 6
-1064.06879425049 -217.450201511383 2657.00006484985 14 15 7
-1059.26084518433 -217.946991324425 2663.00010681152 19 19 11
-1041.38481616974 -215.743348002434 2635.99991798401 18 15 8
-1039.35086727142 -216.813892126083 2648.9999294281 19 16 9
-1038.02716732025 -218.048587441444 2664.00003433228 20 17 10
-1218.93203258514 -205.708682537079 2430.99999427795 16 22 10
-1210.23738384247 -205.35546541214 2427.00004577637 15 21 9
-1187.6847743988 -202.634006738663 2394.99998092651 16 22 10
-1171.23091220856 -200.928807258606 2375 12 15 4
-1190.20080566406 -205.315455794334 2427.00004577637 15 18 7
-1175.72903633118 -203.950017690659 2411.00001335144 19 22 11
-1174.44217205048 -204.869240522385 2421.99993133545 20 23 12
-1152.3665189743 -202.151969075203 2390.00010490417 19 21 10
-1153.00333499908 -203.410789370537 2404.99997138977 19 21 10
-1155.94553947449 -205.092996358871 2424.99995231628 19 21 10
-1135.08546352386 -202.547177672386 2394.99998092651 19 21 10
-1138.42463493347 -204.315051436424 2415.99988937378 18 20 9
-1121.04034423828 -202.362626791 2392.99988746643 17 20 9
-1116.82641506195 -202.778652310371 2398.00000190735 17 20 9
-1112.58852481842 -203.195214271545 2403.00011634827 18 21 10
-1102.34332084656 -202.513098716736 2394.99998092651 20 23 12
-1093.51789951324 -202.085226774216 2390.00010490417 18 24 12
-1090.63577651978 -202.757149934769 2398.00000190735 18 24 12
-1088.16528320313 -203.514128923416 2407.00006484985 19 25 13
-1097.78118133545 -206.55445754528 2443.00007820129 19 25 13
-1093.80531311035 -207.058787345886 2448.99988174438 19 25 13
-1082.69715309143 -206.210881471634 2438.99989128113 18 21 10
-1082.67605304718 -207.477182149887 2453.9999961853 17 20 9
-1079.50663566589 -208.152145147324 2461.99989318848 19 22 11
-1076.73239707947 -208.912208676338 2470.99995613098 20 23 12
-1080.40726184845 -210.940897464752 2494.99988555908 21 24 13
-1092.56041049957 -214.661031961441 2539.00003433228 23 26 17
-1083.95254611969 -214.323490858078 2535.00008583069 19 22 13
-1091.93897247314 -217.283710837364 2569.9999332428 14 17 8
-1089.60604667664 -218.215391039848 2581.00008964539 12 15 6
-1090.57092666626 -219.823896884918 2599.99990463257 11 14 5
-1100.60334205627 -223.292991518974 2641.00003242493 10 13 4
-1092.61238574982 -223.127007484436 2638.99993896484 11 14 7
-1087.51368522644 -223.553374409676 2644.00005340576 10 13 6
-1082.79824256897 -224.064752459526 2650.00009536743 10 13 6
-1067.90494918823 -222.462743520737 2631.00004196167 11 12 6
-1060.37390232086 -222.383141517639 2630.00011444092 13 14 6
-1065.66500663757 -225.009799003601 2661.00001335144 14 15 7
-1054.87930774689 -224.254637956619 2651.99995040894 16 16 8
-1039.00814056396 -222.400516271591 2630.00011444092 18 15 8
-1036.20517253876 -223.337352275848 2641.00003242493 18 15 8
-1047.37138748169 -227.319106459618 2687.99996376038 15 12 5
-1210.25216579437 -211.959660053253 2427.00004577637 19 25 13
-1184.7231388092 -208.626568317413 2388.99993896484 15 21 9
-1184.0660572052 -209.660798311234 2401.00002288818 12 18 6
-1175.50110816956 -209.298491477966 2397.0000743866 16 19 8
-1172.81496524811 -209.984689950943 2404.99997138977 14 17 6
-1164.75510597229 -209.71105992794 2401.99995040894 15 18 7
-1150.44808387756 -208.303242921829 2385.99991798401 20 23 12
-1152.53376960754 -209.864377975464 2404.00004386902 21 24 13
-1149.28126335144 -210.465759038925 2411.00001335144 21 23 12
-1151.20792388916 -212.027922272682 2428.99990081787 21 23 12
-1130.89334964752 -209.488108754158 2400.00009536743 19 22 11
-1124.32706356049 -209.480375051498 2400.00009536743 19 22 11
-1119.62735652924 -209.822341799736 2404.00004386902 19 22 11
-1115.37253856659 -210.252165794373 2408.99991989136 19 22 11
-1107.41174221039 -209.984377026558 2405.99989891052 20 23 12
-1095.81053256989 -209.019020199776 2394.99998092651 19 25 13
-1093.82367134094 -209.886938333511 2404.99997138977 19 25 13
-1093.59395503998 -211.104482412338 2418.99991035461 19 25 13
-1092.39232540131 -212.148040533066 2430.99999427795 20 26 14
-1096.93467617035 -214.326575398445 2456.00008964539 20 26 14
-1088.47010135651 -213.974863290787 2451.99990272522 20 23 12
-1080.47163486481 -213.710993528366 2448.99988174438 20 23 12
-1075.12319087982 -213.971272110939 2451.99990272522 24 27 16
-1074.55444335938 -215.191975235939 2466.00008010864 25 28 17
-1092.53227710724 -220.165491104126 2523.00000190735 24 27 16
-1086.10546588898 -220.252767205238 2523.9999294281 24 27 18
-1097.20718860626 -223.91839325428 2565.99998474121 24 27 18
-1083.86504650116 -222.610503435135 2551.00011825562 19 22 13
-1076.09486579895 -222.437515854836 2549.00002479553 16 19 10
-1095.60191631317 -227.937281131744 2611.99998855591 13 16 7
-1102.26738452911 -230.819687247276 2644.99998092651 9 12 3
-1102.95975208282 -232.48091340065 2664.00003433228 7 10 3
-1095.32475471497 -232.397273182869 2663.00010681152 7 10 3
-1081.5681219101 -231.005072593689 2647.0000743866 9 12 5
-1065.87088108063 -229.176923632622 2625.99992752075 12 13 7
-1059.96549129486 -229.443728923798 2628.99994850159 16 17 9
-1064.05746936798 -231.89289867878 2657.00006484985 17 18 10
-1067.20399856567 -234.168082475662 2683.00008773804 16 16 8
-1051.64349079132 -232.341632246971 2661.99994087219 19 16 9
-1052.67703533173 -234.18140411377 2683.00008773804 22 19 12
-1057.88433551788 -236.981809139252 2714.99991416931 22 19 12
-1201.10249519348 -218.098625540733 2421.99993133545 16 22 10
-1175.69589614868 -214.662611484528 2384.0000629425 19 25 13
-1171.36418819427 -216.256991028786 2401.99995040894 14 17 6
-1156.52310848236 -214.714393019676 2384.99999046326 13 16 5
-1150.94125270844 -214.883103966713 2387.00008392334 15 18 7
-1153.5028219223 -216.582715511322 2405.99989891052 17 20 9
-1148.33736419678 -216.842651367188 2408.99991989136 20 23 12
-1145.05553245544 -217.463284730911 2415.99988937378 20 23 12
-1134.67121124268 -216.734439134598 2407.99999237061 19 22 11
-1123.86608123779 -215.916261076927 2398.9999294281 20 23 12
-1130.34641742706 -218.428790569305 2427.00004577637 20 23 12
-1126.95419788361 -219.051837921143 2434.00001525879 20 23 12
-1101.89425945282 -215.445727109909 2394.00005340576 22 25 14
-1104.05158996582 -217.149972915649 2413.00010681152 21 27 15
-1092.46385097504 -216.154977679253 2401.99995040894 22 28 16
-1086.81678771973 -216.330528259277 2404.00004386902 23 29 17
-1094.64263916016 -219.20619904995 2436.00010871887 23 29 17
-1092.02456474304 -220.012709498405 2444.9999332428 22 28 16
-1087.14091777802 -220.369830727577 2448.99988174438 22 25 14
-1077.38530635834 -219.737723469734 2441.99991226196 23 26 15
-1071.17831707001 -219.826027750969 2443.00007820129 27 30 19
-1076.29823684692 -222.254410386086 2470.00002861023 27 30 19
-1076.51042938232 -223.693490028381 2486.00006103516 24 27 16
-1080.51109313965 -225.94290971756 2510.99991798401 24 27 18
-1086.08889579773 -228.552848100662 2539.99996185303 24 27 18
-1074.09155368805 -227.474048733711 2528.00011634827 22 25 16
-1065.11688232422 -227.025613188744 2523.00000190735 19 22 13
-1077.143907547 -231.076836585999 2568.00007820129 15 18 9
-1088.09554576874 -234.948694705963 2611.00006103516 9 12 3
-1088.0514383316 -236.481517553329 2628.00002098084 7 10 3
-1089.9738073349 -238.464817404747 2650.00009536743 7 10 3
-1085.24107933044 -239.008828997612 2655.99989891052 9 12 5
-1073.57800006866 -238.023594021797 2644.99998092651 12 13 7
-1061.97619438171 -237.038746476173 2634.0000629425 16 17 9
-1064.85271453857 -239.294111728668 2658.99991989136 17 18 10
-1065.20879268646 -241.010025143623 2677.99997329712 18 18 10
-1069.80931758881 -243.716508150101 2707.99994468689 19 16 9
-1068.36378574371 -245.073586702347 2723.00004959106 20 17 10
-1189.71145153046 -222.555428743362 2398.9999294281 18 24 12
-1199.3819475174 -225.601822137833 2431.99992179871 19 25 13
-1194.16332244873 -225.865855813026 2434.99994277954 15 21 9
-1166.98789596558 -221.956700086594 2392.99988746643 17 20 9
-1145.38204669952 -219.068989157677 2361.99998855591 15 18 7
-1137.69209384918 -220.066338777542 2372.99990653992 13 16 5
-1151.20756626129 -223.950758576393 2414.99996185303 19 22 11
-1133.69011878967 -221.80812060833 2391.99995994568 19 22 11
-1135.15102863312 -223.375335335732 2408.99991989136 18 21 10
-1138.3969783783 -225.313991308212 2430.0000667572 19 22 11
-1141.06595516205 -227.160453796387 2450.00004768372 19 22 11
-1111.10591888428 -223.808765411377 2414.00003433228 21 24 13
-1108.63256454468 -224.637225270271 2423.00009727478 23 26 15
-1099.74586963654 -224.168300628662 2417.99998283386 24 27 16
-1086.36891841888 -222.772985696793 2403.00011634827 24 30 18
-1087.90588378906 -224.437549710274 2421.0000038147 24 30 18
-1093.81413459778 -227.029666304588 2448.99988174438 24 30 18
-1085.81173419952 -226.748570799828 2446.00009918213 26 29 18
-1069.00477409363 -224.614053964615 2423.00009727478 24 27 16
-1072.49522209167 -226.744309067726 2446.00009918213 25 28 17
-1074.99194145203 -228.689715266228 2467.00000762939 26 29 18
-1076.07781887054 -230.35754263401 2484.99989509583 26 29 18
-1070.61374187469 -230.635434389114 2487.99991607666 21 24 15
-1063.42566013336 -230.543076992035 2486.99998855591 23 26 17
-1068.56691837311 -233.139544725418 2515.00010490417 25 28 19
-1100.57687759399 -241.66938662529 2607.00011253357 22 25 16
-1084.27226543427 -239.631965756416 2585.00003814697 16 19 10
-1084.34212207794 -241.210401058197 2601.99999809265 7 10 1
-1081.00986480713 -242.047771811485 2611.00006103516 10 13 6
-1079.27584648132 -243.256464600563 2624.00007247925 9 12 5
-1083.1937789917 -245.76361477375 2651.00002288818 9 12 5
-1075.19662380219 -245.582848787308 2648.9999294281 11 12 6
-1067.61538982391 -245.495244860649 2648.00000190735 14 15 7
-1056.43701553345 -244.573712348938 2638.00001144409 14 15 7
-1060.03153324127 -247.083023190498 2664.99996185303 19 19 11
-1063.87674808502 -249.685660004616 2693.00007820129 17 14 7
-1077.77273654938 -254.699558019638 2746.99997901917 25 22 15
-1192.70610809326 -232.204422354698 2431.99992179871 17 23 11
-1171.3901758194 -229.326203465462 2401.99995040894 16 22 10
-1150.72846412659 -226.5445291996 2372.99990653992 15 21 9
-1150.96414089203 -227.868780493736 2387.00008392334 15 18 7
-1144.41525936127 -227.857172489166 2387.00008392334 14 17 6
-1135.01048088074 -227.27358341217 2381.00004196167 14 20 8
-1135.12170314789 -228.599712252617 2394.99998092651 15 21 9
-1128.09193134308 -228.494763374329 2394.00005340576 19 25 13
-1134.65750217438 -231.158271431923 2421.99993133545 22 25 14
-1133.15606117249 -232.199862599373 2433.00008773804 21 24 13
-1115.39268493652 -229.901775717735 2408.99991989136 19 22 11
-1106.50956630707 -229.417756199837 2404.00004386902 23 26 15
-1111.84120178223 -231.892690062523 2430.0000667572 24 27 16
-1104.75397109985 -231.791585683823 2428.99990081787 24 27 16
-1089.08605575562 -229.878082871437 2408.99991989136 25 28 17
-1087.4605178833 -230.923369526863 2420.00007629395 26 29 18
-1093.37103366852 -233.591392636299 2447.99995422363 26 29 18
-1083.15110206604 -232.824817299843 2440.00005722046 27 30 19
-1080.91914653778 -233.776420354843 2450.00004768372 26 29 18
-1075.56617259979 -234.060630202293 2453.00006866455 24 27 16
-1069.32830810547 -234.154596924782 2453.9999961853 25 28 17
-1066.1187171936 -234.917044639587 2461.99989318848 26 29 18
-1065.45007228851 -236.252576112747 2476.0000705719 22 25 16
-1060.85956096649 -236.729875206947 2480.99994659424 23 26 17
-1055.39464950562 -237.016901373863 2483.99996757507 22 25 16
-1074.82326030731 -242.934137582779 2546.0000038147 24 27 18
-1102.30624675751 -250.760346651077 2628.00002098084 16 19 10
-1096.84133529663 -251.144528388977 2631.99996948242 10 13 4
-1086.80272102356 -250.479608774185 2625 8 11 4
-1068.98927688599 -248.00218641758 2598.99997711182 8 11 4
-1075.83463191986 -251.250624656677 2632.99989700317 8 11 4
-1076.00355148315 -252.972900867462 2651.00002288818 11 12 6
-1072.04484939575 -253.741443157196 2658.99991989136 14 15 7
-1066.04242324829 -254.033416509628 2661.99994087219 16 17 9
-1063.2072687149 -255.089312791824 2673.00009727478 20 20 12
-1059.9193572998 -256.050288677216 2683.00008773804 25 22 15
-1065.21022319794 -259.111434221268 2714.99991416931 23 20 13
-1226.44221782684 -242.879867553711 2473.00004959106 16 24 11
-1153.84745597839 -232.326209545135 2365.9999370575 15 21 9
-1143.46742630005 -231.527283787727 2358.00004005432 15 21 9
-1146.15440368652 -233.380109071732 2377.00009346008 15 21 9
-1143.94724369049 -234.25167798996 2385.99991798401 15 21 9
-1144.07849311829 -235.614836215973 2400.00009536743 13 19 7
-1132.76195526123 -234.622478485107 2390.00010490417 14 20 8
-1148.36382865906 -239.226281642914 2437.00003623962 15 21 9
-1122.95413017273 -235.290482640266 2397.0000743866 18 24 12
-1120.12314796448 -236.067190766335 2404.99997138977 20 26 14
-1109.38084125519 -235.175937414169 2395.99990844727 23 26 15
-1106.97650909424 -236.052125692368 2404.99997138977 23 26 15
-1109.55953598022 -238.008558750153 2424.99995231628 22 25 14
-1104.30467128754 -238.297075033188 2427.99997329712 22 25 14
-1095.87228298187 -237.899199128151 2424.00002479553 23 26 15
-1085.66725254059 -237.109422683716 2415.99988937378 25 27 16
-1085.78181266785 -238.577529788017 2430.99999427795 26 29 18
-1080.93452453613 -238.966658711433 2434.99994277954 26 29 18
-1080.92164993286 -240.435928106308 2450.00004768372 25 28 17
-1079.07581329346 -241.513207554817 2460.99996566772 24 27 16
-1065.84358215332 -240.039557218552 2446.00009918213 24 27 16
-1056.59282207489 -239.449679851532 2440.00005722046 25 28 17
-1060.71674823761 -241.902589797974 2464.99991416931 24 27 18
-1058.29346179962 -242.884024977684 2474.99990463257 22 25 16
-1060.91701984406 -245.043694972992 2496.99997901917 23 26 17
-1084.95342731476 -252.208828926086 2569.9999332428 26 29 20
-1108.59560966492 -259.374588727951 2642.99988746643 19 22 13
-1103.9229631424 -259.965866804123 2648.9999294281 11 14 5
-1085.97135543823 -257.417291402817 2622.99990653992 9 12 5
-1083.38129520416 -258.50036740303 2634.0000629425 9 12 5
-1076.23898983002 -258.504450321198 2634.0000629425 9 12 5
-1078.02796363831 -260.668218135834 2655.99989891052 11 12 6
-1076.07114315033 -261.949241161346 2668.99991035461 14 15 7
-1073.64535331726 -263.132750988007 2680.99999427795 15 16 8
-1068.76945495605 -263.727843761444 2687.00003623962 15 15 7
-1070.97363471985 -266.090244054794 2710.99996566772 21 18 11
-1071.08783721924 -267.962515354156 2730.00001907349 25 22 15
-1209.78546142578 -247.574418783188 2453.00006866455 12 20 7
-1142.02570915222 -237.639561295509 2355.00001907349 15 21 9
-1149.06013011932 -240.451723337173 2382.99989700317 15 21 9
-1141.0825252533 -240.136533975601 2380.00011444092 15 21 9
-1131.69538974762 -239.519461989403 2374.00007247925 14 20 8
-1135.61618328094 -241.727992892265 2395.99990844727 14 20 8
-1123.43180179596 -241.909816861153 2398.00000190735 17 23 11
-1115.93985557556 -241.699129343033 2395.99990844727 22 25 14
-1106.61065578461 -241.085723042488 2390.00010490417 23 26 15
-1104.2218208313 -241.986021399498 2398.9999294281 24 27 16
-1106.36305809021 -243.895679712296 2417.99998283386 23 26 15
-1103.8556098938 -244.797229766846 2427.00004577637 22 25 14
-1095.87728977203 -244.489073753357 2424.00002479553 23 26 15
-1090.16537666321 -244.685888290405 2426.00011825562 25 27 16
-1081.31921291351 -244.177311658859 2421.0000038147 26 29 18
-1072.50332832336 -243.669390678406 2415.99988937378 26 29 18
-1072.98254966736 -245.28007209301 2431.99992179871 26 29 18
-1070.74677944183 -246.286228299141 2441.99991226196 26 29 18
-1062.79468536377 -245.981886982918 2438.99989128113 26 29 18
-1061.78998947144 -247.291788458824 2451.99990272522 26 29 18
-1062.86871433258 -249.106541275978 2470.00002861023 24 27 18
-1057.01053142548 -249.308183789253 2471.99988365173 22 25 16
-1070.26350498199 -254.048883914948 2519.00005340576 22 25 16
-1081.15243911743 -258.285820484161 2561.00010871887 26 29 20
-1109.8518371582 -266.860157251358 2645.99990844727 21 24 15
-1078.91654968262 -261.113822460175 2588.99998664856 10 13 4
-1076.03168487549 -262.125253677368 2598.99997711182 10 13 6
-1074.7401714325 -263.540714979172 2612.99991607666 9 12 5
-1083.99796485901 -267.579108476639 2653.00011634827 9 12 5
-1082.8937292099 -269.09664273262 2667.99998283386 11 12 6
-1079.29110527039 -270.009577274323 2677.00004577637 13 14 6
-1061.62536144257 -267.392843961716 2651.00002288818 14 15 7
-1064.78536128998 -270.021587610245 2677.00004577637 17 17 9
-1065.04094600677 -271.944910287857 2696.00009918213 26 23 16
-1069.51081752777 -274.978399276733 2726.0000705719 27 24 17
-1236.39607429504 -258.413642644882 2493.00003051758 14 22 9
-1217.20004081726 -255.804568529129 2467.99993515015 14 22 9
-1160.38298606873 -245.216339826584 2365.9999370575 17 23 11
-1144.25134658813 -245.898276567459 2372.99990653992 15 21 9
-1123.35515022278 -242.776796221733 2342.99993515015 14 20 8
-1130.75351715088 -245.769545435905 2371.99997901917 18 24 12
-1142.73655414581 -249.798849225044 2411.00001335144 17 23 11
-1126.70755386353 -247.715979814529 2391.00003242493 16 22 10
-1115.94533920288 -246.773555874825 2381.99996948242 15 21 9
-1111.29105091095 -247.178688645363 2385.99991798401 19 22 11
-1106.61864280701 -247.5845515728 2390.00010490417 19 22 11
-1096.40431404114 -246.747985482216 2381.99996948242 23 26 15
-1097.21863269806 -248.39822947979 2398.00000190735 24 27 16
-1095.67475318909 -249.531149864197 2408.99991989136 24 27 16
-1093.17004680634 -250.457555055618 2417.99998283386 27 29 18
-1088.82200717926 -250.970304012299 2423.00009727478 27 29 18
-1081.76982402802 -250.862181186676 2421.99993133545 27 30 19
-1072.95072078705 -250.340461730957 2417.00005531311 27 30 19
-1070.33836841583 -251.269400119781 2426.00011825562 28 31 20
-1068.55666637421 -252.406090497971 2437.00003623962 28 31 20
-1073.68993759155 -255.200535058975 2463.99998664856 28 31 20
-1070.01841068268 -255.924135446548 2470.99995613098 28 31 20
-1057.27505683899 -254.473388195038 2457.00001716614 24 27 18
-1056.15508556366 -255.819618701935 2470.00002861023 22 25 16
-1058.36606025696 -257.995039224625 2490.9999370575 20 23 14
-1095.0825214386 -268.663942813873 2594.00010108948 25 28 19
-1080.4888010025 -266.801297664642 2575.99997520447 23 26 17
-1077.66366004944 -267.839223146439 2585.99996566772 8 11 2
-1055.32777309418 -264.009803533554 2549.00002479553 10 13 6
-1091.18854999542 -274.784982204437 2653.00011634827 10 13 6
-1086.44497394562 -275.41047334671 2658.99991989136 10 13 6
-1090.60060977936 -278.315305709839 2687.00003623962 12 13 7
-1080.89828491211 -277.699023485184 2680.99999427795 14 15 7
-1070.02913951874 -276.772528886795 2671.99993133545 15 16 8
-1063.58563899994 -276.986002922058 2674.00002479553 15 15 7
-1067.40403175354 -279.893219470978 2701.99990272522 17 14 7
-1078.91917228699 -284.87291932106 2750 14 11 4
-1186.81907653809 -254.561126232147 2392.99988746643 12 20 7
-1176.09310150146 -255.058377981186 2398.00000190735 15 23 10
-1131.94489479065 -246.852904558182 2321.00009918213 16 22 10
-1140.11406898499 -250.028669834137 2351.0000705719 16 22 10
-1125.45907497406 -248.206704854965 2334.00011062622 16 22 10
-1126.24454498291 -249.788552522659 2348.99997711182 16 22 10
-1130.76543807983 -252.221703529358 2371.99997901917 16 24 11
-1119.997382164 -251.252859830856 2362.99991607666 16 24 11
-1119.17841434479 -252.517729997635 2375 16 22 10
-1121.57702445984 -254.527419805527 2394.00005340576 16 22 10
-1115.9576177597 -254.730343818665 2395.99990844727 16 22 10
-1108.01589488983 -254.402458667755 2392.99988746643 16 22 10
-1099.17366504669 -253.862738609314 2388.00001144409 20 23 12
-1099.05576705933 -255.343526601791 2401.99995040894 24 26 15
-1089.76829051971 -254.698872566223 2395.99990844727 26 28 17
-1088.20271492004 -255.86211681366 2407.00006484985 27 29 18
-1087.92817592621 -257.34481215477 2421.0000038147 27 29 18
-1088.02723884583 -258.934438228607 2436.00010871887 26 29 18
-1081.38883113861 -258.930325508118 2436.00010871887 27 30 19
-1075.19447803497 -259.033113718033 2437.00003623962 28 31 20
-1070.31297683716 -259.455472230911 2440.99998474121 29 32 21
-1073.25601577759 -261.791616678238 2463.00005912781 28 31 20
-1059.62705612183 -260.089457035065 2447.00002670288 28 31 20
-1052.54209041595 -259.982228279114 2446.00009918213 25 28 19
-1043.7548160553 -259.45046544075 2440.99998474121 23 26 17
-1047.31857776642 -262.001663446426 2464.99991416931 21 24 15
-1058.35318565369 -266.466677188873 2506.99996948242 26 29 20
-1094.74802017212 -277.41602063179 2609.99989509583 24 27 18
-1088.91296386719 -277.73705124855 2612.99991607666 8 11 2
-1095.07024288177 -281.141132116318 2644.99998092651 9 12 5
-1078.02307605743 -278.593510389328 2621.00005149841 9 12 5
-1095.42965888977 -284.975111484528 2680.99999427795 10 13 6
-1086.94267272949 -284.660845994949 2677.99997329712 12 13 7
-1073.23265075684 -282.965272665024 2661.99994087219 15 16 8
-1068.02082061768 -283.502459526062 2667.00005531311 16 17 9
-1063.18128108978 -284.146547317505 2673.00009727478 22 22 14
-1059.10110473633 -285.003840923309 2680.99999427795 16 13 6
-1071.06471061707 -290.220260620117 2730.00001907349 14 11 4
-1198.98700714111 -265.201658010483 2430.99999427795 17 23 13
-1145.61605453491 -256.222724914551 2348.99997711182 16 19 8
-1142.55344867706 -256.970763206482 2355.99994659424 16 19 8
-1150.06542205811 -260.118961334229 2384.99999046326 16 19 8
-1157.90224075317 -263.376742601395 2414.99996185303 18 20 9
-1133.63826274872 -259.32839512825 2378.00002098084 19 22 11
-1126.64473056793 -259.207010269165 2377.00009346008 20 23 12
-1108.82210731506 -256.578385829926 2352.9999256134 22 25 14
-1118.77644062042 -260.384082794189 2388.00001144409 22 25 14
-1128.54290008545 -264.190226793289 2423.00009727478 21 24 13
-1102.46849060059 -259.601473808289 2381.00004196167 18 21 10
-1106.54640197754 -262.100577354431 2404.00004386902 20 23 12
-1096.31776809692 -261.220455169678 2395.99990844727 21 24 13
-1095.23296356201 -262.521594762802 2407.99999237061 21 24 13
-1089.11287784576 -262.624174356461 2408.99991989136 23 26 15
-1089.73109722137 -264.362692832947 2424.99995231628 26 29 18
-1094.28489208221 -267.082959413528 2450.00004768372 28 31 20
-1087.16368675232 -266.969501972198 2448.99988174438 27 30 21
-1076.96259021759 -266.093671321869 2440.99998474121 27 30 21
-1065.05382061005 -264.782458543777 2428.99990081787 27 30 21
-1069.33617591858 -267.505288124084 2453.9999961853 27 30 21
-1057.46304988861 -266.195446252823 2441.99991226196 27 30 19
-1045.22740840912 -264.77724313736 2428.99990081787 26 29 20
-1045.03774642944 -266.411900520325 2444.00000572205 24 27 18
-1043.06936264038 -267.611086368561 2454.99992370605 21 24 15
-1052.86395549774 -271.86307311058 2493.99995803833 27 30 21
-1082.16285705566 -281.239092350006 2579.99992370605 26 29 20
-1095.57807445526 -286.582499742508 2628.99994850159 9 12 5
-1089.271068573 -286.803275346756 2631.00004196167 9 12 5
-1096.5279340744 -290.621876716614 2665.99988937378 9 12 5
-1100.32856464386 -293.569177389145 2693.00007820129 10 13 6
-1083.28485488892 -290.957421064377 2668.99991035461 12 13 7
-1069.59879398346 -289.218366146088 2653.00011634827 16 17 9
-1060.80663204193 -288.787931203842 2648.9999294281 17 18 10
-1057.20853805542 -289.775311946869 2657.99999237061 19 19 11
-1050.40323734283 -289.891183376312 2658.99991989136 22 19 12
-1053.00998687744 -292.624145746231 2684.00001525879 25 22 15
-1199.25606250763 -270.383834838867 2417.99998283386 20 25 18
-1198.01914691925 -271.59458398819 2428.99990081787 7 12 5
-1145.47860622406 -264.052212238312 2361.99998855591 18 20 9
-1142.36485958099 -264.819473028183 2368.99995803833 19 21 10
-1183.32803249359 -275.871157646179 2467.99993515015 19 21 10
-1159.39438343048 -271.833091974258 2431.99992179871 18 21 10
-1149.40810203552 -271.037638187408 2424.99995231628 19 22 11
-1137.10808753967 -269.684225320816 2413.00010681152 21 24 13
-1108.01148414612 -264.308393001556 2365.00000953674 21 24 13
-1113.18266391754 -267.091870307922 2390.00010490417 20 23 12
-1107.57088661194 -267.305642366409 2391.99995994568 20 23 12
-1096.42815589905 -266.179203987122 2381.99996948242 22 25 14
-1110.96751689911 -271.311193704605 2427.99997329712 22 25 14
-1101.15265846252 -270.521461963654 2421.0000038147 21 24 13
-1088.21487426758 -268.950343132019 2407.00006484985 22 25 14
-1088.38844299316 -270.620286464691 2421.99993133545 25 28 17
-1089.82336521149 -272.626131772995 2440.00005722046 27 30 21
-1086.27998828888 -273.403525352478 2447.00002670288 26 29 20
-1075.20139217377 -272.282272577286 2437.00003623962 26 29 20
-1069.00298595428 -272.39066362381 2437.99996376038 26 29 20
-1061.93065643311 -272.276312112808 2437.00003623962 27 30 21
-1060.06288528442 -273.503363132477 2447.99995422363 27 30 21
-1060.28926372528 -275.289624929428 2463.99998664856 26 29 22
-1051.87952518463 -274.842083454132 2460.00003814697 25 28 21
-1040.51971435547 -273.613065481186 2448.99988174438 25 28 21
-1050.33004283905 -277.970910072327 2487.99991607666 26 29 22
