ply
format ascii 1.0
comment KinectMotionCapture
element vertex 752
property float x
property float y
property float z
property uchar red
property uchar green
property uchar blue
end_header
-1172.45536029952 102.547195626934 2668.64912765399 143 147 146
-1177.65598992948 101.9683066358 2660.31907338319 146 150 149
-1174.84795401675 102.255783385457 2653.04170446902 151 155 154
-1176.04432301076 102.109852360653 2645.24425687906 162 166 165
-1176.23954202933 102.072043998021 2637.57382564921 163 167 166
-1178.43625295702 101.817536491012 2629.66180591685 160 164 163
-1179.63229047706 101.67116854733 2621.87684434799 151 155 154
-1181.8285692054 101.416385980265 2613.98142112473 141 145 144
-1182.02354970914 101.377890878955 2606.31957451387 141 146 142
-1186.22060981512 100.906385129257 2598.21963179715 144 149 145
-1188.41637163019 100.651136853443 2590.35323608133 137 142 138
-1190.61187947583 100.395746124847 2582.49661341594 129 134 130
-1191.80665099965 100.248412946348 2574.75077018225 124 129 125
-1191.0009571158 100.317160518795 2567.20573223514 110 115 111
-1189.19507891312 100.49380367767 2559.74972562642 100 105 99
-1186.3894672841 100.77827926633 2552.37438489097 100 105 99
-1180.58415663579 101.386763177539 2545.25175819305 104 109 103
-1176.77973673239 101.778674846581 2537.92049961794 73 78 72
-1180.97499392231 101.305593432013 2529.88932927924 57 62 58
-1210.1655779432 98.1308193931771 2519.83197298597 112 117 113
-1256.34804415934 93.1198268092911 2508.58678277832 106 111 107
-1279.53121989336 90.5947518287289 2499.34972925769 94 99 95
-1281.71924334592 90.3384727441965 2491.78466875289 106 111 107
-1285.90596706986 89.866042666787 2484.08771518206 142 147 143
-1292.09120919692 89.1775068797228 2476.2753499961 164 169 165
-1294.27779373205 88.9208187588363 2468.75676338914 148 153 149
-1292.46703264225 89.0957577934777 2461.49909195517 125 130 126
-1286.65928454634 89.7021447511005 2454.46947760613 140 145 141
-1288.84615410542 89.4446873943814 2446.94825011792 150 155 151
-1288.03509764237 89.5108144874749 2439.60066188567 156 160 159
-1289.22265464505 89.3607924225043 2432.14322479963 157 161 160
-1285.41475845589 89.7499865557853 2424.93558884594 161 165 164
-1281.60766983952 90.13879750254 2417.70530350175 172 177 173
-1277.80115082412 90.5271867195874 2410.45230335785 164 166 161
-1059.06645351677 107.037846280731 2802.88727366063 181 185 184
-1073.29989915949 105.519725499578 2792.52575928855 177 181 182
-1086.52914295946 104.107643955402 2782.40830180224 172 176 177
-1093.74421557151 103.330286621958 2773.35938585142 167 171 172
-1104.9662615846 102.130094414784 2763.69203314804 163 167 168
-1113.18126963794 101.247173472301 2754.56631675279 159 163 164
-1121.3949626906 100.364410693794 2745.48284017585 160 164 165
-1119.5897618085 100.538667830597 2737.99779960586 159 163 164
-1126.80034954977 99.7616042116469 2729.12448330981 161 165 166
-1133.00842909397 99.0902758453354 2720.43802875184 166 170 171
-1138.21420503772 98.5245832479377 2711.93033276997 168 172 173
-1140.41454235561 98.2758474309312 2703.8827783419 167 171 170
-1146.62056459859 97.604496595785 2695.27670611746 160 164 163
-1154.82860850226 96.7219142271379 2686.42353635131 158 162 161
-1164.03656000795 95.7337969363824 2677.47603542138 149 153 152
-1166.2349669831 95.4848666724389 2669.51304148087 146 150 149
-1170.43529667323 95.024704342914 2661.29749178023 149 153 152
-1168.62876614957 95.1978568709161 2653.87255695296 150 154 153
-1173.82940674007 94.6319740906927 2645.55603937376 156 160 159
-1175.02563416719 94.4881695522624 2637.75708317711 159 163 162
-1177.22279584214 94.2386705369334 2629.84214920111 161 165 164
-1178.41873223364 94.0945683614122 2622.05424810529 162 166 165
-1179.6147952384 93.9503093044564 2614.27055486525 151 155 154
-1179.8099076535 93.911373956004 2606.60307999766 127 132 128
-1180.00504766986 93.8722512021645 2598.93432515597 124 129 125
-1180.20021178272 93.8328969617164 2591.26437998708 128 133 129
-1182.39618409031 93.5825023393576 2583.38564418544 126 131 127
-1181.59093973907 93.6482343143071 2575.81979903055 119 124 120
-1183.78685231857 93.3974773389274 2567.95233333099 114 119 115
-1183.98190718519 93.3573419257732 2560.2858191206 114 119 113
-1185.17709910269 93.2116223741758 2552.52527803352 96 101 95
-1183.37180829891 93.3818521648689 2545.03942766048 100 105 99
-1178.56689918732 93.8678430453884 2537.80360638494 96 101 95
-1178.76246305791 93.8267618637271 2530.11618304265 77 82 78
-1199.95599306354 91.5736489120539 2520.70774048525 93 98 94
-1237.14404168139 87.6359330218127 2510.14651920389 138 143 139
-1270.32794130171 84.1202550544231 2500.0924914973 205 210 206
-1282.51370696609 82.8162183976359 2491.7656227824 205 210 206
-1289.69956686689 82.0386707904707 2483.85823648433 196 201 197
-1292.88628711109 81.6820675532425 2476.26108719113 171 176 172
-1291.07528632346 81.851503635453 2469.00687533236 133 138 134
-1290.26368926734 81.9154189021253 2461.67804046137 135 140 136
-1287.45369364497 82.1894779580752 2454.46285690265 148 153 149
-1288.6414366238 82.0424073334206 2447.00132025347 155 160 156
-1286.83116531541 82.2106770332279 2439.70802065906 159 163 162
-1291.01607114074 81.7477037800195 2432.09227087274 157 161 160
-1288.20696902229 82.020579659773 2424.84089568201 156 160 159
-1284.39936807293 82.3982134133707 2417.61863287669 164 169 165
-1277.59552171061 83.090833469586 2410.50441805974 163 165 160
-1053.8337036608 99.5632728173432 2803.8255099055 183 187 186
-1073.07978987876 97.5676273682653 2792.59004195478 173 177 176
-1084.30550037974 96.3966041376061 2782.81078777074 172 176 175
-1096.53202168121 95.1227852048409 2772.92349303772 164 168 167
-1104.74846151186 94.2611380897832 2763.75533523484 158 162 161
-1111.96189901931 93.502626911065 2754.79056038571 155 159 158
-1116.16859731089 93.0530729836873 2746.33749416335 159 163 162
-1114.36381747824 93.2213030135177 2738.83885086738 162 166 165
-1123.57894545027 92.2569001419328 2729.64565627708 162 166 165
-1132.79261602335 91.2926333257448 2720.5002431842 165 169 168
-1137.99875884332 90.7401372748591 2711.99237784388 169 173 172
-1138.19622222227 90.7021965472569 2704.2340871123 164 168 167
-1137.39227708867 90.767027457294 2696.61649653743 155 159 158
-1144.59993410822 90.0085997470092 2687.87773280185 152 156 155
-1157.81492937015 88.6330069462053 2678.35633634391 142 146 145
-1165.02028650897 87.874771396277 2669.70766624167 140 144 143
-1170.22214155472 87.3222196272069 2661.35799735769 147 151 150
-1169.41654296334 87.3866354633051 2653.80458396598 147 151 150
-1173.61646117851 86.9367709137292 2645.6161730951 150 154 153
-1173.81180196677 86.8980448515666 2637.93999732916 153 157 156
-1172.00540667503 87.0647243339525 2630.50282691193 156 160 159
-1174.20257253351 86.820088883115 2622.58362676167 159 163 162
-1178.40121475399 86.3698138015234 2614.44464538605 154 158 157
-1180.59797739427 86.1249374540336 2606.55027053202 134 139 135
-1178.79159053491 86.2908675886455 2599.10264116809 128 133 129
-1177.986284019 86.3538252278083 2591.53624675547 123 128 124
-1179.18207410543 86.2111874552781 2583.75563613157 121 126 122
-1178.37695707885 86.2737195279332 2576.18137887926 114 119 115
-1180.57322262815 86.0279852058934 2568.30551083535 111 116 112
-1183.76949366956 85.6794926558911 2560.34379193276 107 112 106
-1185.9649434099 85.4334985083023 2552.49020476072 99 104 98
-1184.15966467495 85.5978250790602 2545.0068690609 99 104 98
-1182.35444936019 85.7619578436931 2537.51152179831 100 105 99
-1178.54957560686 86.130958030363 2530.17340066549 86 91 87
-1184.7450926397 85.4737625861747 2521.99310741365 76 81 77
-1205.93835077126 83.2779951928387 2512.65686388078 87 92 88
-1249.12532615855 78.8263806501546 2501.75263892657 154 159 155
-1280.3089685958 75.6063013881871 2491.96733383507 190 195 191
-1294.49362835937 74.1298879114575 2483.55732271529 186 191 187
-1294.68130209371 74.0888216466427 2476.17828924733 157 162 158
-1291.87027864322 74.3550217585178 2468.99483844322 124 129 125
-1288.06026667662 74.7233342313478 2461.85679807078 129 134 130
-1285.25018143566 74.9888794365627 2454.63597559954 143 148 144
-1284.43909542795 75.049177542751 2447.28328335812 150 155 151
-1282.62918843356 75.2116152973226 2439.97880800509 159 163 162
-1287.81381892338 74.6568820474128 2432.29999212972 160 164 163
-1289.00147046602 74.5116063276263 2424.84395635424 158 162 161
-1284.19425411517 74.9804789671298 2417.67060494461 163 168 164
-1277.38987715249 75.65365906945 2410.55625470236 165 167 162
-1034.36205500855 93.5037487455464 2815.22771853435 188 193 189
-1052.60981650201 91.6594196099572 2804.06454915455 184 188 187
-1068.85008796461 90.0160922690685 2793.34189147213 174 178 177
-1083.08399663395 88.5736672809873 2783.04355672881 174 178 177
-1095.31124450463 87.3321283557315 2773.1532001517 172 176 175
-1107.53710078486 86.0907467095044 2763.3267254127 174 178 177
-1110.74260990363 85.7519035635937 2755.01431123125 180 184 183
-1113.94773764305 85.4129968993341 2746.71673447489 178 182 181
-1116.15037970205 85.1743158806574 2738.58989884844 174 178 177
-1129.37344543623 83.8331861104998 2728.79008412546 165 169 168
-1137.58588603201 82.9933071422759 2719.81092802316 163 167 166
-1139.78661470151 82.7546253604153 2711.75887346709 165 169 168
-1137.98075975445 82.9165545256436 2704.29548398338 171 175 174
-1139.17975833388 82.7778340753833 2696.39368045713 158 162 161
-1148.39092604321 81.8378179438176 2687.38145125581 156 160 159
-1162.60799183849 80.3972393052361 2677.73405205729 146 150 149
-1166.80936597909 79.9581056757476 2669.50026061259 143 147 146
-1170.00897768905 79.6190320164123 2661.41809008956 144 148 147
-1167.20072015792 79.8804144664946 2654.12136474102 144 148 147
-1174.40460518215 79.1407716120408 2645.5501933811 145 149 148
-1176.6021646604 78.9015049713804 2637.63069860975 145 149 148
-1177.7982785535 78.7621720685819 2629.84098101418 147 151 150
-1174.9904839183 79.0228160873396 2622.52537121838 148 152 151
-1175.18583324531 78.9831574566537 2614.84786040794 150 154 153
-1175.38120866011 78.9433118235081 2607.16912920747 156 161 157
-1174.57593149152 79.0032757018829 2599.59837333053 149 154 150
-1174.77143062625 78.9630520214389 2591.91440080866 124 129 125
-1175.96749865337 78.8226659913439 2584.12534504722 116 121 117
-1175.16250709277 78.8820136612997 2576.54276498331 112 117 113
-1176.35848654328 78.7412910985238 2568.75680975979 105 110 106
-1179.55525740686 78.4005429818475 2560.78387145149 102 107 101
-1182.75163423924 78.0596596912925 2552.82618810809 103 108 102
-1182.94679631239 78.0183553747729 2545.15422881657 97 102 96
-1181.14173202628 78.1765929386991 2537.65597380651 97 102 96
-1179.33673061623 78.3345618175519 2530.14564810097 99 104 100
-1176.53204338133 78.5920978340502 2522.70525320345 93 98 94
-1182.72775384612 77.9508159598672 2514.53448672699 74 79 75
-1214.92055922479 74.7142905300864 2504.40742596499 106 111 107
-1271.10523905803 69.0832610891323 2492.68492310121 152 157 153
-1294.28942245455 66.7466627451833 2483.61085833561 158 163 159
-1295.47673094221 66.6055327774998 2476.16335693851 144 149 145
-1291.66583974642 66.9629908068142 2469.04802522277 137 142 138
-1288.85502165083 67.2203584614235 2461.84706482564 141 146 142
-1287.04406549398 67.3776769537495 2454.56877291839 137 142 138
-1287.23235981134 67.3352751006118 2447.16405086392 139 144 140
-1282.42398538084 67.7910836753826 2440.03125882093 154 158 157
-1286.60977352281 67.349437367807 2432.40392427511 159 163 162
-1283.8004945037 67.6053149335716 2425.14121149473 158 162 161
-1278.9934845824 68.0601300371444 2417.95402299225 164 169 165
-1275.18595684018 68.4149401974953 2410.69506799376 168 170 165
-1330.32102974052 62.892206866053 2401.00295827452 140 143 136
-1053.18785697326 83.5931973294286 2811.91999870227 186 191 187
-1060.40805208468 82.8712392566819 2802.73036119044 171 175 174
-1075.64685211876 81.3687792549044 2792.20109165687 174 178 177
-1088.87880148078 80.061745982611 2782.09068417669 177 181 180
-1098.09964726668 79.1451746647638 2772.71605066328 174 178 177
-1103.31069810447 78.6188756891713 2764.04449138627 174 178 177
-1108.52085124623 78.0926087744156 2755.39872681602 158 162 161
-1111.72633441826 77.761379950755 2747.09550239589 159 163 162
-1116.93554313199 77.2351212581396 2738.49598296118 158 162 161
-1127.15366923217 76.2215106827874 2729.15747335731 153 157 156
-1134.36480666109 75.5004335371247 2720.32278732618 153 157 156
-1138.56957985546 75.0717835973853 2711.96740566411 161 165 164
-1138.76695099517 75.0328771121811 2704.21168300537 166 170 169
-1142.9709557885 74.6041166426573 2695.88621443947 159 163 162
-1152.18251732384 73.6882883735716 2686.88456421691 156 160 159
-1167.40204671442 72.1881828844693 2677.1109862832 147 151 150
-1171.60336611878 71.7595671609391 2668.89062743764 142 146 145
-1173.80129701987 71.5256815104725 2660.95306907987 136 140 139
-1170.99276574539 71.7784309414051 2653.66709788662 139 143 142
-1178.19689177571 71.0575549009644 2645.10665753316 148 152 151
-1177.39052729547 71.1153506069058 2637.56674475747 150 154 153
-1179.58791211594 70.8809920081045 2629.65934609464 151 155 154
-1172.77564398708 71.5222121529916 2622.81909382226 150 154 153
-1173.97201995685 71.3848051113091 2615.02120120346 146 150 149
-1173.16663090555 71.4417678140584 2607.451595659 146 151 147
-1177.36543113892 71.0122772750199 2599.32875543334 149 154 150
-1179.56232903747 70.7772080420013 2591.43962434162 145 150 146
-1180.75811763886 70.6392071363827 2583.66405046869 127 132 128
-1179.95269679323 70.6954880846217 2576.09495554137 110 115 111
-1178.14672298123 70.848749268223 2568.61757991206 102 107 103
-1177.34170096083 70.9045939330634 2561.03242906534 97 102 96
-1179.53786055705 70.6687040685803 2553.16194746741 98 103 97
-1180.73373435246 70.5297920656325 2545.39139043908 94 99 93
-1181.92925371927 70.3907374807499 2537.62520782684 98 103 97
-1180.12402632623 70.5428996606425 2530.11747953303 98 103 99
-1177.31903773402 70.7918731639435 2522.67966895582 97 102 98
-1179.51492328906 70.5550928169524 2514.8282664931 84 89 85
-1203.71026710206 68.1824335981137 2505.3039922622 112 117 113
-1252.90050805432 63.3837886204465 2494.06635871547 136 141 137
-1287.08624949865 60.0421033991301 2484.16118860723 141 146 142
-1296.272299522 59.1270532461341 2476.14812734305 135 140 136
-1294.4605589986 59.2792057189707 2468.90426911206 142 147 143
-1287.65076747743 59.9160903536464 2461.96256729469 153 158 154
-1284.840223221 60.1646073185296 2454.74140112563 156 161 157
-1286.02808959553 60.0249493398119 2447.27367608508 153 158 154
-1284.21749880297 60.1759435854084 2439.97431398647 146 150 149
-1286.40485908557 59.9388971037212 2432.45582294888 151 155 154
-1281.59666132824 60.3801521731948 2425.29117468475 156 160 159
-1277.78856749092 60.7240664038339 2418.05197022196 164 169 165
-1274.98013025217 60.9707770253762 2410.74651499021 168 170 165
-1297.1494424898 58.7953318505776 2402.40200282907 150 153 146
-1047.95301363059 76.0627364312623 2812.87072324834 184 189 185
-1061.1895360633 74.7901670021764 2802.61858894426 179 183 182
-1076.42938719115 73.3281801037511 2792.09169592659 177 181 180
-1090.66459710739 71.9613509240244 2781.81434811508 168 172 171
-1095.87681179302 71.448096337466 2773.11130769257 150 154 153
-1100.08591000247 71.0297285845097 2764.59792967885 154 158 157
-1107.3011778537 70.3269829700736 2755.62149542193 165 169 168
-1114.5155103976 69.6243213086793 2746.68170635775 164 168 167
-1122.73115552809 68.8269829747094 2737.62298279439 159 163 162
-1128.94136020374 68.2192973511201 2728.91248062523 158 162 161
-1133.14725442382 67.8010442226755 2720.53377347795 159 163 162
-1136.3505838255 67.4775310608333 2712.3230103479 163 167 166
-1140.55526562895 67.0592587379476 2703.9823432451 167 171 170
-1146.76299194143 66.4516295993866 2695.37808953111 165 169 168
-1157.97814017126 65.3706710386959 2686.10834999935 160 164 163
-1170.19355829069 64.1951783581815 2676.76058124122 149 153 152
-1173.39326726227 63.8717319074006 2668.68206390191 144 148 147
-1174.59005237692 63.7374688378482 2660.88088102724 142 146 145
-1169.77809742627 64.1708113502963 2653.85458099952 142 146 145
-1175.98156700326 63.5632351329759 2645.41675207764 143 147 146
-1177.17785372495 63.4286127279379 2637.62533751155 145 149 148
-1180.37649303722 63.1046976775115 2629.59744780584 147 151 150
-1173.56361565469 63.726348760631 2622.75999552608 151 155 154
-1171.75707609755 63.8748658738961 2615.30896214751 146 150 149
-1170.95150381909 63.9286394635522 2607.73376874302 139 144 140
-1174.14990639521 63.6041572390084 2599.71452251817 145 150 146
-1175.34615508347 63.4685996595255 2591.92359031183 156 161 157
-1177.5432227037 63.2383767942778 2584.03302956542 142 147 143
-1180.74066180184 62.9135658892592 2576.05108648566 113 118 114
-1178.93446111751 63.0609605916199 2568.57627883715 103 108 104
-1177.12880180201 63.2081180023384 2561.08938262221 94 99 93
-1176.32362270854 63.260616543498 2553.49745313691 91 96 90
-1179.52046645946 62.9351988939756 2545.53812681362 89 94 88
-1180.71636442506 62.7984861562974 2537.76898653264 93 98 92
-1180.91170105391 62.7559950061477 2530.08893066913 92 97 93
-1181.10706108883 62.7133025627251 2522.40774388194 99 104 100
-1183.30257712062 62.48171034304 2514.56702949108 94 99 95
-1202.49922883495 60.6462274219406 2505.43560338046 111 116 112
-1242.69317993851 56.8303837103956 2494.85796724594 135 140 136
-1280.88186261713 53.2041406394123 2484.64042264857 142 147 143
-1292.068826158 52.1247737686487 2476.47394743263 140 145 141
-1293.25636674511 51.9882785000854 2469.02235116751 151 156 152
-1291.44483657484 52.1343730660123 2461.76376709394 159 164 160
-1288.63378412744 52.3744426017503 2454.55339258898 157 162 158
-1288.8219350188 52.3315537660183 2447.15375323559 154 159 155
-1286.01154116839 52.5710428359143 2439.91701521943 149 153 152
-1284.20095076892 52.7160500766996 2432.61120937295 148 152 151
-1278.39344875979 53.2374414290853 2425.49004015339 146 150 149
-1275.58449175282 53.4759477798769 2418.19609015015 156 161 157
-1275.77368991102 53.4317297985439 2410.75409284597 169 171 166
-1065.98193840501 66.3454806076859 2801.80710861403 177 182 178
-1081.22232692535 64.9240466907399 2791.29343031606 175 180 176
-1090.44582310548 64.0554870904519 2781.87608628751 165 170 166
-1095.658403778 63.555369268125 2773.17284707561 155 160 156
-1096.86066364171 63.4235530380528 2765.15099448157 164 169 165
-1105.07888361298 62.6473642726307 2756.00502121072 163 168 164
-1113.29627018325 61.8712291946045 2746.90100257139 160 165 161
-1121.51233721243 61.0952534893353 2737.83940250257 157 162 158
-1125.71901567331 60.6874180806679 2729.43190546544 160 165 161
-1126.9193216556 60.5555487131876 2721.49568505966 163 168 164
-1133.12916360509 59.9637115227641 2712.82570110035 165 170 166
-1138.33615423355 59.4639146930643 2704.33196004386 165 169 168
-1145.54620625809 58.7801732710729 2695.57978360105 166 170 169
-1153.75722887257 58.0046071020089 2686.72510125054 158 162 161
-1162.9685365185 57.1371949049411 2677.77603456691 144 148 147
-1168.17249362127 56.6375573460479 2669.41035000405 141 145 144
-1170.37115457117 56.4136024150869 2661.46424643946 138 142 141
-1170.56654034237 56.3733038819063 2653.78462418622 141 145 144
-1173.76593225159 56.0573091804405 2645.72649985676 149 153 152
-1176.96517683703 55.7412305273809 2637.68336809878 152 156 155
-1175.1578611389 55.8842524617861 2630.25676869861 152 156 155
-1172.34949988172 56.1189240402651 2622.93541724665 150 154 153
-1172.54496427518 56.0778843470097 2615.25192636234 147 151 150
-1176.74460518545 55.6695517821408 2607.11894737402 143 148 144
-1176.93984602506 55.6282565052739 2599.44391932263 133 138 134
-1176.13427721985 55.6785749396408 2591.87420508002 128 133 129
-1176.32964184569 55.6369316073476 2584.19396531872 135 140 136
-1177.52573413773 55.5034112983784 2576.41133308301 130 135 131
-1177.7210817313 55.4614273910256 2568.73139331832 120 125 121
-1175.91509542951 55.6027030946824 2561.24163674808 107 112 106
-1174.10965112066 55.7436813214895 2553.7397025964 93 98 92
-1176.30619512528 55.517787321581 2545.86492977578 87 92 86
-1177.50237226612 55.3833710119506 2538.08734408643 79 84 78
-1177.69791200548 55.3404506689475 2530.39888912665 83 88 84
-1176.89302367925 55.3890155756811 2522.79137181673 84 89 85
-1179.08920329898 55.1624652120065 2514.9394604556 92 97 93
-1194.28703644375 53.7450352877835 2506.10261762201 109 114 110
-1238.48482562721 49.6720187281545 2495.20695907083 147 152 148
-1274.67655587123 46.3326620585817 2485.11962146913 136 141 137
-1288.86459948469 45.0083844107536 2476.73138472104 137 142 138
-1291.05245553795 44.7827295982596 2469.2057487457 147 152 148
-1291.24036062395 44.7399662219575 2461.81585102577 148 153 149
-1288.42907736111 44.9715294880589 2454.60536421083 146 151 147
-1288.6172264543 44.9283410358023 2447.20547343063 147 152 148
-1286.80611898149 45.0679041646479 2439.91403113343 146 150 149
-1286.99443816787 45.0242502953986 2432.50699279314 153 157 156
-1283.18502544782 45.3461285447909 2425.29567429657 159 163 162
-1279.37618331754 45.6676898345641 2418.06171484845 158 163 159
-1275.56791205594 45.9888890761785 2410.80505513555 156 158 153
-1069.77220843396 58.0170108874418 2801.16972851622 182 187 183
-1078.99772334308 57.172296582796 2791.69908880754 177 182 178
-1086.21676593357 56.5064630596949 2782.61475802465 166 171 167
-1088.42242616175 56.2874418789981 2774.40039589937 156 161 157
-1089.62523357543 56.1577305898904 2766.35940327957 160 165 161
-1099.84937663775 55.2241140254042 2756.87162135888 167 172 168
-1112.07687541132 54.1121012994187 2747.1198586733 164 169 165
-1123.30033688556 53.0896237800165 2737.58800118929 160 165 161
-1128.50926155529 52.6029363776679 2729.03274699382 163 168 164
-1130.71144858365 52.3840746187232 2720.95430072384 166 171 167
-1135.91950009079 51.897436484676 2712.44255043585 167 172 168
-1140.1247637961 51.500060924472 2704.10157792708 172 176 175
-1146.33337702617 50.9242308307339 2695.49680376672 172 176 175
-1152.54095221954 50.3484851652755 2686.92336554084 167 171 170
-1160.75156078262 49.5943810052387 2678.10791000575 149 153 152
-1166.9576332922 49.0187171616814 2669.60261451053 146 150 149
-1169.15626615137 48.7997544256368 2661.65364427502 145 149 148
-1170.35342128388 48.6698342564447 2653.84266289278 143 147 146
-1170.5488280857 48.6289449385824 2646.16158435063 140 144 143
-1175.75115982973 48.1423472320582 2637.86410083897 141 145 144
-1172.94225506094 48.3685207657076 2630.55486715766 144 148 147
-1175.14023652111 48.1490531010317 2622.64013848661 149 153 152
-1174.33412108362 48.1967143091965 2615.07961061406 146 150 149
-1178.53415601257 47.798897081777 2606.95184735883 146 151 147
-1175.72606016524 48.0243300908303 2599.61020310595 141 146 142
-1173.91932279988 48.1604940631266 2592.14431211837 133 138 134
-1173.11397441107 48.2074227591425 2584.56234359918 129 134 130
-1175.31111809177 47.9871759514078 2576.6701968799 129 134 130
-1173.50518697887 48.1227020077294 2569.18143459622 122 127 123
-1173.70083111991 48.0800839747986 2561.48922385435 112 117 111
-1170.89456347339 48.3041449837934 2554.07465403254 101 106 100
-1172.09096368492 48.1722232312699 2546.28170364302 96 101 95
-1171.28639515759 48.2179389868927 2538.66795307369 84 89 83
-1172.48270486753 48.0856662094116 2530.87816289643 86 91 87
-1172.6786104948 48.0421382947148 2523.17475540573 81 86 82
-1173.87499565281 47.9095121907595 2515.39096187002 85 90 86
-1188.07392119128 46.621604927773 2506.61647351358 99 104 100
-1227.2748205849 43.1129236121467 2496.07238379424 151 156 152
-1268.47032995137 39.4276374633026 2485.59872566538 134 139 135
-1281.65990785654 38.2301208574409 2477.26193206377 135 140 136
-1285.84814088514 37.8319526574141 2469.58572632276 142 147 143
-1288.03623241579 37.6112617495096 2462.05621693362 142 147 143
-1288.22436125665 37.5679886604237 2454.65702680782 142 147 143
-1286.41294433403 37.70200738775 2447.37172572983 146 151 147
-1286.60124522623 37.6582983698842 2439.96534317534 150 154 153
-1283.79075567179 37.8805274327413 2432.71381313816 154 158 157
-1282.97984424877 37.9250359285774 2425.34666864295 158 162 161
-1276.17230938395 38.5014207659874 2418.25180885514 162 167 163
-1273.36325563731 38.7227123997435 2410.94315593615 163 165 160
-1266.55742035409 39.2982846458707 2403.78099811394 154 157 150
-1065.54080917783 50.4030245701164 2801.93018551821 183 188 184
-1070.75616764271 49.9288638278358 2793.13692648322 170 174 173
-1074.96852152791 49.5413462535771 2784.53875471654 160 165 161
-1082.18790612878 48.8940725971282 2775.46098513887 162 167 163
-1084.39363823487 48.6798819539905 2767.23967564671 166 170 169
-1096.62386802768 47.5998375300276 2757.41550036878 163 168 164
-1107.84991944376 46.6066500094924 2747.81386833078 167 172 168
-1120.07695915985 45.5270797556767 2738.11488142942 170 175 171
-1125.28645770521 45.0535487954683 2729.5513245604 169 174 170
-1129.49343446605 44.6665324694738 2721.1638476431 172 177 173
-1135.70395248374 44.1065054436914 2712.50159590118 188 193 189
-1140.91147048936 43.6330816261797 2704.01556042787 176 180 179
-1147.12045855451 43.0731918315832 2695.41325187986 172 176 175
-1151.32475878186 42.686276014996 2687.12116629415 171 175 174
-1156.53052989178 42.2129240117322 2678.71280745319 133 137 136
-1161.73539986723 41.7395899799556 2670.33036257739 125 129 128
-1163.93476030504 41.5255020161515 2662.36751499145 145 149 148
-1167.13542072384 41.2249664807649 2654.28573656344 149 153 152
-1167.33102514012 41.1835594046787 2646.59637863479 157 161 160
-1173.53534300237 40.6237607195802 2638.16737083268 157 161 160
-1172.72925348645 40.6685309770419 2630.61205056331 153 157 156
-1172.92460195569 40.6267719079972 2622.93231798875 144 148 147
-1170.11614316316 40.8438688669766 2615.59590828322 143 147 146
-1173.31538382183 40.5427960216395 2607.56904207742 145 150 146
-1171.50869745018 40.6731964587146 2600.10429442685 143 148 144
-1172.70528884132 40.5445248564453 2592.30736183685 140 145 141
-1169.89784590337 40.7608111945848 2584.93037863318 135 140 136
-1170.09363974477 40.7180932881075 2577.23220984595 116 121 117
-1168.28765826435 40.8476789983397 2569.7297130249 111 116 112
-1169.48459472651 40.7183422120977 2561.92790442904 104 109 103
-1169.68053692847 40.6750896506617 2554.22336312592 103 108 102
-1170.87707631979 40.545501596961 2546.42747885401 103 108 102
-1170.07249518797 40.5880847129363 2538.81085732472 93 98 92
-1172.26937890118 40.3720034160578 2530.93334364065 87 92 88
-1171.46491357675 40.4142255960392 2523.31180841205 86 91 87
-1172.66120020793 40.2840146152137 2515.5251340307 79 84 80
-1181.85988724268 39.4646734403903 2507.13026430206 80 85 81
-1215.06274477544 36.5790399065727 2497.01178889172 155 160 156
-1263.26350983496 32.4030107632744 2486.00665604372 124 129 125
-1280.45472092433 30.8964366615258 2477.38230524871 125 130 126
-1285.64326904697 30.4228715189469 2469.63752677362 134 139 135
-1284.83163862731 30.4654707654269 2462.29643315295 136 141 137
-1285.01997339301 30.4218427580449 2454.88881368748 137 142 138
-1285.20832478734 30.3780302664987 2447.48034623237 140 145 141
-1289.39560364506 29.9900792560852 2439.85240322612 149 154 150
-1288.58411087277 30.0319216283256 2432.50511719585 155 159 158
-1285.77347599415 30.2454416041899 2425.24991578411 157 162 158
-1275.96658442961 31.0602464933173 2418.3024929058 154 159 155
-1268.16011642529 31.7026575002679 2411.21213266667 161 163 158
-1260.35453926152 32.3446244087217 2404.07715366596 165 167 162
-1049.07134239227 43.8153966037944 2812.76349972613 183 187 186
-1060.305764718 42.8506052287579 2802.86519313439 180 184 183
-1067.52753558079 42.2216623010342 2793.71384229932 169 173 174
-1077.75659701633 41.3411886080411 2784.09089403775 164 168 167
-1083.97369602675 40.7963949256449 2775.18779069318 163 167 166
-1090.18999910118 40.2517081107232 2766.31591003038 165 169 170
-1100.41556006718 39.3717312042294 2756.83030565564 164 168 167
-1111.64239514539 38.4081013636695 2747.23910693546 167 171 170
-1122.86749750673 37.4447408950188 2737.70659323543 165 169 168
-1124.06793134723 37.319562756838 2729.76323542638 163 167 166
-1126.27067546523 37.1105458564721 2721.67358681414 163 167 166
-1133.48395080389 36.4826342885251 2712.85537788665 162 166 165
-1143.7026419581 35.6035410214066 2703.63921833925 165 170 166
-1150.91383328362 34.9758541722922 2694.90270115035 173 178 174
-1157.12218740718 34.4319781799811 2686.34236362309 173 178 174
-1161.32584011176 34.0556180479011 2678.08691935187 131 136 132
-1164.5272084404 33.762936599365 2669.98590646844 128 133 129
-1165.72457230042 33.6375854630396 2662.16234837932 133 138 134
-1168.92531043111 33.3448017054111 2654.0858559634 143 148 144
-1171.1241100788 33.1356345543108 2646.15020958799 159 164 160
-1174.32414571046 32.8427527314324 2638.10106797291 157 162 158
-1174.51931520674 32.8006962005489 2630.42801088988 154 159 155
-1171.71024445149 33.0093283430949 2623.10642993966 159 164 160
-1169.90289219645 33.1341623685946 2615.65240574641 151 156 152
-1170.09849822196 33.091599497386 2607.9617439194 144 149 145
-1170.2941308794 33.048924502666 2600.26992083504 143 148 144
-1171.49109695306 32.9225357711754 2592.47012031349 136 141 137
-1171.6867164282 32.8795491859494 2584.77847787707 129 134 130
-1173.88421864212 32.6694101648373 2576.88317140042 122 127 123
-1170.07608408533 32.9601433537829 2569.58845668882 115 120 116
-1169.27113609099 33.00015329131 2561.98341053675 106 111 107
-1167.46539549242 33.1234478955828 2554.46474431365 95 100 96
-1169.66303089234 32.9127001003195 2546.57290360019 95 100 96
-1170.85959514427 32.7852811185527 2538.7783766721 97 102 98
-1173.05679352555 32.5743045605548 2530.90337053318 93 98 94
-1173.25261687003 32.5300333090004 2523.20238080105 86 91 87
-1170.44711433763 32.7357648699806 2515.73822691981 83 88 84
-1174.64463483801 32.3576012145963 2507.72051394694 69 74 70
-1200.84837990711 30.1454805662082 2498.09898359069 145 150 146
-1257.05552299911 25.4337244293561 2486.48558363142 127 132 128
-1280.24946531818 23.4733682212114 2477.43408619432 124 129 125
-1283.43834351334 23.1797806586797 2469.82025808017 132 137 133
-1281.62658200653 23.3026375523947 2462.53643982887 133 138 134
-1283.81512644932 23.0921043285685 2455.00013560305 132 137 133
-1282.0036793258 23.2145174102098 2447.70355363247 139 144 140
-1286.19146667443 22.83720444438 2440.06715935273 153 158 152
-1284.38042991928 22.9592050437547 2432.7634206609 159 164 160
-1283.56905355264 22.9977635273611 2425.39873432007 156 161 157
-1273.76154119766 23.7848698449658 2418.4458334896 157 162 158
-1266.95406923835 24.3218954483716 2411.30625422229 160 165 161
-1260.14758750998 24.8585073765012 2404.12752912726 161 166 160
-1059.08194658393 34.9456082878567 2803.1003066057 181 185 186
-1071.31881408449 33.9293975379966 2793.08524639732 170 174 175
-1081.54834108301 33.0757634567547 2783.47292062989 168 172 173
-1092.77918480325 32.1411990995979 2773.74693378148 167 171 172
-1099.99790451655 31.5313892894715 2764.73537610608 161 165 166
-1107.21568782058 30.9216787305183 2755.76052311721 159 163 162
-1113.43007506275 30.3931819412749 2746.98090341867 156 160 159
-1117.6386448922 30.0269313547371 2738.54413572479 163 167 166
-1118.8397259851 29.9038584881375 2730.58706631634 155 159 158
-1122.0452079553 29.6186645951925 2722.33331763092 143 147 146
-1133.2682506053 28.6851867906228 2712.91339028836 149 153 152
-1143.48768716711 27.8329636659891 2703.69694871935 154 159 155
-1152.70372491903 27.0619100283802 2694.67580029557 154 159 155
-1155.90621763914 26.7769267731478 2686.53910802572 136 141 137
-1158.10618217654 26.5729443735416 2678.55417592376 132 137 133
-1159.30430265624 26.4498494492642 2670.7127938515 140 145 141
-1161.50384440661 26.2457395313978 2662.74424881168 139 144 140
-1166.70871029437 25.7987518152095 2654.3995771297 138 143 139
-1170.91104525139 25.432720671962 2646.2067254705 143 148 144
-1174.11129906822 25.1475982431427 2638.15738786275 148 153 149
-1174.30645842281 25.1050642598709 2630.48421450034 149 154 150
-1172.4985702698 25.2241590898384 2623.04497275031 140 145 141
-1169.68963886797 25.423901322776 2615.70840008517 145 150 146
-1168.88395311866 25.4617369192263 2608.12985331303 154 159 155
-1170.08085891363 25.3377681328874 2600.32568225396 158 163 159
-1172.27903426041 25.1328784933261 2592.41902858305 154 159 155
-1170.47219395733 25.2510791605686 2584.93787314479 148 153 149
-1171.66914369652 25.1267204206889 2577.14089067938 147 152 148
-1169.86270420996 25.2445292886817 2569.64364925888 142 147 143
-1169.05767165526 25.2813957337359 2562.03853277843 135 140 136
-1166.25097868309 25.4795217091616 2554.61273911515 118 123 119
-1169.44955180189 25.1931361870833 2546.62773279632 109 114 110
-1172.64773480577 24.9066744675521 2538.6578917052 93 98 94
-1175.8452849699 24.6201742965806 2530.70341810954 95 100 96
-1172.03859169956 24.8982348737289 2523.33876605607 84 89 85
-1165.23090131299 25.4179731234628 2516.18916185399 80 85 81
-1164.42694588292 25.4534874691659 2508.54049583174 71 76 72
-1189.63280578254 23.392749304636 2498.96483097343 106 111 107
-1250.84661939212 18.4309514603423 2486.9643864417 139 144 140
-1274.04271804343 16.5332212340216 2477.89585502637 129 134 130
-1277.23223711133 16.2474755960012 2470.26539944018 126 131 127
-1277.42103296691 16.2033197047896 2462.83919218394 129 134 130
-1284.61003728197 15.5952390172397 2454.9908718103 134 139 135
-1283.79849287348 15.6313633173046 2447.63946427602 142 147 143
-1285.98656352396 15.4257758944561 2440.11766312711 143 148 142
-1285.17512246994 15.4615575786132 2432.7618482678 148 153 147
-1283.36391716444 15.5775892764838 2425.44896337267 158 163 157
-1276.55471434751 16.095629511497 2418.35664699098 158 163 159
-1269.74650148261 16.6133011597739 2411.22524409482 158 163 159
-1266.93740096165 16.8088120597804 2403.89073791186 167 172 166
-1043.6122420835 28.1758666353011 2813.77206954622 182 186 185
-1062.87297755716 26.6424740880341 2802.46038949973 176 180 181
-1079.12222922067 25.3448633123267 2791.76728306644 172 176 177
-1090.35475866775 24.4396946389413 2782.00697499493 167 171 172
-1096.57183811056 23.9268062906632 2773.13889391098 155 159 160
-1100.7825336008 23.5707782168278 2764.63002417632 151 155 156
-1108.00100213912 22.9796680561327 2755.65768632086 148 152 151
-1115.21829835393 22.388693079451 2746.72198729136 148 152 151
-1116.41937902997 22.267889178219 2738.75804562714 149 153 152
-1118.62299063044 22.0686945200801 2730.64503916237 140 144 143
-1121.82868714845 21.7911559562287 2722.39112490821 129 133 132
-1130.04553504764 21.1221363735347 2713.41384698186 131 135 134
-1139.26373399312 20.374980132018 2704.33389081033 161 166 162
-1147.47835877306 19.7062823212121 2695.44384557947 167 172 168
-1151.68346533391 19.3506768413067 2687.15386431553 154 159 155
-1155.88828780136 18.995113850344 2678.88435681536 145 150 146
-1159.09043585786 18.7177697498138 2670.76933752946 142 147 143
-1163.29404219132 18.3622185636002 2662.53804864543 139 144 140
-1168.49889939081 17.9284855008709 2654.19862356865 137 142 138
-1170.69798156696 17.729296323398 2646.26264858168 141 146 142
-1173.898449719 17.4519043040842 2638.21323432992 148 153 149
-1174.09360010016 17.4089075621646 2630.53991480583 151 156 152
-1174.28878048539 17.3657827942109 2622.86528515451 143 148 144
-1171.47947336758 17.5568922817729 2615.53412759438 139 144 140
-1170.67356444331 17.5915612698541 2607.9609032128 145 150 146
-1171.87039623218 17.469907914675 2600.16211069972 149 154 150
-1176.07101082117 17.1139528349933 2592.04731588387 147 152 148
-1177.26741521633 16.992143178464 2584.26505957364 140 145 141
-1176.46154981205 17.0262904183659 2576.68957406691 134 139 135
-1171.65157584096 17.3723298619838 2569.50143597211 127 132 128
-1169.84514270189 17.4841051256482 2561.99746805024 118 123 119
-1166.03727478422 17.7515999746715 2554.66738061848 105 110 106
-1168.23503018771 17.5510115999294 2546.77243336495 100 105 101
-1170.43277110706 17.3503189126593 2538.88726498696 91 96 92
-1172.63025853481 17.1495286596836 2531.01189918061 87 92 88
-1168.82322579892 17.4162341138606 2523.6389975718 85 90 86
-1165.01701215259 17.6826283392365 2516.2430737207 86 91 87
-1163.21252260922 17.7929377271066 2508.67089418914 80 85 81
-1181.41718416271 16.345498481941 2499.60904477866 87 92 88
-1232.63208602474 12.3290801156524 2488.29686746375 133 138 134
-1263.83384141753 9.87103892612473 2478.6311879037 122 127 123
-1270.02503983577 9.35954910009901 2470.77612854207 122 127 123
-1274.21497547298 9.00372119930146 2463.07884071034 126 131 127
-1281.40471499289 8.4144708179022 2455.22200451674 131 136 132
-1279.59309578118 8.52531602829265 2447.91972765964 137 142 138
-1280.78193645223 8.40263600072444 2440.44147814052 142 147 141
-1280.97059015739 8.35754264444755 2433.01982003699 146 151 145
-1282.15901625331 8.23457099527664 2425.54813564134 156 161 155
-1277.34896096718 8.577736168147 2418.36008944942 162 167 163
-1270.53990616021 9.07596385725778 2411.23139035165 161 166 162
-1265.73141245151 9.41839819376936 2403.98152758845 168 173 167
-1258.92443598332 9.91582935847585 2396.78006935321 153 158 152
-1059.44085090156 18.9340360258822 2810.98925128458 181 185 184
-1071.68023031432 17.9822021781096 2800.94513980532 180 184 185
-1084.92094249912 16.9549855434253 2790.79269640969 165 169 170
-1090.13606311445 16.5335248296334 2782.06531859088 166 170 171
-1095.35076184481 16.1121132792963 2773.36380707423 175 179 180
-1096.55332440881 15.9934056478623 2765.34419890827 170 174 175
-1104.77526997307 15.3452028250644 2756.19936279314 166 170 169
-1111.99328793152 14.7727916525671 2747.25538790486 168 172 171
-1117.20504828537 14.3517153740875 2738.65975352217 149 153 152
-1121.4139144898 14.0062693779455 2730.24306562245 148 152 151
-1125.62202044456 13.6608638647961 2721.84680959286 155 159 158
-1132.83684929563 13.0888515805707 2713.02790436438 148 152 151
-1136.04143974481 12.8190948601079 2704.8255746557 134 139 135
-1143.2546720509 12.2472375358694 2696.06923431997 117 122 118
-1148.46247317026 11.8265250992162 2687.62873120203 116 121 117
-1152.66779407272 11.4813327442848 2679.35087832541 124 129 125
-1157.8743418583 11.0606988997899 2670.95944421932 137 142 138
-1161.07639186589 10.7910633409681 2662.85653386254 140 145 141
-1167.28384318383 10.2950228072408 2654.38284313784 142 147 143
-1165.47553841866 10.4025698509079 2646.94748491049 148 153 149
-1170.68023096323 9.98197664621861 2638.6379284744 150 155 151
-1171.87721875156 9.86307264533376 2630.83599100705 153 158 154
-1176.07905234249 9.5178815519894 2622.685110912 158 163 159
-1171.26636578531 9.85107885809439 2615.58920118038 156 161 157
-1169.4587004336 9.95793050502283 2608.1281057967 148 153 149
-1170.65590759542 9.8385298272867 2600.32638594855 147 152 148
-1175.85817816111 9.41775929565097 2592.10197364877 149 154 150
-1176.05342467673 9.37355158378089 2584.4235966108 145 150 146
-1172.24384361098 9.6304140022295 2577.14904865534 133 138 134
-1170.43701429048 9.73645788812649 2569.65441096395 126 131 127
-1171.63401533066 9.61646688105919 2561.8601132136 116 121 117
-1170.82853496616 9.6469136047401 2554.25628090074 107 112 108
-1169.02258095968 9.75239121708632 2546.73614967276 104 109 105
-1168.21749955303 9.78246164111263 2539.11632066347 95 100 96
-1168.41355873484 9.73715229340055 2531.40499896392 95 100 96
-1167.60897261634 9.76686265091159 2523.77475055447 89 94 90
-1166.80455230219 9.79639382372766 2516.13782954224 87 92 88
-1164.99952629033 9.90093729371069 2508.5711012713 77 82 78
-1175.20126023997 9.10360303336327 2500.10547454587 64 69 65
-1212.41403884994 6.27820844062188 2489.7720444446 122 127 123
-1258.62527749518 2.77796273886993 2479.02445168304 116 121 117
-1273.82023858286 1.60674533977867 2470.56422283672 124 129 125
-1276.00983356997 1.41177746015583 2463.00357256774 129 134 130
-1279.19904071996 1.14169294211192 2455.39279873001 131 136 132
-1278.38768527718 1.17167500063331 2448.0274106956 137 142 138
-1281.57660969515 0.901392532896894 2440.43679924969 151 156 150
-1281.76519019043 0.856063586218203 2433.01774948363 153 158 152
-1281.95378734749 0.810565151311338 2425.59786653368 151 156 150
-1275.1435868622 1.28969355965186 2418.50276196493 161 166 162
-1267.33468408602 1.84336940310559 2411.41228406059 160 165 161
-1260.52629553067 2.32170345940502 2404.23618529074 161 166 160
-1256.71803245509 2.57485392460816 2396.90614010437 152 157 151
-1039.95510130979 12.3780041149061 2822.41878638879 188 192 191
-1062.2296865607 10.7281511134581 2810.51485579069 181 185 184
-1072.46330777218 9.95455778600204 2800.82845559442 181 185 186
-1085.70491920015 8.96231792432781 2790.67842202563 173 177 178
-1089.91736924827 8.6269194330586 2782.12312854817 173 177 178
-1096.13532853285 8.14571197528816 2773.2546767002 176 180 181
-1100.34660029629 7.81043211502003 2764.74556204636 173 177 178
-1104.55759216152 7.47520863158058 2756.25677210587 169 173 172
-1112.77881697253 6.84850759156486 2747.15386769487 168 172 171
-1115.9856339468 6.5863056926935 2738.87262945817 163 167 166
-1126.21039252536 5.81414155506751 2729.53414621204 164 168 167
-1130.41844257563 5.47923925413602 2721.15135266391 163 167 166
-1135.6286205836 5.0715302157503 2712.64123934098 139 143 142
-1138.83321830227 4.80951401729293 2704.4469366919 118 123 119
-1141.03492254284 4.62029829293459 2696.40986628187 106 111 107
-1147.24566929591 4.13993067341636 2687.82420690417 106 111 107
-1149.44684702355 3.95070193888022 2679.81702526232 116 121 117
-1152.64984291379 3.6886770546275 2671.68531829103 128 133 129
-1156.85444927681 3.35392631836581 2663.43727870893 144 149 145
-1162.0604572545 2.9465053340621 2655.08112911693 146 151 147
-1164.26023650892 2.75720627240705 2647.12852914131 148 153 149
-1170.46715219415 2.27712335881877 2638.69290686167 147 152 148
-1174.66959399888 1.94246873717646 2630.52956891614 147 152 148
-1178.87151318741 1.60782571036167 2622.3866690721 151 156 152
-1174.05822807028 1.9268903340619 2615.29897855085 150 155 151
-1171.24868417839 2.10046227143559 2607.9582444711 149 154 150
-1170.44270383869 2.1286006935908 2600.38079923331 148 153 149
-1175.64534368342 1.72108608782018 2592.15618742195 150 155 151
-1176.84188108611 1.60386999007095 2584.37366492607 153 158 154
-1175.03461721615 1.7042345918693 2576.89923774318 138 143 139
-1172.22625868686 1.87695078054576 2569.51125675005 130 135 131
-1173.42294911628 1.75934133081385 2561.72233108865 120 125 121
-1174.61952652737 1.6416419316776 2553.93772599413 111 116 112
-1171.81218357961 1.81379201550236 2546.51876950478 108 113 109
-1166.00216038572 2.20314059170207 2539.34503476783 97 102 98
-1164.19648631269 2.30232733909852 2531.79788333588 93 98 94
-1167.39530825962 2.03910294394177 2523.82802058616 90 95 91
-1169.59306370531 1.84823450865873 2515.95283299389 88 93 89
-1168.78827573394 1.87455064510017 2508.31750445279 78 83 79
-1168.98442249987 1.82827267997743 2500.60171963562 68 73 69
-1197.19575637353 -0.244714962724268 2490.89170292758 126 131 127
-1252.4157944902 -4.27066371442247 2479.48599022202 119 124 120
-1275.61538737133 -5.97991908956813 2470.48326198032 123 128 124
-1277.80475072621 -6.16966052858911 2462.92795166203 125 130 126
-1277.99348272685 -6.21487226030359 2455.50310639782 130 135 131
-1277.18211635881 -6.18794826467689 2448.1348618481 138 143 139
-1282.37142784652 -6.59484041116531 2440.43183674953 150 155 149
-1284.56012792676 -6.78497858384719 2432.91134830842 154 159 153
-1285.74842055996 -6.90290311083597 2425.45029930897 148 153 149
-1274.93781656391 -6.15426702933913 2418.55222648226 148 153 149
-1265.12852943537 -5.47836115996955 2411.54929147368 153 158 154
-1258.31998488166 -5.01953241065078 2404.36767115204 159 164 158
-1259.50993896831 -5.13847694717773 2396.84059158854 152 157 151
-1062.00899849976 2.74903344537419 2810.57274769521 175 179 178
-1075.25313571995 1.79148737068913 2800.36124893326 181 185 186
-1089.49861811828 0.764084461143733 2790.04686672308 165 169 170
-1093.7113176629 0.439074730852806 2781.5023014977 171 175 176
-1096.92028769977 0.184334675660841 2773.14492606902 185 189 190
-1100.12863816601 -0.0703498326352636 2764.80250046056 179 183 184
-1105.34275203715 -0.465362347532333 2756.15219251917 166 170 169
-1110.55620810909 -0.860289766134725 2747.52768501939 167 171 170
-1116.77145973474 -1.32525080615892 2738.77317722603 165 169 168
-1125.99426785575 -2.00046341798255 2729.5903260365 170 174 173
-1133.21051198242 -2.53526555927219 2720.75606032038 176 180 179
-1137.41812275072 -2.85969012246967 2712.40168562124 161 165 164
-1142.62786950187 -3.25414767861981 2703.92265572961 149 153 152
-1144.82967351225 -3.4383665044492 2695.8963760427 135 139 138
-1149.0357894829 -3.76267820045648 2687.60054440223 120 124 123
-1150.23451987344 -3.87689199578631 2679.73553598557 108 112 111
-1151.43314487928 -3.99116776328501 2671.87457982694 110 114 113
-1153.63397259986 -4.17551679680736 2663.88631712037 134 139 135
-1159.84279403521 -4.63978939630155 2655.39318742201 136 141 137
-1164.04671655914 -4.96405730581476 2647.18313029236 141 146 142
-1171.2559374105 -5.49812251090626 2638.62414977034 141 146 142
-1175.45860102463 -5.82226532947577 2630.46342951001 143 148 144
-1179.66098116947 -6.14642584431024 2622.32309399845 147 152 148
-1175.84865143593 -5.91138817712084 2615.12321497703 149 154 150
-1173.03873272425 -5.74647173085635 2607.78783655364 153 158 154
-1170.22949908737 -5.58177831818521 2600.43476834579 150 155 151
-1172.42793504574 -5.76650778509977 2592.53025072356 144 149 145
-1172.62337129749 -5.81162878395913 2584.84347752321 149 154 150
-1169.81467969444 -5.64743665513462 2577.45936172722 144 149 145
-1170.01038109505 -5.69283831083867 2569.76192424314 134 139 135
-1169.20494412484 -5.66859573968426 2562.15905917815 122 127 123
-1172.40430031737 -5.92357470409149 2554.17716956854 111 116 112
-1171.59891730143 -5.89958657329587 2546.57192258534 110 115 111
-1166.78938950379 -5.59680897247788 2539.31057046343 102 107 103
-1164.98348614879 -5.50346555766129 2531.76610604499 99 104 100
-1166.18082105048 -5.61945665043878 2523.96305462963 99 104 100
-1166.37705347344 -5.66586245323764 2516.2437847766 98 103 99
-1166.57330970716 -5.71237212609138 2508.52347278922 83 88 84
-1165.76874022036 -5.68937769226399 2500.87603852547 74 79 75
-1190.9805385709 -7.47708281697576 2491.3707650719 130 135 131
-1242.20303476422 -11.0741699129535 2480.22134539269 121 126 122
-1271.40770986429 -13.1384461163216 2470.79630317092 118 123 119
-1273.59773707917 -13.3231082598579 2463.22982544872 119 124 120
-1275.78750557163 -13.5078365669822 2455.67338845387 126 131 127
-1277.97677485387 -13.6926088920087 2448.12709027225 137 142 138
-1285.16687619767 -14.2251400687541 2440.31701346094 146 151 145
-1286.35546162633 -14.3404898385784 2432.85661036482 152 157 151
-1286.54370378442 -14.3864489388617 2425.45010737749 151 156 152
-1276.73210593614 -13.7376867004033 2418.5083385611 147 152 148
-1268.92160635956 -13.2283493163047 2411.42333713649 155 160 156
-1264.11203745797 -12.9277846125455 2404.17054024935 168 173 167
-1265.30164633581 -13.0441314493587 2396.65974185183 158 163 157
-1050.75103871862 -4.48777640388701 2812.58473185194 175 179 178
-1066.00341442209 -5.5455202069648 2801.99305534539 172 176 177
-1086.27039240743 -6.94029495212697 2790.62025588793 175 179 180
-1091.48646411788 -7.32241880916207 2781.89794286412 180 184 185
-1092.68945252005 -7.43465272018345 2773.8686424496 183 187 188
-1095.89853082384 -7.68177667271708 2765.51521315888 179 183 184
-1103.11910359087 -8.19857764216994 2756.53109745425 172 176 175
-1113.347494802 -8.91745166946356 2747.10785715946 176 180 179
-1116.55467235447 -9.16433967362346 2738.82896915847 174 178 177
