ply
format ascii 1.0
comment KinectMotionCapture
element vertex 786
property float x
property float y
property float z
property uchar red
property uchar green
property uchar blue
end_header
-1126.89316272736 -529.964029788971 2703.9999961853 12 15 8
-1115.79895019531 -528.191447257996 2694.9999332428 14 14 6
-1122.03145027161 -534.651637077332 2727.9999256134 19 19 11
-1128.08656692505 -541.112780570984 2760.99991798401 19 18 13
-1368.99781227112 -512.392997741699 2569.9999332428 17 19 8
-1379.79805469513 -519.092977046967 2604.00009155273 17 19 8
-1329.02550697327 -505.191326141357 2535.00008583069 20 22 11
-1257.12919235229 -493.249952793121 2476.99999809265 21 22 14
-1254.7801733017 -494.984805583954 2486.00006103516 18 21 10
-1257.90894031525 -498.911142349243 2506.00004196167 17 20 9
-1273.91135692596 -508.014142513275 2552.00004577637 16 19 8
-1223.23274612427 -495.919764041901 2492.00010299683 13 14 8
-1222.57280349731 -518.662214279175 2608.00004005432 10 15 11
-1242.50245094299 -536.456346511841 2697.99995422363 11 13 8
-1239.21179771423 -538.214147090912 2707.00001716614 9 11 6
-1229.50577735901 -537.189960479736 2701.99990272522 9 11 6
-1228.42490673065 -539.944648742676 2716.00008010864 9 12 5
-1216.03274345398 -537.730813026428 2704.99992370605 10 13 6
-1222.47111797333 -543.867528438568 2736.00006103516 11 12 6
-1218.97399425507 -545.632123947144 2744.99988555908 12 15 8
-1204.8397064209 -542.62775182724 2730.00001907349 12 15 8
-1192.54553318024 -540.420055389404 2719.00010108948 14 17 10
-1197.74973392487 -546.16391658783 2747.99990653992 14 17 10
-1187.20638751984 -544.754087924957 2740.9999370575 12 15 8
-1187.46483325958 -548.314094543457 2759.0000629425 12 15 8
-1176.0812997818 -546.509504318237 2750 14 17 10
-1171.1243391037 -547.687292098999 2756.00004196167 14 17 10
-1165.71533679962 -548.667550086975 2760.99991798401 14 17 10
-1148.53692054749 -544.085085391998 2737.99991607666 13 16 9
-1130.23662567139 -538.907885551453 2711.99989318848 12 15 8
-1133.19659233093 -543.866336345673 2736.99998855591 14 14 6
-1144.24908161163 -552.799940109253 2782.00006484985 20 20 12
-1341.49396419525 -506.374299526215 2505.00011444092 19 20 12
-1337.11457252502 -507.305264472961 2509.99999046326 19 21 10
-1311.95497512817 -502.909004688263 2489.00008201599 19 21 10
-1303.40695381165 -502.230226993561 2486.00006103516 20 22 11
-1314.39328193665 -511.785566806793 2533.99991989136 21 22 14
-1320.21176815033 -516.766309738159 2559.00001525879 22 23 15
-1259.72557067871 -501.029551029205 2482.00011253357 19 20 12
-1259.88471508026 -503.796696662903 2496.00005149841 16 19 8
-1268.50605010986 -509.996056556702 2526.99995040894 15 18 7
-1261.48593425751 -509.940207004547 2526.99995040894 14 17 6
-1253.22473049164 -515.028834342957 2552.99997329712 10 11 5
-1274.50680732727 -554.526388645172 2750.99992752075 9 11 6
-1281.68141841888 -560.941398143768 2782.99999237061 8 10 5
-1254.80830669403 -552.442610263824 2740.9999370575 9 11 6
-1242.73192882538 -550.395727157593 2730.99994659424 9 12 5
-1225.73959827423 -546.133875846863 2710.00003814697 10 13 6
-1222.80287742615 -548.12091588974 2720.00002861023 11 14 7
-1216.68803691864 -548.698782920837 2723.00004959106 12 13 5
-1211.44878864288 -549.681067466736 2727.9999256134 12 15 8
-1207.95154571533 -551.470756530762 2736.99998855591 12 15 8
-1197.3911523819 -550.03809928894 2730.00001907349 12 15 8
-1186.87283992767 -548.607051372528 2723.00004959106 12 15 8
-1184.19289588928 -550.803780555725 2733.99996757507 13 16 9
-1181.6565990448 -556.611239910126 2763.00001144409 14 17 10
-1160.93993186951 -550.350904464722 2732.00011253357 13 16 9
-1163.19525241852 -554.970145225525 2755.00011444092 13 16 9
-1146.4512348175 -550.525784492493 2733.00004005432 13 16 9
-1137.33184337616 -549.708724021912 2729.00009155273 13 16 9
-1133.20565223694 -551.310062408447 2736.99998855591 18 17 12
-1154.95097637177 -565.602421760559 2808.00008773804 14 13 8
-1308.19833278656 -510.878443717957 2494.99988555908 21 23 12
-1308.51304531097 -513.672292232513 2509.0000629425 21 23 12
-1288.80786895752 -511.281371116638 2497.99990653992 21 22 14
-1310.57035923004 -522.675454616547 2553.99990081787 22 23 15
-1279.46043014526 -512.992262840271 2506.99996948242 21 22 14
-1260.29348373413 -508.019328117371 2483.00004005432 17 18 10
-1262.46738433838 -511.641681194305 2500.99992752075 16 19 10
-1273.08166027069 -518.742382526398 2536.00001335144 16 19 8
-1284.50584411621 -526.252448558807 2572.99995422363 14 17 6
-1268.74387264252 -525.528132915497 2569.9999332428 12 13 5
-1276.3477563858 -531.609535217285 2599.99990463257 11 12 4
-1287.23883628845 -564.310431480408 2762.00008392334 5 10 6
-1295.39179801941 -571.218609809875 2796.0000038147 6 11 7
-1287.24300861359 -570.977687835693 2795.00007629395 9 11 6
-1250.72085857391 -558.0735206604 2732.00011253357 9 11 6
-1235.93723773956 -554.772913455963 2716.00008010864 10 13 6
-1219.88880634308 -550.861418247223 2697.00002670288 11 14 7
-1211.14194393158 -550.219714641571 2694.00000572205 11 14 7
-1207.77785778046 -552.030444145203 2703.00006866455 12 13 5
-1212.36193180084 -557.518422603607 2730.00001907349 12 15 8
-1208.41634273529 -559.127449989319 2737.99991607666 11 14 7
-1201.79915428162 -559.512555599213 2740.00000953674 11 14 7
-1182.53457546234 -553.977608680725 2713.00005912781 11 14 7
-1177.28161811829 -554.978370666504 2717.99993515015 12 15 8
-1165.97926616669 -553.121984004974 2709.00011062622 13 16 9
-1165.84920883179 -556.57571554184 2726.0000705719 14 17 10
-1163.92970085144 -559.213817119598 2739.00008201599 13 16 9
-1170.38667201996 -565.936326980591 2772.0000743866 13 16 9
-1158.6287021637 -563.881158828735 2762.00008392334 13 16 9
-1144.01113986969 -560.39834022522 2744.99988555908 13 16 9
-1142.32432842255 -563.24565410614 2759.0000629425 20 19 14
-1143.44310760498 -567.523002624512 2779.99997138977 17 16 11
-1299.88288879395 -503.909468650818 2427.00004577637 18 19 11
-1336.58170700073 -523.468732833862 2522.0000743866 21 23 12
-1304.41319942474 -518.880546092987 2500.99992752075 22 24 13
-1282.37104415894 -512.792646884918 2471.99988365173 20 21 13
-1300.74322223663 -522.886574268341 2520.99990844727 20 21 13
-1302.94048786163 -526.551008224487 2539.00003433228 21 22 14
-1287.69087791443 -523.166358470917 2523.00000190735 20 21 13
-1264.41586017609 -516.467154026031 2490.9999370575 17 18 10
-1243.84987354279 -510.808169841766 2463.99998664856 16 19 10
-1265.6102180481 -522.564172744751 2520.99990844727 16 19 10
-1292.55187511444 -536.599397659302 2588.99998664856 16 19 10
-1267.48919487 -529.0806889534 2552.99997329712 15 16 8
-1259.41777229309 -528.610825538635 2551.00011825562 14 15 7
-1312.23809719086 -553.835213184357 2673.00009727478 13 14 6
-1290.074467659 -573.083460330963 2767.99988746643 8 13 9
-1291.72325134277 -577.184796333313 2788.00010681152 7 12 8
-1279.91044521332 -575.284004211426 2779.00004386902 7 9 4
-1260.82682609558 -570.073187351227 2753.99994850159 9 11 6
-1220.49677371979 -555.136322975159 2681.99992179871 11 14 7
-1210.87253093719 -554.070055484772 2677.00004577637 12 15 8
-1209.3722820282 -556.73086643219 2690.00005722046 12 15 8
-1210.932970047 -560.841619968414 2710.00003814697 12 13 5
-1208.8348865509 -563.297927379608 2721.99988365173 11 14 7
-1205.79266548157 -565.341711044312 2732.00011253357 11 14 7
-1200.9449005127 -566.559076309204 2737.99991607666 11 14 7
-1189.09406661987 -564.467251300812 2727.9999256134 11 14 7
-1167.33908653259 -557.618081569672 2694.9999332428 12 15 8
-1159.5413684845 -557.391762733459 2694.00000572205 12 15 8
-1172.28138446808 -567.097783088684 2740.9999370575 13 16 9
-1169.89469528198 -569.563448429108 2753.00002098084 13 16 9
-1161.11242771149 -568.92716884613 2750 13 16 9
-1151.0910987854 -567.671597003937 2743.99995803833 13 16 9
-1149.02412891388 -570.348024368286 2756.99996948242 14 17 10
-1136.12425327301 -567.647099494934 2743.99995803833 19 18 13
-1136.46042346954 -571.567237377167 2763.00001144409 20 19 14
-1326.21097564697 -520.870983600616 2476.0000705719 21 22 14
-1313.91489505768 -518.683612346649 2466.00008010864 22 24 13
-1317.00539588928 -530.773162841797 2525.00009536743 20 22 11
-1286.07380390167 -521.03054523468 2479.00009155273 20 21 13
-1294.28493976593 -529.925763607025 2522.0000743866 18 19 11
-1240.79978466034 -510.739028453827 2430.99999427795 17 18 10
-1264.47927951813 -523.279428482056 2490.9999370575 16 17 9
-1252.99763679504 -521.325886249542 2482.00011253357 14 17 8
-1260.14804840088 -527.145385742188 2509.99999046326 14 17 8
-1269.53220367432 -536.896526813507 2556.99992179871 13 14 6
-1243.6740398407 -528.861522674561 2519.00005340576 12 13 5
-1292.91176795959 -581.890404224396 2773.9999294281 4 9 5
-1281.56924247742 -580.171942710876 2766.00003242493 5 10 6
-1281.79001808167 -583.698809146881 2782.99999237061 9 11 6
-1257.19940662384 -575.901985168457 2746.00005149841 9 11 6
-1222.66435623169 -566.816806793213 2703.00006866455 12 15 8
-1229.18391227722 -573.286056518555 2733.99996757507 12 15 8
-1217.21696853638 -571.159422397614 2723.99997711182 13 14 6
-1212.85891532898 -572.598993778229 2730.99994659424 12 15 8
-1202.28707790375 -571.104764938354 2723.99997711182 11 14 7
-1204.91659641266 -575.901627540588 2746.99997901917 11 14 7
-1190.86003303528 -572.733342647552 2732.00011253357 11 14 7
-1171.25821113586 -566.841602325439 2703.9999961853 12 15 8
-1152.67384052277 -561.370968818665 2677.99997329712 13 16 9
-1163.31815719604 -570.156097412109 2720.00002861023 12 15 8
-1173.31111431122 -578.732311725616 2760.99991798401 13 16 9
-1145.50530910492 -568.654835224152 2713.00005912781 14 17 10
-1146.07119560242 -572.622358798981 2732.00011253357 14 17 10
-1135.70022583008 -571.141481399536 2724.99990463257 14 17 10
-1126.19864940643 -570.081293582916 2720.00002861023 15 14 9
-1136.05916500092 -578.872859477997 2762.00008392334 21 20 15
-1369.68588829041 -544.922351837158 2556.99992179871 22 25 16
-1361.9544506073 -544.620513916016 2555.99999427795 24 26 15
-1317.08192825317 -537.688016891479 2525.00009536743 19 21 10
-1315.71912765503 -539.953827857971 2536.00001335144 21 22 14
-1262.1842622757 -520.719766616821 2446.00009918213 18 19 11
-1245.59843540192 -516.605854034424 2427.00004577637 17 18 10
-1262.30335235596 -526.328921318054 2473.00004959106 16 17 9
-1259.4678401947 -527.965068817139 2480.99994659424 12 13 5
-1296.47815227509 -546.412289142609 2568.00007820129 12 15 8
-1276.2758731842 -540.816068649292 2542.00005531311 12 15 6
-1271.70276641846 -541.817665100098 2546.99993133545 12 15 6
-1333.94682407379 -584.272563457489 2747.99990653992 14 15 10
-1278.56051921844 -579.511702060699 2726.99999809265 10 14 13
-1262.65752315521 -575.644075870514 2709.00011062622 6 11 7
-1270.95234394073 -582.827508449554 2743.00003051758 11 13 8
-1264.32609558105 -583.212971687317 2744.99988555908 8 10 5
-1259.98270511627 -584.66237783432 2752.00009346008 9 11 6
-1248.779296875 -582.926750183105 2743.99995803833 11 14 7
-1229.02953624725 -577.157020568848 2717.00000762939 13 16 9
-1222.47111797333 -577.549517154694 2719.00010108948 12 15 8
-1219.92754936218 -579.85520362854 2730.00001907349 13 14 6
-1212.44251728058 -579.825937747955 2730.00001907349 12 15 8
-1207.61001110077 -581.072628498077 2736.00006103516 12 15 8
-1200.99377632141 -581.47120475769 2737.99991607666 12 15 8
-1188.70389461517 -579.110682010651 2726.99999809265 12 15 8
-1173.44570159912 -575.265347957611 2709.00011062622 13 16 9
-1153.55467796326 -569.085955619812 2680.0000667572 13 16 9
-1154.78301048279 -573.312997817993 2700.00004768372 12 15 8
-1161.85486316681 -580.513775348663 2733.99996757507 13 16 9
-1156.49950504303 -581.558167934418 2739.00008201599 14 17 10
-1136.43717765808 -575.17272233963 2709.00011062622 14 17 10
-1133.62967967987 -577.493846416473 2720.00002861023 14 17 10
-1134.49156284332 -581.726968288422 2740.00000953674 18 17 12
-1367.09821224213 -550.856292247772 2552.00004577637 21 24 15
-1370.56910991669 -555.082201957703 2572.00002670288 20 23 12
-1321.61700725555 -543.605864048004 2519.99998092651 19 22 11
-1317.68178939819 -544.820010662079 2526.00002288818 19 22 11
-1244.70996856689 -520.085096359253 2411.99994087219 16 19 10
-1250.28645992279 -525.189220905304 2436.00010871887 16 19 10
-1255.2250623703 -530.07835149765 2459.00011062622 13 16 7
-1293.04039478302 -548.978269100189 2546.99993133545 12 15 6
-1277.8639793396 -545.462310314178 2530.99989891052 12 15 8
-1279.85441684723 -549.275875091553 2549.00002479553 12 15 8
-1298.40171337128 -579.23299074173 2690.00005722046 9 10 5
-1282.35578536987 -588.673412799835 2734.99989509583 8 12 11
-1271.0896730423 -586.90744638443 2726.99999809265 5 10 6
-1260.79952716827 -585.573971271515 2720.99995613098 5 7 2
-1269.4319486618 -593.06526184082 2756.00004196167 16 18 13
-1256.35743141174 -590.444028377533 2743.99995803833 10 12 7
-1241.53327941895 -586.964249610901 2727.9999256134 12 15 8
-1217.55719184875 -582.592666149139 2707.99994468689 11 14 7
-1211.46762371063 -583.206415176392 2710.99996566772 13 14 6
-1211.16840839386 -590.246260166168 2743.99995803833 10 13 6
-1203.65154743195 -590.219020843506 2743.99995803833 10 13 6
-1192.21520423889 -588.257551193237 2734.99989509583 10 13 6
-1179.09944057465 -585.437595844269 2721.99988365173 10 13 6
-1152.23622322083 -579.372525215149 2694.00000572205 10 13 6
-1163.99812698364 -589.030742645264 2739.00008201599 12 15 8
-1152.71627902985 -587.077140808105 2730.00001907349 15 18 11
-1142.74525642395 -585.770189762115 2723.99997711182 15 18 11
-1148.58222007751 -596.492528915405 2773.9999294281 19 18 14
-1355.73828220367 -556.016623973846 2543.99991035461 19 22 11
-1324.19490814209 -545.874834060669 2497.99990653992 20 23 12
-1331.41088485718 -551.688432693481 2525.00009536743 20 23 12
-1322.22366333008 -550.730288028717 2520.99990844727 19 22 11
-1310.97984313965 -548.901081085205 2513.00001144409 19 22 11
-1263.46695423126 -531.787097454071 2434.99994277954 19 22 13
-1250.45907497406 -529.092073440552 2423.00009727478 16 19 10
-1271.40176296234 -540.809810161591 2476.99999809265 15 18 9
-1258.8677406311 -538.336873054504 2466.00008010864 14 17 8
-1292.60230064392 -555.729627609253 2546.0000038147 12 15 6
-1293.58327388763 -559.15230512619 2562.00003623962 12 15 8
-1284.94119644165 -558.430016040802 2559.00001525879 11 14 7
-1304.56924438477 -582.768499851227 2671.99993133545 10 11 5
-1268.71871948242 -596.700847148895 2737.99991607666 0 2 0
-1245.86510658264 -592.914521694183 2720.99995613098 11 13 8
-1247.48647212982 -597.23424911499 2740.9999370575 12 15 8
-1217.59045124054 -589.973270893097 2707.99994468689 11 14 7
-1220.88360786438 -595.169007778168 2732.00011253357 13 14 6
-1209.83672142029 -593.394875526428 2723.99997711182 11 14 7
-1212.96262741089 -598.593056201935 2747.99990653992 11 14 7
-1197.97599315643 -594.861805438995 2730.99994659424 10 13 6
-1193.11249256134 -596.142113208771 2736.99998855591 10 13 6
-1185.62090396881 -596.11701965332 2736.99998855591 10 13 6
-1176.84149742126 -595.440208911896 2733.99996757507 10 13 6
-1166.37122631073 -593.893706798553 2726.99999809265 11 14 7
-1147.86815643311 -588.211059570313 2700.99997520447 12 15 8
-1147.24493026733 -591.676652431488 2717.00000762939 15 18 11
-1142.34220981598 -592.965722084045 2723.00004959106 15 18 11
-1142.82822608948 -597.08696603775 2742.00010299683 15 18 11
-1141.9712305069 -600.556015968323 2757.99989700317 18 17 13
-1351.2122631073 -558.220326900482 2522.0000743866 16 19 10
-1344.63810920715 -558.34835767746 2523.00000190735 17 20 9
-1305.6583404541 -547.771155834198 2476.0000705719 21 24 13
-1316.7998790741 -558.220446109772 2523.9999294281 19 22 11
-1279.11078929901 -545.092165470123 2464.99991416931 18 21 12
-1293.88606548309 -554.301083087921 2506.99996948242 16 19 10
-1280.2015542984 -551.350772380829 2493.99995803833 15 18 9
-1279.87015247345 -554.150581359863 2506.99996948242 14 17 8
-1283.02681446075 -558.498799800873 2526.99995040894 12 15 6
-1285.51054000854 -565.651595592499 2559.99994277954 11 14 7
-1279.70731258392 -569.27490234375 2576.99990272522 11 12 6
-1296.74351215363 -580.034732818604 2625.99992752075 13 14 6
-1299.76499080658 -584.610402584076 2647.0000743866 14 15 7
-1272.92811870575 -582.225859165192 2637.00008392334 13 12 10
-1261.85572147369 -597.374320030212 2707.00001716614 1 6 2
-1263.20147514343 -601.522386074066 2726.0000705719 15 17 12
-1266.28994941711 -606.554269790649 2749.00007247925 5 7 2
-1244.98891830444 -599.893867969513 2719.00010108948 11 13 8
-1231.59492015839 -596.986651420593 2706.00008964539 12 15 8
-1234.1103553772 -601.802527904511 2727.9999256134 12 15 8
-1233.81161689758 -605.296075344086 2743.99995803833 11 14 7
-1224.93839263916 -604.600012302399 2740.9999370575 13 14 6
-1216.53020381927 -604.126334190369 2739.00008201599 12 15 8
-1186.06650829315 -592.626571655273 2687.00003623962 11 14 7
-1176.50902271271 -591.495037078857 2681.99992179871 11 14 7
-1189.21554088593 -601.612508296967 2727.9999256134 11 14 7
-1196.04218006134 -608.863711357117 2760.99991798401 11 14 7
-1174.28207397461 -601.562023162842 2727.9999256134 11 14 7
-1156.98301792145 -596.467435359955 2704.99992370605 12 15 8
-1138.96346092224 -590.933859348297 2680.0000667572 12 15 8
-1137.1294260025 -593.780636787415 2693.00007820129 13 16 9
-1127.67601013184 -592.660009860992 2687.99996376038 15 18 11
-1135.3417634964 -600.580453872681 2723.99997711182 18 21 14
-1126.2514591217 -599.682927131653 2720.00002861023 17 16 12
-1363.38579654694 -573.113262653351 2558.00008773804 18 21 10
-1320.81961631775 -563.880801200867 2517.99988746643 21 24 13
-1291.83983802795 -554.391384124756 2476.0000705719 20 23 12
-1285.70628166199 -557.587921619415 2490.9999370575 15 18 9
-1304.9179315567 -568.924605846405 2542.00005531311 14 17 8
-1292.70768165588 -566.609799861908 2532.00006484985 14 17 8
-1281.99279308319 -580.506920814514 2595.99995613098 15 16 8
-1298.35438728333 -591.17603302002 2644.00005340576 15 16 8
-1283.68806838989 -591.053426265717 2644.00005340576 13 14 8
-1258.14843177795 -606.502950191498 2714.99991416931 13 15 10
-1245.14305591583 -603.778481483459 2703.00006866455 8 10 5
-1237.70332336426 -603.736400604248 2703.00006866455 11 13 8
-1234.81976985931 -605.929553508759 2713.00005912781 12 15 8
-1223.74248504639 -604.104280471802 2704.99992370605 11 14 7
-1215.86132049561 -603.844225406647 2703.9999961853 11 14 7
-1225.86619853973 -612.518012523651 2743.00003051758 13 14 6
-1210.34407615662 -608.465015888214 2724.99990463257 12 15 8
-1184.33082103729 -599.055409431458 2683.00008773804 12 15 8
-1171.27335071564 -596.123218536377 2670.00007629395 12 15 8
-1191.73622131348 -614.15159702301 2750.99992752075 11 14 7
-1188.51149082184 -616.35833978653 2760.99991798401 11 14 7
-1154.43921089172 -602.49400138855 2698.99988174438 11 14 7
-1146.63422107697 -602.24860906601 2697.99995422363 11 14 7
-1134.61542129517 -599.772691726685 2687.00003623962 12 15 8
-1135.24568080902 -603.994429111481 2706.00008964539 14 17 10
-1125.77223777771 -602.860629558563 2700.99997520447 17 20 13
-1132.89189338684 -610.656023025513 2736.00006103516 19 18 14
-1369.08805370331 -579.552412033081 2555.0000667572 19 22 13
-1311.98918819427 -566.932678222656 2500.99992752075 21 24 13
-1278.87880802155 -555.513560771942 2450.99997520447 17 20 11
-1286.53693199158 -561.776220798492 2479.00009155273 16 19 10
-1288.56885433197 -568.638861179352 2509.99999046326 13 16 7
-1301.97441577911 -577.621877193451 2549.99995231628 13 16 7
-1324.82218742371 -597.324430942535 2638.00001144409 10 12 7
-1276.43132209778 -591.552734375 2614.00008201599 14 15 7
-1285.20464897156 -598.958790302277 2647.0000743866 15 16 10
-1250.25403499603 -613.640487194061 2713.99998664856 14 16 11
-1242.32411384583 -613.370895385742 2713.00005912781 11 13 8
-1238.95621299744 -615.363836288452 2721.99988365173 12 15 8
-1234.63869094849 -616.90628528595 2729.00009155273 12 15 8
-1225.79038143158 -616.18983745575 2726.0000705719 11 14 7
-1209.81252193451 -611.85884475708 2707.00001716614 13 14 6
-1203.27067375183 -612.276315689087 2709.00011062622 13 16 9
-1197.60501384735 -613.147497177124 2713.00005912781 13 16 9
-1190.60504436493 -613.342225551605 2713.99998664856 13 16 9
-1200.60586929321 -622.351884841919 2753.99994850159 12 15 8
-1194.7957277298 -623.22735786438 2757.99989700317 12 15 8
-1168.73514652252 -613.48420381546 2714.99991416931 12 15 8
-1158.73992443085 -612.103760242462 2709.00011062622 11 14 7
-1147.30370044708 -613.86626958847 2717.00000762939 13 16 9
-1136.52324676514 -612.038612365723 2709.00011062622 14 17 10
-1138.29374313354 -616.990029811859 2730.99994659424 16 19 12
-1307.50584602356 -568.836033344269 2479.00009155273 19 25 15
-1317.32416152954 -576.087474822998 2510.99991798401 19 22 13
-1291.48721694946 -567.740499973297 2474.99990463257 19 22 13
-1272.6069688797 -562.380015850067 2451.99990272522 19 22 13
-1272.96221256256 -565.508365631104 2466.00008010864 18 21 14
-1292.86229610443 -580.480992794037 2532.00006484985 13 16 9
-1316.86091423035 -600.87913274765 2621.99997901917 10 12 7
-1303.06303501129 -597.826600074768 2608.99996757507 13 16 9
-1293.81442070007 -596.839010715485 2605.00001907349 15 16 10
-1279.33132648468 -596.703469753265 2605.00001907349 14 15 7
-1275.02918243408 -598.01310300827 2611.00006103516 12 13 5
-1265.84410667419 -597.034513950348 2607.00011253357 17 18 12
-1250.24008750916 -610.206127166748 2665.99988937378 19 24 20
-1254.07266616821 -615.649282932281 2690.00005722046 0 2 0
-1266.11971855164 -625.212669372559 2732.00011253357 7 9 4
-1249.83847141266 -620.817840099335 2713.00005912781 8 10 5
-1233.66665840149 -616.425514221191 2694.00000572205 11 14 7
-1238.08753490448 -622.331619262695 2720.00002861023 12 15 8
-1238.29793930054 -626.179695129395 2736.99998855591 12 15 8
-1223.13022613525 -622.250974178314 2720.00002861023 11 14 7
-1202.25048065186 -615.350723266602 2690.00005722046 14 15 9
-1202.4165391922 -619.203805923462 2707.00001716614 13 16 9
-1191.89882278442 -617.568731307983 2700.00004768372 13 16 9
-1191.04444980621 -624.824523925781 2732.00011253357 13 16 9
-1189.19193744659 -627.768278121948 2744.99988555908 12 15 8
-1173.06613922119 -623.166799545288 2724.99990463257 12 15 8
-1151.92055702209 -615.823328495026 2693.00007820129 12 15 8
-1147.52888679504 -617.399871349335 2700.00004768372 12 15 8
-1149.01435375214 -622.179090976715 2720.99995613098 14 17 10
-1141.57772064209 -622.157752513886 2720.99995613098 15 18 11
-1136.22844219208 -623.281180858612 2726.0000705719 18 19 13
-1135.40995121002 -626.921057701111 2742.00010299683 21 20 16
-1312.69347667694 -580.887734889984 2502.00009346008 19 22 13
-1275.39718151093 -567.333400249481 2444.00000572205 19 22 13
-1268.01979541779 -567.015290260315 2443.00007820129 18 21 12
-1272.01211452484 -571.804940700531 2463.99998664856 17 20 13
-1279.66558933258 -581.387042999268 2506.00004196167 12 15 8
-1322.7356672287 -607.440292835236 2618.99995803833 9 11 6
-1289.31200504303 -595.303416252136 2566.99991226196 10 12 7
-1309.62932109833 -607.982814311981 2621.99997901917 13 16 9
-1316.23637676239 -614.401459693909 2650.00009536743 15 16 10
-1279.72364425659 -600.652158260345 2591.00008010864 14 15 7
-1269.0840959549 -598.961591720581 2584.00011062622 14 15 7
-1269.72162723541 -602.604329586029 2599.99990463257 14 15 9
-1254.7379732132 -598.832488059998 2584.00011062622 21 22 17
-1258.78477096558 -625.309824943542 2700.00004768372 9 14 8
-1254.03106212616 -630.306422710419 2721.99988365173 7 10 3
-1239.66419696808 -626.786947250366 2707.00001716614 11 14 5
-1242.22719669342 -631.836473941803 2729.00009155273 12 15 8
-1238.79170417786 -633.877336978912 2737.99991607666 11 14 7
-1215.52467346191 -625.734031200409 2703.00006866455 12 15 8
-1202.73435115814 -622.917592525482 2690.99998474121 13 14 9
-1198.45414161682 -624.501168727875 2697.99995422363 12 15 8
-1199.87869262695 -629.095196723938 2717.99993515015 13 16 9
-1186.28108501434 -625.82141160965 2703.9999961853 14 17 10
-1206.33411407471 -640.369772911072 2766.99995994568 14 17 10
-1196.58613204956 -639.182031154633 2762.00008392334 12 15 8
-1170.94099521637 -629.433691501617 2720.00002861023 11 14 7
-1152.80139446259 -623.621642589569 2694.9999332428 13 14 8
-1145.00272274017 -623.365163803101 2694.00000572205 14 15 9
-1131.3009262085 -619.870841503143 2678.99990081787 15 16 10
-1130.69033622742 -623.550832271576 2694.9999332428 15 16 10
-1127.07805633545 -625.612616539001 2703.9999961853 15 16 11
-1373.91304969788 -605.67444562912 2576.99990272522 16 22 10
-1326.42817497253 -593.862414360046 2528.00011634827 18 21 12
-1299.4921207428 -584.843575954437 2490.00000953674 18 21 12
-1297.1738576889 -586.86763048172 2499.00007247925 16 19 10
-1293.43485832214 -591.390490531921 2519.00005340576 12 15 8
-1248.59523773193 -573.936343193054 2444.9999332428 11 12 6
-1284.86752510071 -600.221931934357 2558.00008773804 11 13 8
-1295.71843147278 -608.592748641968 2594.00010108948 13 16 9
-1293.46084594727 -610.864400863647 2604.00009155273 14 15 9
-1256.57832622528 -596.718668937683 2543.99991035461 14 15 7
-1269.15144920349 -606.031596660614 2584.00011062622 14 15 7
-1290.78757762909 -619.800209999084 2642.99988746643 9 10 4
-1272.3571062088 -639.47856426239 2729.00009155273 9 14 8
-1273.1705904007 -643.644273281097 2746.99997901917 7 10 3
-1266.51859283447 -644.062757492065 2749.00007247925 7 10 3
-1258.48662853241 -643.780291080475 2747.99990653992 9 12 3
-1244.09222602844 -640.220284461975 2733.00004005432 11 14 7
-1233.40463638306 -638.536512851715 2726.0000705719 9 12 5
-1210.61813831329 -630.530834197998 2691.99991226196 11 14 7
-1196.9621181488 -627.212166786194 2677.99997329712 14 15 10
-1201.60007476807 -633.497595787048 2704.99992370605 12 15 8
-1191.52569770813 -632.0561170578 2698.99988174438 12 15 8
-1193.33374500275 -636.939108371735 2720.00002861023 14 17 10
-1189.3630027771 -638.779282569885 2727.9999256134 13 16 9
-1194.01717185974 -645.303905010223 2756.00004196167 12 15 8
-1164.51168060303 -633.332908153534 2704.99992370605 11 14 7
-1167.79971122742 -639.158070087433 2730.00001907349 13 14 8
-1141.62743091583 -628.83049249649 2686.00010871887 14 15 9
-1130.90181350708 -626.933038234711 2677.99997329712 15 16 10
-1120.64278125763 -625.271379947662 2671.0000038147 15 16 10
-1133.76760482788 -636.720359325409 2720.00002861023 15 16 11
-1305.00984191895 -591.058433055878 2486.99998855591 18 21 12
-1306.36894702911 -594.766497612 2503.00002098084 18 21 12
-1314.91327285767 -601.802051067352 2532.99999237061 15 18 9
-1305.74226379395 -600.761234760284 2529.00004386902 14 17 10
-1286.33117675781 -594.972968101501 2505.00011444092 12 15 8
-1313.53569030762 -610.799252986908 2572.00002670288 11 14 7
-1278.31077575684 -607.389330863953 2559.00001525879 12 15 8
-1272.17495441437 -607.789158821106 2561.00010871887 13 14 8
-1255.16664981842 -602.970480918884 2540.99988937378 14 15 7
-1290.85624217987 -627.03150510788 2642.99988746643 16 17 11
-1293.71631145477 -631.944835186005 2664.00003433228 16 17 12
-1284.53314304352 -653.095781803131 2755.00011444092 9 14 8
-1270.44141292572 -649.723410606384 2740.9999370575 6 9 2
-1270.71499824524 -653.701364994049 2757.99989700317 12 15 8
-1254.41265106201 -649.148523807526 2739.00008201599 11 14 5
-1253.24237346649 -652.418851852417 2753.00002098084 12 15 8
-1223.04141521454 -640.524685382843 2703.00006866455 9 12 5
-1209.31017398834 -637.164294719696 2688.99989128113 12 15 8
-1194.76664066315 -633.332371711731 2673.00009727478 15 16 11
-1202.52656936646 -641.348779201508 2707.00001716614 12 15 8
-1188.91298770905 -637.994408607483 2693.00007820129 12 15 8
-1197.3170042038 -646.486937999725 2729.00009155273 13 16 9
-1186.34390830994 -644.557416439056 2720.99995613098 13 16 9
-1166.32032394409 -637.655556201935 2691.99991226196 11 14 7
-1176.16510391235 -647.099435329437 2732.00011253357 11 14 7
-1165.26091098785 -645.175218582153 2723.99997711182 13 14 8
-1149.72901344299 -640.647709369659 2704.99992370605 14 15 9
-1131.34837150574 -634.46432352066 2678.99990081787 15 16 10
-1132.83288478851 -639.413475990295 2700.00004768372 15 16 10
-1148.79536628723 -652.652323246002 2756.00004196167 15 16 10
-1339.86842632294 -617.021381855011 2566.99991226196 18 21 12
-1319.15938854218 -610.676467418671 2540.99988937378 14 17 8
-1278.49340438843 -611.116468906403 2545.00007629395 12 15 8
-1277.88829803467 -614.159166812897 2558.00008773804 12 15 8
-1274.23667907715 -615.762948989868 2565.00005722046 13 14 8
-1260.17844676971 -612.327992916107 2551.00011825562 13 14 6
-1255.5376291275 -613.456070423126 2555.99999427795 14 15 7
-1239.15266990662 -608.826696872711 2536.99994087219 20 21 15
-1298.64156246185 -641.633093357086 2674.00002479553 17 18 13
-1286.9199514389 -661.820888519287 2759.99999046326 8 13 7
-1274.66630935669 -659.367799758911 2750 7 12 6
-1250.95403194427 -650.923490524292 2714.99991416931 12 15 8
-1262.70580291748 -660.941779613495 2756.99996948242 10 13 4
-1243.72971057892 -654.899716377258 2732.00011253357 13 16 9
-1220.3711271286 -646.463513374329 2697.00002670288 10 13 6
-1207.5537443161 -643.543064594269 2684.99994277954 12 15 8
-1205.53493499756 -646.376848220825 2697.00002670288 15 16 11
-1191.90394878387 -642.981171607971 2683.00008773804 12 15 8
-1195.57249546051 -648.933410644531 2707.99994468689 12 15 8
-1182.43539333344 -645.78115940094 2694.9999332428 12 15 8
-1168.50173473358 -642.151892185211 2680.0000667572 11 14 7
-1171.98479175568 -648.108422756195 2704.99992370605 11 14 7
-1159.40523147583 -645.201504230499 2693.00007820129 11 14 7
-1147.32301235199 -642.536103725433 2681.99992179871 13 14 8
-1140.83015918732 -642.986953258514 2684.00001525879 14 15 9
-1146.99923992157 -650.625884532928 2716.00008010864 15 16 10
-1141.66796207428 -651.798129081726 2720.99995613098 15 16 10
-1161.3233089447 -667.344033718109 2786.00001335144 15 16 10
-1339.64550495148 -617.465913295746 2539.00003433228 18 24 14
-1344.56515312195 -622.955858707428 2562.00003623962 16 22 12
-1337.35716342926 -622.854888439178 2562.00003623962 17 20 11
-1340.54124355316 -627.618134021759 2582.00001716614 15 18 9
-1321.24447822571 -631.863415241241 2601.0000705719 12 13 7
-1305.88984489441 -627.890110015869 2585.00003814697 12 14 9
-1291.63610935211 -624.405980110168 2571.00009918213 12 14 9
-1292.45519638062 -628.210127353668 2586.99989318848 12 15 8
-1279.77800369263 -625.459969043732 2575.99997520447 13 14 8
-1266.18051528931 -622.227311134338 2562.99996376038 13 14 6
-1259.24849510193 -625.722408294678 2578.00006866455 9 10 4
-1254.51493263245 -626.865923404694 2582.99994468689 17 18 13
-1305.39155006409 -674.999713897705 2782.99999237061 0 2 0
-1280.91537952423 -666.209399700165 2746.99997901917 8 13 7
-1259.88805294037 -659.120202064514 2717.99993515015 7 10 3
-1267.5940990448 -667.068123817444 2750.99992752075 8 11 4
-1254.97043132782 -664.348483085632 2740.00000953674 8 11 2
-1239.68076705933 -660.176575183868 2723.00004959106 13 16 9
-1215.89195728302 -651.401102542877 2687.00003623962 10 13 6
-1209.84649658203 -652.082860469818 2690.00005722046 12 15 8
-1206.91800117493 -654.463112354279 2700.00004768372 14 15 10
-1198.26030731201 -657.774090766907 2713.99998664856 12 15 8
-1189.05365467072 -656.766176223755 2710.00003814697 11 14 7
-1172.46067523956 -651.640474796295 2688.99989128113 11 14 7
-1168.11871528625 -653.302073478699 2696.00009918213 11 14 7
-1149.06394481659 -650.814890861511 2686.00010871887 13 14 8
-1148.50926399231 -654.661893844604 2701.99990272522 14 15 9
-1165.60959815979 -673.019826412201 2778.00011634827 15 16 10
-1145.09046077728 -665.484309196472 2746.99997901917 15 16 10
-1333.12153816223 -624.585449695587 2539.99996185303 18 21 12
-1360.42749881744 -640.710115432739 2605.99994659424 17 20 11
-1345.31307220459 -636.920690536499 2591.00008010864 15 18 9
-1303.77745628357 -637.348651885986 2595.00002861023 12 14 9
-1286.04137897491 -632.107734680176 2573.99988174438 12 15 8
-1276.87561511993 -631.044805049896 2569.9999332428 13 14 8
-1270.20907402039 -631.212174892426 2571.00009918213 13 14 6
-1265.01703262329 -632.118165493011 2575.00004768372 13 14 6
-1268.1131362915 -637.198865413666 2595.99995613098 8 9 3
-1289.50440883636 -674.267649650574 2749.00007247925 10 15 11
-1276.77702903748 -671.509444713593 2737.99991607666 3 8 2
-1278.48601341248 -676.356017589569 2757.99989700317 3 8 2
-1269.49167251587 -675.564050674438 2755.00011444092 10 13 6
-1255.48052787781 -672.077178955078 2740.9999370575 6 9 0
-1241.09637737274 -668.347716331482 2726.0000705719 11 14 7
-1213.67645263672 -657.511174678802 2681.99992179871 10 13 6
-1203.59492301941 -655.993580818176 2676.00011825562 11 14 7
-1204.2795419693 -660.360991954803 2694.00000572205 12 13 8
-1203.53651046753 -663.994371891022 2709.00011062622 11 14 7
-1207.13090896606 -670.080065727234 2733.99996757507 11 14 7
-1189.50212001801 -668.531239032745 2727.9999256134 11 14 7
-1187.21807003021 -671.435475349426 2740.00000953674 10 13 6
-1168.51103305817 -665.029764175415 2713.99998664856 10 13 6
-1164.26634788513 -671.091377735138 2739.00008201599 14 15 9
-1159.72399711609 -672.776758670807 2746.00005149841 14 15 9
-1149.27232265472 -671.033799648285 2739.00008201599 15 16 10
-1149.2840051651 -675.417125225067 2756.99996948242 15 16 10
-1262.21644878387 -607.403039932251 2444.00000572205 11 14 7
-1316.67423248291 -647.284746170044 2605.99994659424 12 14 9
-1292.30690002441 -638.752341270447 2572.00002670288 12 14 9
-1281.62729740143 -636.929214000702 2565.00005722046 12 15 8
-1270.49660682678 -634.860575199127 2556.99992179871 13 14 8
-1279.6745300293 -642.973184585571 2589.99991416931 13 14 6
-1271.97098731995 -642.646670341492 2588.99998664856 13 14 6
-1282.34314918518 -655.153512954712 2640.00010490417 15 16 11
-1281.50022029877 -681.473433971405 2747.99990653992 5 10 4
-1268.34559440613 -678.438007831573 2736.00006103516 9 12 5
-1275.07734298706 -686.066865921021 2766.99995994568 9 12 5
-1266.52765274048 -685.515105724335 2765.00010490417 8 11 2
-1228.85465621948 -669.099390506744 2698.99988174438 12 15 8
-1225.03864765167 -671.031951904297 2707.00001716614 10 13 6
-1207.6895236969 -665.530145168304 2684.99994277954 12 15 8
-1200.74808597565 -665.73166847229 2686.00010871887 12 13 8
-1202.69119739532 -670.89170217514 2707.00001716614 11 14 7
-1203.64022254944 -675.557374954224 2726.0000705719 11 14 7
-1202.73375511169 -679.233014583588 2740.9999370575 11 14 7
-1193.46451759338 -678.202211856842 2736.99998855591 11 14 7
-1175.98831653595 -672.46550321579 2713.99998664856 10 13 6
-1154.76715564728 -664.501368999481 2681.99992179871 10 13 6
-1149.55472946167 -665.70657491684 2687.00003623962 15 16 10
-1144.31858062744 -666.913390159607 2691.99991226196 15 16 10
-1154.68525886536 -677.287697792053 2733.99996757507 15 16 10
-1147.2020149231 -677.258610725403 2733.99996757507 16 17 11
-1144.30773258209 -679.955899715424 2744.99988555908 16 17 11
-1301.50496959686 -616.891980171204 2453.00006866455 17 23 13
-1283.18953514099 -627.588152885437 2497.99990653992 11 14 7
-1321.00999355316 -653.020679950714 2599.99990463257 13 14 8
-1312.72292137146 -652.425587177277 2598.00004959106 12 14 9
-1277.82201766968 -638.525187969208 2542.99998283386 12 14 9
-1268.09418201447 -640.615105628967 2552.00004577637 13 14 8
-1268.88453960419 -644.549608230591 2568.00007820129 13 14 6
-1300.01866817474 -667.729616165161 2661.00001335144 11 12 6
-1255.85341453552 -671.24730348587 2677.00004577637 9 14 10
-1261.97493076324 -678.456246852875 2706.00008964539 7 12 6
-1267.94123649597 -685.665905475616 2734.99989509583 10 13 6
-1261.31021976471 -686.108410358429 2736.99998855591 8 11 4
-1246.88589572906 -682.291448116302 2721.99988365173 13 16 7
-1233.46018791199 -678.978741168976 2709.00011062622 13 16 9
-1224.63655471802 -678.174614906311 2706.00008964539 10 13 6
-1214.48469161987 -676.620841026306 2700.00004768372 11 14 7
-1190.0646686554 -667.050540447235 2661.99994087219 11 12 7
-1195.62685489655 -674.271523952484 2690.99998474121 11 14 7
-1197.05998897552 -679.238438606262 2710.99996566772 11 14 7
-1190.92738628387 -679.947555065155 2713.99998664856 10 13 6
-1172.57285118103 -673.643887042999 2688.99989128113 10 13 6
-1164.3260717392 -673.104465007782 2687.00003623962 11 14 7
-1158.67745876312 -674.069821834564 2690.99998474121 11 14 7
-1143.59855651855 -669.526338577271 2673.00009727478 14 15 9
-1146.9007730484 -675.754904747009 2697.99995422363 13 14 8
-1160.2064371109 -687.995612621307 2746.99997901917 13 14 8
-1136.32082939148 -678.197860717773 2707.99994468689 14 15 9
-1137.66503334045 -683.428764343262 2729.00009155273 14 15 9
-1334.69021320343 -636.215567588806 2502.00009346008 12 18 6
-1327.41177082062 -639.292061328888 2515.00010490417 17 23 13
-1292.01948642731 -638.767421245575 2515.00010490417 12 15 8
-1300.80235004425 -646.54266834259 2546.0000038147 13 16 9
-1301.1931180954 -653.716385364532 2575.00004768372 12 14 9
-1278.41258049011 -645.75606584549 2543.99991035461 12 14 9
-1265.80703258514 -642.876386642456 2532.99999237061 12 15 8
-1259.23264026642 -643.04506778717 2533.99991989136 13 14 8
-1280.33149242401 -657.425284385681 2591.00008010864 13 14 6
-1290.80057144165 -666.476547718048 2627.00009346008 13 14 6
-1273.27597141266 -687.94846534729 2713.99998664856 8 13 9
-1258.77249240875 -684.08191204071 2698.99988174438 6 11 5
-1256.87527656555 -687.061131000519 2710.99996566772 11 14 7
-1226.34387016296 -674.330472946167 2661.00001335144 9 12 5
-1227.70214080811 -679.08787727356 2680.0000667572 12 15 6
-1236.24622821808 -687.900602817535 2714.99991416931 13 16 9
-1226.04632377625 -686.326682567596 2709.00011062622 9 12 5
-1214.08462524414 -683.741629123688 2698.99988174438 10 13 6
-1201.28870010376 -680.652320384979 2687.00003623962 10 11 6
-1187.67476081848 -677.058875560761 2673.00009727478 11 14 7
-1200.19495487213 -688.411176204681 2717.99993515015 10 13 6
-1180.87661266327 -681.529223918915 2690.99998474121 10 13 6
-1154.7337770462 -670.597851276398 2648.00000190735 11 14 7
-1158.29765796661 -676.889538764954 2673.00009727478 12 15 8
-1158.28335285187 -681.156396865845 2690.00005722046 12 15 8
-1147.91142940521 -679.34775352478 2683.00008773804 14 15 9
-1159.26194190979 -690.453886985779 2726.99999809265 13 14 8
-1146.84128761292 -691.908359527588 2733.00004005432 13 14 8
-1134.35816764832 -688.840568065643 2720.99995613098 14 15 10
-1375.88727474213 -662.897408008575 2578.9999961853 14 20 10
-1378.14450263977 -667.401790618896 2596.99988365173 12 18 8
-1350.74973106384 -657.518684864044 2559.00001525879 16 22 12
-1307.82699584961 -639.934957027435 2490.9999370575 16 19 10
-1295.35043239594 -640.490531921387 2493.99995803833 12 15 6
-1294.01862621307 -643.211543560028 2505.00011444092 11 14 7
-1270.54071426392 -634.894847869873 2473.00004959106 13 16 9
-1267.68779754639 -636.850953102112 2480.99994659424 14 17 10
-1283.09094905853 -648.048579692841 2525.00009536743 13 14 8
-1272.98700809479 -646.414637565613 2519.00005340576 12 14 9
-1289.55888748169 -658.38235616684 2565.99998474121 12 14 9
-1278.88786792755 -656.495928764343 2559.00001525879 12 15 8
-1293.11144351959 -667.438089847565 2601.99999809265 13 14 8
-1280.90989589691 -664.786458015442 2592.00000762939 13 14 6
-1296.78010940552 -676.755249500275 2638.99993896484 13 14 6
-1291.8735742569 -677.954256534576 2644.00005340576 13 14 8
-1273.34249019623 -671.976745128632 2621.00005149841 10 11 6
-1271.4296579361 -698.38160276413 2726.0000705719 5 10 4
-1262.03739643097 -697.292447090149 2721.99988365173 9 12 5
-1244.37689781189 -691.595375537872 2700.00004768372 9 12 5
-1216.30620956421 -680.010318756104 2654.99997138977 12 15 6
-1234.48050022125 -694.295823574066 2710.99996566772 13 16 9
-1219.31064128876 -689.88698720932 2694.00000572205 10 13 6
-1208.73785018921 -688.041627407074 2687.00003623962 11 14 7
-1200.44350624084 -687.47866153717 2684.99994277954 11 12 7
-1196.608543396 -689.47821855545 2693.00007820129 11 14 7
-1209.95569229126 -701.463639736176 2740.00000953674 10 13 6
-1162.1880531311 -682.175755500793 2664.99996185303 10 13 6
-1167.00398921967 -689.30196762085 2693.00007820129 12 15 8
-1160.04347801209 -689.518570899963 2694.00000572205 13 16 9
-1159.92736816406 -693.831741809845 2710.99996566772 15 16 10
-1148.2435464859 -691.236615180969 2700.99997520447 15 16 10
-1167.45173931122 -707.32444524765 2763.99993896484 14 15 9
-1150.64930915833 -701.661705970764 2742.00010299683 14 15 9
-1141.89183712006 -700.863003730774 2739.00008201599 14 15 9
-1408.02419185638 -685.58931350708 2638.99993896484 11 16 9
-1402.14860439301 -686.241865158081 2641.99995994568 15 20 13
-1296.91207408905 -641.337394714355 2470.00002861023 21 22 16
-1297.25849628448 -644.86175775528 2483.99996757507 13 14 8
-1316.23351573944 -657.731950283051 2533.99991989136 14 15 9
-1291.02265834808 -648.541390895844 2499.00007247925 13 14 8
-1283.48541259766 -648.178696632385 2497.99990653992 13 16 9
-1267.78531074524 -643.667757511139 2480.99994659424 13 16 9
-1269.46616172791 -647.980332374573 2497.99990653992 12 15 8
-1299.36110973358 -666.81843996048 2571.00009918213 16 18 13
-1298.69866371155 -670.094311237335 2584.00011062622 14 16 11
-1294.47174072266 -671.556711196899 2589.99991416931 11 14 7
-1264.19305801392 -663.082361221313 2558.00008773804 13 16 7
-1262.95721530914 -666.107714176178 2569.9999332428 12 15 6
-1267.52471923828 -672.244608402252 2594.00010108948 8 9 3
-1273.90813827515 -679.418921470642 2621.99997901917 13 14 9
-1298.74753952026 -716.783881187439 2767.99988746643 5 10 6
-1269.63007450104 -704.803705215454 2721.99988365173 5 10 4
-1265.34724235535 -706.550180912018 2729.00009155273 8 11 4
-1247.20358848572 -700.532019138336 2706.00008964539 8 11 4
-1240.18776416779 -700.729727745056 2707.00001716614 12 15 6
-1239.28081989288 -708.637058734894 2737.99991607666 11 14 7
-1208.79030227661 -695.383131504059 2687.00003623962 12 15 8
-1209.88345146179 -700.247585773468 2706.00008964539 13 14 9
-1212.65411376953 -706.148326396942 2729.00009155273 11 13 8
-1170.25864124298 -685.658812522888 2650.00009536743 9 12 5
-1168.67673397064 -688.976466655731 2663.00010681152 9 12 5
-1161.35835647583 -688.932538032532 2663.00010681152 10 13 6
-1166.17810726166 -696.133673191071 2690.99998474121 13 16 9
-1160.94386577606 -697.38632440567 2696.00009918213 14 17 10
-1141.13855361938 -689.846217632294 2667.00005531311 14 15 9
-1161.88335418701 -706.880152225494 2733.00004005432 13 14 8
-1168.75374317169 -715.637803077698 2766.99995994568 13 14 8
-1383.19063186646 -687.619686126709 2619.99988555908 15 18 11
-1342.70930290222 -670.966148376465 2556.99992179871 16 19 12
-1309.38172340393 -657.731890678406 2506.99996948242 16 17 11
-1285.69459915161 -649.226605892181 2474.99990463257 15 16 10
-1325.22761821747 -672.723948955536 2565.00005722046 15 16 10
-1304.14235591888 -665.535628795624 2538.00010681152 15 16 10
-1302.49130725861 -675.453066825867 2576.99990272522 15 17 12
-1301.3072013855 -678.500056266785 2588.99998664856 13 15 10
-1260.07652282715 -660.58623790741 2520.99990844727 11 14 7
-1280.36856651306 -674.905598163605 2575.99997520447 13 16 9
-1276.63612365723 -676.649451255798 2582.99994468689 13 16 7
-1257.63618946075 -670.275568962097 2559.00001525879 11 14 5
-1267.11928844452 -679.09562587738 2592.99993515015 9 10 4
-1302.10375785828 -726.192176342011 2775.00009536743 3 7 6
-1244.5467710495 -702.242434024811 2684.00001525879 10 13 6
-1252.79772281647 -711.07292175293 2717.99993515015 8 11 4
-1241.16504192352 -708.655476570129 2709.00011062622 13 16 9
-1252.35724449158 -719.31916475296 2750 12 15 8
-1235.71693897247 -714.028775691986 2730.00001907349 11 14 7
-1219.19190883636 -708.741307258606 2710.00003814697 10 12 7
-1210.3830575943 -707.902431488037 2707.00001716614 11 11 9
-1213.59360218048 -714.125990867615 2730.99994659424 11 13 8
-1204.75268363953 -713.290929794312 2727.9999256134 11 13 8
-1170.99678516388 -701.954066753387 2684.99994277954 12 15 8
-1168.82073879242 -705.047190189362 2697.00002670288 14 17 8
-1147.63474464417 -696.640014648438 2664.99996185303 15 18 9
-1161.28742694855 -709.408164024353 2713.99998664856 17 18 12
-1141.08884334564 -701.528310775757 2684.00001525879 17 18 13
-1158.65206718445 -716.911911964417 2743.00003051758 11 12 7
-1342.13304519653 -674.151360988617 2542.00005531311 21 24 17
-1318.6708688736 -665.810465812683 2510.99991798401 15 18 11
-1300.09353160858 -659.861445426941 2489.00008201599 19 20 14
-1286.32378578186 -656.302928924561 2476.0000705719 16 17 11
-1281.418800354 -657.253623008728 2480.00001907349 15 16 10
-1278.30421924591 -666.212797164917 2515.00010490417 10 15 8
-1282.37295150757 -671.939551830292 2536.99994087219 12 14 9
-1280.7959318161 -674.75414276123 2548.00009727478 13 15 10
-1277.97544002533 -680.65357208252 2571.00009918213 14 17 10
-1287.1059179306 -689.297139644623 2604.00009155273 12 15 6
-1263.12911510468 -680.207908153534 2569.9999332428 10 13 4
-1306.14411830902 -711.260437965393 2687.99996376038 14 15 10
-1296.07701301575 -730.352163314819 2762.00008392334 5 10 6
-1280.96354007721 -726.04888677597 2746.00005149841 12 17 11
-1238.57343196869 -710.314154624939 2687.00003623962 10 13 6
-1242.1441078186 -716.59392118454 2710.99996566772 14 17 10
-1243.3100938797 -721.553266048431 2730.00001907349 13 16 9
-1224.45917129517 -714.885592460632 2704.99992370605 12 15 8
-1224.64680671692 -719.319999217987 2721.99988365173 11 13 8
-1212.22567558289 -716.357231140137 2710.99996566772 12 12 10
-1202.09169387817 -714.717924594879 2704.99992370605 11 13 8
-1203.03654670715 -719.686150550842 2723.99997711182 11 13 8
-1181.49745464325 -711.182177066803 2691.99991226196 12 15 8
-1170.17018795013 -708.757340908051 2683.00008773804 12 15 8
-1170.16470432281 -713.202476501465 2700.00004768372 12 15 6
-1165.33291339874 -714.743614196777 2706.00008964539 12 15 6
-1184.86249446869 -731.341063976288 2769.00005340576 21 22 16
-1187.04402446747 -737.374484539032 2792.00005531311 13 14 9
-1301.598072052 -660.523474216461 2464.99991416931 22 25 18
-1293.05517673492 -659.600079059601 2461.99989318848 10 11 5
-1298.64156246185 -665.912091732025 2486.00006103516 16 17 11
-1288.51389884949 -664.190351963043 2480.00001907349 15 16 10
-1303.23135852814 -675.325036048889 2522.0000743866 14 15 9
-1300.76050758362 -677.623748779297 2530.99989891052 15 16 10
-1288.53976726532 -682.12366104126 2549.00002479553 13 15 10
-1268.32675933838 -675.065994262695 2523.00000190735 14 16 11
-1293.25795173645 -692.090332508087 2586.99989318848 15 18 11
-1307.39903450012 -703.495383262634 2630.00011444092 15 18 11
-1279.7839641571 -692.433834075928 2588.99998664856 13 16 7
-1264.20116424561 -687.79581785202 2572.00002670288 12 15 6
-1269.78576183319 -698.582172393799 2612.99991607666 13 14 9
-1295.21346092224 -737.381637096405 2759.99999046326 7 12 8
-1264.24133777618 -723.949909210205 2710.00003814697 7 12 6
-1240.48340320587 -718.735575675964 2690.99998474121 12 15 8
-1229.83682155609 -716.800212860107 2684.00001525879 12 15 8
-1229.2537689209 -720.742166042328 2698.99988174438 11 14 7
-1230.40390014648 -725.753903388977 2717.99993515015 11 14 7
-1221.10557556152 -724.626004695892 2713.99998664856 10 12 7
-1170.59171199799 -703.156471252441 2634.0000629425 10 12 7
-1177.91354656219 -711.913466453552 2667.00005531311 12 15 8
-1177.15752124786 -715.86662530899 2681.99992179871 12 15 8
-1174.14259910584 -718.486845493317 2691.99991226196 13 16 9
-1167.09911823273 -723.198413848877 2710.00003814697 12 15 6
-1178.48634719849 -734.896242618561 2753.99994850159 8 9 3
-1321.25961780548 -677.335381507874 2502.00009346008 15 18 11
-1297.9017496109 -668.820738792419 2470.99995613098 15 16 10
-1318.08888912201 -682.773470878601 2523.00000190735 13 14 8
-1309.41247940063 -681.842803955078 2519.99998092651 15 16 10
-1289.90828990936 -675.234317779541 2496.00005149841 14 15 9
-1309.6090555191 -689.187347888947 2548.00009727478 14 15 9
