ply
format ascii 1.0
comment KinectMotionCapture
element vertex 764
property float x
property float y
property float z
property uchar red
property uchar green
property uchar blue
end_header
-555.610194070109 117.866272323872 1723.39345612845 193 192 188
-550.879978674982 118.25182017791 1713.12117288611 194 193 188
-671.679361859011 101.124526520483 2409.90830066166 150 153 146
-689.89322983966 99.4249720224022 2400.21593024349 172 174 169
-709.103727443307 97.6344183614133 2390.59160039254 140 142 139
-715.32597895795 97.0311898247137 2381.42437648754 71 73 70
-726.541392237231 95.9714824675534 2372.16709581073 115 117 114
-732.761641692099 95.3682167551726 2363.07807942091 110 112 109
-746.970422060347 94.0348322549068 2353.86960022293 109 111 108
-755.185775926847 93.2490801163888 2344.83470062966 112 114 111
-763.399781954799 92.4633598413586 2335.84318866041 111 113 110
-769.615875499001 91.8600301792053 2326.91653099194 115 117 114
-771.837572088767 91.6213597813297 2318.05431448659 113 115 112
-776.055517361803 91.2001715406454 2309.19213415719 115 117 114
-782.269530306055 90.5965555267186 2300.34648607986 117 119 116
-786.486225176734 90.1751450025202 2291.53293713531 113 115 112
-791.700416158967 89.6624927620198 2282.74397816011 113 115 112
-792.921977036566 89.514086283868 2273.95928653873 129 131 128
-799.132964246731 88.9100785607569 2265.22214925588 132 134 131
-801.35173907331 88.6702504050514 2256.47288226626 107 109 106
-797.583113164014 88.9764685207805 2247.65065926676 107 109 106
-792.817099734285 89.373317392315 2238.78962139011 108 110 107
-796.033567662296 89.0416398997909 2230.0565929069 105 107 104
-793.263748064311 89.2557273153146 2221.20679820905 109 111 108
-792.489567867221 89.2874709658182 2212.39036425255 93 95 92
-790.7178576216 89.4098983219259 2203.54074276424 86 88 85
-806.900243887847 87.8951594543871 2195.22783226822 105 107 104
-814.104104532128 87.1989768822073 2186.70427806502 113 115 112
-815.323444703541 87.0481306572529 2178.00375972213 103 105 102
-804.575688509932 87.9875838727264 2168.84493701315 99 101 98
-802.804095811889 88.1086113656736 2159.99854308125 99 101 98
-809.009300794884 87.5025987768002 2151.49456738474 98 100 97
-821.195517991321 86.351658672517 2143.30510973162 108 110 107
-823.410895901344 86.1088636439924 2134.68542040902 110 112 109
-822.635111049296 86.1382617535648 2125.91985867772 109 111 108
-817.872536206582 86.5303658257133 2116.92865909673 109 111 108
-819.090830048812 86.3775655890602 2108.25761206751 108 110 107
-817.31920069543 86.4966972358888 2099.41061513968 105 107 104
-815.547592999612 86.6154961473671 2090.55308970542 105 107 104
-816.765832146625 86.4619302244972 2081.88335821984 108 110 107
-820.973526497375 86.0361156022339 2073.42617678054 116 121 117
-819.202066655083 86.1540648937315 2064.56196046179 118 123 119
-811.453182581829 86.8154012918662 2055.2413413425 117 122 118
-797.727650167933 88.0198044650173 2045.41500141732 111 116 112
-791.973567588119 88.4986932034516 2036.15105502314 110 115 111
-788.212598496442 88.795985670536 2027.01999339233 110 115 111
-788.436247050465 88.7306822321827 2018.20891533702 112 117 113
-790.651892155886 88.4840798828251 2009.57469508475 114 119 115
-789.879525814031 88.5088135618441 2000.67984261469 138 143 139
-785.123780970649 88.895186186122 1991.40622422385 128 133 129
-762.445206430221 90.9093774590383 1980.37316748526 122 127 123
-743.752498110485 92.5606254155605 1969.61092266312 115 116 111
-738.005433756172 93.035379983535 1960.06824075004 110 111 106
-573.563024621262 107.141078229086 1792.43794456621 85 88 81
-589.712249594939 105.624904583909 1785.41955170715 86 88 83
-588.955015150258 105.639742859218 1775.92266735332 93 95 90
-586.209191561439 105.834387711022 1766.11414956299 107 109 104
-592.411856380546 105.21881813817 1757.69919071748 128 130 125
-591.654326706028 105.23306293304 1748.20388294663 142 144 139
-576.979937760312 106.506302446659 1736.4372174005 128 127 125
-548.39112296984 109.037564997448 1722.28439445059 155 154 150
-692.640285866937 90.1052729973273 2400.17849968412 162 164 159
-702.860613288113 89.1638494648646 2390.8314637168 148 150 147
-708.084843224123 88.6653117629225 2381.67462754382 75 77 74
-718.302753106388 87.7239466623858 2372.42214011166 111 113 110
-725.522771918246 87.0482802030254 2363.28909736643 106 108 105
-736.736806318894 86.0185143291019 2354.11785690193 101 103 100
-744.953465209079 85.2543517186327 2345.05513363472 107 109 106
-755.166108775623 84.3132633040358 2336.00876914853 108 110 107
-766.37584096659 83.2837875293096 2327.00598542825 111 113 110
-770.594716245905 82.8735602519303 2318.11922626995 110 112 109
-777.80828846029 82.1978995173702 2309.23814503304 112 114 111
-779.031042105202 82.0526716002334 2300.41024882711 115 117 114
-784.246450887452 81.5536645804196 2291.58834519562 113 115 112
-786.466778859934 81.3196949237192 2282.7846662887 113 115 112
-788.686589285128 81.0855210785822 2273.99167089262 129 131 128
-794.898553589695 80.4978303522035 2265.24319009835 125 127 124
-794.123767451375 80.5282798595632 2256.44904887304 101 103 100
-791.35318185182 80.7350688253503 2247.62135565688 99 101 98
-783.593873335525 81.3828553254904 2238.69361104702 108 110 107
-785.813254174025 81.1474904342361 2229.91612653355 105 107 104
-783.043910615473 81.353138476198 2221.03866501619 107 109 106
-782.270358779049 81.381953962947 2212.19452851147 95 97 94
-781.496938906386 81.4104492267032 2203.34489057499 85 87 84
-793.690971224354 80.2922095536925 2194.88510210394 107 109 106
-801.893875805897 79.5268321838518 2186.35864055097 111 113 110
-801.119077237454 79.554887373775 2177.55308951601 104 106 103
-796.355517233968 79.9350998662885 2168.58762516841 100 102 99
-797.575797067395 79.786242321429 2159.84319208214 99 101 98
-809.764786014878 78.6680818018512 2151.589925778 102 104 101
-816.966548499598 77.990523553272 2143.16837228315 108 110 107
-821.176253061256 77.5771410055713 2134.63664865375 108 110 107
-819.403905039339 77.6918575203878 2125.81299915318 109 111 108
-814.640932876583 78.0703261434459 2116.81336273249 109 111 108
-812.86908057575 78.1843136279905 2107.96023116986 109 111 108
-810.101063442204 78.3859592453481 2099.03595566123 105 107 104
-811.31982624344 78.2354199156689 2090.34900767729 105 107 104
-812.538429501003 78.0846379705719 2081.66803471102 107 109 106
-817.743172702767 77.5819852392058 2073.26838921648 113 118 114
-815.971781616793 77.6945595256715 2064.39571439618 119 124 120
-808.222513184047 78.3341063030368 2055.06672136077 119 124 120
-797.485119741996 79.2366648248981 2045.46327174184 113 118 114
-792.727009768461 79.6114651070939 2036.27899012921 113 118 114
-781.99221447488 80.5127767516899 2026.57265706686 113 118 114
-776.239828874977 80.9743752271917 2017.23314665459 114 119 115
-773.476157236582 81.1721662281424 2008.12557056343 110 115 111
-783.660510878387 80.2287362629829 2000.18236016114 140 145 141
-782.88837235336 80.2505765258833 1991.26617230459 132 137 133
-771.16251632555 81.2370470850889 1981.28652597785 130 135 131
-750.476139995447 83.0120605410087 1970.3509748131 125 127 122
-749.706726823127 83.0324218640657 1961.33600754817 116 117 112
-547.68430889369 99.9286930721629 1779.23689380667 87 89 84
-547.924300262714 99.8530668159778 1769.7759980797 85 87 82
-541.203671197903 100.38817409865 1759.24023791011 94 96 91
-544.426995040046 100.050289976086 1750.23259235103 110 112 107
-560.574920224692 98.5784263252956 1743.31257640942 124 126 121
-556.837301623974 98.8511814124073 1733.24255035254 124 123 121
-530.235747232469 101.128765712632 1719.36465030103 124 123 119
-688.393529573336 81.4021881978339 2400.36977283923 156 159 152
-692.620171817082 81.0029322719364 2391.19123399698 152 154 149
-699.84341986896 80.346047330844 2381.95214751283 98 100 95
-709.063744633961 79.517569504945 2372.70179009625 80 82 79
-717.283754206456 78.7749501024195 2363.5219172062 102 104 101
-727.500419271141 77.8608049417999 2354.34730823246 89 91 88
-737.715698129245 76.9467437383369 2345.22696716075 99 101 98
-752.923179114122 75.6040948342091 2336.0933474138 100 102 99
-762.136780668666 74.7760264801298 2327.10619601173 100 102 99
-766.356240566525 74.3765370180914 2318.20811737463 109 111 108
-775.567690138591 73.5485164163074 2309.30512417537 110 112 109
-775.792080202841 73.4915382718199 2300.47400439101 111 113 110
-781.008080370816 73.0060731562819 2291.64352761057 111 113 110
-781.232125973774 72.9486915600368 2282.82543737135 112 114 111
-787.445456226717 72.3773974988241 2274.04117605885 124 126 123
-789.665451166917 72.1484080573064 2265.2558605787 111 113 110
-781.904263184692 72.7750161785107 2256.36950750781 98 100 97
-777.13844028968 73.1443674787435 2247.48082288836 85 87 84
-774.369024269068 73.3422623452933 2238.5978686767 100 102 99
-778.584998976747 72.9411049161829 2229.83421241064 107 109 106
-781.802695935155 72.6253803878935 2221.07027822624 98 100 97
-779.033613283381 72.8223912497695 2212.17334562941 93 95 92
-779.257910312978 72.7626319832029 2203.34287580689 81 83 80
-787.462732555091 72.0190742991375 2194.75556894553 109 111 108
-794.669231143182 71.3609586017637 2186.17911282644 102 104 101
-793.894851332405 71.3861414302149 2177.3541111707 110 112 109
-791.126005602521 71.5818288167082 2168.44649779977 106 108 105
-798.330800453039 70.9234164646459 2159.93631112218 96 98 95
-811.517558369431 69.7529420988869 2151.72944353732 105 107 104
-819.717046369105 69.0093309399732 2143.35988472036 108 110 107
-817.944263703901 69.1189596519615 2134.53843490603 105 107 104
-815.174795203141 69.3135374329885 2125.65397016943 106 108 105
-807.421093042927 69.934128203765 2116.47790906278 107 109 106
-808.640256113935 69.7868883919249 2107.77885991765 108 110 107
-805.872062340417 69.9803615614064 2098.8433883777 107 109 106
-811.078348284483 69.4917476942374 2090.3985210208 107 109 106
-811.300437357357 69.4290651342044 2081.65120698841 110 112 109
-812.519038258426 69.2809846736882 2072.97322676817 112 117 113
-808.754932296996 69.5584657118363 2063.94349288748 115 120 116
-807.980776438176 69.5801496920552 2055.11530640795 119 124 120
-802.224649002098 70.0271425333134 2045.89703272247 123 128 124
-795.473082290745 70.5587675785511 2036.56668399526 120 125 121
-777.76349887758 72.0257140923006 2026.29078525072 117 122 118
-770.018485082161 72.6411408682791 2016.76960804987 111 116 112
-775.223844260732 72.150541158155 2008.34950486553 116 121 117
-786.405041325613 71.1498008208488 2000.50215141163 120 125 121
-787.624680130157 70.9992383408322 1991.78094132671 138 143 139
-776.893416516324 71.8682166537508 1981.91118573228 120 125 121
-756.205046199355 73.5860526498896 1970.99217372914 118 120 115
-749.460502651734 74.1137222671177 1961.38308839976 131 133 128
-749.686764510444 74.0464927021787 1952.46780521789 130 131 126
-510.865612136389 93.502793925932 1764.23491322229 95 96 88
-500.169295698346 94.3565414250243 1752.98294725938 85 85 77
-497.429391772958 94.5335702030569 1742.92415373204 86 86 78
-511.593091712418 93.2740070165254 1735.55683749951 86 85 80
-515.812405259392 92.8595217454268 1726.64837741715 96 93 88
-505.118685105352 93.7116927588571 1715.29324697253 104 99 95
-690.141509572905 72.17778579546 2400.36452996485 151 154 145
-690.371609846309 72.1216431784777 2391.31113255058 125 130 123
-692.600054485069 71.8991069488811 2382.20250254132 112 117 110
-696.826186320857 71.5102651702867 2373.0550941195 62 67 61
-705.047877994985 70.7891767859356 2363.84192200778 89 91 88
-714.267062066671 69.9850734190778 2354.65299346616 85 87 84
-731.476098175449 68.5169343605378 2345.38257254079 97 99 96
-743.688564540579 67.4641593547958 2336.27260856541 97 99 96
-755.899602013039 66.4115365542309 2327.22797888 103 105 102
-759.121226057372 66.1057049956331 2318.32118288237 108 110 107
-771.329554814786 65.0532931701791 2309.38264569327 111 113 110
-769.557149415844 65.1619811764631 2300.54544094918 113 115 112
-775.77253817435 64.607094463895 2291.69834305555 112 114 111
-774.000137356847 64.7152860933135 2282.86042628171 114 116 113
-783.209282913044 63.9116164200894 2274.07362815582 115 117 114
-776.44573284433 64.4336177090675 2265.20129729869 108 110 107
-767.686778204771 65.1207948155941 2256.2679941085 102 104 101
-761.923319140388 65.5589811303757 2247.32681008548 95 97 94
-767.138891412191 65.0859156980241 2238.53569558279 87 89 86
-773.351624659698 64.530025415151 2229.79130670169 105 107 104
-774.574081397788 64.3879406498504 2220.96906472908 102 104 101
-772.802987433082 64.4938337387644 2212.07760362498 92 94 91
-773.027709525118 64.4339763132425 2203.23041549431 83 85 82
-782.2313836476 63.6295425865571 2194.65663957034 101 103 100
-787.4432665066 63.1559620399358 2185.99984222258 110 112 109
-786.669544338087 63.1782958023305 2177.15540330948 107 109 106
-786.893325519308 63.1177135644942 2168.34421098536 104 106 103
-795.096240970619 62.3958471114992 2159.86404327559 94 96 93
-807.286967529113 61.3436682131929 2151.60438630866 103 105 102
-811.498215231454 60.9523819809872 2143.03607671742 111 113 110
-813.714702127566 60.7261570616383 2134.39083608377 109 111 108
-811.942319694752 60.8299924154607 2125.54752333937 103 105 102
-808.17628954248 61.0985627372407 2116.58342586156 104 106 103
-807.40169600985 61.1192078719854 2107.77122975842 106 108 105
-803.636538444013 61.387065734031 2098.77226359556 105 107 104
-803.859144091867 61.3246357708574 2090.00503124247 106 108 105
-800.094786844538 61.591800412947 2080.97404153364 110 112 109
-797.327574066692 61.7761445989408 2071.99042728511 111 113 110
-796.553834310515 61.7953351788682 2063.13397606337 118 120 117
-801.759732861923 61.3198635850932 2054.71836051456 121 123 120
-799.989410933285 61.4209746835319 2045.79159103333 122 124 121
-791.244569950223 62.0982873947969 2036.29608562694 122 124 121
-772.537892595206 63.5983269999487 2025.92676800115 122 124 121
-761.803590760352 64.4389180415969 2016.13595175538 119 121 118
-769.002375323939 63.7975188251236 2007.8696105183 119 121 118
-782.176935807529 62.6625338620042 2000.18689143707 126 128 125
-788.377320381598 62.1036441520103 1991.92191093829 134 136 133
-776.649255468113 63.0249519110175 1981.95862871953 137 139 136
-757.951230699587 64.5210855771252 1971.23761935468 128 130 125
-742.243372153357 65.7696172673616 1960.71850993298 127 129 124
-736.495446983947 66.1956104598825 1951.15711544642 132 134 129
-470.817493883038 87.1945118462788 1758.24238983468 97 93 84
-465.095636775744 87.608838478698 1747.64963852213 95 88 78
-458.380184370639 88.1044855005073 1736.86918716928 86 77 68
-462.60381948056 87.70043338287 1727.80302775285 89 80 71
-473.787037596119 86.724306101264 1719.89378745253 85 78 68
-476.020636026902 86.4838175232172 1710.56445354815 98 88 79
-689.891255021262 63.1243510967984 2400.42446386333 144 147 138
-685.125153442458 63.4697089518485 2391.52090885837 111 114 107
-683.357130278408 63.5737191681158 2382.50740854313 98 101 94
-680.590344145443 63.7577096929038 2373.50673980048 58 63 56
-689.812740251321 62.9777309850965 2364.2275018247 70 72 69
-702.030870475118 61.9569956122324 2354.93990111035 87 89 86
-715.246181003463 60.8562061239852 2345.7012455814 84 86 83
-729.458460575457 59.6753587449687 2336.51978799191 92 94 91
-737.676090630985 58.9761964291971 2327.47957574085 95 97 94
-744.894214642697 58.3572541286378 2318.49081917047 93 95 92
-757.104193363908 57.3373866386957 2309.51341449317 99 101 98
-763.321292223047 56.7987749586446 2300.61695481914 103 105 102
-769.537557200392 56.2601452054605 2291.7530667288 110 112 109
-767.765426400768 56.3626381625707 2282.89847792542 113 115 112
-770.98548277752 56.0642011761675 2274.06089152967 106 108 105
-766.218913570963 56.406487512662 2265.17231507719 104 106 103
-758.458124761194 56.9886352854221 2256.22262286595 99 101 98
-750.698688972116 57.5702696626672 2247.22882346265 98 100 97
-755.915174133991 57.1106936857896 2238.40718920364 80 82 79
-761.131196896981 56.6510576202266 2229.61288736457 89 91 88
-767.344385766284 56.1113562144921 2220.86807357478 104 106 103
-765.573634449518 56.2116363282449 2211.95719382176 99 101 98
-768.792273783924 55.9117160083141 2203.17339766048 86 88 85
-778.994574098283 55.051961201992 2194.6186130652 85 87 84
-788.197883364777 54.2722924395846 2186.08568768847 108 110 107
-791.414337324163 53.9722487048468 2177.38717104025 106 108 105
-789.642639995134 54.0716103025257 2168.51227849182 104 106 103
-793.855966183282 53.6913844042739 2159.87461020974 92 94 91
-799.066270631453 53.2311850548857 2151.30319511232 100 102 99
-807.267586835511 52.5314293838328 2142.89994759178 111 113 110
-808.487341774344 52.3905259267331 2134.19389447968 109 111 108
-807.712266089545 52.4090818545651 2125.38897453587 105 107 104
-803.946220471074 52.6667178221664 2116.41374106333 107 109 106
-801.177679071689 52.8442284438789 2107.47471659211 109 111 108
-796.415753515083 53.1808521037278 2098.39857006695 109 111 108
-792.651092858029 53.4373872571142 2089.3587007467 108 110 107
-788.887209059813 53.69351739138 2080.29735900176 107 109 106
-788.114148721884 53.7101832126352 2071.4209676581 111 113 110
-788.33782231596 53.646958769868 2062.61114321614 115 117 114
-792.547885906337 53.2648856060116 2054.09900510564 117 119 116
-790.778052096274 53.3605700723011 2045.14733155994 119 121 118
-783.029809092355 53.9335978257499 2035.70683820892 121 123 120
-768.307601414955 55.063251568135 2025.64559821941 122 124 121
-762.554795351795 55.4759414244677 2016.27000665938 121 123 120
-763.776404219723 55.3313215100686 2007.47818034205 120 122 119
-769.978954320391 54.7888706757229 1999.14621436056 127 129 126
-782.157216516078 53.7694044748618 1991.40883224616 135 137 134
-777.401056180888 54.1015223257676 1982.10252290562 138 140 137
-761.689525008448 55.3074429391169 1971.68119994629 128 130 125
-737.016850853003 57.2275704443757 1960.25781717962 127 129 124
-726.289706063504 58.03445785027 1950.16041522795 133 135 130
-727.513272555023 57.8877562654809 1941.28984306169 138 140 135
-439.715142810349 79.9546942087909 1753.61019030304 99 90 81
-442.946462100876 79.6409698138943 1744.31599577822 92 82 73
-442.1992511826 79.6433114219166 1734.41393933024 76 64 52
-443.440912532576 79.48745609456 1724.82632882765 77 65 53
-441.699429420047 79.5683873771802 1714.76009576592 71 63 50
-445.923919875249 79.1753461092553 1705.67232909526 81 67 56
-440.205284285332 79.5717396625675 1694.93441456451 82 65 55
-452.382871940101 78.547123217796 1687.22719069892 104 82 71
-482.452705627598 76.1026938000876 1682.69806120479 126 103 95
-484.684943600097 75.8680022739863 1673.41879836267 169 155 146
-681.645806318929 54.6912337169069 2400.74638660584 137 140 131
-678.878419287422 54.8673116558663 2391.76070713455 91 94 87
-678.11009759396 54.8878475438215 2382.7032685291 104 107 100
-678.341057829316 54.8305906995192 2373.61506445123 67 72 65
-685.565919366475 54.2301892661555 2364.37356501329 56 58 55
-695.787021447499 53.3971939762919 2355.11267455161 91 93 90
-703.009740404764 52.796897811038 2345.95502758705 85 87 84
-711.230580589489 52.119114789978 2336.82163259476 92 94 91
-722.446652680796 51.2089345518353 2327.69915396592 90 92 89
-736.657567598428 50.0665175646157 2318.61229539125 92 94 91
-744.874451509286 49.3890675876554 2309.6338828841 94 96 93
-755.087366949486 48.5568263621341 2300.69376436216 96 98 95
-761.304408911318 48.0344080988114 2291.80759088747 106 108 105
-761.529788504492 47.9763562563998 2282.9366440307 110 112 109
-760.756808208102 47.9954915588623 2274.05977592513 103 105 102
-754.992030768003 48.4011684333274 2265.13521245898 100 102 99
-753.221456115215 48.4970319929906 2256.2220106983 96 98 95
-747.458071297475 48.9018879688835 2247.24213730838 99 101 98
-747.684496341254 48.8424774548836 2238.32887178342 78 80 77
-746.912904715953 48.8601176964107 2229.39612431978 79 81 78
-756.121360674694 48.1048000359364 2220.6788699305 88 90 87
-759.34107547703 47.8131010960652 2211.86186824168 99 101 98
-765.554017196332 47.2896106129355 2203.14411997025 88 90 87
-771.766114613356 46.7660898261401 2194.45933741896 79 81 78
-781.968264828983 45.9338036858675 2185.93991294014 109 111 108
-788.17839447612 45.4103866420699 2177.33214904401 105 107 104
-783.413948309019 45.7357407046482 2168.33309149505 104 106 103
-783.637942306569 45.6749667661877 2159.51337573814 92 94 91
-786.854321013612 45.3826255040661 2150.82607053408 99 101 98
-797.051958008819 44.5504605686195 2142.48316848433 112 114 111
-803.258964774938 44.0268095864954 2133.99720641165 110 112 109
-802.484407829616 44.0425984424327 2125.17836605163 105 107 104
-798.718416553491 44.2892814708338 2116.18924826938 106 108 105
-793.955692259615 44.6126466360038 2107.12075842504 107 109 106
-789.193648305094 44.9355905992798 2098.02522630775 107 109 106
-784.432521460358 45.2581222141663 2088.90273240328 107 109 106
-783.659624034817 45.272358906301 2080.01736566737 108 110 107
-782.886610016917 45.2864047024852 2071.12702600714 109 111 108
-784.107568376247 45.1463062177753 2062.37480337048 110 112 109
-783.334652874039 45.1598756434096 2053.48010188572 111 113 110
-782.562092451923 45.1731973537155 2044.58058145151 115 117 114
-773.817094442081 45.8012312162779 2035.03830136322 119 121 118
-763.080505226203 46.5823640250573 2025.28236700891 122 124 121
-755.334686269671 47.1324193417969 2015.72246745532 124 126 123
-754.564091136798 47.1442756714334 2006.73523850821 120 122 119
-764.752777904832 46.311207498219 1998.74117251453 127 129 126
-777.928679492241 45.24803840179 1991.0831487968 136 138 135
-777.156919059205 45.2596616607685 1982.15053835178 141 143 140
-758.45597462972 46.6521994971097 1971.43240622815 144 146 141
-733.78186647614 48.5039838268387 1960.00101222621 144 146 141
-725.045817579805 49.1275795282776 1950.10420442503 143 145 140
-715.315207045458 49.8272761481259 1940.05186024022 145 147 142
-398.660867178371 73.3076125001285 1747.46984399155 127 116 110
-427.756862299035 71.0176585556015 1742.05940126412 62 49 41
-432.978077150292 70.5597643342262 1733.05472009906 66 52 43
-429.247898180628 70.7883303834687 1722.64648070272 62 48 37
-425.518225412187 71.0165666056304 1712.21810306609 62 48 35
-422.783390071706 71.1682683719549 1701.93401748747 70 52 40
-427.009196296902 70.786265423204 1692.80667806436 58 36 25
-437.199999718057 69.9471870079765 1684.72343259926 75 48 39
-448.383489442729 69.0322668655531 1676.86929638592 82 55 46
-465.53041413558 67.6608190737261 1670.1302243961 129 111 101
-667.63380311352 46.605627705124 2392.15074601841 70 73 64
-670.863508555859 46.3236178919499 2382.95367894676 93 96 87
-676.091216751542 45.8918287915795 2373.72324505572 80 83 76
-681.31847792433 45.4600205232842 2364.5195865752 45 47 44
-688.543182592208 44.8785668534931 2355.30456278142 88 90 87
-691.77070035699 44.596299195652 2346.19272087348 86 88 85
-699.992675798921 43.9400940155395 2337.02879993237 87 89 86
-707.214687344751 43.3587121266985 2327.91910975054 85 87 84
-725.423332932201 41.9553734175761 2318.75822703866 89 91 88
-735.639025740432 41.1501215783887 2309.73853847713 91 93 90
-746.851975442101 40.2703469957293 2300.77074090301 91 93 90
-753.070270667569 39.7641121859802 2291.86228687814 99 101 98
-751.298957624424 39.8551338613148 2282.96342033985 104 106 103
-746.532612297528 40.1697818415537 2274.0364179563 101 103 100
-747.75741161846 40.0363313523786 2265.13189055176 96 98 95
-750.978906284792 39.7534915242148 2256.25483784401 94 96 93
-747.211905787716 39.9926407595544 2247.29707470594 98 100 97
-739.452349883599 40.5297010917852 2238.25078484966 78 80 77
-733.690560988407 40.9171286567064 2229.1991487808 73 75 72
-744.896887782812 40.0371966708587 2220.49002835813 82 84 81
-751.111689286882 39.5299863843567 2211.71707367663 93 95 92
-758.323528340784 38.9482967451304 2203.00462928018 84 86 83
-760.54509612322 38.7390249592646 2194.17901297688 72 74 71
-772.744259078891 37.7851169546367 2185.69514810007 107 109 106
-779.953148148731 37.2035974898632 2177.09818202027 100 102 99
-778.182166359789 37.2918569929312 2168.19272790054 101 103 100
-778.406516471017 37.231063270687 2159.35907274516 91 93 90
-779.628316470681 37.0956654146855 2150.56967827348 97 99 96
-789.827207342802 36.2908954622635 2142.20718499316 110 112 109
-797.032486532021 35.7093167266037 2133.75124191285 108 110 107
-796.258280929353 35.7223712069623 2124.91573390288 105 107 104
-791.49499216637 36.0323823637967 2115.85496696101 104 106 103
-786.732623384072 36.3419954126889 2106.76714131758 102 104 101
-785.959346980405 36.3541723138133 2097.89437471471 103 105 102
-785.185954830836 36.3661130793497 2089.01655353024 105 107 104
-784.412922713271 36.3778198159799 2080.13373455385 109 111 108
-780.649269357592 36.6118916183438 2071.03970177834 109 111 108
-778.879683435717 36.6972618370883 2062.0672652589 112 114 111
-776.113659956676 36.8565015305655 2053.01021382248 113 115 112
-773.348033709421 37.0154404077274 2043.93731419844 116 118 115
-767.592897674481 37.3964484508889 2034.60944372783 119 121 118
-760.842088003541 37.8511225912297 2025.16688328365 121 123 120
-756.085300587782 38.1571490547928 2015.85706750183 124 126 123
-750.332599015083 38.5368487652851 2006.43264502659 121 123 120
-757.533265288159 37.953557185764 1998.15515156933 125 127 124
-768.717997857155 37.0742275637736 1990.29065505413 134 136 133
-765.95452581713 37.2312393657792 1981.14081719232 141 143 140
-754.225875283654 38.0538247851768 1971.08509779832 145 147 144
-731.542165138726 39.6893726919961 1959.84620018987 146 148 145
-721.809657417208 40.3624908010967 1949.83946669408 143 145 140
-722.037824021406 40.2958044720652 1940.850322745 145 147 142
-435.444003522372 60.6193792717626 1743.33836548836 52 39 31
-438.675841171343 60.3229824184212 1734.04251669946 71 54 46
-424.99884673011 61.2765597603226 1722.05915198631 67 49 39
-408.340101223895 62.4499456135342 1709.51515134878 68 50 38
-413.561921002069 62.0057247342448 1700.5015089259 67 45 32
-421.766479420828 61.3412192209627 1692.01871811597 66 39 28
-429.969641523342 60.6769085249339 1683.58138457357 71 41 31
-440.160274345124 59.8659794479134 1675.53503131429 80 50 40
-457.308819788942 58.5415183502235 1668.77374066726 111 91 82
-661.38484696152 37.9223761181695 2392.39057252289 98 101 92
-664.615196402984 37.6482524114601 2383.17680322829 62 65 56
-667.84513977184 37.3740267461623 2373.9787951826 86 89 82
-670.075227597195 37.1718077750819 2364.81843406805 70 72 67
-676.302088320084 36.6812082723576 2355.59199871995 69 71 68
-676.533217667719 36.6228710769546 2346.49602515052 84 86 83
-685.756085807315 35.9161549927773 2337.2770022246 84 86 83
-692.979604789532 35.3535628724613 2328.12857121303 87 89 86
-710.191491435201 34.0711772506252 2318.93686437703 90 92 89
-716.41358135567 33.5808275474348 2309.89715672996 87 89 86
-725.631246017524 32.8746415056603 2300.88207285872 86 88 85
-734.847660349116 32.1686082802355 2291.91602030791 86 88 85
-738.070607501817 31.8941476753327 2282.98187157753 90 92 89
-738.297598294949 31.8352917665834 2274.04709010039 91 93 90
-737.526147061881 31.8481081125274 2265.10367609442 88 90 87
-740.748569582824 31.5732438728049 2256.19892318679 94 96 93
-742.972268951552 31.3701267315211 2247.29660549032 93 95 92
-737.209096989732 31.7414804239304 2238.2724407819 84 86 83
-730.448594229806 32.1841955257288 2229.19587913948 74 76 73
-737.663349285395 31.6214758310651 2220.38983576095 78 80 77
-748.869464178668 30.7717748363266 2211.72145687855 85 87 84
-756.081978716892 30.2092615073258 2203.00320225981 81 83 80
-757.305957261759 30.0771817635139 2194.14155021623 66 68 65
-757.531734813121 30.0166532208634 2185.25239048492 104 106 103
-763.744221737519 29.5257872675149 2176.57812209305 98 100 97
-761.974210970574 29.608326523415 2167.62857510906 96 98 95
-766.190349277903 29.26066253133 2158.91596193468 92 94 91
-771.403695283795 28.8413366624064 2150.26955902033 94 96 93
-781.603908639971 28.0639134183109 2141.88474127103 105 107 104
-789.80768194458 27.4298996703722 2133.4560503629 106 108 105
-788.036329915759 27.5117638150338 2124.54887486867 106 108 105
-784.270724633529 27.7364521326711 2115.52105488142 104 106 103
-781.502851774368 27.8892819931051 2106.52940124169 101 103 100
-784.718572011414 27.6126909777087 2097.88474272802 103 105 102
-784.942469937387 27.5505021590547 2089.06726259179 105 107 104
-783.172391673398 27.6311087654891 2080.11827849595 108 110 107
-778.411366189852 27.9258277106317 2070.95263515408 109 111 108
-775.644937825383 28.0772826911591 2061.90304941759 111 113 110
-768.891585898341 28.514132780498 2052.54071105554 112 114 111
-766.126230474894 28.6649119897718 2043.44846547591 112 114 111
-760.371138105155 29.0295382123384 2034.10129888072 116 118 115
-759.600144437598 29.0369360602279 2025.13418366358 117 119 116
-753.84632850354 29.4008023259473 2015.73631355707 124 126 123
-749.089984779104 29.6929512992191 2006.39425620105 126 128 125
-750.312669260318 29.5569128404766 1997.56960529653 123 125 122
-758.509646443211 28.9217524753669 1989.4052992189 129 131 128
-758.735296684433 28.8568314214183 1980.51639886853 143 145 142
-747.006475807281 29.6466586454688 1970.44148865652 136 138 135
-728.306059482446 30.9343826634766 1959.59017536806 138 140 137
-718.573017741051 31.5803492812305 1949.57516003869 135 137 134
-727.765539725056 30.8732945356028 1941.54180636958 139 141 136
-433.432234158269 50.8974243060196 1733.31027119863 63 44 37
-430.696033271856 51.0344098334138 1723.06375472155 68 48 39
-416.024694980278 52.0203543846574 1710.8600590515 113 91 80
-420.251885463442 51.6613603267151 1701.70332320649 58 30 19
-423.484067498208 51.373124407343 1692.40277721011 74 41 32
-425.721446915734 51.1555918284289 1682.95031762955 76 42 33
-435.91313407499 50.37256100038 1674.89271220055 82 49 40
-458.034500317285 48.7419074063452 1668.99772608439 94 70 60
-659.133192340153 28.9280842494554 2392.51000889835 138 141 132
-653.368595190292 29.2861749032626 2383.53662943459 80 83 74
-653.601223630221 29.2277837163633 2374.38200817329 91 94 87
-657.831249775837 28.8919223059709 2365.13928287174 83 85 80
-666.057835101549 28.2787839019363 2355.84143349022 56 58 55
-666.289660968557 28.2200662113448 2346.7178289844 77 79 76
-672.516438292015 27.7455139980653 2337.51188351847 79 81 78
-676.744132957537 27.4095080511451 2328.36012534348 86 88 85
-691.960548781712 26.3118039356212 2319.14030397387 87 89 86
-698.18434968637 25.8374439392363 2310.05089365323 86 88 85
-706.404916561116 25.2247224418983 2300.98871382681 86 88 85
-718.61976447662 24.335357330685 2291.9704523603 83 85 82
-722.842954208217 23.999560411064 2282.99498704648 85 87 84
-725.068410292626 23.8020375060451 2274.03001747562 87 89 86
-725.296311750611 23.7426540619129 2265.05907763447 86 88 85
-730.516701390644 23.3375112080825 2256.14328893845 94 96 93
-733.739633368408 23.0705538890523 2247.22711453587 91 93 90
-732.968666154448 23.0798352942922 2238.26098783935 87 89 86
-727.206156215395 23.4341773940939 2229.19268324988 76 78 75
-723.441060716973 23.650042235399 2220.13546517609 78 80 77
-732.652549651522 22.9682957172035 2211.37866661171 81 83 80
-741.863016647706 22.2866830899425 2202.67127748889 77 79 76
-751.072222890824 21.605226053878 2194.0133300252 61 63 60
-751.298424973823 21.5446295031117 2185.107505105 99 101 98
-758.509851159439 21.0011918869543 2176.45226910772 95 97 94
-757.737795901842 21.0092624841428 2167.52736685324 96 98 95
-762.952205936977 20.6036559188668 2158.84478393351 95 97 94
-768.166146564177 20.1980511499625 2150.189873819 96 98 95
-778.367335007755 19.4481271201181 2141.79647281452 105 107 104
-782.58179814115 19.111502469194 2133.16118443492 108 110 107
-782.805835559235 19.0501617947462 2124.33916313563 108 110 107
-779.040284274139 19.263912269851 2115.29748854043 105 107 104
-777.269805392449 19.3397521196486 2106.34971900774 103 105 102
-777.494216956197 19.2777716655349 2097.5123878537 105 107 104
-780.710226337587 19.0093562909543 2088.8652069509 107 109 106
-779.937339515488 19.015802688514 2079.97106117739 106 108 105
-778.167350128498 19.0907769875394 2071.00323113436 109 111 108
-770.415884601853 19.5776800611557 2061.59621108678 110 112 109
-762.665275730191 20.0640881183955 2052.14585369612 109 111 108
-755.912775526255 20.4813703161928 2042.72921654967 110 112 109
-754.14524109282 20.5549976823731 2033.67331697277 114 116 113
-757.361150947527 20.2852915208248 2025.0193151816 116 118 115
-754.597212240502 20.4271227053136 2015.87141650481 125 127 124
-746.850460269242 20.9115736506447 2006.2682166894 128 130 127
-739.105035400594 21.3955181005907 1996.62193005904 123 125 122
-749.29635324724 20.6452809711328 1988.61396999402 128 130 127
-756.49714593836 20.1008480794282 1980.37325914787 144 146 143
-749.748905503159 20.5155107340965 1970.78732281895 139 141 138
-732.043005182337 21.6830319815839 1960.04597627665 142 144 141
-718.324380775655 22.5758345983015 1949.62439960821 137 139 136
-719.548794192628 22.4413014715201 1940.73379221436 141 143 138
-439.130683016703 40.6951091984591 1734.2989849976 59 42 35
-437.388788768048 40.7565237081196 1724.22786495223 71 51 42
-442.609718770242 40.3415439180546 1715.28039488652 133 106 95
-426.94287613271 41.3547747906481 1702.90559377013 61 31 21
-425.202164418635 41.415424333082 1692.78743481397 72 39 30
-428.433991577589 41.1360306681744 1683.51025272549 75 41 32
-446.5814785641 39.8375353614723 1676.84290798601 77 43 34
-468.70400366358 38.2679545939903 1670.97752980232 86 62 52
-641.120575123089 20.9297791044247 2383.92398752134 122 125 116
-638.355504002543 21.0707895477261 2374.81014145093 65 68 61
-642.586877642492 20.7454178391429 2365.52601443679 65 67 62
-650.815352759675 20.1537401555751 2356.18667311501 68 70 67
-652.047446762828 20.0280106813272 2347.00533449027 54 56 53
-658.275654634885 19.5694928252632 2337.76069468725 65 67 64
-665.502117323896 19.044484183644 2328.5375676615 85 87 84
-671.728598294112 18.5860659636985 2319.36052814633 85 87 84
-669.961981372087 18.6594972117981 2310.25923368036 76 78 75
-684.178831264203 17.6693289886364 2301.10388874007 79 81 78
-702.389429108466 16.4137175847771 2292.02532327179 82 84 81
-712.606926289049 15.6899863963236 2283.02264418431 81 83 80
-709.839430228295 15.8296768038547 2274.00215582494 81 83 80
-705.074926381558 16.1018843495435 2264.94828795938 76 78 75
-712.294620454284 15.5772791280245 2255.99945985547 82 84 81
-718.514406356453 15.1191309800073 2247.07505198677 88 90 87
-723.735206719317 14.7273499213417 2238.16688247449 88 90 87
-717.972873383658 15.0650347324213 2229.07379029885 80 82 79
-716.204599515353 15.1371365448216 2220.03582758781 74 76 73
-721.424554951942 14.7450402581323 2211.16034225381 75 77 74
-731.634583190069 14.0216619956188 2202.44995425601 79 81 78
-745.835600568221 13.0335481524608 2193.91560464334 62 64 61
-749.056298036661 12.774207952161 2185.09494128134 104 106 103
-753.274467823162 12.448600294542 2176.32661325675 95 97 94
-749.508967870851 12.6524339602765 2167.2722844923 94 96 93
-754.724559064035 12.2604492260166 2158.56748868549 91 93 90
-765.925815243187 11.4716256703629 2150.15437068797 95 97 94
-777.125527151344 10.6830556935905 2141.80188042405 106 108 105
-780.342820213172 10.4235790122326 2133.11412652313 106 108 105
-780.567005286656 10.3623265681952 2124.28642907437 104 106 103
-776.801297766594 10.5651726633921 2115.23915239957 104 106 103
-772.038792840291 10.833753923261 2106.11259096057 101 103 100
-767.276731837859 11.1019800570456 2096.95897334357 104 106 103
-771.490874536234 10.7757339819848 2088.34735239004 107 109 106
-773.710181623116 10.5814836341858 2079.62622076373 106 108 105
-774.931890751256 10.4531021900046 2070.84791154864 108 110 107
-765.185815309423 11.0500821007041 2061.28970023047 106 108 105
-756.438035992753 11.5805902379515 2051.7514076353 109 111 108
-749.68543329208 11.9787386418322 2042.31823202212 110 112 109
-748.914958874366 11.9810916933626 2033.32540600852 110 112 109
-752.131693393095 11.719760576305 2024.65749075662 111 113 110
-748.371004678375 11.9193724202635 2015.410589093 116 118 115
-742.61746199877 12.2503205131833 2005.96669425717 119 121 118
-735.868226380159 12.646717232548 1996.40004058886 122 124 121
-741.077873287312 12.2531371620623 1987.91653033489 125 127 124
-752.265701308632 11.4648994811802 1980.03818511858 143 145 142
-750.498937848926 11.5318126606528 1970.93561925272 148 150 147
-739.765913692402 12.1901126649662 1960.90846162358 140 142 139
-722.060582934544 13.3078765344005 1950.09142894723 138 140 137
-719.300221822067 13.4392903916751 1940.78319537013 126 128 125
-716.54024782495 13.5704511402016 1931.45956021506 149 151 146
-430.154883563063 31.430756629118 1723.16486699467 69 52 44
-431.397667159571 31.2910477472857 1713.55073201963 86 66 57
-428.661516760528 31.4123398568955 1703.28539193789 104 75 67
-422.941822658891 31.7291148568704 1692.50335944142 68 35 26
-439.103351059319 30.6105929381823 1685.43107384145 83 49 40
-467.196614341302 28.7101738412657 1680.52095568906 73 40 31
-484.347136788852 27.5278516889267 1673.83501473979 89 66 58
-622.107993082887 12.8948002440533 2375.26319144868 75 76 70
-626.340783252406 12.5798923557533 2365.93493679614 62 64 59
-627.574922250764 12.4564362056192 2356.68543838313 65 67 64
-629.807993401318 12.2690504484138 2347.42440534764 52 54 51
-632.041034176363 12.0815646094169 2338.17377682038 55 57 54
-639.269840557155 11.5751531108629 2328.87901838069 86 88 85
-649.495186683982 10.8775562674536 2319.59763633071 78 80 77
-644.732892505471 11.1361482676161 2310.45211244017 75 77 74
-653.957320133146 10.5023934262892 2301.2411546928 76 78 75
-671.172257031152 9.3592126799365 2292.07970090293 81 83 80
-685.388395006033 8.40752300752701 2283.00282024691 81 83 80
-689.614220077063 8.09278139089664 2273.94696430144 76 78 75
-688.84589546504 8.09624263635186 2264.87130632742 71 73 70
-688.077473256977 8.09950042611435 2255.78991950138 74 76 73
-694.299628751979 7.65730605450091 2246.7993544607 81 83 80
-700.520947094938 7.21517700658039 2237.84157836143 88 90 87
-701.748988715619 7.09093902283225 2228.82022232961 81 83 80
-701.978565920929 7.03011913276158 2219.78224613284 74 76 73
-702.20814024665 6.96914996169673 2210.744222194 75 77 74
-714.416860677194 6.14583910831526 2202.03636804122 77 79 76
-732.612821534611 4.94186527344809 2193.57598638062 65 67 64
-746.814090964548 3.99228844506522 2185.08248857769 103 105 102
-751.032708706741 3.67765755061808 2176.30843889569 94 96 93
-748.264954760127 3.80708583585643 2167.28701093257 94 96 93
-751.485093604482 3.55571183834694 2158.49673403004 92 94 91
-759.693866988624 2.98731067397356 2149.94307243144 96 98 95
-769.897142504359 2.29227360284803 2141.52703480604 105 107 104
-775.110646567259 1.91425877956675 2132.91881109546 105 107 104
-777.330298977347 1.72634167045049 2124.18165839771 103 105 102
-771.569532278222 2.04491032918813 2115.0161359753 105 107 104
-764.811696938398 2.42643422627092 2105.76029512374 104 106 103
-764.039614737069 2.42779736551596 2096.82924397196 104 106 103
-768.254279234426 2.11264343730266 2088.20913919956 104 106 103
-769.47674746978 1.98721526436407 2079.41365722833 106 108 105
-768.704306960668 1.98813675917464 2070.48681099391 107 109 106
-758.957901279363 2.55775337638003 2060.91212598115 103 105 102
-752.204102311325 2.93726924588411 2051.50569846033 106 108 105
-746.448185754854 3.25317685815202 2042.13843364619 108 110 107
-742.687041015285 3.44242178005089 2032.89822381096 109 111 108
-742.913825016597 3.37881940123139 2023.96642808056 110 112 109
-738.156751171787 3.63063489033572 2014.6095993691 113 115 112
-735.393649743051 3.75592862378937 2005.40189552681 117 119 116
-733.627521372681 3.81787870285064 1996.26917917463 124 126 123
-735.848165847455 3.62740611635137 1987.49983406571 126 128 125
-742.05450718092 3.18472543397347 1979.12681907812 137 139 136
-747.26337639894 2.80515678778792 1970.68874799784 145 147 146
-741.511488044307 3.11858903281709 1961.1613892427 144 146 145
-728.786304869788 3.87245647764412 1950.87167171775 140 142 139
-717.059301004325 4.56269350644334 1940.61881411293 133 135 132
-713.302923011889 4.74888695317011 1931.17970205957 147 149 144
-408.245689976635 22.9303544281317 1709.88013847707 62 44 34
-409.489982369823 22.7934398760574 1700.2100348371 140 116 106
-431.623081637089 21.3438129293813 1694.06017871967 59 30 22
-453.753083944641 19.8949954767514 1688.03223168867 83 53 45
-493.782108673059 17.3226305870309 1685.23564142087 84 54 46
-514.910011573486 15.9382996325629 1679.32496467725 99 79 70
-590.100541041367 5.54799849948703 2366.78244007321 81 83 78
-586.339564880462 5.73181183128035 2357.52980957668 65 67 64
-589.575257563386 5.48792565010309 2348.1396746219 72 74 71
-586.814236696176 5.61023470737659 2338.84745051228 58 60 57
-596.045419762394 5.00000627955699 2329.40705246363 67 69 66
-614.268322723459 3.84088120090054 2319.94183520012 81 83 80
-621.498193175633 3.35309678387047 2310.6348142785 66 68 65
-627.727590953561 2.92640547714129 2301.36851694124 58 60 57
-629.960332336832 2.74357579725784 2292.13458910668 68 70 67
-650.173950546562 1.46387209036711 2282.96150415885 79 81 78
-674.380288471158 -0.0589484177062061 2273.92003331661 75 77 74
-673.612935336071 -0.0586042142767806 2264.80305981888 71 73 70
-668.850775902432 0.185074691139819 2255.63625709939 68 70 67
-669.082590993237 0.124094150372067 2246.51064409068 70 72 69
-681.297576152239 -0.667128203917483 2237.58307201829 80 82 79
-688.518307738441 -1.15393942379843 2228.62494979354 81 83 80
-697.735095798806 -1.76227110574728 2219.74919502031 72 74 71
-699.961848283202 -1.9449093155946 2210.7495396863 71 73 70
-705.183094899775 -2.30992501274538 2201.84334282875 71 73 70
-722.382863322141 -3.40390314468017 2193.32755559129 80 82 79
-735.587538781585 -4.25447775879531 2184.77321685793 98 100 97
-741.803569538857 -4.67972919099521 2176.04021980843 92 94 91
-742.03039939904 -4.74074045249145 2167.10941389665 92 94 91
-747.247248146499 -5.10529367083903 2158.38492236148 95 97 94
-752.463153120148 -5.46976504922725 2149.68807986139 99 101 98
-763.665452159038 -6.19803693743201 2141.29921900962 103 105 102
-771.87310218303 -6.7441901993914 2132.82267508962 101 103 100
-775.090991425946 -6.98718531972339 2124.12931699738 99 101 98
-764.341393791117 -6.38208063343448 2114.6834664903 101 103 100
-761.574205197327 -6.26203392530492 2105.63919415362 103 105 102
-762.797108579412 -6.38442381132248 2096.82064263092 102 104 101
-764.019858079634 -6.50689276770744 2088.00802044484 102 104 101
-758.260994255886 -6.20594800705765 2078.73987908814 106 108 105
-749.511308997032 -5.7239336403524 2069.23333322837 105 107 104
-743.754290936809 -5.42378036972543 2059.89220319801 101 103 100
-743.981009837576 -5.48669020262368 2050.96369542487 103 105 102
-741.216456616503 -5.36845982522027 2041.80514856864 106 108 105
-735.461258982958 -5.06925635161176 2032.39185013852 108 110 107
-731.700844058955 -4.89118921339352 2023.11111473952 110 112 109
-728.937758282139 -4.77379965428043 2013.89431227233 112 114 111
-734.149349111258 -5.13944072039979 2005.36482556492 113 115 112
-735.373594740596 -5.26370656710645 1996.50112489593 121 123 120
-737.594024010765 -5.44837190077269 1987.73710132102 124 126 123
-736.82459778134 -5.45223979266701 1978.69662890805 133 135 132
-734.062153907617 -5.33570384310939 1969.45382210411 135 137 136
-734.289469196506 -5.40019040153567 1960.5003124507 143 145 144
-726.545817819625 -4.98294912638686 1950.71309088655 145 147 146
-716.810533658381 -4.44574022034111 1940.66894143847 154 156 153
-713.053865279672 -4.27016786004886 1931.22977458202 151 153 150
-705.313322805507 -3.85424191805028 1921.31963402649 167 169 166
-439.310724872003 11.0671186276008 1695.45007118197 86 66 57
-474.373140502705 8.90266781261884 1691.6536223956 96 71 64
-554.854659567718 -1.74031817268727 2367.60904064875 105 107 102
-549.096539063889 -1.451635133847 2358.29868208214 72 74 71
-548.33699683116 -1.45490840304291 2348.87254729827 62 64 61
-545.578605104742 -1.34174697904621 2339.46774523455 63 65 62
-546.81812464374 -1.46195846347849 2330.00211573802 56 58 55
-566.045288827049 -2.63099557314606 2320.39373482301 62 64 61
-592.264489414087 -4.207195281694 2310.85095221316 70 72 69
-599.495705077179 -4.67630115588694 2301.50208658127 62 64 61
-598.733216081606 -4.67966769155029 2292.19102135515 57 59 56
-622.946601260009 -6.13792329164542 2282.94344424664 73 75 72
-654.149368982289 -8.00263495760503 2273.86594610056 73 75 72
-663.372280683332 -8.58702881199819 2264.77656083177 71 73 70
-654.614951394464 -8.12479317608345 2255.5382084793 69 71 68
-661.839006414835 -8.59287796438418 2246.47030193414 67 69 66
-667.06485783201 -8.94466563729585 2237.40766153905 75 77 74
-679.28029552663 -9.7029711181274 2228.50707119883 79 81 78
-685.502497861237 -10.1125844807677 2219.54033369401 71 73 70
-690.725693802048 -10.4641078307907 2210.58176232381 66 68 65
-700.940101400186 -11.1056906727758 2201.78803938879 67 69 66
-713.149878457142 -11.863044306977 2193.10970839764 89 91 88
-726.356171442812 -12.6780831373571 2184.53030672366 94 96 93
-735.567666736273 -13.2608824434485 2175.8795015267 91 93 90
-739.787381460259 -13.5537558874575 2167.08593947071 92 94 91
-746.002741204753 -13.9624659836656 2158.3969287377 96 98 95
-746.22927988788 -14.0236247969779 2149.4773446042 100 102 99
-756.434990149361 -14.6638449628442 2141.02500685164 102 104 101
-762.647949495482 -15.0723211332774 2132.430063174 100 102 99
-764.868992362955 -15.2492979662203 2123.65963819903 97 99 96
-758.110291299114 -14.9058013655472 2114.40612684718 99 101 98
-759.3335724324 -15.0252308481738 2105.57599015214 102 104 101
-762.551933574434 -15.2603540631709 2096.87264085332 103 105 102
-759.784814060248 -15.1488153061832 2087.80720867544 103 105 102
-753.028423965003 -14.8064891273207 2078.46211995642 105 107 104
-738.293964553508 -14.0026430667961 2068.52989298173 102 104 101
-734.531944041603 -13.8344192351852 2059.30134053547 99 101 98
-732.764761487466 -13.7818890812359 2050.19971094678 102 104 101
-733.989553275916 -13.9026241642758 2041.31845554976 105 107 104
-729.231409385312 -13.677446709208 2031.96552127719 106 108 105
-728.462178749056 -13.683174747428 2022.91540712372 108 110 107
-728.689936464749 -13.7466987495737 2013.945639417 110 112 109
-732.905114794111 -14.040750233445 2005.32811048933 111 113 110
-732.135815568342 -14.0468501350046 1996.28027777344 120 122 119
-732.363292085924 -14.1106743932686 1987.32117787113 124 126 123
-724.617288785213 -13.7142381367397 1977.59421402288 136 138 135
-723.848747494108 -13.7209374482771 1968.51611499443 135 137 136
-723.080317728384 -13.7277939915247 1959.43348834439 141 143 142
-721.315377972741 -13.6773013915409 1950.24201465255 141 143 142
-710.583383838533 -13.109814344235 1940.07709222402 149 151 148
-704.834352335252 -12.8301081371218 1930.40186539934 141 143 140
-701.07871341078 -12.6656089086026 1920.91989921727 148 150 147
-478.084977103925 -1.00589882565139 1692.38510598596 95 75 66
-516.846113571852 -9.116559429728 2358.97259936477 137 139 134
-516.088724382227 -9.12333933130005 2349.45855104605 66 68 63
-510.333726157554 -8.85252543962295 2340.00697647984 54 56 51
-507.577974040408 -8.74865698115207 2330.489031271 55 57 52
-519.813600276357 -9.47780376575941 2320.83071116097 55 57 52
-539.042770766835 -10.5951359315221 2311.19943359813 46 48 43
-563.265426142797 -11.9893134011891 2301.65834721669 66 68 65
-565.502696047562 -12.162564645369 2292.24838887278 61 63 60
-578.730067112751 -12.9457706760182 2282.87936244136 61 63 60
-607.940317906947 -14.6154612149029 2273.66940326279 70 72 69
-633.150694035578 -16.0625847279054 2264.58540547209 68 70 67
-642.375128918102 -16.6226937601806 2255.46256416608 67 69 66
-641.609763541088 -16.6288925289222 2246.25155206902 60 62 59
