ply
format ascii 1.0
comment KinectMotionCapture
element vertex 758
property float x
property float y
property float z
property uchar red
property uchar green
property uchar blue
end_header
-817.107005784768 364.956829717363 2296.16117914917 44 30 17
-826.339587156415 363.285008043687 2301.06001338595 32 16 3
-834.177344637684 364.400069457266 2291.00906642414 81 65 52
-843.649413656918 362.171881086681 2298.90278075355 80 64 51
-852.73094242611 360.687721482389 2302.81204389379 61 47 36
-863.025657900789 356.426995955966 2321.6937283096 52 42 30
-870.651957697188 358.09257979177 2308.64465894095 20 13 5
-878.883814195323 358.459680445377 2302.57748914127 12 7 1
-886.694771480906 359.932353329758 2290.51357073197 17 14 9
-906.299107410395 352.727470060788 2321.34211623901 9 11 8
-796.983908600613 361.414566173177 2276.51095309477 99 87 73
-806.70679674518 359.020367237379 2285.38149096128 99 86 70
-815.604364796926 358.095608890892 2286.28917685362 79 60 45
-824.58459276488 356.987781866547 2288.19471648014 46 25 8
-832.547597973367 357.893232359574 2279.13637844351 93 72 55
-842.054274986631 355.687444804347 2287.02571490812 88 65 49
-852.196573702414 352.02298764779 2302.90154821951 87 68 51
-861.832305158767 349.276050564934 2313.79950611392 87 70 54
-872.697080540295 363.097732994667 2229.7708986992 21 11 2
-898.281756045836 341.959906693504 2337.48725783394 13 12 7
-911.411251936229 351.556527037918 2276.36563837882 10 12 7
-926.112366608044 333.954909447207 2369.30693443686 10 13 6
-934.057542337875 334.854627728246 2360.25083650934 10 13 4
-945.089902628054 326.344521922633 2403.23807031133 11 13 2
-952.812439410006 327.788726328801 2391.18526122888 18 19 11
-962.825881856129 321.645936835464 2421.19228209058 6 7 0
-793.992984911898 357.002175172675 2252.70965032582 131 119 105
-804.676386817007 353.003663024022 2270.53445134521 102 89 73
-814.387903592289 350.636705163069 2279.40633655297 89 70 53
-823.200499107271 349.896713094752 2279.3162125732 62 41 22
-831.916303015027 349.336628865046 2278.2300067347 98 75 57
-841.516275947574 346.974985321299 2287.11579795953 97 71 54
-850.890402778766 344.975986670448 2294.01320396508 100 77 59
-859.556684119479 344.41720592453 2292.93317481749 103 82 65
-866.455324088467 347.808624406576 2269.89277638117 50 32 18
-885.328561152803 343.274873034463 2286.69670365519 20 11 2
-890.60688703032 351.128862616229 2238.6526592114 14 13 8
-902.604293123186 342.329716700845 2283.53559637574 12 13 8
-913.818026983242 334.975679011271 2320.45054823761 11 13 8
-928.480518812738 317.458032909235 2414.40413016029 11 14 7
-937.961587773045 313.52840960311 2432.37855353801 11 14 5
-944.462531237013 318.335686606967 2401.32183906958 12 14 3
-948.996613480621 329.896040229669 2332.19804057911 6 7 0
-791.606604986012 351.388483605054 2234.88243050947 229 221 210
-802.939059416948 346.369722559437 2258.67552352659 95 83 71
-813.072225590817 343.316175178278 2271.52758615275 99 80 63
-821.531192327987 343.288419866736 2267.44872864215 86 65 46
-831.19321940966 340.950653659124 2276.32671299592 107 82 62
-840.446472012289 339.325233140999 2281.22284538949 96 71 51
-849.495163868752 338.055726519177 2284.12795400314 106 83 65
-857.440318228602 339.088638954667 2274.06406115095 112 91 74
-865.836230279355 339.23350363383 2268.98469053691 57 38 23
-873.942223193305 340.082965572336 2259.90889619259 28 16 4
-882.992186925356 338.810929314857 2262.81385274538 20 10 0
-891.947693383352 337.716024409109 2264.72244344025 17 14 7
-902.628710746461 332.217123118972 2291.62139794773 13 12 7
-923.406685462955 321.598930434751 2343.47533977597 12 13 7
-952.189345055316 336.543711732094 2241.0835337855 21 21 13
-802.392686627665 337.564629912437 2258.76689551866 89 79 69
-811.463080392018 336.476201852302 2260.66113190035 94 78 62
-820.517041658031 335.388223414701 2262.55741777663 101 83 63
-830.194891662513 333.076622793564 2271.43335861704 105 80 58
-839.463302659542 331.466660201584 2276.32755862471 115 89 66
-847.92431308822 331.428681644674 2272.24847299605 86 64 43
-856.151120432189 331.912153978378 2265.17393974209 79 61 41
-864.813350455104 331.522057707254 2263.08628485226 80 61 44
-873.324664162901 331.479023154796 2259.00093498654 70 54 39
-882.228073068155 330.565177702864 2259.90762296743 58 45 29
-891.120269907149 329.65151152806 2260.81594994453 22 12 0
-899.931337971222 328.911437600557 2260.72601679717 23 13 4
-908.467889385504 328.86422720708 2256.63752841181 20 13 5
-920.564776010596 319.294365399465 2307.55668377335 16 12 3
-930.157227968982 315.967797674468 2322.49255779142 16 13 4
-933.049798116244 331.99514556078 2225.34444546761 15 15 5
-944.292023509101 323.999323008695 2267.29620763193 17 14 5
-953.26296442473 322.569508461638 2271.21912836673 37 28 19
-799.052884715196 333.592494274741 2230.9767423624 162 154 143
-810.141258614645 329.057521644093 2252.78340668216 112 96 81
-818.368831703486 329.527092150742 2245.70905474647 101 82 65
-827.911667664481 327.583995726583 2252.5852596335 109 84 62
-837.677803768724 325.127190210442 2262.45825238071 115 89 66
-846.78048996848 323.876044943116 2265.35681473429 96 71 49
-855.359984772169 323.655522427749 2262.27111077731 90 68 45
-864.192452963934 322.919340742206 2262.17849677045 88 66 45
-872.784708635009 322.696634179812 2259.09144635301 80 61 44
-881.76454172124 321.617260075208 2260.99696032868 79 62 44
-890.291354353909 321.563802045907 2256.90970373862 40 27 11
-899.25404631485 320.484206041134 2258.81735740976 31 17 6
-908.132712389451 319.575818792019 2259.72711877565 28 18 8
-918.098475022317 315.770657643034 2277.6409677506 21 13 2
-925.855987553522 317.759126146366 2261.55113167103 23 17 5
-933.990072219951 318.891570988678 2250.45547195155 22 18 6
-942.460161167203 319.170576575129 2244.3590444146 21 15 3
-950.902785205898 319.616889047368 2237.2576763722 26 17 8
-957.74190505866 325.485098178654 2198.09374797097 76 67 58
-807.552713943004 323.800857804189 2231.95741431651 85 71 58
-817.254489719452 321.706445442527 2239.82211030627 104 88 73
-826.540085085497 320.292359194215 2243.70572260597 107 86 67
-836.243917655651 318.033032474118 2252.57828331433 111 90 71
-845.634153874002 316.283850570742 2258.46533398189 104 78 53
-854.149180640164 316.225531986597 2254.37980126714 96 69 42
-862.923061034915 315.659359063657 2253.28636386076 97 69 45
-871.539952007804 315.429825034342 2250.19601681445 99 73 50
-880.771990253009 313.851801802763 2255.09467181535 94 69 47
-889.460913487193 313.452835853921 2253.0034688598 78 57 38
-898.50573540004 312.212722703422 2255.9092232816 64 45 28
-907.393427641073 311.309135433003 2256.81784559472 62 45 29
-916.269808180989 310.405674064832 2257.72811947844 57 41 25
-924.886498504617 310.172450042107 2254.63780718944 62 49 32
-933.454055469193 310.105228315067 2250.54550219384 64 53 35
-942.263921787401 309.367741781634 2250.45595247219 61 52 35
-950.582042317881 310.133036116174 2241.35366723906 89 83 71
-958.430026660414 312.562791056226 2222.22831740561 106 99 89
-966.423191830111 314.819111037395 2204.0929936962 211 207 198
-814.433593824019 316.855669017571 2216.00050327758 78 64 51
-824.337479545255 314.450589144864 2225.85640973806 101 82 65
-834.538694049935 311.382603843522 2239.70770545478 105 86 69
-844.312187402876 308.984695991392 2249.57986522468 109 83 58
-853.18714057867 308.25195915433 2249.4819402711 99 72 45
-862.056312324042 307.518933683454 2249.38473756596 99 72 45
-870.684320826728 307.283199465884 2246.29325971437 101 75 52
-880.004547409765 305.555199791917 2252.18899138789 96 71 49
-888.702028837532 305.15294392007 2250.09696935301 96 75 56
-897.967265498854 303.427193253687 2255.99955752098 75 54 37
-906.855896990573 302.529160033679 2256.90804799477 69 52 34
-915.668281224116 301.796171425583 2256.81817220704 69 52 34
-924.350174333461 301.392576949701 2254.72785875857 75 60 41
-932.97739908907 301.152712107862 2251.63648959184 77 64 45
-941.728488456354 300.582675829068 2250.54590654496 80 69 51
-950.04584799461 301.326279765203 2241.44377340005 97 91 79
-958.045750168736 303.215041147748 2225.32419136994 117 110 100
-965.541265722584 307.065066748534 2197.16894236661 201 198 189
-801.768639771206 313.926935642402 2184.33265045629 224 215 206
-811.889094159984 311.380482699504 2195.16958982654 185 175 165
-821.575780119587 309.493737449718 2202.02769468536 99 85 72
-832.828948975484 304.660079959433 2226.83788170807 96 80 65
-842.987039693289 301.635156874471 2240.69468588437 88 67 46
-852.307317871969 300.08615112419 2245.58225264673 92 70 46
-861.676085363721 298.375304938915 2251.47188152871 98 76 53
-870.456222721378 297.808375078373 2250.37766528372 100 79 58
-879.691472237094 296.262934753973 2255.27583373111 104 86 66
-888.381286265402 295.858656503516 2253.18453359948 88 71 53
-897.569669806388 294.315067089036 2258.08854576915 93 76 60
-906.3182145028 293.747701252455 2256.99827324964 77 61 46
-915.066235084664 293.179771583056 2255.90806762136 79 63 48
-923.688883233741 292.93542052194 2252.81728140236 70 57 41
-932.321721068271 292.689820593568 2249.72498659097 72 61 43
-941.135795418565 291.957796810908 2249.63465707709 79 70 53
-949.618043330543 292.194938933256 2243.53682241917 132 130 118
-957.713816914623 293.720673334958 2229.4216064189 147 143 134
-965.390257611323 296.8534016259 2205.27689693454 213 210 203
-972.682088517359 301.748647855719 2170.09026406368 194 194 186
-980.809349019547 304.218788013358 2149.92202849659 199 199 191
-797.202904443108 311.539929248489 2143.5906590785 228 224 215
-806.011534244994 311.440926195239 2139.46835331301 116 109 99
-819.821401649524 302.630547045021 2189.16405163158 129 119 109
-832.190091083776 295.931958353501 2225.93290549547 67 55 43
-842.614738338563 292.464685736587 2242.78091146688 86 69 51
-852.268024969303 290.289263764656 2251.65955904949 88 71 51
-861.866875353487 288.11677219433 2260.54499223673 99 84 65
-870.859652434293 287.070077632831 2262.44880481799 100 84 68
-879.683587337027 286.344353450687 2262.35722817569 95 79 64
-888.281523251771 286.098707531615 2259.26928903866 86 72 59
-897.384588283895 284.732443665571 2263.17579437512 81 67 56
-906.120224043446 284.165959924549 2262.08713049165 81 69 57
-914.855309886143 283.598973716658 2260.99853655777 80 68 56
-923.402101630475 283.509544309582 2256.90888142204 96 86 74
-931.90467107413 283.57768211744 2251.81664292214 115 105 93
-940.428251026245 283.643941431704 2246.72154711321 129 121 108
-948.863888319091 284.02578348067 2239.6214610247 145 142 133
-957.124186643906 285.039701732904 2228.51036272237 177 174 167
-964.94728523815 287.634516271282 2207.37182907073 195 194 189
-972.460474979946 291.646419892314 2177.19881420559 192 193 187
-980.522586099244 294.224397965763 2156.03073781082 199 200 194
-988.446199895064 297.742501052302 2128.83086615084 193 196 189
-793.993787375608 306.703701646864 2116.79440014856 206 205 201
-805.064992461081 302.940684001021 2135.57787255551 101 98 93
-818.894857937466 294.268181062893 2185.2704718721 192 185 177
-832.089420671326 286.246251951348 2231.0098915593 154 147 139
-842.939550569734 282.037669174725 2252.84542778584 94 86 75
-852.483685081693 280.049270525421 2260.72927702137 96 90 78
-861.897151615527 278.221261182085 2267.62156363909 95 86 71
-870.872090277446 277.18394469278 2269.52757765274 110 98 86
-879.601628336005 276.619820242653 2268.43966851319 119 109 97
-888.18357629875 276.36975812839 2265.35373620795 129 121 110
-897.059301772596 275.489749591047 2266.26403007785 131 122 113
-905.923689724037 274.609923315334 2267.1754980548 123 114 105
-914.711307072046 273.886993051292 2267.08868653968 119 110 101
-923.179200289779 273.947184657192 2262.00055608507 118 111 101
-931.367970395091 274.787739960258 2251.90676799376 122 115 105
-939.77680241937 275.155759384806 2244.80982317694 167 164 155
-948.326679211143 275.208939004626 2239.71172039153 188 188 180
-956.741683862771 275.727968251304 2231.60568022139 199 199 191
-964.701603499476 277.801745145311 2213.47498607868 178 179 173
-972.240923068133 281.580550850988 2184.30701131888 195 196 190
-979.974643242616 285.193536009994 2156.12290029345 184 187 180
-987.524453231783 290.038372860772 2119.89627854254 197 200 193
-784.96036593532 296.994419838955 2125.00157701216 203 203 201
-794.207721650406 296.252053260154 2124.85720378288 165 165 163
-806.024171257971 291.29637505485 2151.6130325002 162 161 157
-819.449326015497 283.388574172728 2197.32313484472 190 185 179
-832.080211437226 276.430603927364 2237.08325283487 177 172 166
-843.093068901759 271.974480548376 2260.91474797768 157 154 145
-852.448603008423 270.322587098736 2266.80587305795 143 140 131
-861.520386414045 269.137967702689 2269.70787643528 123 123 113
-870.411897639595 268.264239629816 2270.61618379732 126 126 118
-879.215742667476 267.545528618459 2270.52709578369 132 131 126
-887.940012135244 266.981142585882 2269.43984482199 141 140 136
-896.521754918171 266.725183549606 2266.35419392005 133 132 128
-905.523665053761 265.542208538852 2269.26491273797 128 127 125
-914.503435323065 264.360106464919 2272.17839218146 137 138 133
-922.89485182959 264.564335088535 2266.09197942248 173 174 169
-931.011685214949 265.535016518211 2254.99889855907 184 183 179
-939.239475127413 266.348179377559 2244.90007289479 167 166 162
-947.789255524348 266.390555421487 2239.80201058973 151 152 147
-956.151609677047 267.043919375187 2230.69450002672 149 150 145
-964.062583460921 269.224501927141 2211.56194566999 208 210 205
-971.789993326285 272.315589116474 2186.40305782814 200 202 199
-979.55839094852 275.703056549649 2159.22314052208 195 197 194
-987.549044837969 278.775761084603 2134.03144979237 191 193 190
-995.668566653852 281.839422386218 2108.82394119108 194 196 191
-775.654671170857 287.780108673366 2130.21812692607 199 203 202
-785.70241184209 285.812125732207 2138.03931559491 182 184 183
-796.192424023713 283.079307539883 2150.84600132005 170 172 169
-808.708092179673 276.977674756828 2185.57956684988 196 197 192
-821.121544839708 270.734850905628 2221.33394718916 188 185 180
-832.343223835406 266.186939635525 2246.14731145776 175 172 167
-842.899451162279 262.564288696786 2264.99468039373 150 151 143
-852.415359131734 260.626901830539 2272.88215806592 147 148 140
-861.472186564545 259.454283821363 2275.78599625501 143 144 138
-870.110479188634 259.043854177567 2273.70138215826 141 142 137
-878.906950329811 258.328419868151 2273.61320573302 138 139 134
-887.623682568762 257.764693166884 2272.52689363659 137 137 135
-896.197546543378 257.503801336423 2269.44223895369 148 148 146
-905.261085025722 256.18078356968 2273.35332281408 157 157 157
-913.83662354154 255.918710061873 2270.26846227024 168 170 167
-922.359314636902 255.806568794407 2266.18187456389 181 183 180
-930.656151017747 256.297173278415 2258.09065595094 174 174 172
-939.047929559038 256.633852461204 2250.99616211013 162 162 160
-947.581350992332 256.666458444322 2245.89992676738 178 178 176
-955.926733299568 257.299286672281 2236.79482853919 189 189 187
-963.868650360978 259.281879924447 2218.66662114033 205 207 204
-971.57372940299 262.309056140964 2193.51092862923 192 196 195
-979.098734467903 266.377316067045 2161.32043613542 185 189 188
-987.204931469264 268.935832925611 2139.13922223543 187 191 190
-995.77250465702 270.139758275144 2125.97366300474 187 192 188
-764.666119497985 281.004524658068 2119.51407021727 194 196 193
-775.811113533387 277.546714488638 2137.27984334828 162 166 165
-787.15645577485 273.642112920054 2158.04509238019 173 177 176
-798.874567823093 268.990720417555 2183.80446435104 194 196 195
-811.499017604697 262.691387841533 2220.5405896776 178 180 177
-822.615702851517 258.510665525267 2243.35047510117 159 159 157
-832.609106363368 255.990571642781 2255.21088735229 159 159 157
-842.70701996913 253.17429693965 2269.07441153958 161 164 157
-851.874696306138 251.861668322558 2272.97271252065 158 161 154
-861.26143863554 250.10102351091 2279.86791649026 151 153 148
-870.048267169509 249.389550437568 2279.78117324236 146 148 145
-878.829253424137 248.677879686238 2279.69491932822 150 152 151
-887.60436051563 247.966016110515 2279.60939960669 157 159 158
-896.159554465524 247.701058114865 2276.52708554059 166 168 167
-904.862325872181 247.137145799281 2275.44251616231 173 175 174
-913.234848367971 247.316148505865 2269.35828742698 179 181 180
-921.760318135914 247.195827447248 2265.27137449991 187 189 188
-930.301410146276 247.0739438013 2261.18251612436 185 187 184
-938.973759890487 246.654177860417 2259.09367648716 182 184 183
-947.265006135179 247.269462515693 2249.9953803199 174 176 175
-955.493918172192 248.17692475348 2238.88847918886 174 176 175
-963.080116971166 251.147171852264 2213.74753188134 176 180 181
-970.936340594692 253.6660718109 2191.59761751078 175 179 180
-978.417857939571 257.797073035819 2158.40469970217 178 182 183
-986.695699236891 259.709891010446 2140.23475469533 186 190 191
-995.06455965473 261.616134156205 2122.05346835493 183 187 186
-753.497702107639 274.314404717946 2107.82454752186 180 182 179
-765.693444780701 269.5661063068 2134.53249657966 157 159 156
-777.529541176161 265.123700271581 2159.26890734489 188 192 191
-790.136271984608 259.355617571723 2192.98254330358 190 194 193
-803.243376241824 252.562770388094 2233.69048425092 167 169 168
-813.726357026788 249.481028275045 2249.52226789484 174 176 175
-823.092338459754 248.029354664841 2254.40387484053 158 158 156
-832.516018569743 246.431707394267 2260.28635284708 169 169 169
-842.515771573499 243.804328853103 2273.15418261641 162 164 159
-852.099253447811 241.770177387225 2282.04116938909 158 160 155
-861.62824000033 239.738840641998 2290.93494944328 153 155 150
-870.386041993083 239.032080887266 2290.85157585503 152 154 151
-878.907202103269 238.765078124097 2287.77327412701 162 164 163
-887.512996686162 238.350388239667 2285.69272681285 170 172 171
-896.052169503095 238.081075884835 2282.61242355649 180 182 181
-904.395231435072 238.249055404894 2276.53190035452 185 187 186
-912.698651636231 238.560633949273 2269.44825894509 185 187 186
-921.160763675901 238.578047069387 2264.36120287169 179 181 180
-929.704632502683 238.447953889439 2260.27201958538 177 179 176
-938.438054021444 237.879938986881 2259.18363605833 167 169 168
-946.728495001971 238.473536064129 2250.08549749675 161 163 162
-954.956315650213 239.354013676558 2238.97880362762 163 165 164
-962.33957583758 242.83886238138 2209.83083801255 155 159 160
-970.109313225947 245.589606354129 2185.67549159475 165 169 170
-977.735760793466 249.199170273854 2155.48916210107 179 183 184
-985.977661636719 251.209723725355 2136.31575776933 182 186 187
-994.355104105768 253.06925489059 2118.13352345401 181 183 182
-735.078290803451 265.51023516967 2115.18528265377 187 189 186
-745.733487678559 263.023529824859 2126.96301907811 161 163 160
-757.194764902068 259.372535809214 2146.70520487626 179 181 180
-770.145150243053 253.540117925217 2181.38381130356 188 190 189
-782.275664814331 248.59379569684 2210.1157961279 179 181 180
-794.953777987697 242.638577691909 2245.83663126875 180 182 181
-806.049096909173 238.730484530839 2267.64077802604 180 182 181
-815.483173985185 237.15248045922 2273.52190682303 176 178 177
-824.132495760149 236.736329027178 2271.43569115283 179 180 182
-833.058828868804 235.884749254932 2272.33959462295 182 183 185
-842.589439778788 234.02080971743 2280.22504403416 178 180 179
-852.667492553893 231.148161051106 2295.09912256146 180 182 179
-861.833541878275 229.723527728745 2300.00560864268 182 184 181
-870.487917641481 229.165206825485 2298.9270640298 182 184 181
-878.679298651773 229.470007638563 2291.85742229794 183 185 182
-887.423424971159 228.765851046289 2291.77574849754 183 185 182
-895.803233835583 228.779459438909 2286.69897339345 184 186 183
-903.928217824526 229.364871664983 2277.62126417202 187 189 186
-912.095973809622 229.946934490287 2268.53846634761 186 188 185
-920.560677141645 229.953402674505 2263.45111571934 180 182 179
-928.985562490091 230.100880692105 2257.36043542871 178 180 177
-937.553168810826 229.960615579678 2253.26831663091 174 176 175
-945.692670784774 230.959186287017 2241.16464631805 168 170 169
-953.838168808459 232.095728766487 2228.05193702295 159 160 162
-961.247057066419 235.502652219418 2198.9012186583 163 164 166
-969.185347122476 237.7631519019 2177.74943046825 175 176 178
-976.873793650923 241.150770329819 2148.56363545452 170 171 173
-985.174161431922 242.969673423456 2130.39112659719 180 180 180
-993.526302458163 244.923634523028 2111.2041139763 179 179 179
-724.598460754239 257.724148390882 2110.46700474356 203 206 199
-753.480398862727 243.206102225843 2200.62257003033 186 188 185
-764.74557063805 239.624757894635 2220.38928547783 191 193 192
-776.432106751183 235.334466441767 2245.14395989376 168 170 169
-786.517280253567 233.054230679656 2255.98436076784 171 173 172
-796.943821063367 230.206293107429 2270.81488497286 177 179 178
-806.887960339357 227.933909817223 2281.67310567415 178 180 179
-816.382086639538 226.234895523729 2288.55474645727 177 179 178
-825.178235050136 225.534056492898 2288.4668121395 180 181 183
-833.787074416827 225.117229163128 2286.38565021447 183 184 186
-843.017623626661 223.705985430203 2291.28405183031 183 185 184
-853.069148537824 220.878803107982 2306.16132114419 186 188 185
-861.545612445738 220.605092198666 2303.08861490364 189 191 188
-870.112462725389 220.188732597507 2301.01293200543 187 189 186
-877.911701191085 221.183866861379 2288.95173361654 183 185 182
-886.813766675703 220.199836537297 2290.86670144468 184 186 183
-895.124308037731 220.343371150953 2284.79030099237 189 191 188
-903.461373593914 220.484591442077 2278.71083684087 188 190 187
-911.62561452818 221.045226397717 2269.62829383481 186 188 185
-919.832537058559 221.602487850491 2260.54067357063 181 183 180
-927.960059673087 222.436769633044 2249.44661795823 180 182 179
-936.374384545883 222.707151680449 2242.34924479095 172 174 173
-944.542338168752 223.673989036142 2230.24210744916 169 171 170
-952.663208535848 224.915758103791 2216.12450733134 165 167 166
-960.301301608807 227.68672086563 2190.97760873343 173 174 176
-968.163408393457 230.170139184564 2167.81936652058 179 180 182
-976.009248945398 233.062729750208 2141.6385348648 164 165 167
-984.284115002207 234.973328316412 2122.46127989693 175 175 175
-992.773668079727 236.460825057991 2106.28140877627 175 175 175
-733.698168450597 236.900179876376 2192.02260297015 166 168 165
-749.608297469759 227.871202881009 2250.52644114669 159 161 158
-760.35144760451 224.915386141755 2266.32566584261 147 149 146
-769.5737577986 223.792754372758 2269.20872112444 146 148 147
-778.667137273123 222.811377214271 2271.09980711066 185 187 186
-788.684533811815 220.568186995095 2281.948568591 180 182 181
-798.331492937026 218.74879371577 2289.8193811218 184 186 185
-807.929555353678 216.932007798783 2297.69628880636 187 189 188
-816.996820017054 215.81653596021 2300.59867399838 188 189 191
-825.667535085936 215.260070675724 2299.51808545005 190 191 193
-834.974658251487 213.727361222605 2305.41493806275 191 192 194
-843.625856359599 213.171064281075 2304.33678467241 189 191 190
-852.961085385763 211.501973066523 2311.23841636332 190 192 191
-861.175712789587 211.640360316564 2305.17399896136 190 192 191
-869.657359737742 211.360317137517 2302.10066258383 189 191 190
-877.530010779365 212.187245436128 2291.03843280208 190 192 191
-886.278293453238 211.488440450177 2290.95646648869 192 194 193
-894.66052341912 211.480302528354 2285.87920624486 190 192 191
-902.994626793848 211.608244173087 2279.80014672494 186 188 187
-911.221977359271 212.009603547693 2271.71807482351 184 186 183
-919.48660647847 212.407901259258 2263.63135884175 179 181 178
-927.4824981459 213.490639137392 2250.53746122795 178 180 177
-935.659640792902 214.294078602982 2239.43729455099 175 177 176
-943.667059251115 215.641984959194 2224.32588595371 177 179 178
-951.696367126401 217.121386008231 2208.20347203306 176 178 177
-959.403020630644 219.689128741445 2184.0564800383 164 165 167
-967.328607868115 221.975053010048 2161.89852303197 164 165 167
-974.962183278532 225.480763669866 2130.70389042131 167 168 170
-983.137526438164 227.749400938477 2108.5145706084 171 171 171
-991.623391968454 229.329861101905 2091.32722775778 170 170 170
-742.589248205541 216.79728695647 2271.58672333839 147 149 146
-752.865789411277 214.441726319544 2283.41136838676 154 156 153
-762.282480723782 213.056458275129 2288.28647216259 178 180 177
-771.446472828129 211.948441003242 2291.17676671049 183 185 184
-780.803462070285 210.565841601707 2296.05931392397 191 193 192
-790.546477167786 208.6346706471 2304.92612069803 186 188 187
-799.62350840192 207.530523564252 2307.82749752516 192 194 193
-808.480184805925 206.701683671913 2308.73979358681 195 197 196
-817.422365003258 205.735940855491 2310.64970717646 194 195 197
-826.160386508364 205.044416224335 2310.56876195497 194 195 197
-835.166124356965 203.942720662596 2313.47902931914 194 195 197
-843.707765900216 203.524351306108 2311.40625734608 187 189 188
-852.4259363514 202.83245144462 2311.32803067566 187 189 188
-860.806268674473 202.684945936969 2307.25930163294 186 188 187
-869.523643663542 201.992049108731 2307.18093658822 187 189 188
-877.61441252236 202.38532758592 2299.11593055708 189 191 190
-886.117065925032 202.097645483875 2296.03999281504 190 192 191
-894.341284871832 202.350426579212 2288.96639009491 184 186 185
-902.666951101853 202.465438364136 2282.8884175311 183 185 184
-910.751980012337 203.118443225845 2272.80782936626 183 185 184
-918.949230900948 203.633022228332 2263.7215284685 183 185 184
-926.943656419149 204.683245191621 2250.62789944832 182 184 183
-935.178323843222 205.325044999802 2240.52866678975 178 180 179
-943.349086021668 206.231951381044 2228.42133678292 175 177 176
-951.205870292443 208.074103922603 2209.2961959317 170 172 171
-958.552717141902 211.517933655402 2178.13750831154 165 166 168
-966.443726130044 213.879737881545 2154.97597954095 166 167 169
-974.498065273816 216.099676189878 2132.80188856083 169 170 172
-982.367975322354 219.246284191364 2103.59432293372 164 164 164
-990.944714742975 220.515877111387 2088.41207268177 166 166 166
-724.486971040882 209.097885351038 2273.86605660907 144 149 145
-734.231275723218 207.453467671664 2280.71657309964 158 163 159
-745.115894318492 204.454495042313 2297.50570384699 162 164 161
-754.399581568385 203.222775125474 2301.3893142818 157 159 156
-763.656136555022 201.992154102621 2305.27606750002 153 155 152
-772.444639165668 201.303447980616 2305.1890553813 174 176 175
-781.657736805573 200.074550301803 2309.08122728111 180 182 181
-791.577463363386 197.903219414138 2319.94222842739 188 190 189
-800.410829200868 197.081836757899 2320.85741387157 196 198 197
-809.13380156053 196.395065706775 2320.77857444482 196 198 197
-817.851136479047 195.708292955967 2320.70019827313 190 191 193
-826.28079587677 195.423588769593 2317.63336190914 191 192 194
-834.994894780985 194.735770509319 2317.55563259496 189 190 192
-843.171733437934 194.8505262436 2311.49599323796 188 190 189
-851.97648918121 194.027833303361 2312.41499277208 186 188 187
-860.520508902207 193.605552449078 2310.34217458603 185 187 186
-869.149996594401 193.049175391936 2309.26673073823 187 189 188
-877.390229985618 193.157712657782 2303.1991964693 186 188 187
-885.957316645739 192.732439391185 2301.12350754603 184 186 185
-894.239879120278 192.837175190924 2295.05070086877 181 183 182
-902.54899901592 192.939654273578 2288.97482619408 182 184 183
-910.482956614493 193.834201614442 2276.8968402772 184 186 185
-918.79702781021 194.063374313139 2269.81232696822 185 187 186
-926.896795630273 194.818050244572 2258.72170436052 183 185 184
-935.167697009208 195.305093549584 2249.62628483127 177 179 178
-943.088341502839 196.710612953584 2233.51762602292 172 174 173
-950.715454294539 199.030730994734 2210.38913971659 168 170 169
-958.207252829111 201.999287309662 2182.23691616202 169 171 170
-965.652219465938 205.48253116141 2150.05795260987 168 170 169
-973.762434849945 207.513704017815 2128.88531307933 162 164 163
-981.298224228724 211.629967145235 2091.65467259249 157 157 157
-989.865739241781 212.990218579334 2075.4656476479 163 163 163
-713.892315834161 202.173147779791 2265.12885120569 141 146 142
-724.678731091189 199.481540299847 2279.91405351752 150 154 153
-735.136127306117 197.061029363301 2292.72422734118 160 164 163
-745.873329629617 194.245966042744 2308.52358335092 144 146 143
-755.360252454251 192.764122427013 2314.39786407576 163 165 162
-765.035494866649 191.018923829598 2322.26495163048 194 196 193
-773.889049139063 190.203361995062 2323.17760234841 190 192 191
-782.73171277795 189.387958960545 2324.09185200356 181 183 182
-791.668412054589 188.440631273383 2326.00240108412 183 185 184
-800.588721317645 187.493899807713 2327.91499397135 192 194 193
-809.193849823349 186.942837068668 2326.84257601094 190 192 191
-817.895633424413 186.259772385783 2326.76613078667 182 183 185
-826.120904830547 186.233447254207 2321.70874620727 186 187 189
-834.459020104787 186.074088861054 2317.64531681682 187 188 190
-842.813067525026 185.913148137933 2313.57990335574 190 192 191
-851.441153732301 185.358054807269 2312.50463102432 187 189 188
-859.985541374465 184.933122737838 2310.43177390577 192 194 193
-868.45426213281 184.637897483749 2307.36009062176 189 191 190
-876.855458341478 184.47180311328 2303.28880684258 177 179 178
-885.573329493953 183.783533007581 2303.21036769529 178 180 179
-893.995226133053 183.615104623619 2299.13650677131 179 181 180
-902.432848325255 183.445109574731 2295.06092778577 178 180 179
-910.349233224727 184.310915301262 2282.98521052786 179 181 180
-918.388969139926 185.042841737918 2271.90237972571 182 184 183
-926.35880233599 186.029474461533 2258.81198714458 182 184 183
-934.628883693447 186.494831128642 2249.71672706015 183 185 182
-942.434952448194 188.117503188187 2231.60642056647 170 172 169
-949.582079019633 191.53673717539 2199.46479426137 169 171 170
-956.845256368519 195.0730812761 2166.30093027055 157 159 158
-964.617949218305 197.698804823151 2140.12992980035 148 150 149
-972.52500342741 200.315194895854 2113.94242667496 151 153 152
-980.309770223147 203.690821431504 2081.72134147822 145 145 143
-703.62768131238 194.802853756815 2259.37493609227 142 146 145
-713.845412928028 192.804913218292 2269.19060425362 153 157 158
-725.120708924744 189.635103922432 2287.94704512833 158 162 163
-736.166357327824 186.602063676038 2305.72385712172 176 180 179
-746.278288143941 184.486601434243 2316.56072518478 184 186 183
-755.39727863703 183.415313506277 2319.45653894229 185 187 184
-764.947751807438 181.825258568928 2326.33110129729 191 193 190
-773.901938836062 180.886073751394 2328.23944656583 191 193 192
-782.51617139173 180.336073392401 2327.16588967607 184 186 185
-791.340600614012 179.526876016233 2328.08215826749 181 183 182
-800.461445679999 178.330195346518 2331.98599816953 177 179 178
-808.956490563262 177.908852106578 2329.91904901578 178 180 179
-817.359728591713 177.615591260988 2326.85577268487 185 186 188
-825.490499603012 177.707123448493 2320.80194345609 185 186 188
-834.014604760272 177.282438351394 2318.73161682135 184 185 187
-842.365957700015 177.113576925097 2314.6665604744 187 189 188
-851.164294576254 176.302341509093 2315.58633087219 185 187 186
-859.533887141435 176.131243114511 2311.5190042188 185 187 186
-867.919284605275 175.958660079637 2307.44970911723 183 185 184
-876.086202836188 176.167403388938 2300.38337315963 176 178 177
-884.888270674802 175.353869873586 2301.30268400734 176 178 177
-893.460940761262 174.922505076343 2299.22607407856 178 180 179
-901.96855338755 174.617309555812 2296.14980384445 178 180 179
-909.813636442339 175.580445845195 2283.07504122046 179 181 180
-917.852216371033 176.285302188452 2271.99242596671 179 181 180
-925.75868976568 177.365952578145 2257.90200562385 179 181 180
-933.971497412098 177.935955433028 2247.80569001102 176 178 175
-941.441912176022 180.269646666009 2223.68879558071 173 175 172
-947.961007729565 185.115898536894 2179.52881984843 168 170 169
-955.069293461214 189.065448280922 2142.35196832313 150 152 151
-963.048273563431 191.241974026832 2119.17994920186 154 156 155
-971.464882605799 192.531629629296 2103.00970207314 141 143 142
-979.403565883778 195.445060662862 2073.79416801683 151 151 149
-747.897639169258 97.0576414445669 2976.67174359988 172 178 168
-692.39494695545 188.293618666114 2246.68527632205 113 117 118
-703.849901455701 185.167995314529 2265.41918051555 144 148 149
-714.815724469202 182.432818190916 2281.18979563731 150 154 155
-726.1867672837 179.19150617615 2300.94240354202 181 185 186
-736.59308651014 176.850720900202 2313.75850124845 190 194 193
-745.734923190931 175.789414338772 2316.65143765123 186 188 187
-755.087447349356 174.474286854973 2321.53436439587 185 187 184
-764.520904997164 173.033563842265 2327.41520896905 178 180 177
-773.694914512912 171.8486657288 2331.31238323312 175 177 176
-782.625636219346 170.918677445877 2333.22339234766 175 177 176
-791.329376065355 170.242597583726 2333.14692487005 177 179 178
-800.232777914068 169.313336959159 2335.06158169379 163 165 164
-808.320371576749 169.39507813121 2329.01316652714 165 167 166
-817.018099031946 168.717766289783 2328.93721233599 184 185 187
-825.048658327983 168.922060067444 2321.88814515374 185 186 188
-833.662194284142 168.36908811513 2320.81468302106 180 181 183
-842.008133685412 168.192419483063 2316.75032281171 178 179 181
-850.888286047494 167.26156429133 2318.66788523317 179 180 182
-859.41710825973 166.832455355604 2316.59674131914 167 168 170
-867.546070142692 167.027822686155 2309.53541758327 164 165 167
-875.472277285961 167.595449620573 2299.47487427576 170 171 173
-883.975647375875 167.286251733325 2296.39890375646 168 169 171
-892.416476962545 167.100462358938 2292.3227258321 171 172 174
-901.083493714963 166.540052124979 2291.24260920068 174 175 177
-909.008064318075 167.345437520274 2279.16626979888 174 175 177
-917.056274000161 168.022506795499 2268.0825259851 171 172 174
-924.909883496363 169.191101343614 2252.99078404823 171 172 174
-932.719927847154 170.601735440706 2235.8882269163 166 168 167
-939.993014212408 173.364954947262 2207.76383809462 167 169 166
-946.76439707676 177.598264242302 2167.60498122142 160 162 159
-954.053307903022 181.078420046772 2133.43012644771 143 145 144
-962.198972955565 182.82474920276 2113.26150023206 155 157 156
-970.446568351673 184.563898005636 2093.08017262134 146 148 147
-978.92537944506 185.92804588043 2075.89427977345 159 159 157
-580.816073419892 248.211347410126 1729.36232513999 188 195 187
-679.321993321981 183.346950825673 2221.12025672158 163 169 169
-691.968571224723 179.262915576713 2247.76995462589 122 127 130
-703.165026548645 176.442745534391 2264.51993939156 147 152 155
-715.535758457218 172.375118675692 2291.20401803424 171 177 177
-726.759333362846 169.317776477605 2309.96661721726 196 202 202
-736.778954138305 167.391402540379 2319.80681997214 187 191 190
-745.667639143705 166.591638778581 2320.71504497862 181 183 182
-754.778205617438 165.542688613054 2323.61209144699 182 184 181
-763.980675705108 164.370218636775 2327.50544100214 177 179 176
-772.823275292447 163.571721063114 2328.41965413062 169 171 170
-781.871374200702 162.525344464627 2331.32424913572 165 167 166
-790.792185657406 161.603694188178 2333.23671330173 167 169 168
-799.69659786571 160.682610860435 2335.15122250396 162 164 163
-807.683773976768 160.874347149773 2328.10736208767 161 163 162
-816.384880104198 160.199656871665 2328.0309793544 171 172 174
-824.606969846417 160.140985835568 2322.97407700964 179 180 182
-833.126328458117 159.711228123362 2320.90435607428 173 174 176
-841.382996041315 159.649366360279 2315.84290675331 174 175 177
-850.093782217044 158.972091079081 2315.7655630835 174 175 177
-858.54719547359 158.66222364744 2312.69582864487 160 161 163
-866.686468311313 158.840717031911 2305.633022331 158 159 161
-874.857812282836 159.01663230525 2298.56646078734 167 168 170
-883.288327276764 158.823915311203 2294.49158830682 165 166 168
-891.515508832315 158.995255628811 2287.41783034202 172 173 175
-899.844937942629 159.042359948962 2281.33932675614 172 173 175
-907.72764728205 159.937735792539 2268.26028730773 171 172 174
-915.869350556117 160.464490650239 2258.17295899226 166 167 169
-923.748158253012 161.593377169696 2243.0781770386 165 166 168
-931.523557891088 163.079773510155 2224.97181647789 164 166 165
-938.765607219028 165.888487671638 2195.84349398824 160 162 159
-945.887988019046 169.290087161535 2161.68962805255 159 161 158
-953.445007693004 172.077389651032 2132.52181524393 150 152 149
-961.250010616203 174.613900121853 2105.33933050885 142 144 141
-969.37872738388 176.660427121021 2082.14896748404 150 152 149
-978.144694661104 177.259819745109 2070.97585632443 153 153 151
-567.536686626614 240.501006647059 1714.91562409805 187 194 186
-579.016111620886 238.860238173005 1721.54935795283 161 167 163
-591.720456983968 236.110522153297 1737.10329431981 133 139 137
-667.474422030469 177.028038281469 2205.48352219495 184 189 192
-680.247918473135 173.01286963779 2232.11720005805 149 154 158
-692.206271484622 169.62148693718 2253.81228452451 147 152 156
-704.560413544795 165.746396095843 2279.49023934726 176 181 185
-717.277847225979 161.389699751421 2309.15535474466 169 174 177
-727.210316642785 159.613980218572 2317.99810936393 175 180 183
-736.479096948833 158.452455337633 2321.88315497233 170 176 174
-745.482431728111 157.536238124316 2323.78530640779 171 173 172
-754.702547671136 156.376770808128 2327.67665989121 161 163 160
-764.009351354389 155.096865687008 2332.56519952401 159 161 158
-772.5059572683 154.669391059041 2330.49807170966 160 162 161
-781.441435328873 153.755555736913 2332.40868498981 160 162 161
-790.149183879773 153.084682573956 2332.33146326913 158 160 159
-798.748404190556 152.534683026047 2331.25977981665 155 157 156
-806.745917054672 152.709429289198 2324.21491444606 155 157 156
-815.360978973458 152.157464984863 2323.14125922866 155 156 158
-823.88093627529 151.725546490947 2321.07122900191 160 161 163
-832.221758053644 151.533467083174 2317.00754802537 171 172 174
-840.578537835778 151.339865924226 2312.94211986052 159 160 162
-848.864457424134 151.264793424 2307.87705485225 156 157 159
-857.423714535328 150.828373117119 2305.80237236574 153 154 156
-865.662739605336 150.869712814284 2299.73540611929 154 155 157
-874.085588944269 150.669899448042 2295.66150895524 162 163 165
-882.44830666572 150.587933772526 2290.58687814692 167 168 170
-890.612624106647 150.861471979552 2282.51300901928 161 162 164
-898.884775803092 151.013165505063 2275.43369078588 153 154 156
-906.714372968934 151.99369187669 2261.35312781493 149 150 152
-914.874035710762 152.49484887938 2251.26386594384 151 152 154
-922.520476672756 154.05827039358 2232.16570872226 150 151 153
-930.263638656193 155.614845922273 2213.05573958642 154 156 153
-937.363109392783 158.699685473486 2180.92094106361 161 163 158
-944.792292399386 161.419496239806 2151.76949952111 149 151 148
-952.629934571807 163.540443768699 2127.60733753422 127 129 126
-960.053918737678 166.945862098756 2092.40813612656 125 127 124
-968.399161287258 168.460943720843 2073.22289989951 146 148 145
-733.966078951961 71.3972320192514 3029.87378203501 166 172 158
-553.567795800297 233.192005544586 1696.52292350792 171 177 165
-564.831669079369 231.810805096133 1701.16749918288 164 169 163
-577.932178108832 228.859409716436 1718.68766170945 145 149 148
-666.630206362513 168.241608560258 2203.59639960417 165 169 172
-680.09256736702 163.700314315601 2235.18441280397 136 141 145
-693.642284305726 158.929360234219 2268.77774376576 182 187 191
-706.87239256182 154.290006939907 2301.40268606871 189 192 197
-718.13345267484 151.339926663928 2320.160324849 170 174 177
-727.414359716342 150.191756042695 2324.04406221328 165 170 173
-736.057799816973 149.642433188626 2322.9668586104 168 172 173
-745.298170885334 148.495827160376 2326.85541023544 162 164 163
-754.044783023264 147.82719621706 2326.77333266405 163 165 162
-763.35579918662 146.563386617456 2331.66130421726 160 162 159
-771.855455588073 146.132972938969 2329.59404372872 155 157 156
-780.903182910736 145.108478334979 2332.49862748005 152 154 153
-789.399923002921 144.67732474815 2330.43173287819 153 155 154
-797.695638517966 144.481937621334 2326.3736896074 150 152 151
-805.907006472322 144.403226023951 2321.31817805449 150 152 151
-814.237510129552 144.204637276644 2317.25580186058 149 151 150
-822.964067198211 143.533402013848 2317.17623390165 147 149 148
-831.500315341883 143.097223205314 2315.10442216227 165 167 166
-840.041673044355 142.660300833213 2313.03197473832 154 155 157
-848.066724886286 142.926195368149 2304.9752649947 148 150 149
-856.466090779901 142.72080345626 2300.90455338543 152 154 153
-864.962686991393 142.396957250404 2297.82946678193 154 155 157
-873.627263954384 141.838523971899 2296.74964941556 161 162 164
-881.911007299019 141.862470000616 2290.67690812968 168 170 169
-889.854560531919 142.466238476901 2279.60641785708 148 150 149
-897.851712142968 143.066114651338 2268.529249074 140 141 143
-905.562709355292 144.242281305005 2252.44759726798 137 139 138
-913.680433325051 144.833371467627 2241.355404905 145 147 146
-921.288864398091 146.461842948941 2221.25413268789 146 147 149
-928.819981286701 148.429830406005 2198.13831315736 149 151 148
-935.955351677356 151.427788961786 2165.99950363671 163 168 162
-943.25767683703 154.41448195366 2133.83964854663 139 141 138
-951.192390762205 156.354849356838 2110.67377549715 104 106 103
-959.049205535317 158.746308492159 2083.48520693704 102 104 101
-967.601502583342 159.752441303514 2068.3067007615 144 146 143
-541.915806846539 223.880020166261 1693.97055696404 172 174 160
-553.207862023491 222.513923245684 1698.61133566141 166 168 157
-566.080856926676 219.847406290732 1714.14400646106 130 132 129
-681.024601940499 153.461399430043 2246.18034310359 190 191 193
-696.547378153954 147.025156711691 2294.64834122743 192 193 195
-707.888008809593 144.125190641098 2313.39591810044 188 189 191
-717.843707133827 142.40302529368 2322.23563285635 179 180 184
-726.870579140039 141.502687781862 2324.1348051664 167 168 172
-735.514496997194 140.953304630865 2323.05754210112 151 152 154
-744.756197799694 139.820290272943 2326.94589199003 151 153 152
-753.737157050218 138.921414473462 2328.85079009119 149 151 148
-763.158381976843 137.557974883567 2334.73295771251 148 150 147
-771.650224718219 137.125341620325 2332.66667816775 147 149 146
-780.364819283924 136.460034407254 2332.58858744716 146 148 145
-788.437828742767 136.489225957526 2326.54237095923 146 148 145
-796.641028203338 136.400640574741 2321.48766451957 144 146 143
-804.865727015859 136.310120702905 2316.43052045104 142 144 141
-813.111871733061 136.217816548509 2311.37070475923 140 142 139
-821.855327006151 135.548311716141 2311.28902344727 141 143 140
-830.50059680048 134.993527163877 2310.21160589262 137 139 136
-839.055799517545 134.553035286234 2308.13744009285 145 147 144
-847.267840004226 134.569965597124 2302.07390564413 142 144 141
-855.759605022536 134.24158966843 2298.99943387384 157 159 156
-864.425076843085 133.683607020996 2297.91950364782 152 154 151
-872.774362802056 133.581328012576 2292.84684280723 161 163 160
-880.763680453797 134.046542133667 2282.77869338187 161 163 160
-888.654165794548 134.735460820907 2270.70691433023 127 129 126
-896.816069155673 135.0796323021 2261.62523308834 133 135 134
-904.816418614121 135.760536737224 2249.53976474957 129 131 128
-912.875664316722 136.437208862143 2237.44671738462 135 137 134
-920.304156283121 138.352342899454 2214.34408429401 142 144 143
-927.311061484827 141.274632963281 2182.221265471 149 154 150
-934.198579351742 144.748733938625 2145.07321654747 148 154 150
-941.88054048984 146.972785463751 2118.9148369162 140 145 141
-950.060111562802 148.401701219408 2099.75050242474 81 86 80
-958.385424985592 149.711764692659 2081.57622050982 109 114 108
-541.256019462434 213.426623649755 1694.08042317662 174 175 161
-555.390322811576 209.876564027623 1717.51975397143 157 159 148
-686.991293097414 139.02816253682 2293.84632948189 196 197 199
-697.329125268664 137.09739301002 2304.65452000965 190 191 193
-707.079895041509 135.628681708317 2311.50352670992 180 181 183
-716.276099862606 134.619931000637 2314.38953988624 160 161 163
-725.95132473386 133.155049430461 2321.24820432688 151 152 154
-734.848676212223 132.376920359015 2322.15529083458 143 144 146
-744.094435927494 131.25729644987 2326.04333920064 146 148 147
-752.728040118489 130.707584922428 2324.96736408469 145 147 144
-762.047457976161 129.476027570219 2329.85420222097 143 145 142
-770.6647335353 128.926430576363 2328.78026452012 140 142 139
-779.064130247827 128.60280431723 2325.71730726023 139 141 138
-787.261887612749 128.50408688632 2320.66354691306 141 143 140
-795.481153589436 128.403551316954 2315.60710720631 136 138 135
-804.124966696875 127.850412341003 2314.529867104 135 137 134
-812.474358983751 127.634345982192 2310.46517974745 137 139 136
-821.030439084688 127.192063762697 2308.39066890143 135 137 134
-829.684321673503 126.636879831473 2307.31217757269 133 135 132
-838.607682976286 125.745167100085 2309.22424469353 144 146 143
-846.903872201338 125.636894274175 2304.15822579593 145 147 144
-855.474886000112 125.191811808347 2302.0820989558 158 160 157
-863.723624161614 125.19185940903 2296.01378904548 151 153 150
-871.919912436092 125.301085893671 2288.94404995409 148 150 147
-879.689828048049 126.074557826515 2275.87940752566 109 111 108
-887.450480995027 126.954335421133 2261.80771370394 116 118 115
-895.564934535546 127.386076291819 2251.72403621007 123 125 122
-903.79580132326 127.703580533112 2242.63405923621 120 122 119
-911.675880532295 128.680480150085 2227.53927858871 130 132 129
-919.191076689962 130.423873971301 2205.43396469756 132 134 131
-925.736350336832 134.141015765315 2165.30468422669 145 150 146
-932.60688489489 137.624181388038 2127.15104375008 140 146 142
-940.443338883762 139.557766510683 2102.98952345371 138 143 139
-948.767771792784 140.715913159081 2085.82343858745 85 90 84
-957.37529010593 141.430557908071 2072.65418294431 125 130 124
-542.577325413433 201.499450625635 1707.04783514251 149 147 134
-665.281492132603 134.273816403941 2270.36631799368 196 198 197
-679.36686894672 129.445956661389 2306.91625319216 199 201 200
-688.753987901348 128.333748456363 2310.78640096312 180 182 181
-697.980807632164 127.334872397288 2313.66856757517 151 152 154
-706.009632175422 127.343766291878 2307.62791855663 140 141 143
-715.217814884765 126.345092101863 2310.51241042717 141 142 144
-724.780365426577 125.012812433446 2316.37685938868 146 147 149
-734.059893456343 123.905131726228 2320.26066221673 154 155 157
-743.55214716813 122.576374814266 2326.13387452998 146 148 147
-752.303386671722 121.915601160441 2326.05119879882 138 140 137
-761.163680062538 121.143866653726 2326.96313336564 135 137 134
-769.454240562138 120.92578502587 2322.90579317547 135 137 134
-777.870008410021 120.595651250865 2319.84081003198 131 133 130
-786.190145414364 120.374700013735 2315.77978642589 128 130 127
-794.630035588691 120.042106317996 2312.71203970552 124 126 123
-803.585230468924 119.158488516606 2314.62011286638 130 132 129
-812.03280884913 118.824506701255 2311.5511700902 140 142 139
-820.682011720384 118.270128533532 2310.47326064061 137 139 136
-829.052496091846 118.043640714656 2306.40596856113 137 139 136
-837.979533328433 117.160025051006 2308.31755562383 139 141 138
-846.190829177221 117.149829202133 2302.25418553728 148 150 147
-854.598165720623 116.919620077975 2298.18230432455 151 153 150
-862.447470030599 117.449245569587 2287.12377101325 151 153 150
-870.667574021221 117.540650697939 2280.05110679318 124 126 123
