ply
format ascii 1.0
comment KinectMotionCapture
element vertex 753
property float x
property float y
property float z
property uchar red
property uchar green
property uchar blue
end_header
-756.113886833191 104.21858727932 1927.00004577637 127 128 123
-750.901639461517 104.222297668457 1927.00004577637 128 130 127
-746.851146221161 104.388430714607 1929.99994754791 132 134 131
-742.785334587097 104.554772377014 1932.99996852875 138 140 137
-738.322615623474 104.667201638222 1934.99994277954 139 141 138
-731.955647468567 104.509361088276 1932.000041008 139 141 138
-726.733863353729 104.513943195343 1932.000041008 142 144 141
-723.006725311279 104.735098779202 1935.99998950958 142 144 141
-719.258546829224 104.956418275833 1940.00005722046 143 145 142
-714.385151863098 105.015605688095 1940.99998474121 144 146 143
-708.776116371155 104.96674478054 1940.00005722046 144 146 143
-703.173041343689 104.918025434017 1939.00001049042 145 147 144
-697.93576002121 104.92355376482 1939.00001049042 141 145 144
-691.984295845032 104.820996522903 1937.00003623962 146 148 147
-687.462151050568 104.93503510952 1939.00001049042 145 147 144
-674.485266208649 103.750318288803 1917.00005531311 154 153 148
-582.371532917023 90.9883677959442 1680.99999427795 168 145 129
-570.61380147934 89.8571014404297 1659.9999666214 172 145 126
-566.13153219223 89.8626148700714 1659.9999666214 179 143 121
-561.649441719055 89.8682400584221 1659.9999666214 179 138 116
-558.174133300781 90.0363773107529 1662.99998760223 175 137 114
-554.349899291992 90.1504904031754 1664.99996185303 175 137 114
-549.523890018463 90.1022627949715 1664.00003433228 177 137 112
-545.358419418335 90.1624113321304 1664.99996185303 180 140 115
-540.862560272217 90.1684984564781 1664.99996185303 183 143 117
-537.333071231842 90.3371497988701 1667.99998283386 179 139 113
-533.467710018158 90.4517471790314 1669.99995708466 180 140 114
-530.224978923798 90.6747579574585 1674.00002479553 179 141 118
-526.018083095551 90.7353535294533 1674.99995231628 180 142 119
-522.428393363953 90.9043923020363 1677.99997329712 181 145 123
-518.822252750397 91.0735204815865 1680.99999427795 182 145 127
-516.729235649109 91.5136486291885 1689.00001049042 179 146 129
-516.108810901642 92.2248288989067 1702.00002193451 181 157 145
-584.566295146942 108.350798487663 1998.99995326996 188 175 169
-583.799839019775 109.226442873478 2015.00010490417 191 183 180
-581.5110206604 109.83119904995 2026.00002288818 190 190 188
-578.309297561646 110.273450613022 2033.99991989136 184 185 187
-575.626850128174 110.824264585972 2043.99991035461 186 190 191
-574.005544185638 111.59211397171 2058.00008773804 193 197 196
-573.412597179413 112.57703602314 2075.99997520447 197 199 198
-616.085529327393 124.645374715328 2298.00009727478 203 203 201
-898.904621601105 103.982731699944 2025.00009536743 147 149 146
-890.749752521515 103.674173355103 2019.00005340576 150 152 149
-879.998743534088 103.057757019997 2006.99996948242 153 155 152
-865.829348564148 102.03080624342 1986.99998855591 154 154 152
-856.967151165009 101.620301604271 1978.99997234344 153 153 151
-849.441111087799 101.364068686962 1973.99997711182 146 146 144
-842.371881008148 101.159431040287 1970.00002861023 142 142 140
-834.051549434662 100.800968706608 1963.00005912781 139 139 137
-828.72611284256 100.802175700665 1963.00005912781 140 140 138
-822.982847690582 100.752249360085 1962.00001239777 144 144 142
-816.829919815063 100.651189684868 1960.00003814697 139 139 137
-809.447288513184 100.396275520325 1955.00004291534 138 138 136
-803.738534450531 100.346989929676 1953.9999961853 132 132 130
-797.219276428223 100.195184350014 1950.99997520447 135 135 133
-790.311872959137 99.9922230839729 1947.00002670288 147 147 145
-783.024191856384 99.7380837798119 1942.00003147125 143 143 141
-775.764763355255 99.4841232895851 1937.00003623962 144 144 142
-768.135666847229 99.1789773106575 1930.99999427795 144 144 142
-761.72548532486 99.0280732512474 1927.99997329712 133 133 131
-756.117343902588 98.9800840616226 1927.00004577637 130 130 128
-751.684606075287 99.0863591432571 1929.00002002716 130 132 129
-746.854960918427 99.1414561867714 1929.99994754791 133 135 132
-742.020845413208 99.1967171430588 1930.99999427795 137 139 136
-736.800611019135 99.2007851600647 1930.99999427795 139 141 138
-730.444550514221 99.0508794784546 1927.99997329712 139 141 138
-725.609958171844 99.1066321730614 1929.00002002716 142 144 141
-721.517622470856 99.2653071880341 1932.000041008 142 144 141
-717.409610748291 99.4241237640381 1934.99994277954 143 145 142
-712.918043136597 99.5317623019218 1937.00003623962 144 146 143
-707.319915294647 99.4853526353836 1935.99998950958 145 147 144
-701.727747917175 99.4390994310379 1934.99994277954 145 147 144
-696.861386299133 99.4957610964775 1935.99998950958 145 149 148
-690.560936927795 99.3469879031181 1932.99996852875 147 149 146
-685.695171356201 99.4039103388786 1934.00001525879 146 148 145
-673.435568809509 98.3815416693687 1914.00003433228 153 152 147
-576.833665370941 85.5927541851997 1664.99996185303 169 146 132
-568.556725978851 85.0324183702469 1654.00004386902 171 144 127
-564.77290391922 85.1404964923859 1656.00001811981 174 137 118
-560.639917850494 85.1972475647926 1656.99994564056 174 133 113
-558.17985534668 85.511215031147 1662.99998760223 168 130 109
-554.022669792175 85.5681896209717 1664.00003433228 166 128 105
-549.529731273651 85.5738297104836 1664.00003433228 171 134 108
-544.709265232086 85.5281203985214 1662.99998760223 177 140 114
-540.543735027313 85.5853483080864 1664.00003433228 178 141 115
-537.016987800598 85.7455432415009 1667.00005531311 177 140 114
-533.154487609863 85.8543887734413 1669.0000295639 173 136 110
-529.2809009552 85.9633162617683 1671.0000038147 176 138 115
-525.396347045898 86.0723331570625 1672.99997806549 177 139 116
-521.81214094162 86.2328931689262 1675.99999904633 179 141 120
-518.211424350739 86.3935276865959 1679.00002002716 179 141 122
-515.206098556519 86.6571664810181 1684.00001525879 176 141 122
-513.386309146881 87.1267467737198 1692.999958992 177 151 138
-516.326308250427 88.4199440479279 1718.00005435944 178 156 145
-581.942498683929 102.442242205143 1990.00000953674 184 171 163
-581.490099430084 103.325329720974 2006.99996948242 189 182 176
-579.223096370697 103.899694979191 2017.99988746643 191 191 189
-576.327443122864 104.371219873428 2026.99995040894 184 185 187
-573.100864887238 104.791365563869 2035.00008583069 184 188 189
-571.224987506866 105.469107627869 2048.00009727478 184 188 187
-568.4494972229 105.992488563061 2058.00008773804 188 190 189
-569.174826145172 107.185564935207 2081.00008964539 194 196 193
-610.940039157867 118.59705299139 2302.00004577637 200 200 198
-609.177112579346 119.48249489069 2319.00000572205 205 207 206
-605.501413345337 120.007418096066 2328.9999961853 194 196 195
-901.123583316803 98.72205555439 2029.99997138977 184 186 183
-888.984739780426 97.9921817779541 2015.00010490417 157 159 156
-880.437135696411 97.6515635848045 2007.99989700317 157 159 156
-869.751334190369 97.0680639147758 1996.00005149841 160 160 158
-858.69961977005 96.4361503720284 1983.00004005432 159 159 157
-850.302338600159 96.0962399840355 1975.99995136261 151 151 149
-842.37277507782 95.8052054047585 1970.00002861023 147 147 145
-834.902405738831 95.5630019307137 1965.0000333786 142 142 140
-828.7273645401 95.4668968915939 1963.00005912781 142 142 140
-823.403775691986 95.4682752490044 1963.00005912781 148 148 146
-817.665159702301 95.4212248325348 1962.00001239777 143 143 141
-810.277283191681 95.1798334717751 1957.00001716614 143 143 141
-803.740620613098 95.0359031558037 1953.9999961853 144 144 142
-795.995831489563 94.7462469339371 1947.99995422363 142 142 140
-789.908468723297 94.6513265371323 1945.99997997284 143 143 141
-782.220482826233 94.3620279431343 1940.00005722046 143 143 141
-774.566054344177 94.0728858113289 1934.00001525879 150 150 148
-766.149699687958 93.686617910862 1925.99999904633 147 147 145
-760.543465614319 93.6410203576088 1924.99995231628 132 132 130
-755.728363990784 93.6928763985634 1925.99999904633 129 129 127
-751.298487186432 93.793548643589 1927.99997329712 131 133 130
-746.084809303284 93.7970951199532 1927.99997329712 133 135 132
-740.48775434494 93.7521606683731 1927.00004577637 137 139 136
-735.278427600861 93.7560275197029 1927.00004577637 137 139 136
-729.691028594971 93.7113761901855 1925.99999904633 137 139 136
-724.861979484558 93.7642008066177 1927.00004577637 142 144 141
-720.775187015533 93.9144939184189 1929.99994754791 143 145 142
-715.560436248779 93.9189419150352 1929.99994754791 144 146 143
-710.71445941925 93.9722210168839 1930.99999427795 145 147 144
-704.767405986786 93.8796177506447 1929.00002002716 147 149 146
-699.556946754456 93.8844829797745 1929.00002002716 147 149 146
-695.066869258881 93.986839056015 1930.99999427795 149 151 150
-689.137279987335 93.8946083188057 1929.00002002716 152 154 151
-683.927893638611 93.8998535275459 1929.00002002716 151 153 150
-670.6263422966 92.7855744957924 1906.00001811981 155 154 149
-574.413478374481 80.7222574949265 1657.99999237061 163 144 130
-568.218052387238 80.4837197065353 1652.99999713898 160 131 115
-564.436972141266 80.5860832333565 1654.99997138977 160 127 110
-560.98347902298 80.7372406125069 1657.99999237061 161 124 106
-558.52085351944 81.0346156358719 1664.00003433228 148 110 89
-554.693937301636 81.1372920870781 1666.00000858307 149 111 90
-549.865543842316 81.0939520597458 1664.99996185303 170 132 109
-544.387340545654 80.9532701969147 1661.99994087219 175 137 114
-539.899706840515 80.9587761759758 1661.99994087219 170 132 109
-536.378502845764 81.1104997992516 1664.99996185303 164 126 103
-532.521486282349 81.2136083841324 1667.00005531311 166 128 105
-528.653383255005 81.3167840242386 1669.0000295639 169 131 110
-524.774312973022 81.4200416207314 1671.0000038147 173 135 112
-521.195471286774 81.572100520134 1674.00002479553 174 136 115
-517.291665077209 81.6755294799805 1675.99999904633 175 137 118
-514.294505119324 81.9252207875252 1680.99999427795 175 138 120
-511.573195457459 82.2237432003021 1687.00003623962 173 144 130
-512.726187705994 83.1560268998146 1705.9999704361 176 149 138
-578.44090461731 96.4362397789955 1978.00004482269 182 167 160
-579.469740390778 97.5163653492928 2000 189 180 175
-578.370034694672 98.2553958892822 2015.00010490417 193 193 191
-576.335370540619 98.8482460379601 2026.99995040894 188 189 191
-572.545647621155 99.1486459970474 2032.99999237061 186 190 191
-569.280624389648 99.5466634631157 2040.99988937378 184 188 187
-565.971672534943 99.9447852373123 2049.00002479553 186 188 187
-564.533352851868 100.684463977814 2063.99989128113 188 190 187
-567.616939544678 102.253645658493 2095.99995613098 195 195 193
-602.356433868408 111.891359090805 2292.99998283386 205 207 206
-599.531173706055 112.534828484058 2305.99999427795 189 191 190
-595.090985298157 112.8855869174 2312.99996376038 160 162 161
-590.357303619385 113.187611103058 2319.00000572205 143 145 142
-895.602107048035 93.2042747735977 2029.99997138977 157 159 156
-886.137187480927 92.7909165620804 2020.99990844727 149 151 148
-875.416219234467 92.2400429844856 2009.0000629425 158 160 157
-861.731290817261 91.3679897785187 1990.00000953674 159 159 157
-851.593971252441 90.8634513616562 1978.99997234344 152 152 150
-842.373549938202 90.4509425163269 1970.00002861023 148 148 146
-834.478497505188 90.1763886213303 1963.99998664856 143 143 141
-828.728675842285 90.1316106319427 1963.00005912781 143 143 141
-822.985768318176 90.087004005909 1962.00001239777 144 144 142
-817.666828632355 90.0885239243507 1962.00001239777 143 143 141
-809.86499786377 89.814729988575 1955.9999704361 146 146 144
-803.331315517426 89.6788686513901 1952.99994945526 148 148 146
-794.363498687744 89.2676636576653 1944.00000572205 144 144 142
-787.881195545197 89.1321375966072 1940.99998474121 150 150 148
-779.40046787262 88.7671709060669 1932.99996852875 150 150 148
-772.165834903717 88.5401368141174 1927.99997329712 153 153 151
-764.561474323273 88.2673263549805 1922.00005054474 147 147 145
-759.361267089844 88.2702097296715 1922.00005054474 129 129 127
-754.162073135376 88.2732644677162 1922.00005054474 126 126 124
-749.743163585663 88.3683189749718 1924.00002479553 132 134 131
-744.92734670639 88.417612016201 1924.99995231628 134 136 133
-738.954305648804 88.3292704820633 1922.99997806549 139 141 138
-733.755946159363 88.3329287171364 1922.99997806549 138 140 137
-728.937268257141 88.3826613426209 1924.00002479553 137 139 136
-724.48992729187 88.4784981608391 1925.99999904633 140 142 139
-719.659090042114 88.5285288095474 1927.00004577637 140 142 139
-714.452683925629 88.5327607393265 1927.00004577637 142 144 141
-708.878695964813 88.4911566972733 1925.99999904633 143 145 142
-702.945291996002 88.4037464857101 1924.00002479553 145 147 144
-697.385847568512 88.3624032139778 1922.99997806549 145 147 144
-692.552149295807 88.4130820631981 1924.00002479553 142 144 143
-686.998784542084 88.3719697594643 1922.99997806549 149 151 148
-681.805729866028 88.3769169449806 1922.99997806549 150 152 149
-668.520390987396 87.3249024152756 1899.99997615814 156 155 151
-574.418246746063 76.211504638195 1657.99999237061 160 140 129
-568.566560745239 76.0322734713554 1654.00004386902 153 124 110
-564.441859722137 76.0829597711563 1654.99997138977 154 122 107
-560.650169849396 76.1797279119492 1656.99994564056 153 117 101
-558.190226554871 76.460488140583 1662.99998760223 131 93 74
-554.366171360016 76.5574425458908 1664.99996185303 139 101 80
-549.540579319 76.5165463089943 1664.00003433228 166 128 107
-544.065177440643 76.3837397098541 1661.00001335144 170 132 109
-539.90513086319 76.4349326491356 1661.99994087219 167 129 106
-536.383926868439 76.5781924128532 1664.99996185303 161 123 100
-532.846450805664 76.7215490341187 1667.99998283386 159 121 98
-528.659045696259 76.7729878425598 1669.0000295639 164 126 105
-524.151861667633 76.7784863710403 1669.0000295639 165 127 106
-520.267248153687 76.8760591745377 1671.0000038147 168 127 109
-517.297506332397 77.1117359399796 1675.99999904633 171 130 112
-514.606356620789 77.3935094475746 1682.000041008 172 134 115
-511.579155921936 77.6293501257896 1687.00003623962 167 134 119
-511.530160903931 78.3254876732826 1702.00002193451 170 141 127
-575.231313705444 90.5414447188377 1967.00000762939 181 162 155
-576.869487762451 91.6532650589943 1991.00005626678 188 177 171
-576.942205429077 92.5351083278656 2009.99999046326 194 193 191
-574.352622032166 93.0027812719345 2019.99998092651 190 191 193
-570.018529891968 93.1942909955978 2023.9999294281 188 192 193
-566.220045089722 93.4779569506645 2029.99997138977 193 197 196
-563.493371009827 93.9459204673767 2039.99996185303 194 196 195
-561.532497406006 94.552144408226 2052.99997329712 194 193 189
-561.667025089264 95.5269709229469 2073.99988174438 195 195 193
-594.0802693367 105.279535055161 2285.00008583069 192 193 195
-590.726017951965 105.794936418533 2296.0000038147 198 200 199
-585.274755954742 105.94180226326 2299.00002479553 178 180 177
-896.925449371338 87.8165140748024 2032.99999237061 216 218 215
-889.206528663635 87.6004248857498 2028.00011634827 150 152 149
-879.338085651398 87.1685668826103 2017.99988746643 148 150 147
-864.762902259827 86.2617716193199 1996.99997901917 159 159 157
-852.885544300079 85.614338517189 1981.99999332428 155 155 153
-842.801928520203 85.1398780941963 1970.99995613098 151 151 149
-835.754156112671 84.9679931998253 1967.00000762939 147 147 145
-829.15198802948 84.8394855856895 1963.99998664856 147 147 145
-823.40669631958 84.7975611686707 1963.00005912781 148 148 146
-817.668318748474 84.7558006644249 1962.00001239777 154 154 152
-810.280919075012 84.5414400100708 1957.00001716614 153 153 151
-803.744614124298 84.4136327505112 1953.9999961853 154 154 152
-793.956935405731 83.9403793215752 1942.999958992 155 155 153
-785.853981971741 83.6400985717773 1935.99998950958 164 164 162
-777.386963367462 83.2967534661293 1927.99997329712 162 162 160
-770.165860652924 83.0831602215767 1922.99997806549 154 154 152
-763.370752334595 82.9129219055176 1919.0000295639 145 145 143
-757.783710956573 82.8724429011345 1917.99998283386 133 133 131
-752.987921237946 82.9185321927071 1919.0000295639 134 134 132
-748.187720775604 82.9647779464722 1919.99995708466 134 136 133
-743.382811546326 83.0111652612686 1921.0000038147 137 139 136
-737.805008888245 82.9712748527527 1919.99995708466 144 146 143
-732.996463775635 83.0179452896118 1921.0000038147 141 143 140
-728.56217622757 83.1079706549644 1922.99997806549 140 142 139
-724.117755889893 83.198145031929 1924.99995231628 136 138 135
-717.795789241791 83.07234197855 1922.00005054474 137 139 136
-712.232232093811 83.033099770546 1921.0000038147 139 141 138
-706.674635410309 82.9939767718315 1919.99995708466 140 142 139
-701.488256454468 82.9981938004494 1919.99995708466 142 144 141
-695.939779281616 82.9593166708946 1919.0000295639 142 144 141
-691.116869449615 83.0069929361343 1919.99995708466 141 143 140
-685.931861400604 83.0115675926209 1919.99995708466 143 145 142
-681.101560592651 83.0594822764397 1921.0000038147 143 145 142
-666.062355041504 81.8535462021828 1893.00000667572 155 154 150
-591.81821346283 73.2963085174561 1695.00005245209 157 148 141
-574.422717094421 71.7006251215935 1657.99999237061 155 137 127
-568.914890289307 71.5752840042114 1654.99997138977 146 124 111
-564.44650888443 71.579746901989 1654.99997138977 147 115 102
-560.993313789368 71.7140436172485 1657.99999237061 145 109 95
-558.866441249847 72.0214620232582 1664.99996185303 121 84 65
-553.705215454102 71.9396620988846 1662.99998760223 135 98 79
-548.55477809906 71.8579217791557 1661.00001335144 161 125 103
-543.742597103119 71.8195140361786 1659.9999666214 163 127 105
-539.585411548615 71.8677043914795 1661.00001335144 163 127 105
-536.389172077179 72.0457658171654 1664.99996185303 157 121 99
-532.532215118408 72.1373781561852 1667.00005531311 149 113 91
-528.664350509644 72.2290500998497 1669.0000295639 160 122 101
-524.157226085663 72.2342431545258 1669.0000295639 163 125 104
-520.272672176361 72.3260492086411 1671.0000038147 165 124 106
-518.228948116302 72.6776495575905 1679.00002002716 167 124 107
-515.223801136017 72.8994756937027 1684.00001525879 167 126 108
-511.58481836319 73.0348080396652 1687.00003623962 163 130 113
-510.634243488312 73.5598653554916 1699.00000095367 167 138 124
-572.313606739044 84.7496837377548 1957.00001716614 178 159 152
-575.137972831726 85.9689265489578 1985.00001430511 185 174 168
-574.652910232544 86.7119580507278 2002.00009346008 191 190 188
-571.516335010529 87.0652943849564 2009.99999046326 188 189 191
-567.772686481476 87.3320996761322 2016.00003242493 188 192 193
-563.995897769928 87.5989720225334 2022.0000743866 191 195 194
-561.290919780731 88.0392268300056 2032.00006484985 193 195 194
-558.804631233215 88.5228887200356 2042.99998283386 194 193 189
-556.528985500336 89.0500172972679 2055.0000667572 196 196 194
-556.868731975555 90.0105983018875 2076.99990272522 192 194 193
-586.875081062317 98.8834351301193 2280.99989891052 198 200 199
-581.719040870667 99.0649312734604 2285.00008583069 191 193 190
-577.547669410706 99.419891834259 2292.99998283386 152 154 151
-894.906461238861 82.6147422194481 2040.99988937378 155 157 154
-885.438859462738 82.2505652904511 2032.00006484985 150 152 149
-869.526624679565 81.2794044613838 2007.99989700317 160 162 159
-855.468034744263 80.4703533649445 1988.00003528595 156 158 155
-843.657970428467 79.8638537526131 1973.00004959106 154 156 153
-835.755109786987 79.6218365430832 1967.00000762939 143 143 141
-829.57535982132 79.54191416502 1965.0000333786 148 148 146
-822.988450527191 79.4216692447662 1962.00001239777 147 149 146
-816.419661045074 79.3016105890274 1958.99999141693 153 155 152
-809.040367603302 79.1007429361343 1953.9999961853 157 159 156
-803.335070610046 79.0619552135468 1952.99994945526 154 156 153
-792.324483394623 78.4970596432686 1939.00001049042 155 157 154
-783.01465511322 78.0942291021347 1929.00002002716 156 158 155
-774.163484573364 77.7320042252541 1919.99995708466 158 160 157
-768.566310405731 77.6938050985336 1919.0000295639 150 152 149
-762.577831745148 77.6152610778809 1917.00005531311 141 143 140
-757.786512374878 77.6583254337311 1917.99998283386 135 137 134
-752.206087112427 77.6205658912659 1917.00005531311 138 140 137
-747.021734714508 77.6234120130539 1917.00005531311 137 139 136
-741.838097572327 77.6263996958733 1917.00005531311 138 140 137
-736.655414104462 77.6295214891434 1917.00005531311 141 143 140
-732.61833190918 77.7542591094971 1919.99995708466 142 144 141
-727.807998657227 77.7981355786324 1921.0000038147 139 141 138
-723.369061946869 77.8826549649239 1922.99997806549 137 139 136
-717.052698135376 77.7647718787193 1919.99995708466 134 136 133
-711.865484714508 77.7685269713402 1919.99995708466 137 139 136
-705.942571163177 77.6913613080978 1917.99998283386 138 140 137
-701.127052307129 77.7358412742615 1919.0000295639 137 139 136
-694.855988025665 77.6183903217316 1916.00000858307 140 142 139
-689.681470394135 77.622577548027 1916.00000858307 140 140 140
-684.507310390472 77.6268616318703 1916.00000858307 139 139 137
-679.687917232513 77.6717737317085 1917.00005531311 142 143 138
-583.791792392731 67.7529349923134 1672.00005054474 167 153 142
-573.387563228607 67.0680999755859 1654.99997138977 152 125 114
-567.887902259827 66.9506341218948 1651.99995040894 141 109 98
-564.450860023499 67.0764073729515 1654.99997138977 142 110 97
-561.336100101471 67.2428086400032 1659.00003910065 132 98 86
-559.206664562225 67.5309002399445 1666.00000858307 133 101 86
-552.710950374603 67.292109131813 1659.9999666214 150 119 101
-547.568619251251 67.2155246138573 1657.99999237061 154 121 102
-543.09219121933 67.220076918602 1657.99999237061 162 127 108
-539.265275001526 67.3057809472084 1659.9999666214 157 120 102
-536.394000053406 67.5132051110268 1664.99996185303 138 101 83
-532.537162303925 67.5990581512451 1667.00005531311 135 96 79
-528.035879135132 67.6038786768913 1667.00005531311 162 124 105
-523.848176002502 67.6492974162102 1667.99998283386 155 117 98
-520.277798175812 67.7759125828743 1671.0000038147 162 124 105
-518.851399421692 68.1865215301514 1680.99999427795 150 112 93
-515.840947628021 68.3944150805473 1685.99998950958 144 106 87
-511.893332004547 68.4806779026985 1687.99996376038 159 126 111
-510.639667510986 68.9321458339691 1699.00000095367 164 135 121
-573.197364807129 79.5397982001305 1960.00003814697 180 160 151
-573.11624288559 80.2765116095543 1978.00004482269 183 168 161
-572.076141834259 80.8916166424751 1993.00003051758 192 188 187
-569.248259067535 81.2633112072945 2002.00009346008 187 185 186
-566.371142864227 81.6350877285004 2010.99991798401 183 187 186
-563.165843486786 81.9663628935814 2019.00005340576 182 186 185
-560.192823410034 82.3383256793022 2028.00011634827 181 186 182
-557.170331478119 82.7103555202484 2036.99994087219 178 180 175
-554.098546504974 83.0824971199036 2046.0000038147 177 179 176
-550.977349281311 83.4547132253647 2055.0000667572 179 181 180
-549.664497375488 84.1113030910492 2071.00009918213 184 186 185
-579.935967922211 91.5660038590431 2253.99994850159 201 203 202
-577.398836612701 92.1422690153122 2267.99988746643 170 172 171
-573.777496814728 92.5561338663101 2278.00011634827 141 143 142
-569.104194641113 92.8075090050697 2283.99991989136 184 186 185
-899.291217327118 77.4451345205307 2051.00011825562 187 189 186
-888.489305973053 76.9921392202377 2039.00003433228 153 155 152
-874.290466308594 76.2372463941574 2019.00005340576 158 160 157
-859.341382980347 75.4070058465004 1996.99997901917 159 161 158
-845.796763896942 74.6902078390121 1978.00004482269 156 158 155
-837.030708789825 74.3889436125755 1970.00002861023 152 152 150
-828.732132911682 74.1255953907967 1963.00005912781 149 149 147
-822.150826454163 74.0134492516518 1960.00003814697 149 151 148
-814.754009246826 73.8259330391884 1955.00004291534 153 155 152
-809.45611000061 73.8273859024048 1955.00004291534 157 159 156
-802.10280418396 73.6401602625847 1950.00004768372 154 156 153
-791.10050201416 73.1132030487061 1935.99998950958 154 156 153
-781.393051147461 72.6996585726738 1924.99995231628 151 153 150
-773.359179496765 72.4373087286949 1917.99998283386 152 154 151
-768.168091773987 72.4394544959068 1917.99998283386 150 152 149
-762.580275535584 72.4039673805237 1917.00005531311 146 148 145
-757.393956184387 72.4063813686371 1917.00005531311 147 149 146
-752.601146697998 72.4467113614082 1917.99998283386 144 146 143
-747.024536132813 72.4116191267967 1917.00005531311 142 144 141
-741.841077804565 72.4144205451012 1917.00005531311 142 144 141
-736.658573150635 72.4173486232758 1917.00005531311 140 142 139
-732.24002122879 72.4959447979927 1919.0000295639 142 144 141
-727.811276912689 72.5746676325798 1921.0000038147 143 145 142
-722.620129585266 72.577953338623 1921.0000038147 142 144 141
-715.935885906219 72.4302232265472 1917.00005531311 139 141 138
-710.386037826538 72.3959356546402 1916.00000858307 140 142 139
-704.842150211334 72.3617672920227 1914.99996185303 140 142 139
-700.034856796265 72.403259575367 1916.00000858307 137 139 136
-694.497346878052 72.369284927845 1914.99996185303 140 142 139
-688.605666160584 72.2976103425026 1912.99998760223 142 140 141
-684.154152870178 72.3772123456001 1914.99996185303 140 140 138
-676.501095294952 72.1167325973511 1907.99999237061 144 145 139
-581.002414226532 62.9016309976578 1664.00003433228 157 135 122
-572.698593139648 62.4895915389061 1652.99999713898 141 113 101
-568.579435348511 62.5312402844429 1654.00004386902 141 109 96
-566.501319408417 62.7998262643814 1661.00001335144 131 99 86
-564.72384929657 63.1063207983971 1669.0000295639 122 90 77
-559.546530246735 63.034787774086 1667.00005531311 141 112 96
-551.383435726166 62.6229718327522 1656.00001811981 150 121 105
-546.912491321564 62.6271665096283 1656.00001811981 154 123 105
-543.096601963043 62.7070516347885 1657.99999237061 154 121 104
-539.594709873199 62.8248453140259 1661.00001335144 142 105 89
-536.398649215698 62.9805251955986 1664.99996185303 139 102 86
-531.583428382874 62.9471465945244 1664.00003433228 139 100 83
-527.406990528107 62.9894733428955 1664.99996185303 158 119 102
-523.852944374084 63.1075203418732 1667.99998283386 154 116 97
-520.282566547394 63.2256343960762 1671.0000038147 153 115 96
-518.856346607208 63.6086985468864 1680.99999427795 139 101 82
-516.457796096802 63.8783276081085 1687.99996376038 132 95 77
-512.504875659943 63.9588162302971 1690.00005722046 158 125 110
-510.94526052475 64.3421486020088 1700.00004768372 163 134 120
-571.448624134064 73.9726796746254 1953.9999961853 178 158 149
-571.963250637054 74.7356414794922 1973.99997711182 192 182 180
-570.360004901886 75.2337351441383 1986.99998855591 191 186 183
-567.264080047607 75.5425989627838 1995.00000476837 190 188 189
-565.250873565674 76.0030224919319 2006.99996948242 186 188 187
-562.614262104034 76.3877928256989 2016.99995994568 182 186 185
-558.817982673645 76.6211599111557 2023.00000190735 181 186 182
-555.809259414673 76.9682303071022 2032.00006484985 182 184 179
-552.480041980743 77.2774964570999 2039.99996185303 182 184 179
-549.107015132904 77.586829662323 2048.00009727478 180 182 181
-546.220719814301 77.9720023274422 2058.00008773804 181 183 182
-545.643866062164 78.6982625722885 2076.99990272522 184 186 185
-550.163447856903 80.1825448870659 2115.9999370575 181 183 182
-564.248263835907 83.107128739357 2193.00007820129 188 190 189
-568.747103214264 85.584431886673 2257.99989700317 140 142 141
-564.875602722168 85.9326124191284 2266.99995994568 169 171 170
-562.433242797852 86.5083113312721 2282.00006484985 199 201 200
-888.489484786987 71.4503675699234 2039.00003433228 169 171 168
-877.754926681519 71.0301548242569 2026.99995040894 154 156 153
-863.21485042572 70.2947378158569 2006.00004196167 159 161 158
-847.935497760773 69.4893896579742 1983.00004005432 157 159 156
-837.031602859497 69.0345987677574 1970.00002861023 155 155 153
-827.466487884521 68.6850845813751 1960.00003814697 150 150 148
-820.893585681915 68.5810223221779 1957.00001716614 149 151 148
-814.338564872742 68.477101624012 1953.9999961853 153 155 152
-809.043407440186 68.4784650802612 1953.9999961853 157 159 156
-801.281809806824 68.2696923613548 1947.99995422363 154 156 153
-790.693521499634 67.8157061338425 1934.99994277954 154 156 153
-780.988991260529 67.4319490790367 1924.00002479553 150 152 149
-773.764431476593 67.2585889697075 1919.0000295639 151 153 150
-767.769753932953 67.1905055642128 1917.00005531311 148 150 147
-762.58248090744 67.1926289796829 1917.00005531311 146 148 145
-757.001280784607 67.1598315238953 1916.00000858307 149 151 148
-752.603650093079 67.2323107719421 1917.99998283386 152 154 151
-746.637463569641 67.1647116541862 1916.00000858307 158 160 157
-741.456866264343 67.1673193573952 1916.00000858307 159 161 158
-735.508620738983 67.099928855896 1914.00003433228 155 157 154
-730.716586112976 67.1378150582314 1914.99996185303 156 158 155
-726.299047470093 67.210890352726 1917.00005531311 157 159 156
-721.494853496552 67.2490075230598 1917.99998283386 155 157 154
-715.939223766327 67.2171041369438 1917.00005531311 155 157 154
-711.130976676941 67.2554299235344 1917.99998283386 153 155 152
-705.213725566864 67.1886652708054 1916.00000858307 151 153 150
-699.673116207123 67.157045006752 1914.99996185303 149 151 148
-693.413078784943 67.0553892850876 1911.99994087219 150 152 149
-687.529623508453 66.9888854026794 1909.9999666214 149 148 146
-683.443546295166 67.0978277921677 1912.99998760223 147 147 145
-672.250390052795 66.5053501725197 1896.00002765656 143 144 138
-579.260289669037 58.1990219652653 1659.00003910065 140 118 105
-573.048710823059 58.0271296203136 1654.00004386902 130 102 90
-570.645749568939 58.2412220537663 1659.9999666214 134 104 93
-570.597946643829 58.7010234594345 1672.99997806549 117 88 74
-574.878752231598 59.6171133220196 1699.00000095367 124 95 79
-559.550523757935 58.4980472922325 1667.00005531311 145 116 100
-551.720380783081 58.1509731709957 1656.99994564056 148 119 103
-547.246813774109 58.1548735499382 1656.99994564056 145 113 98
-543.755948543549 58.2641288638115 1659.9999666214 144 112 97
-540.248572826386 58.3734475076199 1662.99998760223 146 113 98
-536.725044250488 58.4828406572342 1666.00000858307 146 109 93
-531.268298625946 58.3816543221474 1662.99998760223 153 116 100
-527.411341667175 58.456052094698 1664.99996185303 155 118 102
-523.543357849121 58.5305094718933 1667.00005531311 159 122 104
-519.97572183609 58.6401335895061 1669.99995708466 136 101 82
-518.860876560211 59.0307451784611 1680.99999427795 130 93 75
-516.462445259094 59.2809803783894 1687.99996376038 133 98 79
-512.812793254852 59.3908093869686 1690.99998474121 158 126 111
-511.250555515289 59.7465634346008 1700.99997520447 161 132 118
-569.406986236572 68.4029683470726 1947.00002670288 174 156 146
-569.940686225891 69.1110193729401 1967.00000762939 190 180 178
-568.643391132355 69.6083754301071 1980.99994659424 189 184 181
-564.995050430298 69.8247253894806 1986.99998855591 185 183 184
-562.44021654129 70.1817125082016 1996.99997901917 188 190 189
-560.109674930573 70.5739334225655 2007.99989700317 189 193 192
-557.442724704742 70.9310844540596 2017.99988746643 190 195 191
-554.994642734528 71.3234767317772 2029.00004386902 190 192 187
-552.215278148651 71.6807916760445 2039.00003433228 189 191 186
-548.844873905182 71.9678625464439 2046.99993133545 182 184 183
-545.430600643158 72.25501537323 2055.0000667572 183 185 184
-542.760252952576 72.6477056741714 2065.99998474121 189 191 190
-542.629539966583 73.3921304345131 2086.99989318848 182 184 183
-545.214712619781 74.5235607028008 2118.99995803833 179 181 180
-556.791067123413 76.9213885068893 2187.00003623962 173 175 174
-562.456786632538 78.5457566380501 2233.00004005432 184 186 185
-560.64647436142 79.1502371430397 2250 178 180 179
-558.003604412079 79.6492695808411 2263.99993896484 176 178 177
-555.527687072754 80.1835879683495 2279.00004386902 191 193 192
-553.210556507111 80.7531699538231 2295.00007629395 204 206 205
-889.361143112183 65.9732297062874 2040.99988937378 195 197 194
-876.88934803009 65.4563382267952 2025.00009536743 150 152 149
-864.506363868713 64.9395957589149 2009.0000629425 158 160 157
-848.791360855103 64.1643926501274 1985.00001430511 157 159 156
-837.032437324524 63.6802390217781 1970.00002861023 157 157 155
-827.889621257782 63.3901730179787 1960.99996566772 151 151 149
-820.894777774811 63.261866569519 1957.00001716614 149 151 148
-814.756572246552 63.1983503699303 1955.00004291534 152 154 151
-808.63082408905 63.134953379631 1952.99994945526 156 158 155
-800.460696220398 62.9100576043129 1945.99997997284 155 157 154
-790.286600589752 62.5236332416534 1934.00001525879 155 157 154
-780.584752559662 62.1696412563324 1922.99997806549 154 156 153
-774.976015090942 62.1390603482723 1922.00005054474 152 154 151
-767.771780490875 61.9792751967907 1917.00005531311 148 150 147
-762.584567070007 61.9812458753586 1917.00005531311 147 149 146
-755.81818819046 61.854001134634 1912.99998760223 150 152 149
-751.036465167999 61.8885383009911 1914.00003433228 151 153 150
-744.691550731659 61.7938414216042 1911.00001335144 157 159 156
-740.685403347015 61.8932656943798 1914.00003433228 159 161 158
-734.742701053619 61.83110922575 1911.99994087219 162 164 161
-729.574739933014 61.8337318301201 1911.99994087219 163 165 162
-723.649680614471 61.7717690765858 1909.9999666214 154 156 153
-719.617009162903 61.8716180324554 1912.99998760223 157 159 156
-715.195298194885 61.9392283260822 1914.99996185303 159 161 158
-710.763454437256 62.0069392025471 1917.00005531311 157 159 156
-704.849004745483 61.9453564286232 1914.99996185303 155 157 154
-698.945760726929 61.8838518857956 1912.99998760223 156 158 155
-692.691206932068 61.7900863289833 1909.9999666214 157 159 156
-686.453223228455 61.6963915526867 1906.99994564056 157 156 154
-682.375371456146 61.7968887090683 1909.9999666214 154 154 152
-667.290091514587 60.8944408595562 1881.99996948242 149 149 141
-579.263627529144 53.6853335797787 1659.00003910065 131 109 96
-574.091494083405 53.6238625645638 1656.99994564056 131 105 92
-573.055684566498 53.9508312940598 1667.00005531311 131 103 89
-575.035393238068 54.5691885054111 1685.99998950958 123 94 80
-574.544012546539 54.9611039459705 1697.99995422363 144 117 100
-558.547258377075 53.864099085331 1664.00003433228 138 110 96
-551.724076271057 53.6410585045815 1656.99994564056 145 117 103
-547.580897808075 53.6770410835743 1657.99999237061 137 108 92
-544.742405414581 53.8425855338573 1662.99998760223 145 113 98
-541.87685251236 54.0082044899464 1667.99998283386 132 99 84
-538.017630577087 54.0767498314381 1669.99995708466 146 110 96
-531.911194324493 53.9186634123325 1664.99996185303 152 116 102
-528.365731239319 54.0196932852268 1667.99998283386 152 116 100
-524.48958158493 54.0883839130402 1669.99995708466 152 116 100
-521.225333213806 54.2219132184982 1674.00002479553 125 92 75
-520.099699497223 54.5822493731976 1684.99994277954 128 92 76
-516.466677188873 54.6835102140903 1687.99996376038 135 102 85
-512.210607528687 54.7200404107571 1689.00001049042 159 127 112
-510.9543800354 55.0806038081646 1700.00004768372 160 132 118
-567.65741109848 62.9036501049995 1940.99998474121 173 154 147
-568.497121334076 63.5892003774643 1962.00001239777 191 181 179
-567.213416099548 64.0479773283005 1975.99995136261 189 185 182
-563.294351100922 64.2151385545731 1980.99994659424 183 181 182
-560.192465782166 64.4795969128609 1988.9999628067 184 185 187
-557.0467710495 64.7441223263741 1996.99997901917 185 189 188
-554.685890674591 65.1059821248055 2007.99989700317 187 192 188
-551.717698574066 65.4030665755272 2016.99995994568 191 193 188
-549.241781234741 65.7650828361511 2028.00011634827 192 194 189
-546.705603599548 66.127173602581 2039.00003433228 185 187 186
-543.578326702118 66.4244666695595 2048.00009727478 186 188 187
-540.401577949524 66.7218193411827 2056.99992179871 190 192 191
-538.735210895538 67.2138705849648 2072.00002670288 190 192 191
-538.273453712463 67.8682252764702 2092.00000762939 186 188 187
-541.776120662689 69.0418034791946 2128.00002098084 180 182 181
-553.646922111511 71.3187828660011 2197.99995422363 169 171 170
-556.416690349579 72.4603980779648 2233.00004005432 179 181 180
-554.559350013733 73.0180665850639 2250 176 178 177
-550.171256065369 73.2512623071671 2256.99996948242 184 186 185
-544.539034366608 73.3222141861916 2259.0000629425 166 168 167
-537.226438522339 73.1659457087517 2253.99994850159 176 178 177
-529.23309803009 72.912260890007 2246.00005149841 181 181 181
-521.514892578125 72.6909935474396 2239.00008201599 176 176 176
-514.7545337677 72.5995525717735 2236.00006103516 182 182 182
-508.236765861511 72.5405588746071 2233.99996757507 182 182 180
-501.953542232513 72.5140124559402 2233.00004005432 188 188 186
-879.920899868011 60.159832239151 2032.00006484985 157 159 156
-864.076435565948 59.4496913254261 2007.99989700317 150 152 149
-847.936749458313 58.7100796401501 1983.00004005432 158 160 157
-837.45801448822 58.3554655313492 1970.99995613098 159 159 157
-829.57923412323 58.1786222755909 1965.0000333786 153 153 151
-822.154104709625 58.0315105617046 1960.00003814697 152 154 151
-813.924193382263 57.8253008425236 1952.99994945526 152 154 151
-806.147813796997 57.6488152146339 1947.00002670288 156 158 155
-799.228012561798 57.5316548347473 1942.999958992 156 158 155
-789.879441261292 57.2369508445263 1932.99996852875 157 159 156
-780.586361885071 56.9423399865627 1922.99997806549 159 161 158
-774.17129278183 56.8551197648048 1919.99995708466 150 152 149
-767.773628234863 56.7679964005947 1917.00005531311 147 149 146
-762.188732624054 56.7402020096779 1916.00000858307 148 150 147
-755.030035972595 56.5940514206886 1911.00001335144 152 154 151
-749.468982219696 56.5664544701576 1909.9999666214 152 154 151
-742.745220661163 56.4501062035561 1906.00001811981 159 161 158
-737.978875637054 56.4819425344467 1906.99994564056 161 163 160
-732.439517974854 56.4546324312687 1906.00001811981 164 166 163
-726.524651050568 56.3977956771851 1904.00004386902 168 170 167
-721.379101276398 56.4002878963947 1904.00004386902 167 169 166
-717.73898601532 56.5213710069656 1907.99999237061 161 163 160
-713.704347610474 56.61291629076 1911.00001335144 165 167 164
-708.912491798401 56.6453039646149 1911.99994087219 160 162 159
-703.011631965637 56.5889030694962 1909.9999666214 157 159 156
-697.487473487854 56.5622076392174 1909.00003910065 158 160 157
-691.606342792511 56.5059445798397 1906.99994564056 158 160 157
-686.096608638763 56.4794056117535 1906.00001811981 161 160 158
-680.949628353119 56.482557207346 1906.00001811981 160 161 156
-589.727580547333 49.6724620461464 1675.99999904633 150 141 126
-579.615831375122 49.2012016475201 1659.9999666214 125 103 90
-574.787676334381 49.1745583713055 1659.00003910065 121 98 84
-574.433922767639 49.5333299040794 1671.0000038147 111 85 72
-576.744019985199 50.1293540000916 1690.99998474121 156 130 115
-569.133520126343 49.8657561838627 1682.000041008 165 142 126
-557.543635368347 49.2463931441307 1661.00001335144 131 108 92
-552.060484886169 49.1607114672661 1657.99999237061 124 101 85
-548.244893550873 49.2233298718929 1659.9999666214 128 100 86
-546.056270599365 49.4342781603336 1667.00005531311 125 97 83
-541.880428791046 49.4673624634743 1667.99998283386 134 105 91
-538.021266460419 49.5301447808743 1669.99995708466 138 106 93
-532.234311103821 49.4150221347809 1666.00000858307 147 115 102
-529.002904891968 49.5372228324413 1669.99995708466 147 113 101
-526.377856731415 49.7188158333302 1675.99999904633 137 105 90
-523.72008562088 49.9004721641541 1682.000041008 124 92 79
-525.042235851288 50.4678897559643 1700.99997520447 140 111 97
-516.470670700073 50.0859394669533 1687.99996376038 136 107 91
-511.001467704773 50.0006973743439 1684.99994277954 154 125 109
-510.056674480438 50.3606200218201 1697.00002670288 154 126 112
-567.077159881592 57.5556308031082 1939.00001049042 169 150 143
-567.342877388 58.1241697072983 1957.99994468689 188 180 177
-565.49596786499 58.4850125014782 1970.00002861023 187 183 182
-562.161803245544 58.6974769830704 1976.99999809265 185 185 185
-558.789193630219 58.9100085198879 1983.99996757507 178 182 183
-555.378079414368 59.12259593606 1991.00005626678 178 182 183
-552.757143974304 59.4243220984936 2000.99992752075 183 188 184
-549.534499645233 59.6667304635048 2009.0000629425 190 192 189
-546.809434890747 59.9685944616795 2019.00005340576 193 195 192
-543.761312961578 60.2408163249493 2028.00011634827 192 194 193
-540.929317474365 60.5428069829941 2038.00010681152 193 195 194
-537.254214286804 60.7557259500027 2045.00007629395 188 190 189
-535.100400447845 61.1469633877277 2058.00008773804 188 190 189
-533.904671669006 61.6571344435215 2075.00004768372 192 194 193
-534.652829170227 62.4051243066788 2099.99990463257 194 196 195
-539.294958114624 63.6287555098534 2141.00003242493 185 187 186
-549.694538116455 65.5659064650536 2206.00008964539 176 178 177
-549.882054328918 66.3144141435623 2230.99994659424 168 170 169
-545.789301395416 66.5577054023743 2239.00008201599 171 173 172
-539.000570774078 66.4740055799484 2236.00006103516 149 151 150
-531.7502617836 66.3308277726173 2230.99994659424 176 178 177
-524.054825305939 66.1281570792198 2223.99997711182 180 180 180
-516.629159450531 65.955176949501 2217.99993515015 178 178 178
-509.925663471222 65.8713728189468 2214.99991416931 189 189 189
-503.692328929901 65.8470392227173 2213.99998664856 187 187 187
-497.688174247742 65.8524259924889 2213.99998664856 195 195 193
-490.350395441055 65.6793192028999 2207.99994468689 200 202 199
-483.482927083969 65.5656754970551 2203.9999961853 220 222 219
-889.881074428558 55.2554950118065 2055.0000667572 162 164 161
-864.937543869019 54.0458969771862 2009.99999046326 147 149 146
-849.220156669617 53.4010753035545 1985.99994182587 159 161 158
-838.733375072479 53.0790239572525 1973.99997711182 161 161 159
-831.691026687622 52.972212433815 1970.00002861023 154 154 152
-822.9940533638 52.7579449117184 1962.00001239777 153 155 152
-813.5085105896 52.4899959564209 1952.00002193451 152 154 151
-804.906785488129 52.275937050581 1944.00000572205 156 158 155
-798.406600952148 52.1964356303215 1940.99998474121 156 158 155
-789.880812168121 51.9825741648674 1932.99996852875 158 160 157
-779.776096343994 51.6612380743027 1921.0000038147 157 159 156
-773.366451263428 51.5820235013962 1917.99998283386 147 149 146
-768.175661563873 51.5835843980312 1917.99998283386 145 147 144
-762.190580368042 51.5314601361752 1916.00000858307 147 149 146
-755.427002906799 51.4256246387959 1911.99994087219 152 154 151
-748.686254024506 51.3198859989643 1907.99999237061 152 154 151
-742.357671260834 51.2411184608936 1904.99997138977 159 161 158
-736.046135425568 51.1624403297901 1901.99995040894 159 161 158
-730.520308017731 51.137637346983 1901.00002288818 158 160 157
-725.00067949295 51.112923771143 1899.99997615814 163 165 162
-720.245003700256 51.1420927941799 1901.00002288818 172 174 171
-716.236710548401 51.2251518666744 1904.00004386902 165 167 164
-712.213039398193 51.3083040714264 1906.99994564056 169 171 168
-707.432150840759 51.3377226889133 1907.99999237061 163 165 162
-702.646374702454 51.3672232627869 1909.00003910065 158 160 157
-697.490274906158 51.3698905706406 1909.00003910065 158 160 157
-691.246628761292 51.291897892952 1906.00001811981 157 159 156
-685.37962436676 51.2408837676048 1904.00004386902 157 156 154
-677.022755146027 51.0015226900578 1894.99998092651 156 157 152
-587.619185447693 44.9511483311653 1669.99995708466 145 135 123
-579.269528388977 44.6577332913876 1659.00003910065 126 104 91
-575.483381748199 44.7142980992794 1661.00001335144 117 93 81
-576.49952173233 45.1478324830532 1677.00004577637 110 84 71
-579.134523868561 45.7160808146 1697.99995422363 170 147 131
-567.444801330566 45.1535992324352 1677.00004577637 162 141 124
-556.875348091125 44.6718707680702 1659.00003910065 127 106 89
-552.063584327698 44.6479134261608 1657.99999237061 111 88 72
-548.908591270447 44.7586514055729 1661.99994087219 123 97 82
-547.042191028595 44.9771769344807 1669.99995708466 111 85 70
-541.558861732483 44.8994934558868 1667.00005531311 145 117 103
-536.735951900482 44.8757149279118 1666.00000858307 135 106 92
-531.918287277222 44.8519699275494 1664.99996185303 139 110 96
-530.2734375 45.0976602733135 1674.00002479553 140 111 97
-530.15011548996 45.4781278967857 1687.99996376038 129 100 86
-536.48978471756 46.4245155453682 1723.00004959106 122 92 81
-516.780197620392 45.5152131617069 1689.00001049042 136 108 94
-511.005103588104 45.4108566045761 1684.99994277954 152 123 109
-510.06031036377 45.7377433776855 1697.00002670288 151 123 111
-566.204071044922 52.1914288401604 1935.99998950958 166 149 141
-566.47801399231 52.7077801525593 1955.00004291534 187 179 176
-564.35215473175 53.008534014225 1965.99996089935 185 181 180
-561.597585678101 53.2554276287556 1975.00002384186 181 181 181
-558.512032032013 53.4754134714603 1983.00004005432 181 185 186
-555.103719234467 53.668487817049 1990.00000953674 181 185 186
-551.380574703217 53.834643214941 1996.00005149841 178 182 181
-547.350764274597 53.9738684892654 2000.99992752075 178 180 177
-544.37655210495 54.2210377752781 2009.99999046326 176 178 175
-540.816605091095 54.4142983853817 2016.99995994568 182 184 183
-538.01441192627 54.6885505318642 2026.99995040894 183 185 184
-534.106314182281 54.8549294471741 2032.99999237061 190 192 191
-531.985104084015 55.2102327346802 2046.0000038147 191 193 192
-530.821800231934 55.6735433638096 2062.99996376038 186 188 187
-530.584156513214 56.2449023127556 2084.00011062622 192 194 193
-532.498896121979 57.059284299612 2114.00008201599 181 183 182
-538.23721408844 58.3056882023811 2160.00008583069 181 183 182
-544.711351394653 59.6602819859982 2210.00003814697 183 185 184
-541.894257068634 60.0161887705326 2223.00004959106 162 164 163
-535.630941390991 59.994138777256 2221.99988365173 150 152 151
-526.988506317139 59.7020648419857 2210.99996566772 160 162 161
-519.818544387817 59.5719739794731 2206.00008964539 182 182 184
-512.674510478973 59.4418421387672 2200.99997520447 179 179 181
-506.477534770966 59.419721364975 2200.00004768372 168 168 168
-499.602407217026 59.3165643513203 2196.00009918213 154 154 154
-492.298275232315 59.1593347489834 2190.00005722046 188 190 189
-484.581381082535 58.9480437338352 2181.99992179871 197 199 198
-478.003710508347 58.871790766716 2178.99990081787 194 196 193
-865.798711776733 48.6312247812748 2012.00008392334 164 166 163
-850.503504276276 48.0757541954517 1988.9999628067 160 162 159
-840.433716773987 47.8104427456856 1978.00004482269 161 161 159
-832.536220550537 47.6660877466202 1972.00000286102 158 158 156
-824.672758579254 47.5218258798122 1965.99996089935 156 158 155
-814.759731292725 47.2568050026894 1955.00004291534 156 158 155
-806.564033031464 47.0885597169399 1947.99995422363 157 159 156
-798.407733440399 46.920407563448 1940.99998474121 158 160 157
-790.290653705597 46.7523448169231 1934.00001525879 158 160 157
-780.58922290802 46.4876666665077 1922.99997806549 152 154 151
-773.771107196808 46.3922955095768 1919.0000295639 134 136 133
-768.177211284637 46.3695302605629 1917.99998283386 139 141 138
-762.192189693451 46.3226772844791 1916.00000858307 146 148 145
-755.428731441498 46.2275482714176 1911.99994087219 149 151 148
-748.295605182648 46.1083240807056 1906.99994564056 151 153 150
-741.580128669739 46.0133478045464 1902.99999713898 150 152 149
-734.500169754028 45.8942614495754 1898.00000190735 149 151 148
-729.369521141052 45.896153897047 1898.00000190735 154 156 153
-724.239647388458 45.8981208503246 1898.00000190735 159 161 158
