ply
format ascii 1.0
comment KinectMotionCapture
element vertex 783
property float x
property float y
property float z
property uchar red
property uchar green
property uchar blue
end_header
-406.467272404584 -448.483954494749 2247.4321457941 23 26 19
-426.350734297472 -451.748921709507 2249.05487232185 26 29 22
-430.047264521809 -452.278786286292 2254.652195021 31 32 24
-429.690890341615 -452.12390522747 2261.21947209827 18 19 11
-533.548048203107 -482.701231548025 1731.29710074095 94 96 95
-543.096622492684 -484.272462482594 1734.58467153223 21 23 18
-549.762398578479 -485.341403956609 1739.17505802894 12 15 8
-540.020478004198 -483.555040927419 1750.89259310159 13 19 9
-537.991874407786 -483.111181597451 1759.22722564771 14 17 10
-525.320350245403 -480.816603070708 1772.07846761945 14 17 10
-528.110985913724 -481.211436656345 1778.29395326572 14 17 10
-538.650804934493 -482.953326431352 1781.25682700072 13 16 9
-519.159716634033 -479.474811754996 1796.81101094336 13 16 9
-497.697009467535 -475.655023542236 1813.0549215217 13 16 9
-464.552919347813 -469.80740003164 1833.9670474107 12 15 8
-462.439329408759 -469.352209680343 1841.99329613715 11 14 7
-556.551250244218 -485.607857316502 1810.97206968332 11 14 7
-532.12408471505 -481.275064377206 1828.22237286009 10 13 6
-553.294803417266 -484.767594239406 1834.48168950533 10 12 7
-578.523174905658 -489.053465901525 1831.9256208363 10 12 7
-582.322507552634 -489.619763672899 1837.88069774772 11 14 7
-557.686807727663 -485.161615007927 1862.2294667895 13 15 10
-547.782401798949 -483.352177885541 1873.3573643394 14 16 11
-412.147272618507 -457.330535195811 2114.8642825372 26 28 23
-394.859636917563 -454.259854508705 2126.65300793368 19 21 16
-384.539856988874 -452.390195736003 2136.27765305264 19 21 16
-367.202840418714 -449.313045804507 2147.88619227984 19 22 15
-357.844165898952 -447.610278414153 2157.07754654441 23 26 19
-357.483201101835 -447.456541653013 2163.62705711114 18 21 14
-354.112494652945 -446.784808266449 2171.01984196777 18 21 14
-353.743519489738 -446.629336336924 2177.54070710967 18 21 14
-361.40028617011 -447.853960036977 2181.81676648596 18 21 12
-362.035468632208 -447.870416460076 2188.06100513553 17 20 11
-370.709554477206 -449.268541339856 2192.1073822122 17 20 11
-379.393612246577 -450.667357391342 2196.19034671999 17 20 13
-378.022703521202 -450.337679748877 2202.99846269333 18 21 14
-351.467190696892 -445.681682272613 2216.44700431693 17 20 13
-353.093397685487 -445.867450578346 2222.36750775449 12 15 8
-357.745504483825 -446.572398221502 2227.50491129584 13 16 9
-368.458082665444 -448.316996304281 2231.10749605145 16 19 12
-374.132953499867 -449.195908691621 2236.03606938591 16 19 12
-395.986360275314 -452.849916220338 2236.93455470766 18 21 14
-397.638009301697 -453.03672073379 2242.94886523772 22 25 18
-409.411940304534 -454.958995583376 2246.48354880568 21 24 17
-424.239015166561 -457.4035429144 2249.33433144414 26 29 22
-423.879455705847 -457.243505988235 2255.89396636637 24 27 18
-500.299797929063 -470.138489324384 2250.93099548183 31 34 27
-575.956007372542 -496.717159744591 1720.1403340581 14 19 13
-570.099044120437 -495.584377579659 1730.2821779127 13 18 11
-533.319430119755 -488.989029635896 1753.75460079777 14 19 12
-521.616249564017 -486.825902329058 1766.22180098785 12 15 8
-517.632434795019 -486.026889731454 1775.31491263283 13 16 9
-535.90723536144 -489.158153412656 1774.94572874035 13 16 9
-518.359075966078 -485.964867690739 1789.74090750548 14 17 10
-514.356059181683 -485.163056620184 1798.7644926401 14 17 10
-475.414407409706 -478.197184305979 1822.23719250957 13 16 9
-507.295322043352 -483.727443560245 1816.31897075987 13 16 9
-535.334212807991 -488.577590459093 1812.15073627466 12 15 8
-537.156014374477 -488.802848042191 1818.772512582 11 14 7
-513.675938449083 -484.567681038624 1835.58121754377 11 14 7
-529.113287679709 -487.193249165915 1836.68722186385 11 14 7
-574.783143403895 -495.14473213915 1825.88287142869 10 13 6
-601.986564713799 -499.839412970113 1822.6090341714 10 13 6
-591.162901707293 -497.834246625537 1834.34380392954 11 14 7
-578.366825223225 -495.482573634593 1846.76865399822 11 14 7
-576.301427937376 -495.020826061389 1854.97797248715 11 13 8
-539.015957753191 -488.359983589311 1876.6136003245 11 13 8
-389.125640398645 -459.36900186573 2121.62161448406 18 20 15
-415.769198560044 -463.931347738002 2120.2480558134 17 19 14
-372.468229850516 -456.264698463483 2139.66779035855 21 23 18
-385.127204282909 -458.381049074684 2142.46868803402 22 24 19
-387.790167345058 -458.749621173022 2148.22673044501 22 25 18
-372.420936324776 -455.967795790495 2159.16217851512 18 21 14
-379.084048856326 -457.034761122755 2163.74485241191 18 21 14
-366.69164587662 -454.773949313793 2173.71384868402 17 20 13
-360.30328658388 -453.562032025385 2181.93268496474 16 19 10
-378.017118643626 -456.556456935785 2183.46437719685 16 19 10
-386.704643230158 -457.974274721236 2187.54821661721 16 19 10
-387.352591629594 -457.9888065085 2193.84199682688 14 17 10
-400.082122277593 -460.109966847562 2196.90181929186 18 21 14
-386.629183868303 -457.665225640808 2206.94662817292 19 22 15
-380.213140891156 -456.44773817381 2215.06619707844 17 20 13
-392.957286938036 -458.569440665915 2218.18087039039 16 19 12
-406.727078643172 -460.868495658087 2221.09434451957 13 16 9
-397.272646310278 -459.121148889113 2229.9583138779 12 15 8
-375.668120448444 -455.258889024048 2241.80524440728 16 19 12
-397.543194955423 -458.967211853558 2242.74895690947 16 19 12
-430.585551080613 -464.616951654453 2241.06750601924 16 19 12
-418.071594145039 -462.337113613317 2250.5972084441 21 24 17
-423.790598355593 -463.229679672548 2255.68102014057 16 19 10
-505.624360739835 -477.358544780478 2242.76190822145 19 22 13
-534.765089662866 -482.318744218413 2242.61603047456 18 21 14
-448.095287282411 -467.145826491115 2269.41145501186 24 26 21
-603.052147404059 -508.298860931746 1708.22282892116 6 11 5
-536.374874431921 -496.233371620067 1744.93895783582 12 17 11
-511.149650002342 -491.607846758759 1763.30828974827 12 17 10
-512.963007175443 -491.832589836741 1769.89903850962 11 14 7
-533.164888015544 -495.353886264467 1768.64583894964 12 15 8
-568.89057652168 -501.655774789643 1760.92820312491 13 16 9
-542.634699953705 -496.848556451086 1779.48195778384 14 17 10
-514.397250338563 -491.688681536351 1798.69473878782 15 18 11
-524.942777944312 -493.477098055489 1801.64943282946 13 16 9
-512.187799956824 -491.092623017055 1814.24665403392 13 16 9
-558.710315852783 -499.320919897002 1802.53697750614 12 15 8
-554.711496554288 -498.503188630432 1811.58619826156 11 14 7
-557.518955737713 -498.903722755313 1817.86054730005 11 14 7
-562.276515357042 -499.652753594112 1823.3616446756 11 14 7
-575.813394664462 -501.971661884118 1825.39782638873 10 13 6
-604.002994738444 -506.909547907397 1821.73468116343 10 13 6
-601.962371140086 -506.440671948538 1830.04047998803 11 14 7
-551.05878472091 -497.23827899707 1857.27244373608 11 14 7
-528.435906404548 -493.093627018473 1873.30935955901 11 13 8
-359.741136965528 -460.055173507487 2136.78011308875 5 7 2
-359.38617333235 -459.89283755837 2143.3582629006 25 27 22
-386.050989648566 -464.521936040256 2142.02148748911 18 20 15
-399.73124150363 -466.846457603555 2144.587368467 18 21 14
-401.401579174969 -467.040680294111 2150.66638282422 17 20 13
-385.018211692381 -464.035284627239 2161.87401193288 17 20 13
-383.664378265946 -463.693717893552 2168.75303129431 16 19 12
-386.323836262952 -464.062982175106 2174.49762307715 15 18 11
-401.046448913934 -466.567944755542 2176.92241497434 15 18 11
-389.635310070562 -464.444757568293 2186.55144329644 14 17 8
-389.27794541733 -464.278786341235 2193.1220446931 15 18 11
-382.873596233114 -463.042613517739 2201.29775633827 14 17 10
-391.577981709729 -464.479595735112 2205.43209751981 16 19 12
-382.135327560118 -462.706107230712 2214.35537246492 18 21 14
-393.875099829796 -464.678558564448 2217.73155254628 17 20 13
-406.639247148946 -466.830879837234 2220.90115556681 18 21 14
-382.016784607599 -462.374738262202 2233.60698567902 15 18 11
-395.797324824077 -464.705601933504 2236.54121361186 14 17 10
-409.595261677684 -467.038181643756 2239.53801940906 12 15 8
-396.058204654445 -464.542119894586 2249.30291346715 11 14 7
-439.26986836644 -472.065855415761 2245.22804579113 17 20 13
-467.323104617493 -476.909879945974 2245.01418803513 21 24 15
-452.775712709447 -474.234243445843 2255.03760116734 8 11 2
-493.758607103037 -481.245514455488 2258.59843268573 14 16 11
-469.018213116747 -476.772910103447 2270.87772921488 8 10 7
-531.603507810614 -501.968040447194 1746.98301940016 16 21 15
-500.431780428034 -496.082458523455 1775.24210651445 12 15 8
-573.882612903282 -509.340928706875 1751.2318006088 12 15 8
-548.609169777817 -504.635763456861 1769.47145770372 13 16 9
-564.990160964827 -507.507711614558 1770.02914782177 13 16 9
-554.222874073759 -505.442576328509 1782.01109229734 14 17 10
-539.55225072814 -502.668827658819 1795.53616354892 14 17 10
-551.096057967964 -504.660148696083 1798.17285053957 12 15 8
-543.203944385939 -503.119412038698 1808.80971099867 13 16 9
-563.52139345673 -506.703291478277 1807.94608199107 13 16 9
-569.256768116281 -507.637378608792 1813.06445972539 12 15 8
-572.07412527055 -508.041129936613 1819.37259779366 11 14 7
-570.015674338645 -507.559570277925 1827.62114406944 11 14 7
-585.521813397996 -510.265641747801 1828.93079692252 11 14 7
-635.236764551898 -519.176332478396 1816.95328887837 11 14 7
-581.402489619355 -509.301368690891 1845.41869676724 11 14 7
-538.247433661692 -501.367451887665 1869.44523587217 13 16 9
-547.891299853047 -503.009138290249 1873.04119590143 13 16 9
-350.294970538798 -464.167113761743 2145.87184543193 27 29 24
-378.964808627934 -469.221947388445 2143.91789523827 14 16 11
-412.68323913444 -475.182140276113 2140.65332278557 18 20 15
-402.329974445291 -473.213583103551 2150.21608482406 17 19 14
-408.013890847907 -474.12900308561 2155.15426457372 14 16 11
-393.62119166709 -471.435153575133 2165.76352022445 13 16 9
-390.258439942026 -470.72448137945 2173.21042333717 14 17 10
-388.89961719222 -470.373845945503 2180.0766438214 13 16 9
-377.473860470034 -468.215059253587 2189.67387448809 14 17 10
-362.00154862845 -465.33061881875 2200.29138944406 14 17 10
-374.720273281177 -467.50789142088 2203.27566502113 14 17 10
-373.336808490814 -467.153019618365 2210.05306905982 14 17 10
-375.985427404771 -467.521492436982 2215.75791713996 15 18 11
-385.704296333631 -469.157707651059 2219.63673087795 16 19 12
-390.381880709402 -469.888766227774 2224.85224259431 18 21 14
-400.120220081203 -471.526532962036 2228.8014376997 17 20 13
-363.317833269878 -464.821663736926 2244.46581483727 14 17 10
-382.160217377744 -468.090613121747 2246.11795886798 12 15 8
-391.906212400482 -469.728167708774 2250.0957118435 12 15 8
-399.635210408909 -471.003423186933 2254.60705670731 16 19 12
-399.253659162271 -470.825592472548 2261.09627450504 17 20 13
-379.573251655812 -467.193233807271 2272.1483619979 17 20 13
-450.976529071014 -479.749437728861 2268.2553603525 24 26 21
-603.177609124748 -521.776453722951 1715.76580773225 14 19 13
-530.586347867993 -508.254083247659 1754.82403610491 13 18 11
-500.471918015197 -502.581786274952 1775.18411459489 12 15 8
-480.812870047779 -498.733180374158 1798.14285225138 12 15 8
-521.400359157014 -506.113035374456 1788.3120976125 12 15 8
-577.57734503951 -516.365136987612 1772.20386064892 13 16 9
-557.087614454888 -512.473008944723 1788.20866475249 13 16 9
-534.620428532517 -508.218013776213 1804.89422985551 12 15 8
-552.007189660042 -511.311633188835 1805.14894560465 12 15 8
-547.023334665989 -510.281091385542 1814.57159970059 12 15 8
-573.208635670725 -514.99366684379 1811.40270394974 12 15 8
-543.851089281485 -509.472953189155 1830.57999121648 11 14 7
-545.672747828047 -509.69669230501 1837.20219519959 11 14 7
-600.22572632126 -519.628480038805 1823.0601363022 11 14 7
-595.245683620093 -518.597454883905 1832.49724985733 12 15 6
-569.596969870525 -513.650429175893 1857.28986849861 14 17 10
-581.224787288546 -515.675959361468 1860.21687094999 15 18 11
-373.225139600069 -474.235348067973 2138.92496129198 8 13 7
-395.911599550376 -478.266783806059 2138.78180098098 16 21 15
-378.534212400257 -474.98631331941 2150.36974713427 28 33 27
-379.184841506864 -474.995602432855 2156.67586121154 16 21 15
-389.871838263615 -476.834867103894 2160.12369962247 13 18 12
-375.459013380588 -474.096924851718 2170.68607033425 12 17 11
-388.164095703467 -476.30278084559 2173.60257757974 13 18 11
-399.879038601674 -478.326776482733 2176.85402869646 11 16 9
-369.328905191422 -472.650226599348 2191.70186093161 11 16 9
-368.95372784721 -472.471804431528 2198.21511719254 14 17 10
-355.470420970495 -469.906631776002 2208.2232080182 14 17 10
-348.018657897956 -468.440433342772 2216.55069467331 12 15 8
-352.668080988571 -469.176899885461 2221.65823475074 12 15 8
-390.659767980631 -475.978503573982 2218.14199280261 12 15 8
-406.461820996861 -478.740468506381 2220.51595699635 16 19 12
-387.886908996554 -475.250051088545 2231.68659797514 16 19 12
-367.258345630997 -471.387954093888 2243.26066275764 15 18 11
-346.598116231156 -467.52179039942 2254.71972526258 14 17 10
-388.764038821814 -475.072010407132 2250.64182522867 15 18 11
-377.83229418818 -472.86113939526 2266.00335867611 21 26 19
-405.878771399679 -477.840017704636 2265.6792663145 20 25 18
-406.511615566179 -477.840722298264 2271.92476821132 20 25 18
-420.369380156911 -480.240760567303 2275.10111286803 22 27 20
-433.22594734475 -482.457608939858 2278.57311371443 21 26 20
-523.980010471175 -513.705822470778 1750.23383776473 7 14 7
-579.01856159692 -523.901422328155 1733.83080831144 4 11 4
-506.320815718895 -510.164561128472 1772.63002739289 11 14 7
-484.870539974381 -506.031838812208 1789.11673459271 11 14 7
-453.688604666709 -500.079369101595 1809.58658133787 11 14 7
-525.325178472197 -513.375047110957 1786.61036729401 11 14 7
-512.574019194289 -510.872650381665 1799.29621620102 11 14 7
-541.592135320971 -516.185822414407 1794.57593237051 11 14 7
-568.705419482975 -521.140013661512 1790.80266323575 12 15 8
-544.270197801113 -516.452874182287 1808.24677135157 12 15 8
-561.679836873494 -519.590500282452 1808.55864490727 12 15 8
-554.743518462688 -518.176355338418 1818.76794174143 11 14 7
-528.284897011757 -513.115316157463 1836.72919357907 11 14 7
-533.999206792662 -514.066600466837 1841.75757512663 11 14 7
-562.187929675589 -519.214481417809 1837.9585932589 12 15 6
-576.728747448808 -521.811525114257 1839.65028120964 12 15 6
-560.959500787429 -518.749614524575 1853.1746301492 13 16 7
-566.704106990425 -519.703940635341 1858.31357593988 16 19 12
-568.53517427899 -519.927439292118 1864.97086455126 16 19 12
-661.552386198249 -537.15834139322 1837.06304362575 17 19 14
-361.126822672579 -477.932713839381 2142.32783964274 13 18 12
-362.769676445895 -478.124393310188 2148.30641732911 17 22 16
-356.390358545173 -476.831442793458 2156.61091168705 9 14 8
-367.058641372287 -478.692285093467 2159.97564595974 17 22 16
-362.676911129414 -477.768689286197 2167.67003075612 13 18 12
-373.360192603729 -479.63074635712 2171.08968512345 13 18 12
-376.011220913864 -480.006834166627 2176.79867111278 13 18 11
-389.733484958828 -482.4281138472 2179.45851808519 10 15 8
-378.296460250219 -480.200321741233 2189.05747933271 10 15 8
-378.934076161693 -480.203426735648 2195.31918229598 14 17 10
-359.400180401978 -476.482076454068 2206.97235285924 13 16 9
-346.900745939993 -474.060888415115 2216.64521537106 12 15 8
-392.956886103358 -482.445940316079 2210.89765100976 11 14 7
-412.799128216271 -485.990300292262 2212.19187163266 12 15 8
-412.439957337933 -485.806797384757 2218.76776447725 13 16 9
-384.752056951626 -480.584342607723 2232.26592489464 14 17 10
-382.34196593066 -480.023988195396 2239.25864732182 14 17 10
-373.845163484214 -478.341916985843 2247.73964778042 14 17 10
-371.4193795679 -477.779105044374 2254.67472809563 18 21 14
-381.167213194284 -479.458464079616 2258.63291430602 20 23 16
-412.255031181922 -485.065875716169 2257.5149399682 23 28 21
-400.696586035485 -482.819939315985 2266.67454628532 21 26 19
-413.529913473555 -485.063669152658 2270.04236192402 19 24 17
-399.915488677416 -482.44023832399 2279.60041877394 23 28 21
-416.835647395517 -485.434151682687 2282.08200079549 22 27 21
-598.510413033863 -534.428575100956 1717.72563703602 6 12 8
-530.578990872114 -521.271289719526 1762.16547789616 12 15 8
-531.315117167524 -521.167039884449 1776.65334959519 11 14 7
-514.690016720801 -517.889178409569 1791.03274164054 11 14 7
-510.668060287232 -517.004881584697 1800.03808475695 11 14 7
-564.974593204273 -527.188275906713 1784.82217050923 11 14 7
-587.249820088719 -531.290275627577 1783.10670299702 12 15 8
-548.210694983734 -523.762731822361 1806.57211346084 11 14 7
-511.060293020713 -516.597035444311 1829.02796145751 10 13 6
-570.392875675305 -527.722520768873 1812.39453790011 10 13 6
-547.836742324183 -523.324953340982 1828.83987129423 11 14 7
-555.519227887413 -524.658256924406 1833.14187603041 11 14 5
-563.210358927253 -525.992329334805 1837.47549432967 11 14 5
-558.19577571848 -524.919876773594 1846.81052084541 12 15 6
-553.171198814371 -523.846095092411 1856.10928186585 12 15 6
-555.972192473106 -524.253679910413 1862.35517423984 14 17 10
-564.655773960101 -525.774039139287 1866.35963440518 15 18 11
-556.674212599097 -524.141217950289 1876.7225301448 22 24 19
-351.653943689811 -481.940011330393 2151.38645946346 4 9 5
-363.319522614534 -484.012193824108 2154.42420916309 15 20 14
-347.895074347782 -481.002390399344 2165.2985798204 16 21 15
-353.542345633221 -481.944830947394 2170.08457308392 13 18 12
-363.216696127572 -483.641339570804 2173.75910347519 14 19 13
-367.872265134031 -484.396193436281 2178.87785334057 14 19 13
-372.532094107798 -485.151251156282 2184.01229092655 10 15 8
-368.129021794215 -484.208261478141 2191.6396810721 11 16 9
-377.83162608518 -485.906716304234 2195.41881256462 12 15 8
-372.412436644727 -484.773316244405 2203.2900945028 11 14 7
-371.021532279578 -484.394246394256 2210.05515423891 11 14 7
-383.770721639987 -486.660486027518 2213.09729920122 11 14 7
-407.657246939177 -491.008330015414 2213.31273331268 12 15 8
-396.163618575581 -488.738060716204 2222.72835415935 10 13 6
-388.701135523709 -487.222452427305 2231.04816345099 11 14 7
-382.239037969714 -485.894445912843 2239.06651667996 12 15 8
-382.862730038827 -485.890741569771 2245.28082220476 12 15 8
-385.514025148465 -486.265531608883 2250.99161811264 13 16 9
-400.350891550084 -488.91512675531 2253.74929836226 16 19 12
-380.660315422713 -485.117939840723 2264.86769568641 16 21 14
-415.845502700547 -491.563280695717 2262.84628623612 20 25 18
-401.220610416133 -488.71214037266 2272.69275958659 17 22 15
-398.791325652485 -488.13696589691 2279.62264699876 19 24 17
-406.545286835091 -489.460751080101 2284.19696514296 20 25 18
-580.206105600912 -537.65013805406 1725.66338670676 5 11 7
-586.909576269936 -538.811655517398 1730.33620719233 14 21 14
-519.000035921067 -525.59858064911 1767.09801468287 13 16 9
-512.921982544134 -524.174941188942 1784.3971251196 12 15 8
-501.131172878108 -521.779040313741 1796.68500762072 11 14 7
-488.348440669072 -519.193736523082 1809.3059756009 11 14 7
-574.757930791739 -535.693538226294 1780.70633759112 11 14 7
-546.308816817362 -529.965216788798 1807.28477845874 11 14 7
-530.586649369523 -526.815335747292 1821.03853420636 10 13 6
-525.569508146814 -525.724686893548 1830.37648052673 10 13 6
-602.549672047039 -540.388981531482 1806.89150730933 11 14 7
-555.562409651187 -531.233321895826 1833.0473700262 11 14 5
-573.032204063747 -534.460453440267 1833.52607951801 11 14 5
-567.042598616304 -533.182016692426 1843.26833659953 11 14 5
-558.104320788356 -531.338216067076 1854.10865336417 11 14 5
-565.807912683551 -532.688633367596 1858.47821706914 13 16 9
-521.381754278933 -523.912409746821 1890.00708052236 17 19 14
-369.610799608732 -491.224352803217 2145.95300723286 22 27 23
-354.196737565871 -488.171732604011 2156.89297217374 21 26 22
-361.856330390733 -489.507183138687 2161.10862518659 15 20 14
-358.469768920243 -488.742280231859 2168.50043679063 13 18 12
-355.075737082642 -487.97611611205 2175.86623767209 14 19 13
-362.745233558555 -489.311730024723 2180.11855785191 15 20 14
-364.380432816239 -489.500444622335 2186.07058768771 11 16 10
-357.952630089666 -488.158157432161 2194.22621598283 11 16 10
-364.624936427537 -489.302603877795 2198.79317813926 13 16 9
-377.359908016197 -491.596660016268 2201.76497341649 12 15 8
-396.170659731075 -495.041604445795 2203.18855851406 11 14 7
-366.491222391836 -489.289095445456 2217.42075083477 11 14 7
-379.247526839967 -491.584579040576 2220.47084961668 11 14 7
-409.226418665822 -497.142707182782 2219.16215616385 10 13 6
-390.627335299129 -493.493178360361 2230.34350820798 11 14 7
-391.257564859629 -493.488042124867 2236.58391920141 12 15 8
-405.709300394028 -495.97417361601 2245.80752718763 11 14 7
-386.029499854667 -492.123939677605 2257.0003522944 14 17 10
-393.764098587651 -493.462461679898 2261.49254837948 12 17 10
-390.318372430781 -492.685343806797 2268.6724049892 16 21 14
-382.793627282057 -491.137117381509 2276.781640702 13 18 11
-400.721288215514 -494.401202184787 2278.93698849339 13 19 9
-475.754176238099 -508.45527727674 2268.09088224018 15 20 13
-492.043028215917 -526.986687698847 1771.34456195822 8 13 7
-543.281825631704 -536.863547517479 1756.62123804509 12 15 8
-485.929371216103 -525.531773159057 1788.53029954681 11 14 7
-484.645569261293 -525.021271574686 1803.56862942593 11 14 7
-499.070013300091 -527.705658426998 1804.77310061326 12 15 8
-516.432467139525 -530.961851769692 1804.83492749722 12 15 8
-547.451102638997 -536.878902545375 1799.36735279087 12 15 8
-535.63374935869 -534.442621814371 1811.58310680412 12 15 8
-520.87083036995 -531.433480278259 1824.91318813262 11 14 7
-539.266024707735 -534.88633905823 1824.78889342954 11 14 7
-522.525596297802 -531.493752167738 1838.81159795012 10 13 6
-570.265558668763 -540.658690609682 1827.1343947383 10 13 6
-608.291918628279 -547.927638825228 1819.55550946981 9 12 5
-616.915692162304 -549.334348328301 1831.20230768351 11 14 5
-603.098063872353 -546.510660661804 1844.02866185578 14 17 8
-571.599977106615 -540.250413230505 1863.51901494162 15 18 9
-608.771662058866 -547.343124010173 1856.77540538053 22 24 19
-404.636352919181 -503.887212115919 2135.51624307936 10 15 11
-354.101611568965 -494.020101632296 2156.7437543372 12 17 10
-364.77680514704 -495.952102664487 2160.08922097544 14 19 12
-356.362570242737 -494.205755350607 2168.9173591026 12 17 10
-354.976576563298 -493.813447277346 2175.70900917332 15 20 14
-363.654409513241 -495.358732172254 2179.67638938662 15 20 14
-373.349696916345 -497.098741297768 2183.40211949932 12 17 11
-360.875029450454 -494.571874629113 2193.23365696789 12 17 11
-356.451888934272 -493.59508127773 2200.80787968009 14 17 10
-388.368795925252 -499.606547949688 2198.61580171109 13 16 9
-395.068727137696 -500.76660912502 2203.27547128959 12 15 8
-372.453225183705 -496.291914517574 2215.65182535396 10 13 6
-343.731931855775 -490.646577681981 2229.47836434149 10 13 6
-390.909477688838 -499.582259641432 2223.6504000649 11 14 7
-414.846254885027 -504.050061909085 2223.97667424287 12 15 8
-416.506633529055 -504.238684775956 2230.02224811913 12 15 8
-401.931632701783 -501.311575199979 2240.10192168077 11 14 7
-450.289941055022 -510.459597923057 2234.62751599219 11 14 7
-387.95477473469 -498.371798682193 2256.30670007759 13 16 9
-386.540635224371 -497.971729624173 2262.99875007418 9 14 7
-389.192358445902 -498.351017188993 2268.70829597533 15 20 13
-386.754129116176 -497.754647757582 2275.61835535218 13 18 11
-391.443092494046 -498.523646267266 2280.85216178561 12 18 8
-482.813118017744 -515.892963410813 2266.22380354518 14 19 12
-488.591872095627 -516.864705601018 2271.47946712421 15 20 13
-544.412821925136 -543.808803799633 1748.64289361708 11 16 10
-498.720079059823 -534.624057853541 1775.72616779886 12 15 8
-583.01945320111 -551.172138860536 1747.05517148778 11 14 7
-511.887712003158 -536.820827993397 1792.05566134842 11 14 7
-515.636283280497 -537.425850615874 1797.79782239961 12 15 8
-558.32700009588 -545.729083419298 1787.40125586077 12 15 8
-528.012828341599 -539.599166473483 1807.3086491132 12 15 8
-537.623311673037 -541.361247497565 1810.70465426517 11 14 7
-537.488684656469 -541.197417672253 1818.10181390491 11 14 7
-574.452923281792 -548.359595138287 1810.54321013866 10 13 6
-579.113105350244 -549.0010939942 1823.54422360889 10 13 6
-631.837697816109 -559.264674591817 1810.19688986975 10 13 6
-591.498819561239 -551.025932773694 1840.97547500164 11 14 5
-597.268781362204 -552.023570096243 1846.18121672628 14 17 8
-642.29948578727 -560.758344534439 1836.40654296934 15 18 9
-388.153391077454 -506.532403586485 2146.68386235265 23 28 22
-357.648072159443 -500.445703478799 2161.95795841658 12 18 8
-326.091051757015 -494.156852316559 2177.35124097413 17 23 13
-335.753178611124 -495.914450454486 2180.94181866356 15 21 11
-354.491513591039 -499.441423935311 2182.04474576879 16 21 14
-368.214414690566 -501.988079742601 2184.62873109955 12 17 10
-373.88561667539 -502.963261617607 2189.48197417728 14 19 12
-378.55296646074 -503.742006883126 2194.62937998645 15 18 11
-392.315171396932 -506.292284113136 2197.35700638269 14 17 10
-407.105482141379 -509.040994274109 2199.87925857044 12 15 8
-386.511126345284 -504.897545330009 2211.75796024577 11 14 7
-331.469166332466 -494.050244942805 2232.45610315129 12 15 8
-378.655261303412 -503.104354734131 2226.58511101481 11 14 7
-423.878413433449 -511.771107665577 2221.46422347032 11 14 7
-429.601977136431 -512.749753084124 2226.51061766738 11 14 7
-405.893356607929 -508.004805359663 2238.89538076442 11 14 7
-379.101054353386 -502.662892235133 2251.89874989772 10 13 6
-433.591914960896 -513.119832717593 2244.98714628054 10 13 6
-395.586793863426 -505.600928533701 2260.59626618514 12 15 6
-406.388529307113 -507.56535681447 2264.3910851017 13 16 7
-420.259201148098 -510.124301298303 2267.51502678366 14 17 8
-414.778194790693 -508.92540774412 2275.19814378869 16 19 10
-377.663068311917 -501.588739313696 2290.10026477945 17 20 13
-452.786142045677 -516.028841935017 2279.34528282267 17 20 13
-501.451806055489 -525.329331058913 2274.91576914311 18 20 15
-651.149396174087 -571.96644734904 1694.6344625199 55 60 56
-561.920307051141 -553.908586348296 1741.02525987777 9 14 8
-557.94274848152 -552.965419192325 1750.23261120642 10 13 6
-601.536553635409 -561.564346240093 1739.10509939509 12 15 8
-562.594501344702 -553.608773721906 1763.20115711435 12 15 8
-594.412060985929 -559.549749749273 1772.37461618524 10 13 6
-531.948430882719 -546.893438761074 1805.62565815355 13 16 9
-541.564172269085 -548.676461676573 1809.027963819 13 16 9
-598.041255962921 -559.838663053025 1793.45934186513 12 15 8
-590.13271067471 -558.110307026279 1804.15364766751 12 15 8
-593.939400790692 -558.72662206504 1810.10539215763 12 15 8
-592.858163403478 -558.365054800486 1818.00913447346 12 15 8
-606.356941106485 -560.772875975849 1827.64128724693 12 15 8
-578.805082364165 -555.121544118459 1845.81256356827 13 16 7
-664.948790192718 -572.036650600262 1827.65288744936 17 20 11
-685.513633152068 -575.993372327644 1827.47239036011 16 19 12
-392.089298914934 -513.256556862833 2145.36194819614 0 4 0
-390.731705425571 -512.852687449863 2152.26634183099 14 20 10
-337.048371567989 -502.101681119586 2174.05168195667 13 19 9
-330.610395112303 -500.696515639724 2182.20830622748 15 21 11
-344.312938682211 -503.272415215178 2184.69824505644 14 19 12
-364.082921105673 -507.04531084684 2185.57896514355 13 18 11
-381.86048409453 -510.422241527754 2187.10578370546 17 22 15
-401.680344501698 -514.200277504095 2188.16937464821 17 20 13
-408.389918356564 -515.388026440967 2192.84736486495 15 18 11
-388.815090511681 -511.387898380603 2204.52456831377 14 17 10
-368.198502907414 -507.184624582166 2216.35756890133 13 16 9
-378.941648782688 -509.168278701561 2219.9236470681 12 15 8
-418.72014217125 -516.736985041284 2222.55715860996 12 15 8
-437.633410840224 -520.325255246991 2224.26995165093 12 15 8
-420.012597174358 -516.714744086681 2235.16247326506 11 14 7
-406.429296216262 -513.901279928757 2244.95606392125 11 14 7
-407.061729564363 -513.887842008764 2251.2089693726 11 14 7
-400.568888761971 -512.472121383355 2259.16948606605 12 15 6
-432.763004179639 -518.668491339135 2257.88896137785 13 16 7
-440.54148771652 -520.058655689776 2262.51241788589 14 17 8
-441.190152947185 -520.046055272971 2268.82506038017 15 18 9
-421.426857670907 -516.020945723931 2279.81736417649 17 20 13
-639.539663386276 -576.165225785002 1715.12100287371 10 13 6
-548.069207698885 -557.271684517219 1769.30478982789 12 15 8
-612.161294956307 -570.140211892038 1749.75854855584 12 15 8
-620.851490254762 -571.752029281656 1753.72982261206 11 14 7
-572.827592348601 -561.550718982224 1796.180489909 11 14 7
-587.362305362164 -564.348776884644 1797.72260223722 12 15 8
-617.550281023568 -570.318978129907 1793.03371431725 12 15 8
-560.748913277182 -558.653894296067 1823.30203735877 12 15 8
-565.512866799761 -559.470615873714 1828.78413765506 14 17 10
-601.618954509815 -566.635807386714 1821.93473422872 13 16 9
-604.45438742957 -567.059159621899 1828.29853810719 14 17 10
-614.156725345107 -568.872473863271 1832.00323535561 15 18 9
-677.793696373811 -581.445327547551 1822.6447288139 19 22 13
-676.751028798287 -581.07931791247 1830.69354893874 21 24 17
-669.802116081328 -579.519242619706 1840.94821836522 23 25 20
-403.723756042826 -521.399344013912 2148.3478071676 17 22 15
-357.072997213095 -511.91455333201 2168.16819701647 13 18 11
-343.594112783165 -509.077870199707 2178.36412502154 15 20 13
-347.230076771687 -509.668713898828 2183.69714910973 10 15 8
-356.921062828919 -511.470844324567 2187.36768903138 17 22 15
-374.6991947336 -514.889605907142 2188.8702100248 11 16 9
-431.896722308286 -526.190075889506 2179.78547982226 18 21 14
-422.454856365343 -524.159618086654 2188.87391818677 17 20 13
-381.637407271827 -515.85878963009 2206.22497167014 17 20 13
-370.116896015622 -513.416906615363 2215.64912952134 15 18 11
-366.68186036877 -512.591526489548 2222.90007718178 14 17 10
-394.666040381361 -518.040870138311 2222.04766034442 15 18 11
-404.427130079048 -519.848732840993 2225.97393326107 14 17 10
-435.518440817155 -525.912318152389 2224.57999362137 13 16 9
-430.078524611536 -524.683524179473 2232.43547688812 12 15 8
-412.429442915144 -521.01999967693 2243.25558567179 12 15 8
-401.874145970164 -518.773095596516 2252.24397520759 14 17 10
-396.391966686637 -517.53865558733 2259.94517953863 13 16 9
-407.200050039587 -519.551013180365 2263.73330693949 13 16 7
-479.190214103426 -533.750298506265 2253.18837502056 14 17 8
-433.955637456486 -524.595174656861 2270.2650675792 16 19 10
-464.203149956084 -530.473324767493 2269.75259394475 16 19 10
-433.192446084148 -524.155452843814 2283.29624451014 16 19 10
-402.136048716591 -517.832289102059 2296.67265603638 17 19 14
-564.326325971932 -566.723338685 1784.73101311572 12 15 8
-610.863334293153 -575.820316204003 1788.11291520246 11 14 7
-555.054022633304 -564.200812406632 1818.13945082243 11 14 7
-568.617862386463 -566.832235619372 1820.07842582464 11 14 7
-583.177887329413 -569.666609949271 1821.69158809454 12 15 8
-604.614555971334 -573.910333932958 1820.67049030736 13 16 9
-630.00160431205 -578.961881219945 1818.22015018527 14 17 10
-593.610907567354 -571.341381198627 1839.88745358624 15 18 9
-602.33004502888 -572.973586980553 1843.95331205788 18 21 12
-626.78059791295 -577.828913267 1842.04615190508 19 22 13
-639.464731754615 -580.270510174588 1844.73511805138 22 25 18
-670.860831284574 -586.543443916798 1840.44430743492 23 25 20
-365.406059410607 -519.596435473119 2159.18761496193 13 18 12
-369.056954813871 -520.194905374306 2164.57219070433 7 12 5
-361.626337013847 -518.545433537009 2173.09389484477 19 24 17
-361.241390085324 -518.32527169216 2179.59723080092 10 15 8
-343.698349327964 -514.627516542867 2190.83358926862 17 22 15
-360.462977545263 -517.883031374838 2192.57255554863 12 17 10
-400.491810658004 -525.848469731212 2188.09241282651 17 20 13
-382.932379286368 -522.148060825307 2199.26866257637 17 20 13
-385.585358459469 -522.541242049249 2204.97409985051 17 20 13
-374.061745695637 -520.065149222105 2214.40834069643 15 18 11
-378.734396537756 -520.866920942644 2219.56089059215 14 17 10
-391.524404225431 -523.309736444972 2222.64310524355 15 18 11
-426.657285193941 -530.268001108184 2220.10365947789 14 17 10
-422.22961302901 -529.226216351981 2227.70208923713 14 17 10
-435.070607637992 -531.674055113464 2230.96950788881 13 16 9
-404.195257171129 -525.289924738861 2245.05753123594 13 16 9
-375.30955261832 -519.311547662654 2258.48297871977 14 17 10
-417.672371186967 -527.718982389001 2254.59584338648 13 16 9
-437.297273403535 -531.38472115963 2262.79913212364 14 17 8
-462.435876947743 -536.306626502994 2263.40453468658 15 18 9
-457.989044253809 -535.260488379279 2270.93457364533 16 19 10
-489.304937743082 -541.422891231998 2270.31207752126 16 19 10
-461.342477797905 -535.637354104806 2283.14728184944 21 24 17
-620.099291855753 -585.260949513295 1746.30548175686 10 13 6
-588.850018367695 -578.586583628704 1766.98108248868 12 15 8
-570.228204220143 -574.546245532904 1782.22109649891 12 15 8
-562.310122690137 -572.737242266015 1792.93091255004 12 15 8
-530.940946449295 -566.048207436645 1813.17152808738 12 15 8
-587.475050324912 -577.654352859755 1797.53432786251 13 16 9
-617.684656186102 -583.777537205081 1792.82916311433 13 16 9
-574.412939375599 -574.456520541795 1825.0909463421 11 14 7
-604.671190216245 -580.585338059047 1820.56376340113 11 14 7
-600.642409443206 -579.586907160852 1829.61489833902 11 14 7
-610.346412598617 -581.441261973974 1833.30079645071 12 15 6
-576.70824187674 -574.135911217463 1861.09147133964 16 19 10
-671.006180582318 -593.544201634258 1832.66772857703 19 22 15
-633.527282395841 -585.604338087046 1854.39270310197 15 17 12
-632.440924815499 -585.216299301545 1862.29414787678 22 24 19
-368.582802371209 -525.826743377302 2170.94599810667 12 17 11
-385.35128656285 -529.122447451841 2172.67390747984 12 17 11
-339.550393374085 -519.575167131309 2191.79188516417 13 18 11
-356.317105753759 -522.870037993656 2193.51467121583 11 16 9
-369.061721887031 -525.337750657193 2196.41170813553 14 17 10
-389.915168085726 -529.466323977122 2197.19516923278 15 18 11
-385.4862750139 -528.410238113064 2204.79716595233 15 18 11
-397.258336247841 -530.674158241132 2208.10921049137 15 18 11
-394.85086286476 -530.03202052417 2215.16328539211 14 17 10
-406.641480678176 -532.297624682188 2218.5431636654 14 17 10
-404.232721471837 -531.654926751519 2225.59188922351 15 18 11
-444.489513889694 -539.74371238067 2221.87931068924 15 18 11
-423.798527692319 -535.358484198465 2233.5518893773 16 19 12
-402.058608275016 -530.761431538959 2245.36003987516 15 18 11
-418.974838359018 -534.070352815501 2247.62815613984 13 16 9
-415.535282572407 -533.216664276869 2254.88019385717 13 16 9
-429.4213684481 -535.903495511462 2257.98062382946 14 17 8
-453.527200675394 -540.675991901534 2258.74312730858 14 17 8
-457.244700394631 -541.281984488325 2264.36931336972 15 18 9
-481.399390611478 -546.059488981541 2265.3091261115 16 19 10
-473.889909196493 -544.372308944681 2273.5627611121 16 19 10
-475.575870071149 -544.561810934088 2279.70276176475 24 27 20
-433.235387208959 -535.772329646886 2295.60391957177 9 11 6
-656.332300917986 -600.172646350289 1707.75954475122 11 13 8
-626.020242785732 -593.258148303319 1743.75633946136 14 17 10
-647.398586951352 -597.598701916509 1742.45756116598 4 7 0
-546.869168451503 -576.224576236754 1791.84940657831 10 13 6
-578.953758587757 -582.825400355638 1786.01056441723 11 14 7
-546.605496331148 -575.841001724299 1806.6988231 11 14 7
-601.892409893609 -586.826124853126 1814.09923138541 13 16 9
-600.805292707279 -586.430661883212 1822.00254313343 12 15 8
-581.070482278301 -582.112348810212 1837.18296834727 11 14 7
-593.708636814366 -584.605470114274 1839.66869253698 11 14 5
-679.07951913415 -602.389479501514 1814.19569560512 13 16 7
-646.478851665933 -595.196948315384 1841.87086797496 18 21 14
-652.297078675527 -596.250373884866 1847.22151620346 25 27 22
-633.482808283057 -592.130415232574 1861.79724614789 19 21 16
-388.654831571507 -535.866343341163 2165.09536924314 8 13 9
-382.230986243905 -534.37905092386 2173.35631027181 11 16 10
-361.656460546512 -529.95252943761 2185.4873544011 16 21 14
-347.11425094446 -526.781625560946 2195.84269431373 5 10 3
-361.878609045818 -529.697802801242 2198.1628594774 12 15 8
-382.734061403277 -533.876164573447 2198.92140620413 13 16 9
-407.667878326504 -538.898178705976 2198.70327273174 14 17 10
-410.337256443499 -539.298339992471 2204.46518922436 14 17 10
-402.86593042863 -537.595000844493 2212.86976074165 14 17 10
-376.097337919623 -531.892132646502 2226.18904765029 15 18 11
-436.635984077686 -544.286794694192 2217.12853014273 15 18 11
-418.996160119843 -540.476523827185 2228.07658808992 13 16 9
-415.568347421996 -539.611946959653 2235.37909991509 13 16 9
-422.311725252456 -540.853804492561 2240.1484363329 13 16 9
-411.746930047323 -538.512220330745 2249.1613367372 14 17 10
-419.511512410541 -539.964659437207 2253.69293486878 13 16 9
-423.204812263609 -540.573860893689 2259.22724565754 13 16 9
-451.397279744809 -546.248609915799 2259.00585021528 14 17 10
-477.584065674207 -551.505064254799 2259.39541143002 14 17 8
-488.473561093343 -553.596792664509 2263.43569529777 15 18 9
-521.878096629891 -560.338382322047 2262.40960873625 15 18 9
-473.442953942686 -550.17406402127 2279.93026960116 18 21 14
-444.398644577782 -544.019352415493 2292.87817689412 10 12 7
-556.16870177962 -585.432216091601 1758.21775812782 14 17 10
-587.214139380539 -591.897392602593 1752.50363647655 16 19 12
-550.941638866156 -583.8031493843 1782.70151673711 19 22 15
-475.67157584237 -567.55918413682 1821.32572143256 10 13 6
-481.346771417233 -568.606234291948 1826.14934708017 11 14 7
-558.372595191655 -584.880105186033 1801.81862686332 11 14 7
-547.484995518598 -582.387628172606 1813.62460377758 12 15 8
-583.55943865952 -589.912849920022 1806.42947700353 12 15 8
-581.484388830154 -589.299388989745 1814.69874136159 11 14 7
-591.165849589531 -591.192266335519 1818.27662286457 12 15 8
-607.725423892764 -594.549649801125 1819.18994962875 12 15 8
-570.31673721869 -586.409138813914 1841.30228402774 12 15 8
-600.632543975522 -592.695267718973 1836.88947674802 13 16 7
-681.12669650488 -609.658998602577 1813.30962074374 13 16 7
-643.681511174904 -601.51380423233 1835.28939962979 14 17 8
-618.977236166658 -596.084276905296 1852.20419932288 24 27 20
-416.463165332601 -547.474457314795 2163.59806495575 16 21 15
-398.934450208432 -543.629668295382 2174.98044118001 14 19 12
-372.279217975447 -537.868388845302 2188.75656135969 15 20 13
-370.877688017804 -537.418597118919 2195.52682044376 12 15 8
-379.596574276105 -539.09531173861 2199.56364569696 13 16 9
-387.312351329157 -540.560244915239 2203.90615117564 13 16 9
-407.203483855075 -544.580651067746 2205.08134168536 14 17 10
-410.886487125836 -545.19594023884 2210.57357981778 13 16 9
-431.832944086633 -549.433415823406 2211.63361645631 13 16 9
-420.292731377207 -546.853214376584 2221.07195369004 13 16 9
-400.599659914796 -542.564724505121 2232.4912692912 13 16 9
-384.946346030221 -539.125704321315 2242.78689175787 13 16 9
-390.651043250416 -540.164902042036 2247.72500884843 13 16 9
-429.986200306896 -548.249243892049 2244.49063382927 13 16 9
-431.647361405402 -548.437668421714 2250.53923802538 13 16 9
-486.367582473351 -559.73506409503 2243.94858543526 13 16 9
-464.581015143959 -555.011884605575 2255.66317125589 14 17 10
-457.066529783984 -553.277797188558 2263.92784245369 14 17 8
-496.57513515588 -561.380632372939 2261.32484228904 15 18 9
-511.578925948732 -564.354077594357 2264.49781810342 15 18 9
-502.026312201564 -562.192397281702 2273.25884762244 19 22 13
-535.494208617143 -569.021949691997 2272.41154348667 14 17 10
-508.877972292718 -581.085196526832 1807.48708414296 10 13 6
-541.794648173872 -587.853209619404 1808.52930830951 12 15 8
-602.315320460867 -600.750709298287 1791.29195121653 12 15 8
-621.797433388801 -604.779374426223 1790.94238881739 12 15 8
-592.311187676934 -598.236048425423 1810.28839364703 11 14 7
-595.138792546806 -598.669586455408 1816.61670273295 11 14 7
-589.136196282355 -597.198202284049 1826.43161533682 12 15 8
-595.888338481262 -598.478108856308 1831.21039898785 13 16 9
-559.406792927446 -590.437826806649 1852.80542696327 13 16 7
-607.447677843028 -600.616643938678 1841.6044512302 13 16 7
-659.41089228495 -611.453455918555 1836.75825200371 13 16 9
-675.096191631165 -614.650069399504 1838.42431836438 15 17 12
-415.3713974616 -553.218725613684 2163.71148433475 8 13 9
-398.844485347627 -549.53848022023 2174.81222514959 8 13 6
-404.543316050681 -550.589996887851 2179.72078347365 8 13 6
-395.065562617609 -548.412301156672 2188.76893694101 11 14 7
-407.855157823166 -550.971237174062 2191.77630771293 11 14 7
-347.681580273657 -538.017427823016 2214.23515992336 12 15 8
-362.479716743738 -541.00463625157 2216.63589217598 12 15 8
-429.063061647599 -554.991277583401 2205.63328365341 12 15 8
-439.872032667918 -557.123603109571 2209.34896531666 10 13 6
-415.117541229967 -551.703963493533 2222.17382925858 11 14 7
-404.566176465464 -549.302180352831 2231.27460074046 13 16 9
-380.76488047141 -544.090686760643 2243.6107596572 13 16 9
-372.207007938043 -542.115608834404 2252.05000795429 12 15 8
-459.093020885826 -560.213346187915 2243.6932838253 12 15 8
-479.146634038301 -564.297132556524 2245.43078908314 12 15 8
-445.087240865195 -556.91582785582 2260.01653975944 13 16 9
-440.62142058761 -555.80579921317 2267.51641867051 14 17 8
-459.674028967156 -559.674993044943 2269.57012129853 14 17 8
-519.69643879872 -572.21127550039 2262.39982816296 14 17 8
-537.802050347526 -575.872000413774 2264.96545391061 15 18 9
-485.200974351422 -564.577432022837 2283.31861219744 16 19 12
-468.426107478981 -560.864126313997 2293.52054716682 16 18 13
-634.177477058425 -615.682648314517 1724.81522564597 5 8 1
-548.813842916099 -596.074905975881 1798.22703287534 11 14 7
-623.993200041869 -612.335519531514 1774.84175464766 11 14 7
-590.628163877729 -604.856783319947 1795.96335034756 12 15 8
-617.944489644163 -610.644168903895 1792.41789960896 12 15 8
-571.777005044955 -600.374144651302 1818.42466770984 11 14 7
-608.924184271473 -608.306536957819 1811.05901321142 12 15 8
-572.358666590628 -599.960567764359 1840.32790476541 12 15 8
-636.124795120234 -613.693089013762 1822.92321152814 13 16 7
-667.438906045453 -620.15245300833 1826.003860781 14 17 8
-672.28785098003 -621.023137793234 1831.76744798812 14 17 10
-392.049325571758 -554.163406475355 2170.04297274796 12 17 13
-401.787027973116 -556.096292957163 2173.80440877056 4 9 2
-379.157340511392 -551.057890699918 2186.48399032461 13 18 11
-422.309431429834 -560.183075441219 2181.17779836394 12 15 8
-388.51146938867 -552.743154704013 2196.77026966838 11 14 7
-328.299148386611 -539.625775826858 2219.18854426881 11 14 7
-342.073423509709 -542.427628154684 2221.80122453419 11 14 7
-380.235111829159 -550.4704793045 2218.13250552836 11 14 7
-399.768877571628 -554.339182283185 2225.8692814238 11 14 7
-379.025423601294 -549.718957716903 2237.49542196895 14 17 10
-374.543162554676 -548.592932616769 2244.94435885274 14 17 10
-386.356471716947 -550.964794055559 2248.34140037251 12 15 8
-392.065902020378 -552.025501245385 2253.28258149821 11 14 7
-436.557655657056 -561.403586647709 2248.89430602146 12 15 8
-421.095130114635 -557.587156328271 2271.82645538622 14 17 8
-455.489975832134 -564.787897651094 2270.29006269972 14 17 8
-537.036094094264 -582.080181885655 2258.20208768669 14 17 8
-483.426977740212 -570.430123749051 2276.93427671705 16 19 10
-467.682792446345 -566.890247190796 2286.95618688626 17 20 13
-418.050183902185 -556.103421187415 2304.32023088022 14 16 11
-621.523784095432 -619.463238542175 1737.79344823805 18 21 14
-607.614489673116 -615.808828410027 1766.3901492623 13 16 9
-615.255114576584 -617.120796208069 1778.34377366217 11 14 7
-580.889225986224 -609.328235275369 1799.8438533495 12 15 8
-541.570329919974 -600.445541878043 1823.12609957724 12 15 8
-581.626528835725 -609.117838484601 1814.40403801674 11 14 7
-578.557008832751 -608.253165918868 1823.03688081335 13 16 9
-596.104923807189 -611.944358391246 1823.51265286419 12 15 8
-565.516949454138 -605.001657611733 1842.91661989407 11 14 7
-610.615199431637 -614.774500551207 1832.73641840411 12 15 6
-690.037766783513 -631.537847007221 1832.58151865534 23 25 20
-409.789058138048 -563.767990856208 2171.39476924785 16 21 15
-440.80356704267 -570.355010983375 2169.38521011266 5 10 3
-387.78405961562 -558.635075242916 2190.34968956719 13 16 9
-384.808906022913 -557.145836864301 2223.10606583554 10 13 6
-399.666418640839 -560.207159661983 2225.68138717747 10 13 6
-352.446182175327 -549.777352141725 2243.98312331625 11 14 7
-387.671294122807 -557.26317748232 2241.45303890517 11 14 7
-394.399993570552 -558.55596971 2246.13664888753 12 15 8
-430.719851766876 -566.27121513865 2243.62904949391 12 15 8
-365.003620712605 -551.8393914464 2265.92478739553 12 15 8
-372.745321436895 -553.352322846938 2270.33323881878 12 15 8
-463.956028971743 -572.791207220571 2261.60031749635 13 16 7
-521.938169806881 -585.182884980788 2254.74070010685 14 17 6
-521.606891143588 -584.933396668814 2261.46088198667 14 17 6
-493.593524612734 -578.689083402593 2274.3967273766 16 19 10
-415.271145624903 -561.557233683457 2298.35252452512 13 16 7
-608.83425758241 -623.156154233364 1750.69398099456 15 20 14
-652.701742834095 -632.794121916849 1739.92659388357 9 14 7
-618.43127218276 -624.915433468764 1761.83531808147 7 12 5
-645.735217661307 -630.836156210498 1758.15971965928 9 15 5
-547.483714969839 -608.25683987252 1820.66623468202 10 13 6
-556.164357203412 -610.009657734574 1824.51301976386 11 13 8
-615.908684009724 -623.180845169455 1808.11677232354 11 14 7
-580.43342721197 -615.056255153799 1829.60486047487 11 14 7
-567.518043422722 -611.978928389406 1842.04488570712 11 14 7
-607.714689382327 -620.769368319228 1833.76968698414 12 15 8
-705.96007620976 -642.118674515727 1818.77566064673 16 19 12
-698.009878040502 -640.145712818886 1829.46974868036 23 25 20
-656.468883300282 -630.682268763114 1852.66200340524 13 15 10
-391.107399587386 -565.42048390092 2182.81843715989 19 24 18
-407.952164124509 -568.959079611668 2184.67621144172 13 16 9
-423.804176606154 -572.276643154995 2186.88488946178 12 15 8
-388.54465920851 -564.165277900414 2209.16562630012 11 14 7
-412.158848644634 -569.014662211603 2215.84685421523 9 12 5
-406.687182613866 -567.637310956674 2223.67731887227 9 12 5
-372.690965042318 -559.990648307624 2238.66423226949 9 12 5
-367.179071426784 -558.608355699595 2246.34845950036 10 13 6
-421.825770917404 -570.441703646736 2239.14739251773 11 14 7
-394.904990468815 -564.35539243567 2252.14279225718 12 15 8
-344.455127569616 -553.108113737911 2270.66048614136 12 15 8
-367.513674552948 -557.999335124232 2271.35505938644 12 15 8
-440.713354702401 -573.886578820839 2260.33881470091 12 15 8
-468.98400183571 -579.910324945796 2260.18734648362 13 16 9
-523.918830490464 -591.775256341132 2254.03517745736 13 16 7
-500.016117957739 -586.355165544919 2266.12649399754 14 17 8
-452.489965276567 -575.763533784232 2283.39551956184 18 21 12
-416.796233437473 -567.596512282284 2304.09831270125 12 15 8
-617.606923154665 -631.637336744998 1754.53081387568 8 13 7
-744.652868633493 -660.028972327646 1717.33084545228 10 15 8
-682.956913667908 -645.839992027426 1750.50344152945 11 14 7
-601.567022554907 -627.200543443797 1791.29715808471 10 13 6
-683.842794582457 -645.629564646306 1765.61528674485 11 14 7
-622.939914621867 -631.640140324246 1797.70917627261 11 13 8
-713.204018551004 -651.86274057179 1769.38069355727 11 14 7
