ply
format ascii 1.0
comment KinectMotionCapture
element vertex 764
property float x
property float y
property float z
property uchar red
property uchar green
property uchar blue
end_header
-1137.8223906433 664.838058167041 2747.14780881454 22 20 5
-1168.12043329935 671.140116117327 2754.51288947505 18 19 3
-1155.26053938986 667.345481829878 2762.81941227619 15 16 2
-1143.38406915042 663.788151454862 2771.03069530145 21 17 6
-1152.79254804899 664.41711849199 2786.87709935661 24 17 7
-1160.02048545263 665.316912844854 2794.79763738229 26 19 9
-1175.32061028294 668.089849392841 2802.69880802017 20 20 8
-1168.97819707241 674.681427737242 2631.34553410927 102 88 77
-1157.2967262356 671.138081952184 2640.28964083563 99 78 59
-1153.55449598888 669.463166064081 2648.71779952849 87 66 47
-1161.75171951934 670.58732783369 2656.48244042505 86 63 45
-1155.01086378574 668.214201686532 2665.02636716922 100 77 59
-1138.28568393303 663.512747330338 2673.99553267941 95 69 54
-1128.51755437606 660.444940871328 2682.55109044028 95 69 54
-1131.71318083649 660.405798760672 2690.49479249823 96 70 55
-1134.9101007926 660.366514187838 2698.44227808645 100 77 61
-1135.10784137305 659.629090720493 2706.50444932386 100 77 63
-1130.2989255809 657.729316683525 2714.72657037174 111 89 75
-1131.48820903018 657.225535777601 2722.72040621919 111 92 77
-1135.68191939984 657.419027080133 2730.62035038728 66 55 37
-1153.91837781604 660.864133696271 2738.158034941 33 24 7
-1203.28812691463 671.504344841902 2745.0358450562 25 18 0
-1196.48472581645 669.13853172364 2753.35124116134 25 22 5
-1169.56771031205 662.1340343735 2761.99301759436 26 20 6
-1160.71175532715 659.309317069214 2770.19245414212 32 22 12
-1161.90433717953 658.805053595304 2778.19823164565 34 21 12
-1170.14518744337 659.923231011351 2786.12107184508 31 21 11
-1167.30761164287 658.492115160507 2794.16563738545 33 23 13
-1166.48002774816 657.525201482957 2802.17148306171 26 22 10
-1147.14455549625 661.743670594776 2623.94158185931 149 139 129
-1142.4103293161 659.854321241491 2632.44759239733 88 69 54
-1136.67108430777 657.735552280035 2640.97364185859 93 70 52
-1140.87355259921 657.923813738318 2648.90280062388 92 69 51
-1146.07480235334 658.342237765906 2656.78830239463 81 55 38
-1148.2894732905 658.068871181832 2664.83835217029 91 64 47
-1137.53581557338 654.801480154047 2673.50515016671 99 70 54
-1127.7613147405 651.766557563831 2682.05781378215 105 76 60
-1126.96026408313 650.805023520135 2690.1655685875 112 83 67
-1133.15205619405 651.454252600148 2697.97815783103 114 87 68
-1137.34832037794 651.642827229694 2705.88447968089 116 91 71
-1137.54288578614 650.911670296246 2713.93788946499 117 90 73
-1138.73575558467 650.410543534601 2721.94764543454 115 89 72
-1141.93227404662 650.369081390358 2729.89226554905 81 62 45
-1158.17206119111 653.312247284217 2737.49337170378 35 18 0
-1184.47135636492 658.548076222851 2744.92493607527 42 27 8
-1182.67325252566 657.355818685573 2753.08241050481 70 54 38
-1172.82565085242 654.329610521479 2761.36916685983 57 40 24
-1170.00364057981 652.910291121102 2769.47804279327 57 35 22
-1174.22199533409 653.096043612516 2777.46367182857 49 27 16
-1175.4199448428 652.594242707422 2785.49186214755 87 64 56
-1170.56667663682 650.718791133458 2793.56466730557 83 64 57
-1170.74794627019 649.989107019332 2801.57057136714 49 39 29
-1157.80004514177 646.285408626813 2809.60775277685 22 15 5
-1145.41774449261 652.748180151676 2623.54087947795 158 148 138
-1138.68966683623 650.422302110381 2632.16207869897 92 73 58
-1131.94854256689 648.097997878499 2640.73490300149 95 72 54
-1135.15173530173 648.054124783535 2648.70371025755 100 77 59
-1141.34552446741 648.693475906196 2656.51747774885 83 57 40
-1143.55583666881 648.421248862033 2664.55206383876 74 47 30
-1136.78424625082 646.100287756185 2673.01481299982 107 78 62
-1129.99962531732 643.780999689191 2681.42930965735 112 83 65
-1127.19891644735 642.372972381783 2689.62533178269 113 84 66
-1131.3915198071 642.557428437366 2697.51453243555 115 86 68
-1136.58732979357 642.968813112299 2705.37539313637 115 88 69
-1139.78394625045 642.925252907168 2713.31998150356 116 89 70
-1144.98616837698 643.335766011682 2721.20409895977 115 90 70
-1147.18347416714 643.064739950376 2729.19115303162 91 70 51
-1160.42067641144 645.289819740008 2736.88077814396 54 33 16
-1166.64285023219 645.925230859036 2744.79651576175 57 38 21
-1173.87519597436 646.78662791484 2752.71010806365 98 79 62
-1170.05044836991 645.153965792617 2760.85857279596 100 77 63
-1177.28875947521 646.014680061434 2768.79295322354 81 53 42
-1174.46120536058 644.609743099071 2776.89125529904 54 26 15
-1175.65816541349 644.111327567868 2784.91698028789 80 55 48
-1174.8359464419 643.160509644502 2792.9538359113 100 80 73
-1186.12187199863 644.924907686612 2800.90054355261 40 27 18
-1170.52749926853 649.856022960603 2621.42432855887 113 103 93
-1153.86560386137 645.298915112669 2630.71958964067 58 39 24
-1140.16227503974 641.420930293561 2639.73923016633 51 30 11
-1140.38223512979 640.698700195453 2647.8934903859 55 32 14
-1142.59286046288 640.427072366392 2655.92961738549 75 49 32
-1143.80555171285 639.930375635373 2664.01483438621 79 52 35
-1135.03300136637 637.184373006492 2672.57270331238 114 85 67
-1134.2366666196 636.239125311311 2680.70917873982 114 85 67
-1131.43602982746 634.84485251139 2688.91415235199 112 83 65
-1135.63148436081 635.024270853298 2696.81075830493 112 83 65
-1138.82807654197 634.978706073545 2704.75399095761 114 86 65
-1146.03362194301 635.831035591951 2712.56142505471 115 88 67
-1151.24032675669 636.233600132467 2720.45809656503 117 90 71
-1155.44793604041 636.411396092798 2728.39880643701 102 76 59
-1155.64153449293 635.691824926585 2736.4568697736 68 42 25
-1161.86096500549 636.317631944539 2744.35635849912 71 48 30
-1163.0578746107 635.822334496145 2752.38479380231 118 95 77
-1172.3031408165 637.119173956478 2760.25238198898 95 67 53
-1176.52303627492 637.295296315094 2768.23858041759 68 36 25
-1173.69214429966 635.904515373692 2776.33249801886 62 29 20
-1174.8869774483 635.409515844267 2784.35341193624 82 55 48
-1178.09852865598 635.362040374646 2792.35004919045 108 85 79
-1181.73467792775 643.715433771739 2620.19061989068 92 79 70
-1169.05256805235 640.099712539722 2629.27110532519 79 62 52
-1153.36089182978 635.818731281543 2638.44754059315 78 59 42
-1146.61266463569 633.543728985532 2647.02511978956 75 54 35
-1145.83485907915 632.604902165027 2655.23444427284 73 50 32
-1144.05437019293 631.444227412426 2663.47725928743 86 60 43
-1138.27260841591 629.395124719575 2671.89036497701 110 83 66
-1134.47800522028 627.791787558347 2680.16926423632 106 79 60
-1134.67534917376 627.077942464382 2688.24392000362 108 79 61
-1135.87004400885 626.586338265728 2696.26646402399 110 81 63
-1142.07135003265 627.204580041752 2704.09388377733 115 88 67
-1148.27777691073 627.822078012352 2711.94077568165 118 91 70
-1152.48334748165 627.995380220138 2719.87200811497 119 92 71
-1156.69167718861 628.168384898716 2727.81236781277 105 78 61
-1154.87560319522 627.011681325527 2735.92556949373 78 52 35
-1161.09486350711 627.627478421419 2743.81903557926 98 71 54
-1162.29009613352 627.135703628781 2751.84253958675 126 99 82
-1169.52307390859 627.971855880128 2759.74254025502 75 46 32
-1174.74835887251 628.36482680554 2767.70121029269 117 85 74
-1173.92918898381 627.430552911093 2775.75983159703 114 82 71
-1176.131733563 627.159960752779 2783.76661020941 97 73 63
-1183.38144093637 627.994185279573 2791.72657851037 80 61 54
-1242.15811838634 640.091461037672 2799.38071367852 25 18 8
-1184.9907154163 635.759564346658 2619.46408869119 91 78 69
-1171.30841816688 631.964496970026 2628.61416505475 90 73 63
-1154.61388012159 627.512363993523 2637.85543507976 85 66 49
-1148.85889054817 625.481906704831 2646.37878342369 85 64 45
-1147.08286470349 624.331879135048 2654.64489091064 79 56 38
-1143.30372829567 622.743158818776 2662.9904436324 77 54 36
-1136.51814136642 620.496717670072 2671.44827449015 110 83 66
-1130.71930347568 618.47134609991 2679.81203348234 108 81 62
-1130.91194243493 617.763829106087 2687.8741447819 111 82 64
-1133.10403432902 617.495297907347 2695.84341580517 113 84 66
-1141.30791075478 618.542207529183 2703.58398463612 116 89 68
-1147.51442396158 619.149745253866 2711.42490868424 117 90 69
-1151.71954656513 619.318499538361 2719.35067755932 118 91 70
-1158.93945119126 620.143816197721 2727.19529916229 113 87 70
-1165.16157748515 620.749425353561 2735.09204492277 97 71 54
-1173.39986990433 621.791885325621 2742.95851333852 108 82 65
-1172.58997469919 620.86503756484 2751.05532917464 125 98 81
-1178.82440989491 621.469028256855 2758.99768268429 95 66 50
-1181.03323560257 621.198229552214 2767.02765149308 113 83 72
-1178.19934511297 619.83522730462 2775.12890323384 137 107 96
-1176.36727453788 618.691566055075 2783.19094698258 87 64 56
-1177.5588690558 618.203461387586 2791.20326053117 40 23 15
-1174.31479679411 624.748387454725 2619.63417532412 94 81 72
-1151.65379494948 619.041851722477 2629.3100217542 84 67 51
-1139.91998850854 615.729400063051 2638.20559110343 84 65 48
-1141.13179521892 615.242503250783 2646.29464016022 71 52 35
-1143.34005618186 614.972881864796 2654.32325547993 61 40 21
-1139.55484009832 613.401284791218 2662.65704627632 88 65 47
-1134.76116926919 611.613836228577 2671.00668530817 104 79 59
-1130.95750646188 610.044451955802 2679.27245505874 109 82 63
-1129.1464765888 608.909484579577 2687.41903668914 109 82 63
-1130.3347199364 608.425204592186 2695.42132270197 110 83 62
-1136.53312823468 609.023830519652 2703.22652837101 115 88 67
-1143.74018215058 609.838278556335 2711.01564690367 117 92 70
-1150.95379541421 610.651801977041 2718.82946427728 119 94 74
-1160.18344019398 611.897093730333 2726.60743766964 119 96 78
-1172.43862840484 613.789781947163 2734.33750289141 111 88 70
-1181.6899492826 615.032429472514 2742.19335693765 117 94 76
-1181.89019730337 614.329592468252 2750.28667389168 127 102 82
-1186.11711045548 614.490916423368 2758.28865568175 79 52 35
-1187.32186044403 614.00433030027 2766.35170066638 76 48 34
-1180.4542508251 611.791904457157 2774.5255438141 42 19 5
-1170.54444930336 608.933986050767 2782.68761366537 17 1 0
-1164.62493313037 614.015809095154 2619.74393387801 107 97 88
-1154.8985085516 611.16841042184 2628.59348798642 89 70 55
-1144.15767749942 608.108541880952 2637.4379986876 88 67 50
-1145.37115593187 607.624657760608 2645.53515657674 84 63 44
-1143.58745873046 606.497800808486 2653.78741053469 88 65 47
-1137.80065844473 604.514390708746 2662.22235507068 98 73 53
-1134.00183624407 602.960772906806 2670.51698019183 115 88 67
-1135.19726043588 602.478861316786 2678.54835157642 110 82 61
-1136.39112133955 601.997137665907 2686.57310841098 108 81 60
-1136.58114218913 601.301671626422 2694.63217850164 110 83 62
-1137.77041056578 600.820370895984 2702.64108021578 115 90 68
-1144.97942086013 601.622014035179 2710.42937805628 116 91 71
-1153.19938696911 602.636489940137 2718.20920777662 116 91 71
-1162.43249141284 603.863517308304 2725.98849504661 113 90 72
-1174.69234367621 605.729931175115 2733.71928873211 114 92 71
-1178.91474707555 605.887104932197 2741.70283549878 126 101 81
-1191.19676987799 607.750781366232 2749.51421577879 122 95 74
-1195.43014637775 607.906664283297 2757.53675952535 108 81 62
-1199.66601664461 608.062258783742 2765.5683800492 103 78 58
-1192.80231598027 605.873548949822 2773.77263844836 50 29 12
-1162.89448979945 605.038184200189 2619.34102474919 127 117 108
-1156.1513747154 602.859761044327 2627.99948824383 91 72 58
-1149.39514988504 600.682918999565 2636.60934702814 93 72 55
-1145.62007630382 599.142989090581 2645.0007879377 94 73 56
-1142.83485057373 597.81579146739 2653.30532755792 99 74 54
-1139.04272362208 596.277884327737 2661.63380069362 101 76 56
-1138.24248721772 595.375603945588 2669.78291734322 104 77 56
-1140.44084854058 595.108181739141 2677.7761656864 106 80 57
-1142.63880391647 594.840777599289 2685.76791823437 105 78 57
-1145.83885027833 594.784617557535 2693.71728628928 106 79 58
-1147.03359815705 594.305968475296 2701.74727741 110 85 63
-1154.25003986132 595.094079715614 2709.55555230895 110 85 65
-1160.46864261254 595.670310672999 2717.42159701204 110 85 65
-1164.68201001395 595.824045288212 2725.36849457279 112 87 65
-1170.9099224094 596.399112889145 2733.26836967791 116 91 69
-1174.12299781102 596.341294253331 2741.26413583184 123 97 74
-1185.39695171551 597.968603690552 2749.08077352883 127 99 77
-1192.65077804276 598.752123959158 2757.02402268402 133 106 85
-1201.92916483863 599.955761107423 2764.95666709202 126 101 81
-1196.07204325476 598.002081511819 2773.15022173707 109 88 69
-1172.12286256189 598.379363094386 2618.22678291012 134 125 116
-1159.39859896494 594.969212049241 2627.28054609265 105 87 73
-1149.64613374002 592.189277962141 2636.07600999363 102 83 66
-1142.87219900408 590.038832691989 2644.63678091113 95 74 57
-1141.08128637654 588.934999840225 2652.8777106402 94 71 53
-1138.284472835 587.622984594014 2661.14788332315 98 73 53
-1142.48549331393 587.773843596048 2669.04712366906 105 78 57
-1143.68425653011 587.297986784243 2677.09471486665 103 76 55
-1149.89234899018 587.865728554912 2684.91637729061 103 76 55
-1154.10007454879 588.015624340204 2692.83990415853 104 77 56
-1160.31740436608 588.58216778998 2700.69510652228 105 80 58
-1166.54034789334 589.148098006411 2708.56983530495 106 81 61
-1167.74291647513 588.671584461082 2716.63114045208 107 82 62
-1166.93225947049 587.778784309516 2724.74755277654 110 84 61
-1170.14314606946 587.71922587903 2732.73409391994 117 91 68
-1172.34767961907 587.4513930973 2740.7499993156 125 97 75
-1183.62306352979 589.055473913887 2748.55728101042 127 99 77
-1191.88525842217 590.034377451668 2756.47143939654 133 106 85
-1208.23043659467 592.6747604958 2764.27268054173 126 101 81
-1222.5752750126 594.897323298078 2772.1759031751 119 101 81
-1253.10962578031 600.440143503535 2779.93807755108 33 24 9
-1151.67372177965 584.794683666314 2627.24559708659 72 58 47
-1143.9065908878 582.461404849413 2635.90064321518 77 61 46
-1141.11995549303 581.162047501327 2644.21659689647 87 70 54
-1143.32434792398 580.89525639419 2652.23263600502 91 72 55
-1141.52654275187 579.803434517358 2660.45462914525 93 72 53
-1148.73304038641 580.567841847492 2668.21101825431 93 71 50
-1147.93126926783 579.682678958092 2676.36524389963 94 72 51
-1155.14580872207 580.44610558227 2684.14994252019 98 73 51
-1160.36038819674 580.796816555429 2692.04218445299 98 73 51
-1169.59496382946 581.970326507305 2699.79314586438 99 74 54
-1172.81061366117 581.908173782671 2707.79666307834 98 76 55
-1167.98364861895 580.200639762922 2716.07314108128 102 77 55
-1167.17099331406 579.31659126805 2724.18765944643 109 81 57
-1171.38830006295 579.460526563632 2732.14299625482 116 88 64
-1176.61563626463 579.809531092008 2740.08152405489 127 97 73
-1184.8716854646 580.773916827631 2747.96462793184 130 100 76
-1193.13618937502 581.737360754013 2755.87759886007 130 103 82
-1209.48692793794 584.34086673985 2763.67620240101 134 112 91
-1221.81548087886 586.121798086213 2771.60809904895 118 99 82
-1232.13572876561 587.491159367365 2779.61634962313 40 31 16
-1143.94172075066 574.668051499017 2627.21350878574 69 57 45
-1144.15359905702 573.993691295634 2635.36798547202 70 57 41
-1146.36117276705 573.727196571225 2643.39602316681 74 58 42
-1149.56841831398 573.66431173545 2651.36787470194 78 61 43
-1147.77252370275 572.583403365377 2659.60385159711 83 65 45
-1155.98625915696 573.538132902541 2667.32282738864 91 70 49
-1158.19442064195 573.271339133441 2675.35285857547 92 70 49
-1165.41708597289 574.021153540189 2683.16006196462 94 72 51
-1170.6392434547 574.363651746782 2691.07525444183 94 72 51
-1177.87429102275 575.11198345662 2698.92656553078 95 73 52
-1175.06425768066 573.828784631035 2707.16677788727 97 75 54
-1170.2350880473 572.140554052071 2715.44725785733 101 76 54
-1168.415323984 571.062233004178 2723.59624565503 109 79 53
-1172.63334231657 571.201435806741 2731.55123658585 112 82 56
-1177.86177872798 571.543020082977 2739.48916449022 117 89 65
-1184.10284067537 572.086744971039 2747.41807315635 123 95 71
-1188.33025493639 572.224723976094 2755.40810570878 132 110 87
-1200.64165304392 573.982048851573 2763.26140593271 124 103 84
-1207.91269230536 574.725871343912 2771.24350024116 115 99 83
-1135.20375820907 564.387992214302 2627.24686610856 54 46 35
-1159.38632123475 568.54823850711 2633.93392209825 57 48 33
-1164.60336123427 568.884338842278 2641.82607508562 62 50 36
-1168.82384877711 569.018981355097 2649.78735458199 74 58 42
-1167.03913838455 567.94785618054 2658.07103288654 78 61 43
-1171.26000483707 568.082245551119 2666.03448840206 84 66 46
-1167.46186354213 566.610533955371 2674.38335288344 89 68 49
-1170.67883091919 566.544365638617 2682.38829762795 94 72 51
-1173.89661945348 566.477994122679 2690.39709190145 94 72 51
-1180.13000074664 567.012873679183 2698.29189932453 94 72 51
-1177.3188395251 565.743676370389 2706.53583488786 97 75 54
-1172.48746309071 564.074763929393 2714.8203178992 101 76 54
-1169.65954512398 562.807468601629 2723.00416878563 107 77 51
-1172.87040445963 562.741797390934 2730.98767843876 113 83 57
-1177.09090431941 562.87604855607 2738.9487565891 115 87 63
-1183.33204596587 563.409857289765 2746.8717006215 118 92 69
-1183.51958712379 562.743878951763 2754.94018109406 126 105 84
-1188.75642964335 563.07710422556 2762.90497081642 125 108 90
-1191.97499271898 563.010534734313 2770.91558679641 122 109 93
-1197.21852221536 563.343022646094 2778.9038093988 185 177 166
-1182.85919766196 563.949888173259 2640.24897221933 114 108 96
-1184.08972737769 563.483390866267 2648.41948628258 65 56 41
-1184.31653875365 562.818842416226 2656.63560115687 77 65 49
-1179.52830325246 561.163988979611 2665.08913411718 80 65 46
-1175.73264126969 559.708381853654 2673.45737131784 80 63 45
-1174.93972884154 558.847748737775 2681.65904533682 86 65 46
-1182.17807214438 559.570549318866 2689.50740284751 89 68 49
-1182.38642112286 558.908006162929 2697.6562364962 94 73 54
-1183.59769012064 558.443563154994 2705.75653626556 96 75 56
-1177.76035876491 556.596014939836 2714.08964492393 96 74 53
-1176.94808060722 555.737513339064 2722.22169253429 103 77 54
-1175.1230871845 554.682109362844 2730.3657333847 105 80 58
-1175.30954467593 554.022098066736 2738.43488671636 115 94 73
-1177.5119101882 553.757028867546 2746.4444873956 113 95 75
-1172.64212029409 552.111723136647 2754.60125280079 108 95 79
-1177.87174036176 552.43862782714 2762.53430746696 144 132 118
-1176.02347125232 551.385988008349 2770.59367539881 155 148 138
-1184.29293224762 552.30325935866 2778.49682908676 167 163 154
-1184.46601861982 551.644917169133 2786.51646283738 182 181 176
-1205.37499095966 559.046012576539 2646.7139879915 93 86 70
-1201.60699628343 557.603611244602 2655.19328592573 79 70 53
-1190.81051210079 554.794119615982 2663.99017135874 76 61 42
-1179.99498658525 551.986873537424 2672.71777777748 81 64 46
-1175.18585239342 550.353528932378 2681.10729754572 84 66 46
-1181.4205114917 550.868461272395 2688.99425558047 85 67 47
-1183.63798606528 550.602337831531 2697.05928765012 88 70 50
-1187.86787083758 550.726260961427 2705.04868956047 93 72 53
-1181.02210897076 548.705605670531 2713.42565203958 95 74 55
-1178.19450282792 547.46594429832 2721.62717827737 102 80 59
-1174.35066148756 546.032365557559 2729.83044253544 103 82 63
-1173.5256016963 545.183884422243 2737.92136084276 101 84 66
-1172.69588582091 544.335941786314 2745.99533200261 97 84 67
-1167.81889717182 542.710560420991 2754.13794904282 127 117 105
-1167.98829562708 542.058486467932 2762.14877673955 140 132 121
-1166.13045264876 541.018153374765 2770.18036859494 149 146 139
-1173.38189541823 541.726759129626 2778.0674709651 156 155 150
-1175.57239737552 541.463747985773 2786.03432393833 172 173 168
-1175.73399223313 540.812619882559 2794.01677556653 194 196 193
-1174.87750260929 539.96791095957 2801.99338264291 192 194 191
-1221.91774029414 552.880747418885 2653.5856672294 110 104 88
-1206.11369260049 549.14133935629 2662.68588119092 92 81 63
-1194.29876850549 546.175697398265 2671.50016310151 85 70 51
-1187.48688840579 544.175500846773 2680.01490949581 85 68 50
-1189.7096647502 543.909392439177 2688.09963549262 88 71 53
-1186.9016157943 542.681174341597 2696.38192743948 92 73 56
-1188.11332110168 542.223215695731 2704.48794102763 96 77 60
-1184.28560723935 540.8041918294 2712.76027263651 101 82 65
-1183.47357930349 539.962695155 2720.90398529173 97 81 66
-1178.62122767896 538.35344787633 2729.14826099309 102 88 75
-1173.7585144514 536.745449514405 2737.35485459388 120 110 98
-1169.89567161702 535.330560697164 2745.49936986812 129 123 111
-1164.00190706811 533.533116787049 2753.65458637604 129 129 119
-1164.16683243567 532.887481224431 2761.65287123748 145 144 139
-1162.30371197068 531.858936296423 2769.67231124963 150 152 149
-1166.51358996414 531.980487095165 2777.58686316818 155 157 156
-1165.65647740016 531.144356320002 2785.5665731834 168 172 171
-1163.78015101683 530.117410930411 2793.53799207386 178 179 181
-1154.79029675043 527.752071085207 2801.52938468943 190 191 193
-1153.91291648725 526.91839990349 2809.43539756843 200 202 199
-1145.91344603827 524.747375084836 2817.33025113911 204 206 203
-1244.24935380436 548.435867109372 2651.86400437604 120 114 100
-1232.46731171754 545.503934151967 2660.82072381411 100 88 72
-1212.63036566007 541.054455729894 2670.0854858846 87 74 57
-1195.77640031513 537.178459758309 2679.09857633665 85 68 50
-1189.95795141509 535.393772737525 2687.54240814197 89 72 54
-1185.13429676143 533.800269421231 2695.90316998536 90 71 54
-1182.3146827212 532.58728883852 2704.15121418749 91 72 55
-1177.47164392103 530.996041837196 2712.44143101324 93 76 60
-1174.63525956216 529.784950363753 2720.62933201634 105 93 81
-1172.80084060893 528.764177110412 2728.76024174483 115 102 93
-1168.94016836378 527.365486234708 2736.92304252377 131 124 114
-1167.0921239718 526.346317714618 2745.00437681325 137 134 125
-1164.22635577518 525.138696836784 2753.08537253825 129 130 124
-1163.37757052753 524.310101846781 2761.10075794713 140 142 137
-1160.49844809995 523.104140901514 2769.13229100196 155 159 158
-1158.62538743452 522.087966729603 2777.12263524587 159 163 162
-1154.71751338433 520.694901056822 2785.11373643267 167 171 172
-1147.75555937386 518.736749299642 2793.09876171453 174 175 179
-1139.76471458183 516.591595475226 2801.04197425029 185 186 188
-1129.72624948989 514.071074658449 2808.93935665789 193 195 192
-1115.60159385556 510.798838076055 2816.77713103113 195 197 194
-1113.66871639397 509.789878068193 2824.5499418802 216 218 217
-1108.67395205961 508.216799871554 2832.28830236703 210 212 211
-1112.84296079961 508.338788165028 2840.0504619464 224 226 225
-1252.55207543487 541.253297756724 2650.87865446657 142 138 126
-1245.78919738309 539.295943287693 2659.60331313125 93 85 72
-1224.94698816268 534.717789309698 2668.95174050098 110 101 86
-1202.06046564536 529.769092064289 2678.26966144398 81 69 53
-1189.19947010521 526.696159669551 2687.02773889986 83 70 54
-1179.33702329271 524.186930223254 2695.5857714606 104 91 75
-1174.49500885561 522.614656542826 2703.89177030722 118 105 89
-1170.65081132189 521.230480382276 2712.12490229204 127 118 109
-1169.82471843622 520.407745346545 2720.22823966173 119 112 104
-1170.00388150615 519.772319591395 2728.284903237 118 114 105
-1165.12719292266 518.204041791346 2736.46561558619 132 133 127
-1165.29628622421 517.569780655209 2744.48562736458 131 133 128
-1162.42625552687 516.37648058772 2752.55983866975 138 143 139
-1163.59928966617 515.92960870786 2760.52927339385 140 146 144
-1156.66391900154 513.992593794317 2768.62634212518 141 147 147
-1149.71560115786 512.057213398153 2776.67544344448 148 154 154
-1139.70960505592 509.564997729809 2784.71124723713 163 168 171
-1132.7325082989 507.632981946467 2792.65655135465 171 175 178
-1123.71000435128 505.330686521431 2800.56652504946 170 174 177
-1109.5869740651 502.10096576703 2808.4371762899 196 198 197
-1096.45829860699 499.059779042807 2816.22238225123 203 205 204
-1090.43624832716 497.321103361815 2823.93840216687 195 196 198
-1087.45932419036 496.140635406518 2831.6238406058 210 211 213
-1092.63295599502 496.44526941691 2839.33496128323 205 207 206
-1103.9333928162 497.86210564694 2847.11611407229 198 200 199
-1136.69064803983 503.16986450565 2855.19045081841 222 224 221
-1234.50995169299 529.866236114268 2642.94561123978 120 120 112
-1246.80823753214 531.445582857705 2650.6378621058 139 139 131
-1241.0411927682 529.698390937229 2659.29529081445 69 66 57
-1224.20574620211 525.921611537483 2668.43977801221 100 97 88
-1199.29605364795 520.671758129666 2677.84857167226 80 77 68
-1185.41931757597 517.455562829977 2686.64220432171 97 93 84
-1175.54857270601 514.979656634627 2695.18953735511 115 111 102
-1172.71589764098 513.79577738291 2703.40839061145 113 109 100
-1168.86705008544 512.428602443233 2711.63499165749 112 112 104
-1165.00923538517 511.062479040237 2719.82896333784 115 116 108
-1163.16281965032 510.065484973543 2727.93034430108 121 122 114
-1158.277720991 508.517350979429 2736.09162040905 129 132 125
-1159.45168976947 508.073649246806 2744.06652673022 130 135 129
-1154.55013713942 506.527468782194 2752.16794582603 135 140 136
-1153.69014593566 505.717290332359 2760.15335295552 136 140 139
-1139.64724305373 502.52072463985 2768.3424339138 158 162 163
-1131.66773224367 500.428091043299 2776.36088582563 158 162 163
-1117.58269621746 497.236549896179 2784.39670691196 171 175 176
-1110.58543761306 495.331250570761 2792.28402141465 168 172 175
-1103.57494373354 493.42753973742 2800.12319882558 179 183 186
-1091.46504161463 490.609495460912 2807.93454157427 170 174 175
-1078.3168750687 487.610782747251 2815.6732677909 163 167 170
-1072.27768449354 485.895744688163 2823.34150172893 170 174 177
-1069.28531699153 484.730933907095 2830.97855807727 178 182 185
-1078.52703044271 485.761151962532 2838.66555380762 185 189 190
-1086.75766831598 486.607492067407 2846.37885355502 193 197 198
-1105.21200383523 489.279578102542 2854.23835738542 203 207 208
-1111.42197308131 489.75799806525 2862.00966581198 208 212 211
-1272.9104603444 528.138358057725 2640.2532793303 147 148 143
-1245.07538890905 522.403710999652 2650.18453140697 146 147 141
-1233.27373047075 519.586662442404 2659.14188019514 123 124 118
-1218.43520443757 516.226206801394 2668.16981718122 124 125 119
-1195.52208186293 511.413780767401 2677.47408281137 108 109 103
-1183.64900082848 508.60511534376 2686.17154617019 116 117 111
-1173.77118611018 506.162303784986 2694.71352446337 120 121 115
-1170.93424633453 504.992760040796 2702.92559437404 116 117 111
-1168.09000287034 503.824140349724 2711.11020149688 113 116 109
-1166.24771141612 502.837774962584 2719.23453452013 115 120 113
-1160.35749852983 501.126764839279 2727.45750742335 120 125 118
-1153.44401261317 499.235843708444 2735.66493113598 125 130 124
-1151.5772690329 498.252436222476 2743.6994166491 129 134 128
-1142.61566339914 496.002055430305 2751.868270029 139 144 140
-1134.65130591748 493.934581194978 2759.95886758276 148 152 151
-1116.5311590916 490.059545381436 2768.16780093871 164 168 169
-1108.53011414033 487.99635764377 2776.12582040107 175 179 180
-1097.46827836694 485.39271009932 2784.06653754131 162 166 167
-1092.48465772672 483.875271944965 2791.88232961277 164 168 171
-1089.52491385693 482.720306505528 2799.64672694678 167 171 174
-1083.5044552473 481.02467774965 2807.39676301942 155 159 162
-1075.43560418409 478.969649758971 2815.10725429237 144 148 151
-1068.37144364004 477.096718040063 2822.76568119533 153 157 160
-1063.33364343157 475.585827550851 2830.38351997931 164 168 171
-1070.53189820598 476.238168256793 2838.03855196449 176 180 183
-1073.65203323967 476.169385778748 2845.68325577462 180 184 185
-1079.83952337789 476.640527508995 2853.36650858451 195 199 200
-1085.00936451102 476.931071764841 2861.05558873061 200 204 205
-1098.37074102797 478.659859502545 2868.89198673693 216 220 221
-1127.10909576685 483.082969269213 2877.07262310105 217 221 222
-1280.22307049133 520.646508885257 2639.29475488092 218 219 214
-1242.3351042431 513.198206355983 2649.78565738777 178 179 174
-1230.52503560527 510.41976520303 2658.73522642491 134 135 130
-1215.6767096367 507.105919568096 2667.75620528938 118 119 114
-1197.78364964489 503.257454617017 2676.82504300399 117 118 113
-1181.87614067436 499.770551721122 2685.70147308828 114 115 110
-1171.99119518426 497.360827403426 2694.23786577525 118 119 114
-1169.15000869122 496.205602644159 2702.44320871405 120 121 116
-1167.31094875459 495.230135099985 2710.58549103376 118 120 115
-1163.44523983254 493.897844327616 2718.77151316769 116 121 114
-1155.52681981416 491.851925789744 2727.04627665803 118 123 117
-1151.64031871387 490.522075840648 2735.15664251734 127 132 126
-1143.69542120146 488.479277323618 2743.33507007959 133 138 132
-1130.67055412185 485.546137568885 2751.57298238211 142 147 143
-1117.62363845972 482.615540705802 2759.73156709028 130 134 133
-1103.54048139865 479.509283732624 2767.82820836866 108 112 113
-1094.51037847334 477.296618012688 2775.76655605235 107 111 112
-1082.41638639374 474.551613350394 2783.68308304746 179 183 184
-1078.43522773093 473.232949307622 2791.44906612519 159 163 164
-1072.4102841137 471.559516105064 2799.19646335403 137 141 144
-1072.48244141496 470.954481996073 2806.87502317715 130 134 137
-1065.41960830218 469.105622618822 2814.55450561109 134 138 141
-1062.42190482341 467.968976319816 2822.18953210308 143 147 150
-1057.37594239526 466.478020618234 2829.79058096895 149 153 156
-1063.55050786862 466.940742992964 2837.42053149107 162 166 167
-1063.60022673785 466.338369071659 2845.01839033962 169 173 174
-1068.75882950796 466.622999437989 2852.66108190376 185 189 190
-1075.9674748011 467.261624783183 2860.34603268773 190 194 195
-1088.30208819434 468.785235218235 2868.13797165483 202 206 207
-1104.74899151546 471.015503316778 2876.0570442099 206 210 211
-1126.34162409711 474.128362800013 2884.15589202607 207 211 210
-1278.21971909644 512.154712796767 2630.39174868307 220 220 218
-1266.45277658974 509.408788723385 2639.52196617434 192 192 190
-1248.63583818452 505.604751663716 2648.90147786535 167 167 165
-1228.77852899642 501.450778437032 2658.27813115584 144 144 142
-1210.90207194524 497.65372609727 2667.44107156621 134 134 132
-1189.97534963834 493.330579268972 2676.63671657443 126 126 124
-1174.05427957344 489.893436312808 2685.49328377173 119 119 117
-1162.14067162594 487.164619330014 2694.09069077088 123 123 121
-1161.30796484244 486.376897476138 2702.19157752431 124 124 122
-1157.44106755013 485.061279691602 2710.38278490156 120 122 117
-1155.58608153269 484.098795855437 2718.47506306066 116 121 115
-1148.66861799632 482.257125613967 2726.69788406164 120 125 119
-1146.79784643298 481.296481896637 2734.73271533741 127 132 126
-1132.76806643602 478.226769764847 2743.04967867041 131 136 130
-1117.70115803368 474.983991452961 2751.30490100917 129 134 130
-1107.68094333382 472.622441396355 2759.36948033885 109 113 112
-1098.65787864378 470.438465939426 2767.35300216323 121 125 124
-1085.5564625588 467.554507624172 2775.33775359819 125 129 128
-1073.4495635576 464.848514985495 2783.23098987251 166 170 171
-1070.4757089141 463.722721740161 2790.96234348804 138 142 143
-1067.49461261046 462.597852594848 2798.66646464465 127 131 132
-1065.52428844055 461.648975361736 2806.33910534618 124 128 129
-1061.50990707423 460.35075422465 2813.99371659519 134 138 139
-1060.5461837609 459.578488360485 2821.61792275466 139 143 144
-1055.4954018088 458.107210653983 2829.21257230612 142 146 147
-1058.60501036581 458.035616409486 2836.81641816932 156 160 161
-1058.64958188366 457.439729977387 2844.39926177211 165 169 170
-1065.85066798977 458.066744734424 2852.0478874362 177 181 182
-1074.0819999185 458.867520752924 2859.73499729666 184 188 189
-1082.32143827603 459.667294318986 2867.45250086494 196 200 201
-1090.56941941436 460.466159214827 2875.2002193947 199 203 204
-1104.97953058645 462.309901054498 2883.10661924693 199 203 202
-1130.6961861861 466.0680925555 2891.3383745353 170 172 169
-1290.96646653856 506.901014688134 2612.05524242927 224 226 223
-1274.2102215261 503.317954423303 2621.61609359303 189 189 189
-1269.47291591574 501.828964624834 2630.36343687406 189 189 189
-1247.64713853452 497.380628886768 2640.03834926168 173 173 173
-1229.80772494904 493.632617888695 2649.36978693569 155 155 155
-1217.9754222846 490.931909512896 2658.28588179588 150 150 150
-1205.11576466185 488.059665389863 2667.17655976795 133 133 133
-1189.21181549787 484.668528222109 2676.12666818365 124 124 124
-1170.25738840616 480.759314503588 2685.11282467135 122 122 122
-1158.3346932331 478.069172395334 2693.69998085168 121 121 121
-1153.45875792446 476.596349398751 2701.94282610602 121 121 121
-1152.61362810434 475.81863542 2710.00390700774 121 123 118
-1151.76385798343 475.041458115215 2718.04809820997 119 124 118
-1145.85051317897 473.398265839285 2726.22893249582 122 127 121
-1140.93798767768 471.929703564456 2734.33861553302 124 129 125
-1121.8306456253 468.038420732165 2742.76834936515 124 129 125
-1105.73437579702 464.669840514702 2751.01865012563 120 125 121
-1098.7437954252 462.861126772839 2758.99080965561 136 140 139
-1092.7550016165 461.226794135925 2766.89711008857 115 119 118
-1078.62624258773 458.211446328538 2774.88183548676 138 142 141
-1064.47451672391 455.1988738098 2782.78211267723 134 138 137
-1061.49141480786 454.087959836573 2790.48852697568 125 129 130
-1057.48274323662 452.805397423541 2798.17515269584 137 141 140
-1055.50304577601 451.868836128038 2805.8198388219 127 131 130
-1050.45852573053 450.415839344766 2813.44927922323 128 132 131
-1053.56617363373 450.342431983847 2821.04470085631 132 136 135
-1050.54893501463 449.235657358293 2828.62605661185 140 144 145
-1055.69816846641 449.506788928709 2836.2254393003 149 153 154
-1057.78398349774 449.261326223124 2843.81468940079 160 164 165
-1067.03176199219 450.219645743968 2851.47881047727 170 174 175
-1075.26543284821 451.004969523113 2859.16484858137 175 179 180
-1082.48263703789 451.617512711268 2866.86510996218 184 188 189
-1083.5550452889 451.199034583038 2874.47886681352 193 197 198
-1092.83389951453 452.153770871539 2882.2561037239 200 204 203
-1109.30971659382 454.308190986526 2890.23556997248 185 187 184
-1141.21722936893 459.032219691458 2898.68276327607 199 201 198
-1349.74365349105 509.470878780403 2590.3163799705 182 184 181
-1325.03528659418 504.556622005419 2600.68453448258 223 225 222
-1303.29609036189 500.162054129788 2610.71578094284 199 201 198
-1289.55092167695 497.144684866925 2620.12249684229 184 184 184
-1265.73937830163 492.414500762229 2630.0402747807 193 193 193
-1237.87020912756 487.002859130469 2640.04885735306 159 159 159
-1222.02601841345 483.652857798659 2649.24680819411 156 156 156
-1208.1685747578 480.648524326337 2658.24582827084 134 134 134
-1196.30218756379 477.989356699097 2667.06160060711 130 130 130
-1181.3917493248 474.819185819082 2675.94267750398 125 125 125
-1170.49080741588 472.336078593998 2684.55779389844 126 126 126
-1162.5987767688 470.368078427538 2692.97972953287 119 119 119
-1154.692002276 468.401797902083 2701.34800984917 119 119 119
-1151.82403872036 467.291189640391 2709.48210332354 117 122 118
-1143.89146983675 465.327921248281 2717.75651582561 120 125 119
-1137.96861718525 463.70763533279 2725.9155821932 125 130 124
-1122.91807421558 460.55384878472 2734.28682189433 125 130 126
-1107.84261451601 457.402907960674 2742.56827632453 128 133 129
-1094.77139712203 454.595669266043 2750.71358633256 130 135 131
-1091.82828941777 453.493852891694 2758.57423504839 133 137 136
-1079.73629616122 450.861081006119 2766.56904118149 122 126 125
-1065.59096681821 447.890440095568 2774.52046984479 126 130 129
-1055.49127303955 445.602715566834 2782.33656850584 127 131 130
-1058.60619575039 445.526412520644 2789.95717188977 121 125 126
-1059.6851682435 445.110280148766 2797.59678147325 139 143 142
-1057.70424727498 444.184947979279 2805.24494345904 126 130 129
-1050.61759722984 442.411870620176 2812.88291406761 127 131 130
-1053.72488885478 442.336500692785 2820.47577384761 134 138 137
-1050.70454310459 441.243786973056 2828.05539977674 135 139 140
-1053.81000564869 441.168722374652 2835.64073228431 140 144 145
-1055.89361179279 440.924128905858 2843.22233001003 157 161 162
-1062.07122014372 441.356710032431 2850.84547755653 167 171 172
-1066.20578934917 441.450296144819 2858.46183824383 168 172 173
-1071.36766191965 441.712662183176 2866.10354242722 173 177 178
-1074.48253882827 441.636562922483 2873.72317539348 186 190 191
-1082.73064890559 442.405071106825 2881.45220700999 198 202 203
-1095.09560409672 443.848083107037 2889.30591349345 198 200 197
-1120.83679356207 447.483644081943 2897.55133572225 190 192 189
-1147.63910823869 451.284087675207 2905.94428575486 141 143 140
-1341.71009397809 499.765026149229 2581.63768152513 205 207 204
-1329.02714181003 496.952622394956 2591.22221229328 190 192 189
-1307.29962953005 492.620729956378 2601.33547994581 174 176 173
-1295.56971774599 489.983239773514 2610.67164473431 182 184 181
-1279.80329426814 486.672291471544 2620.1829861202 183 185 184
-1259.99217608965 482.688986535793 2629.83795957797 178 180 179
-1233.11110863521 477.52788867231 2639.77703000756 152 154 153
-1218.26154240062 474.396089248315 2648.90833845478 145 147 146
-1203.38695116267 471.267133629111 2657.94945842121 133 135 134
-1189.49534240206 468.309621407852 2666.85119064625 131 133 132
-1175.58064495949 465.354869684248 2675.66801293159 127 129 128
-1168.70521625422 463.58133665982 2684.09084831614 125 127 126
-1161.81651210596 461.809349837887 2692.46537077407 119 121 120
-1152.89386553719 459.70254016845 2700.86951481732 119 121 120
-1145.97717421935 457.93381186488 2709.14218365787 122 127 123
-1136.01170170686 455.662537759711 2717.46793453231 126 131 127
-1131.09154698439 454.233059481625 2725.573967356 131 136 132
-1116.02832125355 451.126180248836 2733.92773327391 132 137 133
-1099.92650350908 447.854426250204 2742.21763769209 133 138 134
-1086.84247309252 445.088770238826 2750.34255761036 130 135 131
-1084.90640785182 444.169395500478 2758.16009230969 123 128 124
-1072.80294340478 441.575473199444 2766.13683575468 118 122 121
-1061.69591951975 439.151365677387 2774.02405948662 119 123 122
-1049.55223987043 436.562087328323 2781.85535273819 111 115 114
-1052.66270607921 436.484378882479 2789.45759368512 111 115 114
-1055.77403416555 436.406505852734 2797.06385972738 125 130 126
-1058.88643607121 436.328505020022 2804.67403196221 118 123 119
-1051.79609614262 434.580174066735 2812.31392634192 126 131 127
-1052.86130002082 434.16886549542 2819.90639027442 123 127 126
-1051.88120994507 433.424068600544 2827.48717232205 130 134 133
-1053.96428078803 433.18014719955 2835.06720688797 123 127 126
-1055.0238664798 432.769589407011 2842.63835657532 141 145 146
-1057.10565611018 432.52583423665 2850.21373919938 163 167 168
-1059.18717576643 432.282121121345 2857.78814601377 156 160 161
-1063.31939182603 432.371347243993 2865.39301726245 174 178 179
-1068.48020573274 432.626625670165 2873.02538706499 180 184 187
-1078.77920061098 433.712790227558 2880.77686282071 193 195 194
-1091.14452181498 435.130057461103 2888.61567434032 207 209 208
-1111.75012608105 437.874560832571 2896.71363909195 194 196 195
-1130.32289226433 440.28400910025 2904.84703702901 149 153 152
-1325.67411701988 488.760673450246 2573.6011207128 212 217 213
-1320.99759145167 487.322012556292 2582.60590341335 184 189 185
-1316.31058740578 485.884552719425 2591.57253986451 174 179 175
-1293.56012830454 481.45247610613 2601.7218048254 176 181 177
-1271.7772237466 477.190995227042 2611.67386597899 170 175 171
-1261.00745071315 474.762485030052 2620.810456405 175 177 176
-1249.21363525803 472.170013211611 2629.9377816262 165 167 166
-1232.37016810276 468.749406711343 2639.27735887116 147 149 148
-1218.51864788934 465.830070168967 2648.3520341399 141 143 142
-1203.63664454822 462.747524125767 2657.39400597423 133 135 134
-1186.71385728996 459.336149158029 2666.44491152946 132 134 133
-1173.79833796879 456.591075739219 2675.20754586658 127 129 128
-1168.93592210791 455.173978973375 2683.53576880553 126 128 127
-1164.06279949178 453.758051983405 2691.82590721844 120 122 121
-1157.15805915274 452.012369370054 2700.15656852078 121 123 122
-1145.18203276506 449.44102178549 2708.62164601964 127 132 128
-1131.16147567572 446.541426469639 2717.08025505286 134 139 135
-1124.20811093114 444.801338712223 2725.23484478921 139 144 140
-1107.10477011931 441.411000912051 2733.62867215389 139 144 140
-1087.94524264053 437.693709378949 2741.97450072359 136 141 137
-1075.86081523408 435.135009030886 2750.04509128884 131 136 132
-1072.89868007109 434.063093985127 2757.8530438907 113 118 114
-1062.81312657621 431.838103961896 2765.76217895906 114 119 115
-1055.76206867306 430.109486316514 2773.56036575075 112 117 113
-1046.66158384722 428.052996112304 2781.33692929949 100 105 101
-1051.80669699788 428.302743245957 2788.90751310354 118 123 119
-1055.93643194963 428.387532113117 2796.50037103423 120 125 121
-1061.08877359195 428.636445040801 2804.09726613708 116 121 115
-1052.97443469804 426.748409409833 2811.74430024378 124 129 125
-1050.97448476218 425.847622799204 2819.33730818428 123 128 124
-1047.9466585639 424.783413561809 2826.9062278912 125 129 128
-1047.98000986274 424.21233031132 2834.46307245032 119 123 122
-1046.98666299592 423.477619667436 2842.0010025618 136 140 139
-1047.0133081631 422.907405801224 2849.53256842963 164 168 169
-1050.11192745793 422.829063822064 2857.09135314976 157 161 162
-1054.23770552624 422.914382530553 2864.66985446185 162 166 169
-1064.52502455939 423.981449959065 2872.36592316576 168 172 175
-1072.769209192 424.720057705236 2880.06150280406 189 193 194
-1085.13346067777 426.111742611189 2887.88019132715 195 199 198
-1096.48319983823 427.338383549643 2895.72431468869 198 202 201
-1112.99231407428 429.380276040816 2903.75636270349 179 183 182
-1328.65612959417 480.950568479021 2564.15564696843 152 157 153
-1309.96842586606 477.234427470815 2574.25399103059 160 165 161
-1310.28619638277 476.636202888952 2582.84969278525 195 200 196
-1304.58510973653 475.055389406528 2591.85705369322 128 132 131
-1280.81188114923 470.528449611427 2602.04540474716 158 162 161
-1257.00092735028 466.0058927827 2612.09645665967 174 176 173
-1240.1856632166 462.632783071456 2621.57073318227 159 161 158
-1230.38140617122 460.407404818663 2630.5230927047 145 147 144
-1221.56539607536 458.347436643247 2639.35365936136 139 141 138
-1213.74029694131 456.452700245788 2648.07035349378 134 136 133
-1204.89291384573 454.396438054358 2656.78584909318 132 134 131
-1196.02935255451 452.342048757269 2665.44246067043 128 130 127
-1185.13139849098 449.963358940975 2674.13459403482 126 128 125
-1175.22414344751 447.749864121706 2682.71297377773 128 130 127
-1160.24692880524 444.723856881277 2691.43714035205 127 129 126
-1150.30096943081 442.514861878819 2699.87465944871 130 132 129
-1137.30182764571 439.81970133071 2708.35833234043 134 138 137
-1129.34398098757 437.940381029514 2716.59189384983 141 145 144
-1118.33133470764 435.575024538557 2724.86661545738 139 143 142
-1105.27150921959 432.886858979968 2733.1303269464 143 148 144
-1084.07158006977 428.901939328932 2741.52514742727 137 142 138
-1070.96263696878 426.219559085484 2749.60921836885 124 129 125
-1063.92901741567 424.513175746323 2757.48711693588 115 120 116
-1056.88220106001 422.808331319698 2765.31698995034 112 117 113
-1054.91056066735 421.915450087908 2773.01916769607 110 115 111
-1048.85946780979 420.375289871376 2780.75269048465 92 97 93
-1049.9299135901 419.969861130954 2788.36832878975 123 128 124
-1049.97910642669 419.402859478455 2795.98563775847 118 123 117
-1056.14797923383 419.806690389594 2803.55820056205 118 123 117
-1052.11005710047 418.593240081884 2811.17985844327 125 130 126
-1047.04140443469 417.219257115119 2818.76958434264 126 131 127
-1044.00762789495 416.169452056631 2826.32643466496 122 126 125
-1044.03676981762 415.604809106883 2833.8707876816 118 122 121
-1042.01454829072 414.717851849128 2841.38890767659 135 139 138
-1041.01102735559 413.992838430354 2848.89518578678 166 170 171
-1046.15607831171 414.23536654212 2856.46098096221 157 161 162
-1052.33125837607 414.638507701852 2864.0565259027 156 160 163
-1057.48508376206 414.880028227772 2871.65426267957 162 166 169
-1060.58754431731 414.799243631424 2879.22576710612 188 192 193
-1065.74801255411 415.040008514864 2886.84769041297 190 194 193
-1079.14501534934 416.566306178264 2894.689449198 197 201 200
-1100.79584442418 419.376183599146 2902.81308217431 192 196 195
-1122.47358546809 422.182939490372 2911.03466324677 172 176 175
-1299.94590817083 467.358929601361 2565.87714534827 156 161 157
-1293.24732472298 465.638120842063 2574.9889308312 179 184 180
-1287.53737629821 464.080038075317 2583.97866969878 165 170 166
-1285.82782367322 463.167948868273 2592.64180104804 141 145 144
-1273.07074618625 460.484840817304 2602.03274957363 179 183 182
-1252.2561475899 456.516441920626 2611.86865721619 153 155 152
-1233.41861448085 452.873727819265 2621.45707205778 145 147 144
-1222.59761260512 450.521048857936 2630.45133570535 140 142 139
-1211.75755941411 448.170578691984 2639.37626007105 139 141 138
-1204.92768231401 446.464900627159 2648.01105970693 134 136 133
-1198.0847738318 444.760798220622 2656.59754214079 128 130 127
-1193.24570550864 443.379136125963 2665.03575053017 129 131 128
-1186.37762232926 441.677947104107 2673.53060360612 129 131 128
-1173.43483079056 439.016365648705 2682.24562302209 130 132 129
-1160.47042090626 436.357358392414 2690.88107394999 129 131 128
-1147.4839070407 433.700849889316 2699.43696373216 131 133 130
-1136.50026648859 431.367027838527 2707.83928711683 136 140 139
-1121.44553822274 428.395482790259 2716.31004537603 135 139 138
-1105.35218999405 425.266879197301 2724.72270214095 137 141 140
-1092.27642107771 422.620800812326 2732.95286142121 139 143 142
-1082.22418654411 420.456420068792 2741.02396878872 121 126 122
-1074.18639437114 418.61338866207 2748.98361917871 107 112 108
-1062.06747586837 416.133797981762 2756.97516774366 108 113 109
-1052.98027316981 414.135027234485 2764.83655724873 98 103 99
-1052.0213243058 413.41331709693 2772.5104082419 105 110 106
-1050.03905670428 412.532837336796 2780.18095888398 101 106 102
-1053.14805453203 412.449214374202 2787.77494292622 126 131 127
-1049.1167907038 411.251408682469 2795.43119898095 116 121 115
-1051.20220064862 411.009052640907 2803.02090645963 121 126 120
-1046.13590560451 409.653840056626 2810.63123638303 122 127 121
-1043.10388788779 408.617607964118 2818.20318613064 126 131 127
-1041.08763392971 407.741090486887 2825.75005366998 117 122 118
-1040.08909451992 407.023998005513 2833.27982807257 118 123 119
-1038.06158469526 406.148797669677 2840.78573635951 131 135 134
-1041.15394219084 406.067129933017 2848.31917253714 160 164 165
-1044.24769372096 405.985373093553 2855.85679921443 151 155 156
-1047.34240113808 405.903445310529 2863.39879601047 149 153 156
-1048.38376178119 405.504763272287 2870.90977739375 150 154 157
-1047.36728628638 404.789785805738 2878.3742939377 176 180 181
-1051.48998209858 404.866102017668 2885.9365967544 186 190 189
-1064.8808315325 406.364838224264 2893.73717943148 187 191 190
-1088.58879090662 409.441655587897 2901.87442515927 198 202 201
-1117.48102409946 413.304593540286 2910.27271890543 185 189 188
-1306.25617392954 459.48331372153 2564.85021379273 139 144 140
-1287.53315497305 455.883320827157 2574.89169819469 137 142 138
-1268.77979024579 452.286906537912 2584.82184501884 125 130 126
-1264.04386805137 450.91248892468 2593.6466595319 186 190 189
-1254.27662722037 448.74736734533 2602.77542493499 182 186 185
-1239.46754619735 445.792825378959 2612.16895811706 142 144 141
