ply
format ascii 1.0
comment KinectMotionCapture
element vertex 753
property float x
property float y
property float z
property uchar red
property uchar green
property uchar blue
end_header
-1075.85950374433 203.843902722997 2830.65591743028 173 177 180
-1082.98415782519 203.536377895706 2828.75968521027 155 159 162
-1090.18076168212 202.406451985654 2831.89579614472 151 154 159
-1097.33346325606 201.605988026641 2833.02066346436 141 146 149
-1104.46648159189 200.969799527064 2833.13986742398 138 143 146
-1111.56101331046 201.31627976393 2827.21492360487 132 138 138
-1118.67900845335 201.82422454412 2820.27869911106 125 131 131
-1125.82844257819 202.166341210813 2814.34691528753 117 119 116
-1133.02305238604 203.649052250445 2801.35195959759 109 109 107
-1140.3085182782 205.942424102482 2783.30485499937 106 108 105
-1147.66038972512 207.740711805079 2768.27406873029 87 89 86
-1155.01116157681 208.394815838702 2760.30048280726 48 50 47
-1162.25016719999 207.258217166996 2763.43131982445 69 71 68
-1169.40193148475 205.473447812176 2770.60549937209 87 89 88
-1176.47178999856 203.366959947659 2779.8063619751 105 109 108
-1183.50836831214 201.425763052583 2788.00325536427 122 126 125
-1190.54406925333 199.81117023431 2794.183783679 143 147 146
-1197.46021726349 197.714026694634 2803.40380383618 132 136 135
-1204.52910321889 196.750329087381 2805.54748808644 119 123 122
-1211.6779037777 196.271229612959 2804.65662173139 115 119 118
-1218.89582637784 196.11412554545 2801.74066692565 120 124 123
-1226.01027224721 195.473299808725 2801.86244110003 131 135 134
-1233.11833181076 194.832699245869 2801.98477138589 131 135 134
-1240.09066442786 193.710578339224 2805.14860922226 138 142 141
-1247.13206377885 192.910518588973 2806.28760560558 145 149 150
-1254.01617026258 191.630459169456 2810.47055656545 151 155 156
-1261.02596297676 190.831994888028 2811.61349306858 146 150 151
-1267.86229252057 189.55462080064 2815.80239923637 147 151 152
-1274.89699302909 188.917501690667 2815.93411539906 161 165 166
-1281.98461812785 188.440059861949 2815.05087901441 162 166 167
-1289.25706747867 188.440293930559 2811.12001814998 159 163 166
-1296.4153424652 188.121191152239 2809.21962072982 162 166 169
-1303.77994859533 188.278247357227 2804.26915916045 169 173 176
-1311.09503340467 188.275078497218 2800.33298660434 175 179 182
-1318.64330765842 188.746355088717 2793.34316238565 176 180 183
-1326.44905633538 189.690442959795 2783.29690045486 178 182 185
-1334.22405498463 190.473107422884 2774.26234787799 178 182 185
-1341.71794576486 190.620673287611 2769.29577734108 175 179 182
-1349.81642078332 191.871585994354 2757.19656241604 177 181 184
-1358.31749107491 193.74899188277 2741.01422720329 182 186 189
-1366.8981953672 195.620909076833 2724.82220886106 162 166 169
-1374.27742706648 195.285520366646 2722.89428023786 163 167 168
-1382.1319885406 195.73513720928 2715.86653049373 164 168 169
-1389.53340038987 195.398096607469 2713.93583826914 161 165 166
-1396.93920064722 195.060629637284 2712.00483978872 152 156 157
-1405.37178050418 196.288346838112 2699.86399163959 157 161 162
-1415.01651134636 199.232248981415 2676.48183554662 165 169 170
-1425.53145027456 203.261501203656 2645.93393417351 155 159 158
-1434.87776166546 205.408177043873 2627.63003455936 139 143 142
-1444.87905630484 208.327900833132 2604.20344508532 117 121 120
-1455.69131088524 212.173580822422 2574.6268512744 114 118 117
-1465.46961565841 214.454560781285 2555.26076038801 95 99 98
-1474.49647902896 215.642149268181 2543.04585484729 100 104 103
-1483.33414018192 216.515628529456 2532.87076201661 128 132 131
-1492.21919254456 217.385939393198 2522.68976338701 154 159 155
-1500.50633552211 217.479446930846 2517.62434202622 181 186 180
-1031.47282170056 204.543936325512 2804.95256669304 158 159 153
-1038.96245820373 202.765953394218 2812.08480418225 181 182 177
-1046.28888543086 201.64110239646 2815.20446029427 164 166 165
-1053.70146081447 199.867339391665 2822.34606317385 173 175 174
-1060.99687128084 198.582968235175 2826.47793745184 154 155 157
-1068.26451757084 197.300034840123 2830.61303247986 152 153 157
-1075.4282826238 196.666279683215 2830.72863329158 181 185 188
-1082.58587344984 196.032586884054 2830.84476417735 165 169 172
-1089.75092363531 195.237221387437 2831.9683173054 147 151 154
-1096.89338237078 194.603686339699 2832.08633617118 141 145 148
-1104.02145287579 194.131431791463 2831.19803877842 136 140 141
-1111.12647341601 194.303054256042 2826.27993359629 127 133 131
-1118.24656341193 194.794710729068 2819.34349057188 122 128 126
-1125.39800728031 195.444644083823 2811.39503085483 111 113 110
-1132.61193617975 197.697092299592 2793.35672115257 98 98 96
-1139.91134812799 199.7826907373 2776.31635069982 102 104 101
-1147.26427247073 201.221573193815 2763.30175371288 54 56 53
-1154.58518930344 201.215942523717 2759.36485983782 51 53 50
-1161.8279272715 200.090241765187 2762.49496211243 72 74 71
-1168.98400545014 198.327118139009 2769.6687865771 97 99 98
-1176.05848801107 196.247718321297 2778.86900079096 131 135 134
-1183.12101391044 194.490223536294 2786.05424493493 139 143 142
-1190.11534408414 192.576204189027 2794.25633907108 131 135 134
-1197.00651087264 190.347402085183 2804.48751055338 124 128 127
-1204.07352772434 189.392214518574 2806.63140564584 119 123 122
-1211.21995244767 188.913505287276 2805.74083475332 117 121 120
-1218.47007186809 188.909667458926 2801.81277125538 120 124 123
-1225.58496898513 188.271799084746 2801.93448132861 128 132 131
-1232.73372685225 187.792015524819 2801.04362210274 127 131 130
-1239.66670393903 186.522996926964 2805.22044522466 144 148 147
-1246.70859796514 185.728489688044 2806.35936525311 155 159 160
-1253.49711514498 184.147232079663 2812.57065285282 154 158 159
-1260.55309512127 183.512069423243 2812.69946804275 155 159 160
-1267.49526065395 182.562864769879 2814.85892808592 156 160 161
-1274.53297274854 181.928417965929 2814.99002111431 152 156 157
-1281.68258251773 181.607689855557 2813.09094961104 149 153 154
-1288.96017542359 181.599653198622 2809.15946864201 159 163 166
-1296.1882590748 181.433961266162 2806.24250868175 170 174 177
-1303.49335757264 181.423664706518 2802.30760112883 171 175 178
-1310.88337898091 181.568229869545 2797.35376050897 170 174 177
-1318.43890944454 182.022832127522 2790.36331493818 172 176 179
-1326.17622448751 182.786636152172 2781.33351472089 176 180 183
-1333.79964025528 183.236463306327 2774.3343697718 172 176 179
-1341.21245192342 183.218110355685 2770.38604146824 179 183 186
-1349.47318724589 184.749789211839 2756.25022356374 176 180 183
-1358.14667222043 186.896417561248 2738.03028883371 182 186 189
-1366.64443567177 188.572583863345 2722.8568236193 161 165 168
-1373.93757205272 188.079690759853 2721.94798133198 159 163 164
-1381.69991609634 188.35869350353 2715.93987618234 155 159 160
-1389.10129008665 188.019146981478 2714.00919528157 152 156 157
-1396.50699531194 187.679207594403 2712.07821517162 150 154 155
-1404.63168148602 188.41582552266 2703.00014492089 158 162 163
-1414.68389281843 191.915412591097 2675.5349259025 167 171 172
-1425.30442890965 196.019615062466 2643.96572188198 154 158 157
-1434.98376047033 198.579969646885 2622.59587234787 140 144 143
-1445.67172755373 202.358048750972 2593.03496690632 122 126 125
-1456.85553866488 206.584879869413 2560.38745945699 98 102 101
-1466.55030918708 208.662027025677 2542.04025730464 86 90 89
-1475.24763909438 209.359807738809 2532.8910670466 95 99 98
-1483.49297788922 209.445347892606 2527.83088358249 123 127 126
-1492.38997615092 210.290560940676 2517.64846026951 153 158 154
-1500.04542215844 209.61237135994 2517.70257895262 182 187 181
-1030.96294806301 197.600945471499 2803.01910583158 170 171 166
-1038.45973184524 195.844422758174 2810.15015459915 175 175 173
-1045.88260828446 194.250314615869 2816.28231175501 167 169 168
-1053.34882351894 192.178955689768 2825.43361887171 166 170 169
-1060.61277780452 191.068446377296 2828.56103346918 154 158 159
-1067.85440595671 189.958913955104 2831.69147193224 148 152 155
-1074.97767286688 189.646729584264 2829.79542509367 175 179 182
-1082.12205623148 189.174719840381 2828.90509130779 175 179 182
-1089.27941372585 188.543463158459 2829.02148516529 145 149 152
-1096.44166389179 187.753558949283 2830.14513306837 141 145 146
-1103.56713271967 187.439624308344 2828.2490563215 136 140 141
-1110.69140895444 187.283320082152 2825.34478592218 124 128 127
-1117.80759893875 188.074990292111 2816.39266532428 116 120 119
-1124.96549507023 189.179533019804 2805.41890164202 109 111 108
-1132.19800622775 191.700522460193 2785.36219159367 107 107 105
-1139.50658759415 193.426198582764 2770.33699889073 101 103 100
-1146.82739772041 193.886882623942 2763.3755887455 46 48 45
-1154.12718978298 193.558677316259 2761.45779507082 54 56 53
-1161.39192254211 192.758571462888 2762.56868061781 70 72 69
-1168.51788185585 190.703483933394 2771.7624068117 107 109 108
-1175.60748014404 188.808478781197 2779.95256197718 134 138 137
-1182.62639900359 186.759881870922 2789.15962909412 134 138 137
-1189.68628460538 185.340154580627 2794.32893903655 129 133 132
-1196.63285297248 183.453753616672 2802.53692083177 126 130 129
-1203.70602498663 182.506505176706 2804.68002688894 121 125 124
-1210.85815716987 182.027611514031 2803.78874422486 117 121 120
-1218.11341828916 182.015473217288 2799.86006093229 120 124 123
-1225.27159521846 181.53562710877 2798.96802642786 130 134 133
-1232.50892493156 181.366148507928 2796.04968231706 130 134 133
-1239.41358884738 179.954816675097 2801.2383408991 149 153 152
-1246.28489381039 178.545490554636 2806.43115719927 159 163 164
-1252.97837926069 176.673866171803 2814.67044306395 156 160 161
-1260.02937423437 176.041920118873 2814.80011215066 158 162 163
-1266.9668981446 175.101431992605 2816.96012848621 148 152 153
-1274.16840397371 174.932921690551 2814.04625243436 146 150 151
-1281.37972332422 174.76354732209 2811.13115398854 149 153 154
-1288.72399877635 174.901085523954 2806.18328096756 164 168 171
-1295.83145399194 174.42232068079 2805.29757338567 170 174 177
-1303.13885707217 174.403844671164 2801.36239977477 167 171 174
-1310.46142138973 174.384253498225 2797.42533706784 168 172 175
-1318.30572994713 175.435422680765 2786.36605373018 171 175 178
-1325.8273924608 175.718052669579 2780.38797466036 174 178 181
-1333.45269833539 176.151634421176 2773.38863661882 169 173 176
-1340.62654624389 175.667445538576 2772.49465790538 179 183 186
-1348.9631013062 177.316853981097 2757.34138101073 175 179 182
-1357.37383015379 178.961119072439 2742.17886121102 182 186 189
-1365.68177594512 180.296220925236 2729.04535649585 160 164 167
-1373.23245993286 180.260215970987 2725.07986902781 162 163 165
-1381.07991628233 180.678122546428 2718.05284920036 157 158 160
-1388.57232256261 180.48782786046 2715.10296812913 155 156 158
-1395.97536868614 180.145636620754 2713.17208552079 154 155 157
-1404.50367756274 181.465388695932 2700.01136148719 160 161 163
-1414.76913447864 185.196176794878 2670.50306708712 167 168 170
-1425.93471630921 189.972246618231 2633.82539948215 156 158 157
-1435.74763689811 192.627330424597 2611.43094226286 141 143 142
-1446.68607087998 196.628598104524 2579.82257780883 125 127 126
-1458.01501264333 200.919532220004 2546.14910300096 90 92 91
-1467.74462952218 202.948234486555 2527.7976798072 83 85 84
-1476.1162600153 203.172533579454 2521.71344310211 90 92 91
-1484.02018329303 202.796286095274 2519.72038394072 127 131 130
-1492.18083587032 202.718884447867 2515.67888501553 166 170 169
-1499.58428715917 201.744593242187 2517.78084538796 174 179 175
-1021.48892112439 198.221133001222 2756.83487749572 146 148 143
-1030.48774933702 190.48818271191 2802.08921166387 182 184 181
-1037.95613197097 188.910794303976 2808.21564588483 169 171 170
-1045.47647108584 186.863668612163 2817.36013484387 171 175 174
-1052.88713938215 185.133895553866 2824.50210013945 157 161 160
-1060.20439384125 183.720347378894 2829.63927569756 151 155 156
-1067.44436606279 182.622026272858 2832.76965101764 144 148 151
-1074.60390353308 181.994360847087 2832.88552310085 154 158 161
-1081.72397434478 181.679396480338 2830.99012270623 181 185 188
-1088.86255799326 181.207517322889 2830.10051234674 147 151 152
-1096.0115416685 180.579299929494 2830.21770293476 145 149 150
-1103.11156614347 180.730218460432 2825.30027575511 136 140 139
-1110.23813514601 180.723770258064 2821.38763749323 128 133 129
-1117.35792687461 181.80413421827 2810.41869268909 106 111 107
-1124.52934324485 183.346442306515 2796.41878735815 110 110 108
-1131.78787754041 186.124629505776 2774.34277825849 97 97 95
-1139.10944357988 187.345811781548 2762.34035500628 73 75 72
-1146.42075107051 187.169950654196 2759.41303598309 48 50 47
-1153.70057914812 186.374795639432 2760.52202468572 60 62 59
-1160.94262837281 185.271298195019 2763.65239470853 107 109 106
-1168.11501004471 183.706376472657 2769.81573526904 119 121 120
-1175.1565606202 181.373503749876 2781.03610090825 117 121 120
-1182.17473557712 179.352396577804 2790.24318846659 122 126 125
-1189.25700887555 178.103013888105 2794.40156886221 130 134 133
-1196.28482390052 176.701663697196 2799.57483262759 127 131 130
-1203.39598257542 175.915462225674 2800.70484669568 116 120 119
-1210.52730149693 175.282908101773 2800.8244934299 121 125 124
-1217.79050634847 175.262260969932 2796.89484121422 125 129 128
-1224.91975905268 174.629358194506 2797.01450644957 125 129 128
-1232.08250146831 174.149071932825 2796.12190335857 131 135 134
-1239.07366615605 173.059016576277 2799.28330662037 154 158 157
-1245.9969564178 171.818059935996 2803.46150496936 157 161 162
-1252.74821330449 170.122528780218 2810.68543046689 159 163 164
-1259.60749358163 168.885291610181 2814.87160708845 149 153 154
-1266.54565898759 167.95318344606 2817.03152130079 136 140 141
-1273.80316306811 167.930928653708 2813.10258474135 149 153 154
-1281.01708139476 167.756192884826 2810.18717607773 164 168 169
-1288.42509871634 168.033968980698 2804.22329203858 163 167 170
-1295.66643594726 167.857008692709 2801.304467516 161 165 168
-1303.1848727533 168.282259041599 2794.31848804286 166 170 173
-1310.52594703948 168.253485903662 2790.37913958164 171 175 178
-1318.17094969644 168.825214254341 2782.36929259576 172 176 179
-1325.55296244207 168.793385185134 2778.42484330452 172 176 179
-1333.02757898409 168.91034700099 2773.46075867326 167 171 174
-1340.36210076433 168.726136434159 2770.53032436318 180 184 187
-1348.37005707437 169.738691440882 2759.45072044252 174 178 181
-1356.85898318627 171.495099937143 2743.27045966267 182 186 189
-1364.9857854333 172.499456692561 2732.17604606149 160 164 167
-1372.89214123011 173.052654099173 2724.13363254944 165 166 168
-1380.74136777173 173.454293050213 2717.10643465268 163 164 166
-1388.42898896667 173.556222053456 2712.11580788838 163 164 166
-1395.93904110473 173.359515307169 2709.16350133561 159 160 162
-1404.27278469703 174.349494267335 2698.04330054138 160 161 163
-1414.95690084668 178.597149878755 2664.45041013033 163 164 166
-1425.59750505563 182.537184120386 2632.87937432729 156 158 157
-1436.17829968146 186.170545662301 2603.33222448339 140 142 141
-1447.24602237615 190.237042502225 2570.69962641674 125 127 126
-1458.59405428447 194.439775092901 2537.02400154721 85 87 86
-1467.87358540837 195.83168904128 2522.76141201567 84 86 85
-1476.13724265295 195.894532354388 2517.69900228865 95 97 96
-1483.92859818999 195.368197748711 2516.7280732631 103 107 108
-1492.0967222655 195.282317350224 2512.68566426758 123 127 126
-1499.50860134305 194.315820491852 2514.78655237568 171 176 172
-1022.61602527744 184.46412801494 2798.04874466328 133 135 130
-1030.08342939646 183.058960963636 2803.16716036011 174 176 173
-1037.55071815796 181.500842926462 2809.29368034206 164 166 165
-1044.97948095885 179.944791019845 2815.42500269504 173 177 176
-1052.45252408818 177.927762367943 2824.57531465398 151 155 154
-1059.7711739368 176.530638484805 2829.71227282294 155 159 160
-1066.99000955478 175.597282647848 2831.83716433782 151 155 158
-1074.09429374369 175.433771478421 2828.93540780686 141 145 148
-1081.2758492273 174.654554490948 2830.05685864476 165 169 172
-1088.43165206889 174.029247120285 2830.17319057769 146 150 151
-1095.58119948183 173.403890339886 2830.29030328126 138 142 141
-1102.65479565494 174.003420567415 2822.35169123119 144 148 147
-1109.76531629828 174.600150577825 2814.40847859979 122 127 121
-1116.89608790955 175.957809097337 2801.42181886074 121 126 120
-1124.08821797737 177.921149984133 2784.39491824459 109 109 107
-1131.36982301491 180.183154694442 2765.34069096425 82 82 80
-1138.69998232099 180.916372325276 2756.36202219276 57 59 56
-1145.99759340427 180.126026789116 2757.46877901582 54 56 53
-1153.26316647917 179.032435175263 2760.5959470458 61 63 60
-1160.4933653641 177.788320435996 2764.73585332978 116 118 115
-1167.6801011857 176.394165513988 2769.88926577079 118 120 119
-1174.76040767568 174.396691859482 2779.0885374431 119 123 122
-1181.74405767691 172.100384802425 2790.31603243729 123 127 126
-1188.82742278229 170.864698523669 2794.47424051284 127 131 130
-1195.96185233675 170.082929564478 2795.60157910861 124 128 127
-1203.11343794792 169.452247108429 2795.71845148207 116 120 119
-1210.25869072354 168.821699340486 2795.83611380127 116 120 119
-1217.46633703468 168.491749666516 2793.92982396533 117 121 120
-1224.64118619968 168.011259496242 2793.03571056057 122 126 125
-1231.73539232512 167.230706747124 2794.1678253309 134 138 137
-1238.64792910426 165.851989323313 2799.35541553726 162 166 165
-1245.52701653055 164.475253509778 2804.5471748066 159 163 164
-1252.32499879143 162.951174142407 2810.7571306433 147 151 152
-1259.23583613659 161.876866648828 2813.92851681113 137 141 142
-1266.28397039875 161.250836170096 2814.05852731927 147 151 152
-1273.49332492805 161.071344616053 2811.14370071477 157 161 162
-1280.59522619322 160.593799563195 2810.25868302078 161 165 166
-1287.81865902501 160.412935866833 2807.34234340959 161 165 168
-1294.98787821916 160.083072690281 2805.44060855415 169 173 176
-1302.42809252038 160.344971966255 2799.47274833333 166 170 173
-1310.10226950661 161.048596890828 2790.45098585176 165 169 172
-1317.74636655802 161.601540582125 2782.44130134883 166 170 173
-1325.20274829487 161.709302259373 2777.47951654169 173 177 180
-1332.52473732855 161.520843575183 2774.55065743156 174 178 181
-1340.09677268162 161.773061066452 2768.56637221942 179 183 186
-1348.02585849344 162.611404477185 2758.50475674889 172 176 179
-1356.51515266063 164.327178435485 2742.32455704752 184 188 191
-1364.90771107601 165.744273346227 2728.17259015311 158 162 165
-1372.82378837955 166.278036442621 2720.12877436531 158 159 161
-1380.68290535746 166.662952689181 2713.10062650796 157 158 160
-1388.28452719311 166.607488126475 2709.12883354383 159 160 162
-1395.70336718707 166.259124756947 2707.19599620792 156 157 159
-1404.14254945878 167.367574183496 2695.05463820389 162 163 165
-1414.51689072487 171.09161469145 2664.52508635199 170 171 173
-1425.90141587002 175.967974862669 2625.80445760829 155 157 156
-1436.60630016953 179.669673855153 2595.23371477556 137 139 138
-1448.3643876807 184.520742904838 2556.46653426032 136 138 137
-1458.82475235709 187.47600961639 2530.96718776225 84 86 85
-1467.76532011941 188.397947075554 2519.77143808398 94 96 95
-1475.91606808979 188.305230583123 2515.73121552627 99 101 100
-1483.71268651118 187.778710006987 2514.75963021361 116 120 121
-1491.63421889137 187.396411137168 2512.76414920771 141 145 144
-1499.56021170201 187.013890338409 2510.76835241965 168 173 169
-1022.52174409482 175.803763754309 2807.15298157973 140 142 139
-1029.82274663548 175.02526854957 2808.25952423028 167 169 168
-1037.17856730334 173.943127637448 2811.37539973918 159 160 162
-1044.57304870594 172.558402701559 2816.50286192632 155 159 160
-1051.98990981433 170.872071214698 2823.64393999374 152 158 158
-1059.31265748749 169.491226819982 2828.78010363823 148 154 154
-1066.57986198679 168.263417795767 2832.91534889979 151 155 158
-1073.68154315289 168.094757178722 2830.01393077157 139 143 146
-1080.87807598879 167.170347153211 2832.14158198334 127 131 134
-1087.98618365245 167.000443524583 2829.23960540839 157 161 162
-1095.11589796184 166.679039394052 2827.34277825242 123 125 124
-1102.17019469418 167.71036328813 2816.38213598188 107 109 106
-1109.28374576177 168.587584286511 2806.42243231204 113 115 110
-1116.43103277987 170.061375421471 2792.42571861855 106 109 102
-1123.6452267623 171.979892676512 2775.39618259773 106 106 104
-1130.94286963974 173.742643755264 2759.36432995104 62 62 60
-1138.26985239708 173.855214864121 2754.41868070608 42 44 41
-1145.58086876422 173.219482001321 2754.51567036381 68 70 67
-1152.84552583357 171.98717693202 2758.65124536974 66 68 65
-1160.06955249121 170.607488027944 2763.79996603913 114 116 113
-1167.24485987328 169.08090073505 2769.96284053596 117 119 118
-1174.30910278946 166.962189294398 2780.1721232209 126 130 129
-1181.35457013824 165.143961471421 2788.36758347635 129 133 132
-1188.44449467166 163.921740225261 2792.52469724563 124 128 127
-1195.66342968372 163.58939917487 2790.61700494417 121 125 124
-1202.82898238544 162.960783183506 2790.73212886534 117 121 120
-1209.98813766336 162.33221891549 2790.8482912797 115 119 118
-1217.14081623542 161.703855719249 2790.96502115041 112 116 115
-1224.25014905962 160.928284174618 2792.09547534908 126 130 129
-1231.22883798166 159.711805525999 2796.26645554212 140 144 143
-1238.13717898472 158.349898444458 2801.45452508709 162 166 165
-1244.96709247625 156.84319458691 2807.66045033719 156 160 161
-1251.90147948342 155.778734061227 2810.82887171478 137 141 142
-1258.81321763495 154.715537231062 2814.00011620777 134 138 139
-1265.96787072652 154.38493228135 2812.10044133799 157 161 162
-1273.12672956043 154.053820512944 2810.20024295112 159 163 164
-1280.17310313599 153.430437889336 2810.33022594076 154 158 159
-1287.27414847698 152.95294736376 2809.44531491746 161 165 168
-1294.50179430858 152.766470138924 2806.52846433183 167 171 174
-1301.93872918261 153.015227919378 2800.56080770305 165 169 172
-1309.67838500349 153.842765508112 2790.52286043225 167 171 174
-1317.3214288762 154.376933941284 2782.51335680376 176 180 183
-1325.00114458062 154.908527279533 2774.4992835289 173 177 180
-1332.17651833679 154.425047441274 2773.60511253145 172 176 179
-1339.99039964936 155.097170052568 2764.56623900484 171 175 178
-1348.09424814449 156.199149119815 2752.46650544438 168 172 175
-1356.9387541351 158.44974532168 2732.20934004184 184 188 191
-1365.09212270715 159.398331204641 2721.11175799097 162 166 169
-1372.75382011036 159.480859629438 2716.12441745336 153 154 156
-1380.34262037418 159.418418128357 2712.15424291911 152 153 155
-1387.94658187533 159.354861463962 2708.18217928882 154 155 157
-1395.56552752604 159.290200917759 2704.20824863228 152 153 155
-1404.11252228929 160.511475143545 2691.04545204841 158 159 161
-1414.38890042185 164.013667612703 2661.53639674353 167 168 170
-1425.77562077055 168.789405348404 2622.81575903701 158 160 159
-1437.4692888805 173.694247086991 2583.04878897555 134 136 135
-1448.69286657272 177.731743629108 2549.38913039967 137 139 138
-1458.36432898623 179.626281988073 2531.04531785526 85 87 86
-1466.95075073564 180.09563127903 2522.91801667511 88 90 89
-1474.97266470317 179.853806701054 2519.90219187707 98 100 99
-1483.00429082956 179.611390760026 2516.88491634761 139 143 144
-1491.04586339463 179.368343677656 2513.86664149223 150 154 153
-1498.96883735952 178.983504360735 2511.87098727526 170 175 171
-1022.15898727885 168.238465018512 2809.23378889585 168 170 167
-1029.52742986417 167.166986678716 2812.34806118456 171 173 172
-1036.80685552372 166.395061875868 2813.45727919939 164 165 167
-1044.22798884341 164.877957102796 2819.58945110063 146 150 151
-1051.66643303689 163.065152717418 2827.73585588669 149 155 155
-1058.92928278105 161.998908192836 2830.86329175466 147 153 153
-1066.19232733991 160.785160007111 2834.99901912348 152 157 160
-1073.26884954398 160.759982028487 2831.09267573037 150 154 155
-1080.44641382108 159.992304294224 2832.21435399029 137 141 142
-1087.55463751992 159.817137720572 2829.31237679461 147 151 152
-1094.66105386867 159.788801147322 2825.40231110703 141 143 142
-1101.70142333278 161.08813689018 2812.42708661244 116 118 115
-1108.79297582446 162.677945322817 2797.42933563274 123 125 120
-1115.94822972453 164.704322980932 2779.39918384102 101 104 97
-1123.20001496 165.841502127702 2767.40569003987 104 104 102
-1130.50669238735 166.680500437108 2757.42198600017 65 65 63
-1137.82096455193 166.194860858576 2756.51048699011 51 53 50
-1145.13427368685 165.7089840196 2755.59910878527 67 69 66
-1152.38753553412 164.344301681574 2760.74390128783 75 77 74
-1159.60754535961 162.981441581108 2765.89307891607 113 115 112
-1166.74845976681 161.182246414543 2774.07657782109 122 124 123
-1173.8577995587 159.531986621693 2781.25569746849 131 135 134
-1180.92300014388 157.88430236476 2788.4405589141 133 137 136
-1188.06064516244 156.966868829574 2790.57554060498 126 130 129
-1195.25910843679 156.486337498714 2789.67848040738 123 127 126
-1202.42776499027 155.860450161599 2789.79320980038 119 123 122
-1209.62150202808 155.379682419403 2788.89674003174 118 122 121
-1216.71191956372 154.464242268666 2791.03761018378 121 125 124
-1223.82181351694 153.694338446256 2792.16797943111 143 147 146
-1230.76206811601 152.347147856522 2797.35178732387 150 154 153
-1237.71108718883 151.1462083724 2801.52666948559 147 151 150
-1244.49753994117 149.514666949178 2808.74603423248 148 152 153
-1251.47766651743 148.605386993767 2810.90065182157 153 157 158
-1258.44053984625 147.696937419375 2813.05742032715 161 165 166
-1265.59793316608 147.363709291513 2811.15741040113 145 149 150
-1272.64830716917 146.743177371709 2811.28688665384 142 146 147
-1279.80894505785 146.409234907556 2809.38647370599 148 152 153
-1286.79091277683 145.6458955785 2810.53254983497 161 165 168
-1293.95205965486 145.311562355651 2808.63207439731 167 171 174
-1301.18391291778 145.119382373798 2805.71471376713 177 181 184
-1308.97791110157 146.066164582669 2794.6617434973 179 183 186
-1316.68103263224 146.724589765956 2785.63672820836 167 171 174
-1324.64944771239 147.806383265169 2773.55418936413 168 172 175
-1331.90473659142 147.464945292096 2771.64174400267 170 174 177
-1339.80268984983 148.256929414428 2761.58437604503 166 170 173
-1347.91295556086 149.328787877549 2749.4839209755 170 174 177
-1356.67743449088 151.38616742655 2730.24517867313 181 185 188
-1364.65900740157 152.025119211332 2721.1852253119 168 172 175
-1372.41065253577 152.238093848206 2715.17862920558 152 153 155
-1379.90858851002 152.026720784397 2712.22787330165 154 154 156
-1387.70389301781 152.236555735443 2706.21583703187 157 157 159
-1395.42641212372 152.304160863133 2701.22094560531 152 152 154
-1404.18217621347 153.773225441174 2686.01558856278 156 156 158
-1414.36354656416 157.058669516573 2657.52688783351 163 163 165
-1426.39513648677 162.573231540629 2612.67722542249 153 153 153
-1438.10963355355 167.37357376413 2572.90769095737 130 130 130
-1448.68287025658 170.485338148551 2545.37847237023 131 131 131
-1458.24758593316 172.193913711381 2528.0561580121 107 107 107
-1466.48881272114 172.226381402053 2522.99638719784 110 110 110
-1474.51046645834 171.97943729371 2519.9806083571 137 141 142
-1482.05089547913 171.176489526537 2521.05709612461 128 132 133
-1489.83048971334 170.65162084966 2520.08763097965 140 144 145
-1497.60914504797 170.126901569363 2519.11828261037 184 188 187
-1013.82763232324 163.803255121089 2794.16097779247 147 149 146
-1021.64098541254 161.270398516056 2807.30116815636 184 186 183
-1029.12459046227 159.769323373523 2813.4257420103 164 165 167
-1036.43558095346 158.856613395589 2815.53907877169 166 167 171
-1043.88368006529 157.212633092476 2822.67590672188 157 161 162
-1051.25968174137 155.717335399072 2828.81365335725 149 155 155
-1058.54634714013 154.516236589839 2832.94639967322 150 156 156
-1065.69167561657 154.04583885829 2832.05594369779 153 158 161
-1072.81621597012 153.720822673753 2830.15977173313 150 154 155
-1079.94529954558 153.395011925159 2828.26327516244 152 156 157
-1087.06438073806 153.213865748946 2825.35971849408 125 129 128
-1094.13388961248 153.757398055765 2817.42176398325 139 141 138
-1101.2218919501 154.587991123545 2807.46537143686 138 140 137
-1108.32501058776 156.139017185953 2792.46603893376 102 105 98
-1115.4990134601 157.829350859061 2776.45004680615 104 107 100
-1122.75857589336 158.791907205627 2765.46396968655 100 101 96
-1130.06637937559 159.31778030729 2757.49632392234 66 66 64
-1137.37247705935 158.544243422819 2758.60197740284 60 62 59
-1144.67376508776 157.915012946967 2758.70016397592 67 69 66
-1151.91061999055 156.423595402472 2764.85550535649 91 93 90
-1159.10873870049 154.934434044221 2771.01543457459 122 124 121
-1166.25307663552 153.304161324301 2778.19013402539 129 131 130
-1173.35321819074 151.676497643649 2785.37058232103 133 137 136
-1180.51159505947 150.766490167895 2787.50271697458 134 138 137
-1187.67584100872 150.000021724596 2788.62629436719 127 131 130
-1194.90582731712 149.661959979051 2786.71723799452 124 128 127
-1202.08310881371 149.038479432075 2786.83088470742 120 124 123
-1209.28515059859 148.557361796403 2785.93337947687 119 123 122
-1216.31652471041 147.365568871962 2790.09796012946 122 126 125
-1223.39311043773 146.45925154933 2792.24053238476 143 147 146
-1230.33460366437 145.128584821356 2797.42414218912 150 154 153
-1237.32670413371 144.082965387258 2800.58555191923 149 153 152
-1244.25146193965 142.897334946506 2804.76318115907 153 157 158
-1251.19567111338 141.854465347955 2807.93031992941 159 163 164
-1258.11729232638 140.812887930552 2811.10051440953 161 165 166
-1265.28010612753 140.476773789861 2809.19959537096 139 143 144
-1272.22539372197 139.577596606922 2811.35853405372 144 148 149
-1279.32790031289 139.100729657646 2810.4734390329 158 162 163
-1286.42936461107 138.623779802918 2809.58847430237 174 178 181
-1293.72024465115 138.567029342189 2805.65546346361 177 181 184
-1300.96000952301 138.369149514713 2802.73713052175 168 172 175
-1308.48511946134 138.729444918057 2795.75048933769 166 170 173
-1316.25604016854 139.506227584124 2785.70877405518 168 172 175
-1324.07431143384 140.279665275821 2775.66115851183 168 172 175
-1331.47809736235 140.214497757049 2771.71407985171 173 177 180
-1339.21544598605 140.704286927815 2763.69292441903 170 174 177
-1347.40099519999 141.88575956332 2750.57533891894 174 178 181
-1356.07511171373 143.75618975923 2732.35581246582 180 184 187
-1364.05005951178 144.373976533102 2723.29698188553 172 176 179
-1371.7957412534 144.574013023438 2717.29116404749 154 154 156
-1379.28810622067 144.357888617312 2714.34111588479 154 154 156
-1387.07730346559 144.554851805488 2708.3296353939 157 157 159
-1394.89237019833 144.749930573934 2702.31517177516 152 152 154
-1403.54215731538 146.043944843604 2688.13142838798 156 156 158
-1413.81764126486 149.394111714804 2658.62288502586 163 163 165
-1426.15917653892 155.20425865255 2610.71046329169 155 155 155
-1438.52800260206 160.72359450289 2564.81101613417 134 134 134
-1448.55942450679 163.079465609025 2542.39007920843 122 122 122
-1457.67162070036 164.197722456214 2529.15677985134 111 111 111
-1465.55771607347 163.810248218085 2527.16597507232 116 116 116
-1473.44844894579 163.422535762944 2525.1743519194 126 127 131
-1481.09834745026 162.762290279495 2525.22935591169 123 127 130
-1488.74196489824 162.102532014794 2525.28490219089 154 158 159
-1496.12335357682 161.171660886258 2527.38950150142 186 190 189
-1013.30062200082 156.785329621527 2792.22985282568 147 149 146
-1020.96585916088 154.867080662178 2801.35591997303 174 176 173
-1028.57634474027 152.952050942892 2810.4888113162 157 158 160
-1035.82901082407 152.334756848424 2810.59303418648 162 163 165
-1043.32332872212 150.568051990237 2818.73234486307 154 158 159
-1050.68344267421 149.234697683506 2823.86396062213 151 157 157
-1057.95926893767 148.18978341349 2826.98972092474 135 141 141
-1065.12120867243 147.718476754928 2826.09719435611 134 139 142
-1072.30252612274 147.10387658995 2826.21031401967 136 140 141
-1079.47757524326 146.489257698209 2826.32421598305 127 131 132
-1086.58735947025 146.445089218513 2822.41377169694 114 118 117
-1093.66419360764 146.969252790194 2814.47495404347 117 119 116
-1100.75921290166 147.775062044238 2804.5177510897 143 145 142
-1107.88853417567 148.861515099818 2792.53967365229 108 111 104
-1115.05653024355 150.653228964511 2775.5162367903 99 102 95
-1122.31623749914 151.730273328063 2763.52215299942 85 86 81
-1129.63010113681 152.378529129668 2754.54574157496 54 54 52
-1136.94492993271 151.610049909314 2755.65029214511 69 71 68
-1144.22757017174 150.418524187848 2759.78351556683 89 91 88
-1151.46320580141 148.946501943351 2765.9387177599 124 126 123
-1158.63572741352 147.195101524761 2774.11814640683 132 134 131
-1165.80342420052 145.868597933514 2779.27351638069 140 142 141
-1172.95524967764 144.684360724811 2783.42304551728 134 138 137
-1180.11978357447 143.782324621832 2785.55463108654 131 135 134
-1187.26712325311 142.88111513937 2787.68836021569 123 127 126
-1194.42291351146 142.120647448814 2788.81273675703 120 124 123
-1201.68032368201 141.919672682195 2785.89220993662 119 123 122
-1208.82327303764 141.159515392206 2787.01818812927 124 128 127
-1215.95434081739 140.399848780817 2788.1458880489 132 136 135
-1222.92768677361 139.08387756887 2793.32572438955 148 152 151
-1229.86770329165 137.769910189041 2798.50971477001 152 156 155
-1236.85799292453 136.735631383873 2801.67108034793 151 155 154
-1243.91475548999 135.979949409808 2802.80780235687 155 159 160
-1250.91245156318 135.086302251529 2804.96018620819 152 156 157
-1257.843001561 134.055324069236 2808.12923851605 140 144 145
-1264.75090083754 133.025577336329 2811.3008739883 157 161 162
-1271.6915172949 132.135118560737 2813.46037264173 168 172 173
-1278.84686836035 131.796702757204 2811.56039096981 166 170 173
-1286.06712036841 131.595258374668 2808.64450250512 162 166 169
-1293.36043047403 131.530439914345 2804.71120965533 156 160 163
-1300.60279802486 131.32725566886 2801.79232561478 153 157 160
-1308.19846963463 131.808392709646 2793.78887342093 159 163 166
-1315.83066179065 132.286904571069 2785.78087059213 161 165 168
-1323.42537006166 132.626193252822 2778.78559926806 167 171 174
-1330.74391264946 132.417173308002 2775.85746467008 176 180 183
-1338.39012190397 132.752673442889 2768.85577630475 169 173 176
-1346.39612812618 133.630470110213 2757.77677062481 173 177 180
-1355.1336319497 135.592248312168 2738.54140615026 177 181 184
-1363.35400470304 136.597074025431 2726.4276271699 175 179 182
-1371.36154489319 137.191075459985 2717.3647918896 153 154 156
-1378.94657108095 137.105194539985 2713.39515006461 149 149 151
-1386.83334979356 137.423875964868 2706.36348434461 148 149 151
-1394.65311161679 137.605394798537 2700.3482302472 148 149 151
-1403.00337942142 138.459408639258 2689.22632538826 157 157 159
-1413.06454841305 141.464848491696 2661.76104955732 167 168 170
-1426.13494479033 148.092507900276 2606.70122715163 153 155 154
-1439.05256127987 154.163756906299 2555.69292472121 135 135 135
-1448.54633486474 155.790613041932 2538.37967872192 94 96 95
-1457.55294090272 156.741917156426 2526.16792342303 93 95 94
-1465.21296587445 156.083920581329 2526.22141750091 106 106 106
-1473.22582763087 155.827144911172 2523.20676173847 137 141 142
-1480.63636150994 154.902718450812 2525.30770692848 186 190 191
-1488.15501686309 154.112684174338 2526.38687791377 196 200 201
-1496.17308247461 153.855726294224 2523.37157322082 169 173 172
-1503.94009270876 153.332435678874 2522.4036743289 215 219 218
-1012.77275662277 149.7553623461 2790.29862600764 170 175 171
-1020.48468058787 147.722598174833 2800.42685558765 165 170 166
-1028.06341087825 145.975927555581 2808.55557933726 171 175 174
-1035.38974798855 145.078842679374 2810.66695978316 161 165 164
-1042.79255766569 143.759669790316 2815.7932100219 156 160 161
-1050.1052908159 142.723781417414 2818.91434079386 143 147 148
-1057.39567387709 141.688958540305 2822.03825791884 134 138 139
-1064.52545973325 141.497726674186 2819.13363220078 126 130 131
-1071.7668751941 140.604260128678 2821.25560083774 138 142 143
-1078.9560389783 139.991698300368 2821.36773595734 135 139 138
-1086.09414934601 139.798769028449 2818.46183559077 102 106 105
-1093.18096320661 140.303364899543 2810.52182405768 101 105 104
-1100.29526534316 140.944655451782 2801.5703350715 105 109 108
-1107.43126575239 142.000911495281 2789.59150364026 144 149 145
-1114.60511850198 143.748777003668 2772.56769164085 114 119 115
-1121.87007086518 144.934666687764 2759.56473928433 79 81 76
-1129.18997335524 145.144237070626 2753.61179080381 64 66 61
-1136.50822249612 144.381186205721 2754.71614050849 75 77 72
-1143.78805569358 143.064801098981 2759.85773014333 114 116 113
-1151.02518740529 141.612003674664 2766.01269500633 130 132 129
-1158.19948574753 139.885274777948 2774.19183695628 134 139 135
-1165.41270928013 138.98900561127 2776.31733115981 141 146 142
-1172.55633395416 137.680369571357 2781.47565813749 133 137 136
-1179.76732188293 137.06140325952 2781.58532686759 131 135 134
-1186.94901352546 136.305257721359 2782.70645968707 119 125 123
-1194.14444520586 135.686774793192 2782.81806847202 115 121 119
-1201.30514619638 134.931399119211 2783.94181877337 115 119 120
-1208.392244691 133.902837750185 2787.091088121 122 126 127
-1215.45669248332 132.875512837112 2790.24342115495 136 140 141
-1222.46224824344 131.713013560976 2794.41090637268 156 160 161
-1229.40078618722 130.415713283162 2799.59503737825 156 160 161
-1236.34767596632 129.256622894665 2803.76983478639 158 162 163
-1243.39950809357 128.506931129963 2804.90739657862 163 167 168
-1250.43961177706 127.757807367866 2806.04642051547 135 139 140
-1257.46790031958 127.009284488691 2807.18667706092 141 145 146
-1264.48425196927 126.261315534314 2808.32866207003 163 167 168
-1271.43362458855 125.378689908964 2810.4870473779 160 164 165
-1278.4236324763 124.632127949668 2811.63207595874 158 162 163
-1285.58326949311 124.290694389478 2809.73180764132 154 158 159
-1292.87364171453 124.218209620959 2805.79890161106 157 161 162
-1300.31076631155 124.413506456798 2799.83160236221 163 167 168
-1307.84231834838 124.741231060969 2792.84424301638 160 164 165
-1315.54751057624 125.335021857449 2783.81889926028 179 183 184
-1322.85095821344 125.122006605661 2780.8926589444 171 175 176
-1330.08728667173 124.774463055548 2778.98283607892 171 175 176
-1337.64534883847 124.960888387453 2773.00022763039 165 169 170
-1345.88519028273 126.212845666862 2758.86775379519 167 171 172
-1354.44793568757 127.859776160772 2741.67064174348 178 182 183
-1362.92067774488 129.234715093498 2726.50109232267 178 182 183
-1371.01713456782 129.940264127078 2716.41893964871 160 164 167
-1378.97549405099 130.377124351577 2708.37034275387 139 140 142
-1386.97025973423 130.811426403415 2700.31720931735 140 144 145
-1394.51101350566 130.58152908033 2697.36115878844 144 148 149
-1402.46450555168 130.879509522908 2690.32146242288 150 152 151
-1412.62245820415 133.94687429641 2661.83601811924 154 158 157
-1426.53376721255 141.485430100408 2598.60687865236 152 156 155
-1439.24739179781 147.159423222054 2549.64045356122 143 145 142
-1449.08927109859 149.136380851338 2529.25978275217 97 102 98
-1457.88987378863 149.793996058931 2519.08988306888 120 125 121
-1465.33504258875 148.875664540039 2521.1864899747 166 168 165
-1473.12182576663 148.351084413593 2520.21612693218 192 196 195
-1480.78546561958 147.695933242716 2520.26916240099 186 192 190
-1488.81748777004 147.432800836957 2517.25213227488 164 170 168
-1497.11451996165 147.429791891375 2512.18549070261 177 181 180
-1505.56241343448 147.555650423405 2506.09223633697 203 207 206
-1004.37461059566 144.998105425474 2776.24268523268 157 159 156
-1012.28606303839 142.574265663519 2789.37058655399 169 174 170
-1020.04235716949 140.432598444128 2800.50125289009 161 166 162
-1027.54959059929 138.98773703309 2806.62248975629 162 167 163
-1034.84822045634 138.236984634733 2807.72925544403 154 158 157
-1042.19795646182 137.210235489584 2810.84574441057 152 156 157
-1049.55388474603 136.046380466113 2814.96974904773 149 153 154
-1056.88199353694 134.884026450278 2819.09698117158 141 145 146
-1064.1127373446 134.13613558918 2820.21221110119 129 133 134
-1071.31134152844 133.526227212708 2820.32316112695 119 123 122
-1078.4503594512 133.328375269544 2817.4174007353 139 143 142
-1085.58423435276 133.266636666996 2813.50399634571 157 161 160
-1092.68383368227 133.751515956493 2805.56244118461 139 143 142
-1099.79125072395 134.644035711074 2794.59553534928 126 130 129
-1106.93775246251 135.805997784477 2781.60742794296 105 110 106
-1114.12665944334 137.645630251972 2763.57356823254 114 119 115
-1121.41907903992 138.388635106224 2753.59165601244 68 70 65
-1128.75147011521 138.175505431 2750.66156375918 65 67 62
-1136.0746595449 137.281637050822 2752.77332854648 68 70 67
-1143.3677309718 136.117187761118 2756.9051789128 122 124 121
-1150.60525006092 134.547509389042 2764.0680903334 128 130 127
-1157.81048196257 133.115825406132 2770.2269805026 126 131 127
-1165.02067052326 132.091996518794 2773.36111674361 127 132 128
-1172.20826553575 131.069365577492 2776.49782910237 122 126 125
-1179.37330023648 130.047992690954 2779.63735354162 121 125 124
-1186.62904819874 129.701093256038 2777.72510554059 112 118 116
-1193.73695710558 128.546735295211 2781.87979625085 110 116 114
-1200.90096223874 127.796825240531 2783.00336008995 123 127 128
-1207.86867458023 126.242692746512 2790.19990085805 135 139 140
-1215.05974453256 125.762871301467 2789.30376143387 147 151 152
-1222.1051577651 124.747718021375 2792.45843781478 158 162 163
-1229.05033921595 123.466654501778 2797.64145672228 162 166 167
-1235.96213220885 122.187601078085 2802.82887728717 158 162 163
-1242.92885739701 121.176950535518 2805.99312134428 149 153 154
-1250.01374621526 120.566763988153 2806.11850337668 145 149 150
-1256.94335295606 119.558179492758 2809.28737415573 141 145 146
-1264.11175879357 119.214335920403 2807.386017888 136 140 141
-1271.00949697822 118.207423301786 2810.55886127162 140 144 145
-1278.11539255061 117.731206426727 2809.67334161399 151 155 156
-1285.09939818328 116.99055114831 2810.81910368575 157 161 162
-1292.44978717725 117.042297147561 2805.8706936616 161 165 166
-1299.82061867056 117.092561675701 2800.91973643579 170 174 175
-1307.62230812574 117.930878686751 2789.86633224874 178 182 183
-1315.19227824028 118.239851680395 2782.87422793563 167 171 172
-1322.49817913664 118.021514172289 2779.94769548348 169 173 174
-1329.58430125549 117.40924585927 2780.07268882077 164 168 169
-1337.13893828755 117.582571343042 2774.09054230679 157 161 162
-1345.37423571706 118.799701453229 2759.95872725388 165 169 170
-1354.01631265111 120.534216994055 2741.74379734604 181 185 186
-1362.39978427574 121.741131169088 2727.59351793287 181 185 186
-1370.58218569337 122.552865477587 2716.49267314826 168 172 175
-1378.53943668091 122.971013690159 2708.44426386454 145 149 150
-1386.62845372923 123.516406547461 2699.37138876299 143 147 148
-1394.17160544289 123.281250214256 2696.41505283448 143 147 148
-1402.52949860684 124.08081927513 2685.29233975417 148 152 151
-1413.21319441701 127.720619330823 2651.70110256497 156 160 159
-1427.98977096555 136.124920278523 2580.29948532371 165 169 168
-1439.87465924511 140.637276571187 2539.50175834508 153 158 154
-1448.96071975382 141.660092630801 2526.27221217562 88 93 89
-1457.53992041319 142.036051025413 2518.14629835516 146 151 147
-1464.98826896695 141.125937767072 2520.24248680403 155 160 154
-1473.01657581009 140.857873574195 2517.22569304525 133 139 137
-1480.93255931632 140.461209182994 2515.23118260585 136 142 140
-1489.47665598958 140.703317087499 2508.11768914402 131 137 135
-1497.92457196108 140.815764050187 2502.02422702083 160 164 163
-1506.52851872882 141.053969576884 2494.90327489781 188 192 191
-997.652776734178 135.10926733366 2799.27837030408 139 141 138
-1004.33168563317 136.408318473467 2785.34056760239 160 162 159
-1012.01019096311 134.705398530842 2793.45672480108 166 171 167
-1019.63935693406 133.005293316504 2801.57903184759 158 163 159
-1027.14548730258 131.579792444896 2807.70035538402 156 161 157
-1034.54466197172 130.427781950614 2811.81869166712 149 153 152
-1041.88461811855 129.412647225852 2814.93661078478 141 145 146
-1049.17342063233 128.533986423598 2817.05238653854 147 151 152
-1056.4452465848 127.656081157565 2819.17051914586 150 154 155
-1063.65336496433 127.048824035587 2819.280515143 150 154 155
-1070.85524823153 126.44160328901 2819.39104888076 126 130 129
-1077.90720953233 126.911451431194 2811.455478248 135 139 138
-1085.02665229004 127.109634622755 2805.52757594473 145 149 148
-1092.10942174246 127.977088472492 2794.56381199299 119 123 122
-1099.24525645359 128.840654122054 2783.59343605012 116 120 119
-1106.39121780537 130.503875956494 2766.57308736962 96 101 97
-1113.63154288001 131.893633206283 2751.55729727876 110 115 111
-1120.96938772457 131.541772478645 2749.63481713757 64 66 61
-1128.30885133408 130.789132898315 2750.73625171549 68 70 65
-1135.64016962662 130.170085570101 2750.83090414093 69 71 68
-1142.95244733988 129.28512413032 2752.94400718983 126 128 125
-1150.19335165632 127.603868271927 2761.11447708759 127 129 126
-1157.3846879309 125.925563658505 2769.29136528068 122 127 123
-1164.58415135291 124.780097173873 2773.43484738207 125 130 126
-1171.7727117695 123.768662364027 2776.57140977949 121 125 124
-1178.97832581116 123.022638659229 2777.6895305695 119 123 122
-1186.23961789122 122.672937422307 2775.77659807379 110 116 114
-1193.42957972548 121.927286273824 2776.89691145438 109 115 113
-1200.52399278904 120.787434596599 2781.05324816431 122 126 127
-1207.55981472132 119.517709670082 2786.22516608455 137 141 142
-1214.69543251924 118.774923326691 2787.35225373523 151 155 156
-1221.74714772535 117.770534120776 2790.50587505155 157 161 162
-1228.69894318763 116.505714246215 2795.68826606121 160 164 165
-1235.61728187241 115.242757010537 2800.8748273737 148 152 153
-1242.45815861693 113.851424811478 2807.07908064749 149 153 154
-1249.58746151233 113.374702171772 2806.19064122625 136 140 141
-1256.56736444592 112.507421164831 2808.34517612188 135 139 140
-1263.73857138762 112.160977893388 2806.44323687038 144 148 149
-1270.58504433912 111.03522184573 2810.63071818889 148 152 153
-1277.69113556087 110.559291117645 2809.74517336183 158 162 163
-1284.67564514947 109.824337064799 2810.89085752889 158 162 163
-1291.96270195987 109.736239629933 2806.95864662647 164 168 169
-1299.46152108872 110.034217579743 2799.9754504908 174 178 179
-1307.19626945628 110.716644263304 2789.93849778556 168 172 173
-1314.90731669363 111.267034726449 2780.91277792086 166 170 171
-1322.43930547217 111.428813457144 2774.93348818299 168 172 173
-1329.76819437375 111.203723563268 2772.00386447712 164 168 169
-1337.18571084134 111.10596884627 2768.05515814412 158 162 163
-1345.35328926082 112.159019028448 2754.94015348889 164 168 169
-1353.58439595666 113.207750841057 2741.81699198388 176 180 181
-1362.05290859374 114.507321055648 2726.64816885055 178 182 183
-1370.14676792933 115.16460086617 2716.56646744293 171 175 178
-1378.10302847975 115.56402954581 2708.51823105713 143 147 148
-1385.90552551039 115.70678618642 2702.50547385136 141 145 146
-1393.34265980725 115.340087234529 2700.57040178071 141 145 146
-1401.9896756443 116.493781593385 2686.38737376038 146 150 149
-1413.69724644329 121.312729947108 2642.58790626118 154 158 157
-1428.80453809643 129.907644791378 2568.12121419181 157 161 160
-1439.95578711551 133.429061152007 2534.47194088553 116 121 117
-1448.83092588523 134.166743296988 2523.28484158853 75 80 76
-1456.96154210483 134.020185729183 2519.24727314285 63 68 64
