ply
format ascii 1.0
comment KinectMotionCapture
element vertex 751
property float x
property float y
property float z
property uchar red
property uchar green
property uchar blue
end_header
-1029.52209667809 550.644025168325 2475.75478276196 120 104 91
-1037.70119867198 549.330070706679 2477.7608410031 132 118 107
-1046.10353226113 545.67450030908 2488.81511251306 168 159 152
-1054.24892346078 544.103250414928 2491.83374233858 174 169 165
-1062.41476972195 542.01318752311 2496.86680023405 183 179 176
-1070.41762116843 541.742614353367 2494.86087686378 199 198 196
-1078.37766087562 542.249753105098 2489.83518677423 199 198 196
-1086.39815428584 541.976983545439 2487.82730784403 203 202 200
-1094.41301864392 541.962639477977 2484.811523465 204 203 201
-1102.4613603457 541.170108151928 2484.8171524719 199 198 196
-1110.47304349008 541.930351588196 2478.77642367759 192 191 189
-1118.50619302947 543.205724611365 2470.71628523228 203 202 200
-1126.5776536908 545.770253120229 2457.60905481191 209 208 206
-1134.73084622212 549.879660916321 2438.44119349485 224 223 221
-967.423779739119 571.393130632845 2385.69702724563 255 248 238
-977.038193034042 564.114330890281 2410.71816046922 104 88 75
-985.872354063154 560.466842529031 2421.71828091512 90 72 58
-994.211506877998 559.409062689378 2422.69600403507 110 91 76
-1002.78109850267 556.800909546861 2429.69541546471 98 79 64
-1011.68312038385 551.612514206643 2446.73796859651 107 90 74
-1020.45270269957 546.688234028444 2462.78842649829 109 91 79
-1029.06569496725 542.285049153309 2476.84143916127 172 159 150
-1037.44976806181 539.17538526653 2485.8809373825 189 180 171
-1045.83299972574 535.55346092159 2496.93750409412 204 199 195
-1053.95803739624 533.994377103049 2499.95864188082 210 206 203
-1062.03947064089 532.693214142434 2501.97685491849 218 217 215
-1069.99168130631 532.93471975995 2497.96052848067 212 212 212
-1077.99164275361 532.661048483056 2495.95521419271 213 213 213
-1086.03638876412 531.616589327054 2496.96964246178 218 218 218
-1094.03776653613 531.341869763183 2494.96391391675 219 219 219
-1102.0279506534 531.578865977145 2490.94286049199 217 217 217
-1110.03368879501 531.814393532947 2486.9198698846 220 220 220
-1118.05233197589 532.30430169161 2481.88691180415 215 215 215
-1126.09207420647 533.303925615797 2474.83436390358 211 211 211
-1134.18866482968 536.600987790333 2458.69900701662 213 213 213
-976.971522200731 553.514939219893 2419.82405813698 93 80 71
-985.279630534891 552.718102317876 2419.79728114246 101 87 76
-993.58188002222 551.921158376602 2419.77099531053 94 78 65
-1002.56604900079 546.776798099522 2436.80294073672 92 76 63
-1011.37719731539 542.149267078821 2451.83974287104 110 96 83
-1020.17169761171 537.016156178575 2468.89556847137 122 108 99
-1028.73915609958 532.909774775053 2481.9457947613 210 201 194
-1037.28998865915 528.297692640343 2497.01504207879 219 212 206
-1045.61906142349 524.964936792423 2507.06967861901 213 212 210
-1053.88834479483 521.635631538837 2517.13176743499 215 215 215
-1061.83858820967 521.363455364578 2515.13265372625 216 217 219
-1069.69910541985 522.361955290831 2508.10247500867 216 217 219
-1077.65621322487 522.34137926726 2505.09415498638 217 218 220
-1085.67754148491 521.303903894165 2506.11124699199 220 221 223
-1093.66582210615 520.77410180362 2505.11575201163 221 222 224
-1101.58840934294 522.272662694223 2496.06113623255 219 220 222
-1109.57518010495 522.754209647445 2491.03217766048 217 218 220
-1117.5911106448 522.47432271309 2489.02464662415 222 223 225
-1125.61148233648 523.205706823792 2482.98314981925 225 226 228
-1133.67666069725 525.705180028557 2469.87687471368 219 220 222
-1141.83767736472 529.715846376028 2450.70829702278 222 223 225
-977.005216227764 542.455967143958 2430.93449588602 159 154 150
-985.284408654573 541.663717068154 2430.91107507781 67 60 54
-994.294174715255 536.566996918634 2447.9397006809 85 78 72
-1003.24704956282 531.223060561902 2465.98400437306 66 59 53
-1012.17281548028 525.379466298666 2486.04862139587 232 225 219
-1020.91438007258 520.048272447787 2504.11902153295 233 228 224
-1029.16255310485 517.753124612429 2510.15003271618 224 220 217
-1037.46202492946 514.70301834047 2519.19993183289 214 213 211
-1045.54409777419 513.168651898555 2522.22660655226 222 223 225
-1053.6774620691 510.879444428275 2528.27192954343 219 220 222
-1061.57662728464 510.858197456286 2525.27060191193 218 222 225
-1069.44787467078 511.338981693437 2520.25606198279 219 223 226
-1077.38917739453 511.063612594403 2518.2580724279 221 225 228
-1085.40366823956 509.531279566554 2521.29293535762 223 227 230
-1093.33003778053 509.506268968364 2518.28822269851 223 227 230
-1101.18366209608 511.988942732417 2505.20863279656 224 228 231
-1109.14039546068 512.711956249923 2499.17485945358 231 235 238
-1117.13215031048 512.681050792601 2496.16224288713 212 216 219
-1125.13333233501 513.400277120286 2490.12293258759 212 216 219
-1133.17815518547 515.868438770921 2477.01928018723 212 216 219
-1141.27650677828 517.831865154699 2465.92589138377 213 217 220
-1149.45154920562 520.540662968651 2451.7976675451 220 224 225
-1157.65369064949 522.245979895106 2441.69993347082 222 224 221
-970.436549612096 524.209787258447 2474.12801866036 244 243 241
-980.121558682839 515.651606449106 2505.19031427962 234 233 229
-987.647844778335 517.883089150349 2493.15992285325 128 124 121
-995.928725556576 516.102292537237 2497.16988331238 166 162 159
-1005.28339913275 507.564080995356 2528.27335026009 231 227 224
-1013.77939538435 503.53905488566 2541.33228036836 230 226 223
-1021.95162377865 501.268393760864 2547.37270450855 223 219 216
-1029.82398423068 500.997954179953 2545.38330555987 217 216 214
-1037.70119223022 500.726608560522 2543.39330405194 219 219 219
-1045.47400170368 501.452261312279 2537.38247637289 217 221 222
-1053.42091068005 500.680107103792 2537.40070992184 215 219 222
-1061.23027355883 501.402236749992 2531.38532987188 220 224 227
-1069.16206744871 500.877526243239 2530.39687069315 221 225 228
-1077.1098908172 500.103877946224 2530.41475379726 224 228 231
-1085.06544616744 499.081285461278 2531.44025494835 223 227 230
-1092.90933036283 500.294361643778 2523.40389975555 223 227 230
-1100.76486687782 502.249069253759 2512.34083579887 223 227 230
-1108.70242896242 502.959747154192 2506.3094874037 224 228 231
-1116.66016518652 504.163898087641 2498.25894765513 223 227 230
-1124.65409827062 505.860439088772 2488.18697959559 220 224 227
-1132.69811427202 507.800750586024 2477.10043242494 219 223 226
-1140.77026956882 508.500587186943 2471.05255641151 210 214 217
-1148.87629329036 509.445523347295 2463.991880991 215 219 220
-1157.03467304753 510.881583758215 2454.90800429215 226 228 225
-1165.18305614709 511.327510364583 2449.85873099198 228 230 227
-966.501502693988 495.23983564847 2561.36271802021 242 242 242
-974.029491597415 496.462823679233 2553.3657585898 227 228 230
-981.741940693517 496.938375675455 2548.37104952737 229 230 232
-989.66082033719 496.419922599799 2547.3841854915 220 222 221
-997.972112048995 493.670909093259 2555.42412954089 225 225 227
-1006.27530223947 490.676824245148 2564.4734170971 216 216 218
-1014.29454401108 489.170526042789 2567.50761857748 212 214 213
-1022.25614301319 487.912293026813 2569.54067316569 214 215 217
-1029.9709556122 488.384170844991 2564.54567882789 216 217 219
-1037.76719620924 488.360582155279 2561.55720174713 220 221 223
-1045.4362260657 489.569210070546 2553.54267905646 214 218 221
-1053.2911417179 489.295581825666 2551.5554655129 219 222 227
-1061.01830388412 490.499371657507 2543.53370099456 215 220 224
-1068.91828471873 489.976747547153 2542.5492064026 221 226 230
-1076.78430783464 489.945786923061 2539.55204028976 219 224 228
-1084.70245507371 489.176179164733 2539.57361615876 222 227 231
-1092.53546001301 490.126028754178 2532.54723919761 222 227 231
-1100.36557766218 492.055182094328 2521.48741466137 226 231 235
-1108.27268973943 492.9992928526 2514.45156441178 223 228 232
-1116.19525363512 495.166350121586 2502.37164925205 225 230 234
-1124.17738987478 496.839099332289 2492.30145629253 224 229 233
-1132.21596322399 499.487372988953 2478.19042237623 222 227 231
-1140.27531601473 499.68460722362 2474.16084182169 219 224 228
-1148.35768217809 500.124887829887 2469.12006218215 220 224 227
-1156.49147952904 501.296081277212 2461.04739756944 226 228 227
-1164.67516323775 502.708372747867 2451.96042568169 230 232 231
-1172.86987884747 503.629622623848 2444.88874441487 218 220 219
-950.478132513457 487.386103220084 2567.41425134462 238 240 239
-958.759931768383 485.150685392514 2573.44090887721 235 237 236
-966.621409911199 484.637859954256 2572.4611933891 232 233 235
-974.326784118461 484.861287710031 2568.47571828938 221 222 226
-982.244691586634 484.101370221629 2568.49729856139 224 228 231
-990.389278695344 482.114846330769 2573.53273680712 217 221 222
-998.457244117924 480.374968915748 2577.56940035339 222 223 227
-1006.41551154455 479.126262298354 2579.60260534635 211 212 216
-1014.08816986552 479.591210313031 2574.61288986262 203 207 208
-1021.96049461093 478.831392266537 2574.64039859582 211 215 218
-1029.72779418512 478.804630621935 2571.65554153947 211 215 218
-1037.5963332563 478.043976241269 2571.68328463614 216 220 223
-1045.23782241276 479.235546166636 2563.67224378362 212 216 219
-1053.01621731153 479.448648477007 2559.67768332499 213 217 220
-1060.76567720501 480.147482915784 2553.6700804293 217 221 224
-1068.60016943557 480.113633770292 2550.67685679136 219 223 226
-1076.46163196712 479.835228731588 2548.68883881548 222 226 229
-1084.31371454732 479.799303424791 2545.69342547339 222 226 229
-1092.14152390197 480.491056276487 2539.67606367725 221 225 228
-1099.95168660358 482.394366986046 2528.61879745614 222 226 229
-1107.83936437788 483.323351940282 2521.58541232594 225 229 232
-1115.73838104362 485.704350941243 2508.50018521517 223 227 230
-1123.70410672584 487.111655376378 2499.44042633375 220 224 227
-1131.72616100285 490.210049653285 2483.31465405824 212 216 219
-1139.78140135864 490.883849957747 2477.26895749511 211 215 218
-1147.84800772432 491.071962380185 2473.23849575927 210 214 217
-1156.01068269034 493.191114878939 2461.128742313 223 224 226
-1164.20622499881 494.822975856386 2451.03202521544 225 226 228
-1172.41857514545 495.968981442692 2442.9498642783 231 232 234
-1180.55892251238 495.666178172124 2440.92686710685 228 230 229
-941.046704276663 484.152510620233 2551.46787136859 183 189 185
-950.177403210889 478.767434674186 2570.49777910386 217 219 218
-958.510291048188 476.308078909892 2577.52633791418 198 199 201
-966.525872695324 475.06659299058 2579.55261168454 215 216 220
-974.420697300671 474.311430733595 2579.57706003864 214 218 221
-982.408401923038 473.070526296913 2581.60681116557 221 225 228
-990.332791231931 472.072733145111 2582.6361363462 216 220 223
-998.114037814572 471.802362206274 2580.65786742026 218 222 225
-1006.06526913919 470.562228550993 2582.6921681693 208 212 215
-1013.76831850533 470.774755806926 2578.70701190209 204 208 211
-1021.55880253183 470.502126672403 2576.72783641338 210 214 217
-1029.28770625111 470.711812413808 2572.73946115876 207 211 214
-1037.2457313674 469.229540442524 2575.7812388436 217 221 224
-1045.01480296586 469.196039250355 2572.7964186662 211 215 218
-1052.81921335611 468.920313205418 2570.81551340523 210 214 217
-1060.49390606534 470.08957926904 2562.80014741331 215 219 222
-1068.30430120971 470.051833030634 2559.81018148086 213 217 220
-1076.07381438471 470.734874963682 2553.79987737445 220 224 227
-1083.94117747661 470.213313513476 2552.81945048547 219 223 226
-1091.72654179309 471.373262221113 2544.79053813691 221 225 228
-1099.5310409737 473.010503229394 2534.74236647302 220 224 227
-1107.38332768888 474.643806568456 2524.68848184579 224 228 231
-1115.26926165684 477.23264593114 2510.59665293997 222 226 229
-1123.22958404839 478.379000195364 2502.54594265847 219 223 226
-1131.23244748047 480.240591721635 2491.46473839142 213 217 220
-1139.27481644455 481.380701367137 2483.40356535896 212 216 219
-1147.35409689524 482.517805098867 2475.33803417589 212 216 219
-1155.52984111985 485.084956886493 2461.21009577684 217 218 220
-1163.64874762151 485.26071943907 2457.17313981617 219 220 222
-1171.90540359005 487.342652605916 2445.05199638092 228 229 231
-1180.11254947554 487.990531220004 2438.98741116958 230 231 233
-1188.38717146188 489.112560294429 2430.89730194755 228 230 229
-1196.16113050863 484.759295745068 2446.06281689972 213 215 214
-933.356290007065 474.080404433159 2563.53939302366 179 186 179
-941.192205572339 473.807867158479 2561.55454770559 204 210 206
-949.575974134262 471.367546377711 2568.57670677433 203 207 208
-958.089049432464 468.207669808554 2578.60792561471 220 224 227
-966.322691543535 466.012765681978 2584.64048618276 186 187 192
-974.309211559072 464.780656151617 2586.67036198055 177 181 184
-982.18008959439 464.029231653582 2586.6980291505 181 185 188
-990.045053373975 463.277524479578 2586.72619486027 206 210 213
-997.815917138514 463.00507026889 2584.74946740361 221 225 228
-1005.75737482402 461.773562024276 2586.78496513032 207 211 214
-1013.52721253193 461.500095675935 2584.80812811614 205 209 212
-1021.26581994376 461.464892173572 2581.82711417211 211 215 218
-1028.98130985055 461.667369955866 2577.8404318639 205 206 208
-1036.86575564276 460.674328652553 2578.8744889767 217 218 220
-1044.71082510193 459.920069144525 2578.90538437027 215 216 218
-1052.42356222823 460.357975306567 2573.9104982336 208 209 211
-1060.08961094071 461.508862611339 2565.89649962992 215 216 218
-1067.8324193747 462.18040968906 2559.88979865734 205 206 210
-1075.65319402626 462.136146937746 2556.89831431603 220 221 225
-1083.52747824187 461.377338783407 2556.9255758594 216 217 221
-1091.28960362546 462.756641798334 2547.89105856359 225 226 230
-1099.12141258853 463.420369032624 2541.87327144443 221 222 226
-1106.95389673576 465.030743917173 2531.82167817313 222 223 227
-1114.8304497228 466.8744627123 2520.75628377008 224 225 229
-1122.75706685321 469.424817286501 2506.65947919443 224 225 229
-1130.74460900263 470.786654405698 2497.5968772147 221 222 226
-1138.78761276927 472.854726235601 2485.50243281448 221 222 226
-1146.8820122963 474.68217806814 2474.40989528961 221 222 226
-1155.06856379815 477.45015384728 2459.27239224522 224 225 229
-1163.16786932923 477.1454262906 2457.25452191979 226 227 231
-1171.39287037937 478.726080046333 2447.15426339782 222 223 225
-1179.61204933421 479.596321491647 2440.07966357903 222 223 225
-1187.92428781888 481.170340218766 2429.96829554535 227 228 230
-1196.16806310485 481.564624266574 2424.90749413184 230 232 231
-925.727244145735 464.062199808355 2575.60311431634 25 30 23
-933.597437355797 463.551088613599 2574.62230672497 192 199 192
-941.340922197645 463.515932724103 2571.64068398111 195 201 197
-949.397251788409 462.289230084858 2573.66183371777 202 206 207
-957.610280806511 460.349346299845 2578.68836772404 207 211 214
-966.010930500644 457.460195721763 2587.7252165697 186 189 194
-973.938054510991 456.474172792232 2588.7541694793 171 175 178
-981.903633129593 455.250982067461 2590.78663515227 163 167 170
-989.805543856217 454.265490369352 2591.81873313163 192 196 199
-997.696205604316 453.280175292118 2592.85199418315 219 223 226
-1005.53394278456 452.531874830139 2592.88354864011 209 213 216
-1013.28798174036 452.256670236027 2590.90892806314 207 211 214
-1021.01065285079 452.217047248033 2587.92991451387 212 216 219
-1028.71004311407 452.412488174068 2583.9452598773 203 204 206
-1036.4558421775 452.370254577187 2580.96312670242 215 215 215
-1044.35244345805 451.147158106896 2583.00420009118 216 216 216
-1052.10515590892 451.103409088096 2580.02120815723 207 207 207
-1059.79983949002 451.765181723819 2574.02053862243 214 215 217
-1067.48077079016 452.895532043284 2566.00473684321 200 201 203
-1075.26814286806 453.082023580002 2562.00912616421 216 217 219
-1083.11497120442 452.561889755965 2561.03125813172 211 212 214
-1090.85357144804 454.155013651224 2550.99142644643 222 223 225
-1098.6491910096 455.509789576575 2541.95303413517 218 219 221
-1106.48069179323 457.095860452593 2531.90162758558 220 221 223
-1114.35612016456 458.912537016917 2520.83644474268 224 225 227
-1122.2798781964 461.661719543979 2505.73178626109 224 225 227
-1130.26932680696 463.001875499258 2496.66900346286 220 221 223
-1138.31790371909 465.273789759671 2483.56539938831 218 219 221
-1146.39579340413 466.372939054695 2475.50014171624 218 219 223
-1154.52021167633 467.702588061624 2466.42078344058 221 222 227
-1162.61323225468 467.629634465727 2463.39539997342 221 222 226
-1170.8509758697 469.653050265792 2451.27677079148 219 220 224
-1179.23555687679 472.836695366517 2434.09784572009 220 221 225
-1187.58324305432 474.617971123015 2422.9738211217 223 224 226
-1195.98383763662 476.395219366353 2411.8432044735 227 229 228
-1204.28307020393 476.77456352833 2406.7755216628 230 232 231
-925.176129107043 456.419792097988 2574.68432912551 180 182 181
-933.247758193929 455.201312010637 2576.7035479217 194 198 197
-941.239507504949 454.219052904033 2577.7241857952 192 193 195
-949.159427035562 453.472148621888 2577.74572097264 188 189 191
-957.305310861948 451.784279824856 2581.77228353118 211 212 214
-965.589587148074 449.392583089076 2588.8069708668 202 203 205
-973.567465631927 448.177268510171 2590.83788084775 187 191 194
-981.478856555794 447.197202306616 2591.86854119796 156 160 163
-989.473298047257 445.748383996381 2594.90568623544 154 158 161
-997.4901502562 444.065990536985 2598.94857702664 199 203 206
-1005.27067238666 443.555515518314 2597.97895818053 215 219 222
-1013.0115984119 443.278399072295 2596.00597905456 199 203 206
-1020.61188644833 443.93561191407 2590.01686126499 207 211 214
-1028.23856029461 444.590429665899 2584.02469725846 208 212 215
-1035.95359733181 444.776154362566 2580.03811558435 206 210 213
-1043.76904891933 444.260587471779 2579.06415115776 216 217 219
-1051.60952706359 443.51157489493 2579.09536543394 196 197 199
-1059.35237728035 443.693795788853 2575.10532206659 209 213 216
-1067.05015983663 444.572707356229 2568.09576660343 199 203 206
-1074.81468612926 444.983905655667 2563.09472808792 201 205 208
-1082.60004585208 445.393239246301 2558.09109459413 205 209 212
-1090.43055201965 445.336352380924 2555.09842906231 208 212 215
-1098.21461566025 446.67024505117 2546.06153385698 217 221 224
-1106.05450632815 447.537177128805 2539.03427568918 211 215 218
-1113.9018407433 449.791333928851 2525.95583225216 221 225 228
-1121.80904657878 452.735020906968 2509.84504006809 220 224 227
-1129.79363254369 455.210493680551 2495.74119852315 220 224 227
-1137.84340333531 457.449783289214 2482.63753137536 217 221 224
-1145.90980858159 458.067927909208 2476.59058806717 213 217 220
-1153.99298741661 458.453329267257 2471.54961126481 206 210 213
-1162.10897315555 459.067300048039 2465.4964915959 207 211 214
-1170.36965992497 461.522197506118 2451.35824848722 210 214 217
-1178.69951023384 463.97191246128 2437.21138782564 211 215 218
-1187.05810800146 465.956633340423 2425.07777866163 214 218 221
-1195.42925340061 467.477449383822 2414.95919950065 226 227 229
-1203.77127012511 468.305644542042 2407.86938098182 222 224 223
-1211.83375802556 466.607384111459 2411.90661849362 227 229 226
-916.24617868878 450.915124577055 2567.75101289862 60 61 63
-924.762408110976 448.304331675107 2575.76501793429 205 206 208
-932.964877372301 446.628149446208 2579.78472845766 193 194 196
-941.330508685478 444.254738245942 2586.80897474381 191 192 194
-949.47015931634 442.58142320269 2590.83651711025 188 189 191
-957.582386953245 440.909315157926 2594.86723825689 203 204 206
-965.556398711558 439.70302607389 2596.89860701401 212 214 213
-973.408357552228 438.96158349551 2596.92836863183 195 199 202
-981.30446935693 437.987868160728 2597.96115926973 167 171 174
-989.283906799351 436.550755689135 2601.00014589692 159 163 166
-997.152089974673 435.577744568877 2602.03642000814 185 189 192
-1004.9250563607 435.067750894492 2601.06774280666 213 217 220
-1012.50136612924 435.713471851641 2595.08164762663 207 211 214
-1020.14060758904 436.12584318407 2590.09624082844 205 209 212
-1027.76701427373 436.767121017987 2584.10414581899 204 208 211
-1035.51324449329 436.713990514998 2581.12198753499 201 205 208
-1043.29812329096 436.42917680535 2579.14354363335 211 215 218
-1051.19075721189 435.222040015196 2581.18507009588 193 197 200
-1058.9512866243 435.166326350172 2578.20113415982 206 210 213
-1066.66091611049 435.799552689255 2572.19843437133 198 202 205
-1074.37913102541 436.660203999407 2565.18661742708 201 205 208
-1082.14399667562 437.288717033977 2559.1770369042 206 210 213
-1089.98424733774 436.997091098192 2557.19170086098 206 210 213
-1097.75254244004 438.538992729728 2547.14829832488 214 218 221
-1105.58234083543 439.618949659135 2539.11405152147 211 215 218
-1113.42821281368 441.840651030031 2526.03587605815 220 224 227
-1121.3409634594 443.60012497879 2514.9661862571 220 224 227
-1129.30805090805 445.584166491799 2502.8814370554 220 224 227
-1137.34134430155 448.0205835629 2488.77161996314 218 222 225
-1145.39783174491 448.854546359099 2481.71741862169 214 218 221
-1153.44876414073 448.773825142234 2478.69754823539 208 212 213
-1161.58140377419 450.059052086077 2469.61704069763 208 212 215
-1169.82962547194 452.479447825146 2455.48044401524 210 214 217
-1178.16437700573 455.122240803106 2440.32477614747 210 214 217
-1186.47344766028 456.6231822093 2430.21399588679 211 214 219
-1194.85284833312 458.347612597945 2419.08616320713 213 217 220
-1203.33605287289 460.521963619062 2405.92857710346 217 221 224
-1211.54564235907 459.970597609617 2404.90552087294 222 226 227
-916.263967046529 441.395347542788 2574.82839350429 199 200 202
-924.418007861586 439.962460437652 2577.84557953546 189 190 192
-932.616520063043 438.300263896506 2581.86550677695 201 202 204
-940.914987714869 436.178809138652 2587.88978407446 195 196 198
-949.29726269591 433.599304058664 2595.9204234371 178 179 181
-957.630546925006 431.022501915405 2603.95716943786 171 172 174
-965.525786911051 430.055471283814 2604.99005126965 225 226 228
-973.304000395682 429.547412782438 2604.02071416507 210 214 217
-981.03156251457 429.268159080455 2602.04916813527 183 187 190
-988.859013731394 428.529773337066 2602.08222037833 142 146 149
-996.635776643207 428.020075301929 2601.11306861432 153 157 160
-1004.36991616774 427.73867063788 2599.14070742765 189 193 196
-1012.03014264532 427.913374589056 2595.16099481009 212 216 219
-1019.7793562691 427.629698234028 2593.18699871611 201 205 208
-1027.39741620912 428.25807031023 2587.19597931791 202 206 209
-1035.16706090988 427.972014874989 2585.21919954279 194 198 201
-1042.82705696228 428.596461214109 2579.22295710397 208 212 215
-1050.69477587055 427.625029943437 2580.25904472376 201 205 208
-1058.50466358306 427.108861948346 2579.28577621886 201 205 208
-1066.25230348877 427.274055497764 2575.29517996755 199 203 206
-1073.96201564958 428.119063768055 2568.28446531214 199 203 206
-1081.68818155931 429.188420186328 2560.26293887759 206 210 213
-1089.52605156999 428.894258413051 2558.27790660364 202 206 209
-1097.32964214245 429.505615292413 2552.26377888826 210 214 217
-1105.15940828304 430.114764634236 2546.24615016147 211 215 218
-1112.99804165733 431.626624215869 2536.19404893953 218 222 225
-1120.87939219989 433.812862363594 2523.11177962101 219 223 226
-1128.82460477656 435.994432407409 2510.02131272272 220 224 227
-1136.83370519913 438.171275484648 2496.92288544727 218 222 225
-1144.86168676619 438.764873482641 2490.88080182974 211 215 216
-1152.92492662119 439.581683897635 2483.82580299743 210 214 215
-1161.07870013746 441.521642175058 2471.7178725698 208 212 215
-1169.36334637557 444.582056536958 2454.55174329053 210 214 217
-1177.64737852462 446.512462425833 2442.42758251149 211 215 218
-1185.91027611485 447.540160681527 2434.33918484163 208 211 216
-1194.20991552856 448.564983276348 2426.24644985111 211 215 218
-1202.62225128095 450.259723858581 2415.11458525528 214 218 221
-1211.03156984742 451.502303671767 2405.99990240084 221 225 226
-1219.51371510929 452.965642856586 2395.86762247647 228 232 231
-908.27485015443 432.877542896002 2580.88649515631 218 220 219
-916.643629648424 430.772392193157 2586.90195501545 191 192 194
-924.55888235209 430.03581854297 2586.92404537995 193 194 196
-932.667957921728 428.616127921298 2589.94680805545 197 198 202
-940.627409727763 427.65217078742 2590.97142826904 195 196 200
-949.003684242828 425.097593792566 2599.00275080713 180 181 183
-957.155591404295 423.226703514056 2604.03697103655 167 168 170
-965.051729989437 422.26505035604 2605.0697265671 210 211 213
-972.777476131055 421.98376234331 2603.09841251781 220 224 227
-980.659181603891 421.02183421354 2604.13296993958 185 189 192
-988.624940053408 419.607451494665 2607.17360376622 158 162 165
-996.343830742693 419.324811051715 2605.20338906716 148 152 155
-1004.15208332914 418.589318088764 2605.23858929902 171 175 178
-1011.71706747561 419.208589459458 2599.25421741245 213 217 220
-1019.41901836401 419.148664531048 2596.27760282008 200 204 207
-1027.02867614097 419.763952709541 2590.28742614939 203 207 210
-1034.82210638056 419.250445649121 2589.31620443234 193 197 200
-1042.49976315898 419.636898883722 2584.32607188389 207 211 214
-1050.27668917784 419.346679314696 2582.34863467816 198 202 205
-1058.03489384108 419.280304032739 2579.36501693404 200 204 207
-1065.78256013445 419.437373682967 2575.37443878371 200 204 207
-1073.50976596685 420.041711992415 2569.36986191547 188 192 195
-1081.24794958273 420.8681220277 2562.35540289983 201 205 208
-1089.0429367597 421.243696477553 2557.35065686018 196 200 203
-1096.88851993733 420.945878055084 2555.36467165824 207 211 214
-1104.7170906698 421.318295258547 2550.35550263516 210 214 217
-1112.55749365522 422.135983612206 2543.32831021476 212 216 219
-1120.41663151409 424.514339595673 2529.24061987417 215 219 222
-1128.34247292567 426.218154615033 2518.16944299874 217 221 224
-1136.32854685618 428.364095183777 2505.07397067402 216 220 223
-1144.35965318825 429.836758424625 2494.99795318701 211 215 216
-1152.42951722726 431.083285670559 2485.92562185533 210 214 215
-1160.57656837257 432.993868323776 2473.81836743078 207 211 214
-1168.81063276575 435.344574333167 2459.68372102173 209 213 216
-1177.13092982536 437.912440959941 2444.53005430276 215 219 222
-1185.40745064852 439.143354372764 2435.43197454464 212 215 220
-1193.72609236287 440.371163883837 2426.32840625359 209 213 216
-1202.21250960697 442.70346440278 2412.16231617084 211 215 218
-1210.71238827481 444.587929367966 2400.01134000611 215 219 220
-1219.1486134715 445.583506230363 2391.90163693496 219 223 222
-1225.63092862302 433.316405471531 2444.53624780436 209 214 210
-907.492215670082 425.904048372269 2576.97153910119 185 189 188
-916.161980369804 422.916103586515 2586.98275125436 198 202 203
-924.14738911636 421.957005069392 2588.00435966898 181 185 186
-932.521866928253 419.648784430047 2595.02733028737 189 193 196
-940.532763616976 418.466363606644 2597.05403316702 198 202 205
-948.833590893913 416.161583266933 2604.0864261456 193 197 198
-956.739150647045 415.205359363973 2605.11775140359 181 185 186
-964.577584064093 414.473440654469 2605.14941610229 152 156 157
-972.303753443811 414.189438180392 2603.17805638382 213 217 220
-980.186357515744 413.232887524196 2604.21248750435 187 191 194
-988.057690519167 412.276634340519 2605.24808413547 183 187 190
-995.962853206568 411.096947992966 2607.28797479225 160 164 167
-1003.8936922083 409.694467342362 2610.3331752846 152 156 159
-1011.60378977015 409.408622070098 2608.36382608692 206 210 213
-1019.13360303964 410.236720387067 2601.37536601261 198 202 205
-1026.72952023742 410.839329485565 2595.38717774362 202 206 209
-1034.38344330127 411.217022476934 2590.40003009222 190 194 197
-1042.05833632345 411.592901784066 2585.41027029026 204 208 211
-1049.75413284057 411.966849692787 2580.41766667325 195 199 202
-1057.56505727734 411.450675374603 2579.44426880794 200 204 207
-1065.37529155679 410.933888079286 2578.47095868445 202 206 209
-1073.11224187424 411.303484815042 2573.47347104385 184 188 191
-1080.85460175355 411.892823009549 2567.46704254241 200 204 207
-1088.61047657061 412.701204633378 2560.45042324664 193 197 200
-1096.43815925047 412.62234070705 2557.45816794519 205 209 212
-1104.25384757603 413.205335237288 2551.44260519299 207 211 214
-1112.08633552254 414.227725296217 2543.40793408106 208 212 215
-1119.93596080296 417.45358216565 2525.28797006035 212 216 219
-1127.87359376391 419.791101741368 2511.19035126756 215 219 222
-1135.86679412782 421.242293436933 2501.11936103457 213 217 220
-1143.90158297516 422.469970736136 2492.05121625138 213 217 218
-1151.99621474118 424.134007855737 2480.95908009128 213 217 218
-1160.12088622147 425.354707453202 2471.87997713114 209 213 216
-1168.37289416811 427.889535892175 2456.7346792259 206 210 213
-1176.63193651839 429.541426892563 2445.62205758325 212 216 219
-1184.92443599946 430.970087629427 2435.51377592435 211 214 219
-1193.10864555402 430.862180342563 2432.47710466136 209 213 216
-1201.50241048641 432.503876242057 2421.34769728537 208 212 215
-1210.00430796959 434.578912853535 2408.18803995384 215 219 220
-1218.47893033932 435.993881040392 2398.05706649398 215 219 218
-1226.70377851963 435.44058740948 2397.03211114496 216 221 217
-898.586785291777 420.08647969931 2571.04391429925 236 241 237
-907.082990437219 417.793915429539 2578.05165283557 186 190 189
-915.680205102202 415.05838967348 2587.06356696945 175 179 180
-923.875261496965 413.437564381399 2591.08405679421 190 194 195
-932.377331682577 410.707084597477 2600.10783110824 182 186 189
-940.568318132532 408.867447782619 2605.13709216861 193 197 200
-948.910935302829 406.363984647552 2613.17224006907 197 201 202
-956.616820167034 406.079724140423 2611.20365268648 196 200 201
-964.271570879858 406.016057526372 2608.23293825058 154 158 159
-971.883296557985 406.172353771517 2604.25956699083 161 165 166
-979.66276051799 405.663678107953 2603.29007545959 208 212 213
-987.53767795154 404.712631294999 2604.32521106423 179 183 184
-995.446577366188 403.540829114619 2606.36461463687 143 147 148
-1003.50910332748 401.487319058937 2612.41815713253 150 154 155
-1011.21420449059 401.199047368993 2610.44967811451 180 184 185
-1018.84972870577 401.350420841893 2606.47310963324 199 203 204
-1026.43187950306 401.940407219777 2600.48643230238 202 206 207
-1034.04041248986 402.528177904929 2594.49670873393 183 187 188
-1041.7043882942 402.893883262507 2589.50833812896 200 204 205
-1049.36290383197 403.477272824561 2583.51214830243 195 199 200
-1057.07138723353 403.838948348905 2578.51823402487 195 199 202
-1064.86381699321 403.541231383652 2576.53888178807 202 206 209
-1072.62434522595 403.680759440694 2572.54674473891 184 188 191
-1080.46280603283 402.943342040726 2572.57818023138 203 207 210
-1088.21762670338 403.517732251751 2566.57023606185 189 193 196
-1096.00888285437 403.871504396548 2561.56577277904 200 204 207
-1103.79083482059 405.096538591724 2552.52942777311 204 208 211
-1111.60062290515 406.97258992515 2540.4645929904 203 207 210
-1119.4603721564 409.716122758149 2524.36000993755 207 211 214
-1127.39733075011 411.36494207645 2513.28759053274 210 214 217
-1135.37443224278 412.139521967901 2506.24345247139 208 212 215
-1143.41866155301 414.215946353216 2493.14114603622 212 216 217
-1151.55261543196 416.93938300121 2477.00239678951 213 217 218
-1159.67589493506 417.920675484243 2468.9317851082 208 212 215
-1167.85000218506 419.11588713566 2459.84633970912 198 202 205
-1176.03290807557 419.874491944442 2452.77680081417 206 210 213
-1184.28614738421 421.063766596672 2443.68149583688 211 214 219
-1192.47094153649 421.168084539283 2439.63650563377 214 218 221
-1200.84463346282 422.78394532919 2428.5096712861 205 209 212
-1209.35364635328 425.043856411389 2414.34095203528 214 218 219
-1218.0523018272 428.161696045002 2396.11531852538 210 214 213
-1226.3815398268 428.254900975371 2392.0523318498 213 218 214
-1234.19276159993 425.115481997327 2403.17901135338 205 210 206
-897.711534279339 413.279843984655 2566.13214945562 229 234 230
-906.598854100079 409.907864444485 2578.13283782284 179 183 182
-915.053507087613 407.639031723407 2585.14593959537 193 197 198
-923.604058291426 404.933055073192 2594.16359923681 181 185 188
-931.966186213216 402.669098948681 2601.18799447946 186 190 193
-940.220396460027 400.626549714456 2607.21758704458 191 195 198
-948.55970262522 398.147666667741 2615.25332367686 201 205 208
-956.496357444215 396.985204636564 2617.28923894217 202 206 209
-964.303876395606 396.26074729375 2617.32450166543 179 183 184
-971.730775790774 397.066496274128 2610.3489434904 153 157 158
-979.443786689904 396.777242911065 2608.37947996928 211 215 216
-987.113513316688 396.705455582273 2605.40691801346 190 194 195
-994.975361331815 395.760081367743 2606.44390993441 146 150 151
-1002.78305997965 395.032805634198 2606.47915765475 145 149 150
-1010.62488928535 394.087631726893 2607.51864726479 160 164 165
-1018.34329292486 393.795287594473 2605.54851890099 210 214 215
-1026.06645555851 393.502040561003 2603.57755875187 194 198 199
-1033.60270021504 394.511174982213 2595.58013222815 188 192 193
-1041.29312157744 394.649316474424 2591.5967477534 200 204 205
-1048.9193973189 395.436274877528 2584.59659834211 190 194 195
-1056.69665943556 395.137431397572 2582.61890163538 198 202 205
-1064.41512179104 395.487123988752 2577.6237736 192 196 199
-1072.22839960542 394.969724747447 2576.65008527287 185 189 192
-1080.02517396836 394.668028230112 2574.67020133528 193 197 200
-1087.77428573153 395.229282411968 2568.66276392816 190 194 197
-1095.54956936949 395.788274577156 2562.65230665148 197 201 204
-1103.32031127729 397.207470394652 2552.60892190991 206 210 213
-1111.13380025479 398.838355449095 2541.5519580125 205 209 212
-1118.99120681634 401.326299801101 2526.45626776358 206 210 213
-1126.92204822176 403.163521577171 2514.3761882296 211 215 218
-1134.89590056387 403.922123744063 2507.3324977198 209 213 216
-1142.92439896486 405.536862854327 2496.24874443723 210 214 215
-1151.0652491146 408.649268464661 2478.09273604439 212 216 217
-1159.19627901576 409.826085238269 2469.01295515477 205 209 212
-1167.4249947167 411.856414017233 2455.88750703112 197 201 204
-1175.53540006479 411.528227687146 2453.86855356073 198 202 205
-1183.76578395111 412.482212294316 2445.78464779991 211 214 219
-1191.85739005575 411.724368088144 2445.78454604907 208 212 215
-1200.23830170222 413.527724479903 2433.64862986182 207 211 212
-1208.75941946744 415.966516062957 2418.47000155183 209 213 214
-1217.44506342278 419.039198516953 2400.24611072235 211 215 214
-1226.0903755453 421.253876574144 2386.06050125272 211 216 212
-1234.27390872775 420.272899453548 2387.05744252556 210 215 211
-888.425332846712 408.262778643827 2556.21894587162 202 207 203
-897.458544441888 404.704896637363 2569.20960447362 181 186 182
-906.56644269421 400.716599501011 2584.2076905704 177 181 182
-915.152016338418 398.036222261923 2593.2209122032 193 197 200
-923.613327525459 395.575545948711 2601.24137538325 196 199 204
-931.689673401242 394.201537596724 2604.26810222842 184 187 192
-939.744030650209 392.828332824543 2607.29757100802 179 182 187
-947.776402984679 391.455991117866 2610.32978110212 199 203 206
-955.964027762213 389.435602921753 2616.36786504859 200 204 207
-963.88782819199 388.28154450736 2618.40536233506 192 196 199
-971.52641894447 388.207500436812 2615.43669189533 180 184 185
-979.022315277191 388.779510897583 2609.46082595066 163 167 168
-986.689593796468 388.702447311683 2606.48882366777 195 199 200
-994.412793185444 388.408839603534 2604.51785988162 176 180 181
-1002.22660238216 387.683804873302 2604.55257940873 142 146 147
-1009.99429289071 387.173788969439 2603.5845606641 161 165 166
-1017.83638232528 386.233493206308 2604.62376469643 202 206 207
-1025.49301410566 386.36674007014 2600.64460985159 188 192 193
-1033.16523676716 386.498398987328 2596.6637538075 186 190 191
-1040.82354480908 386.842843476421 2591.67590622677 197 201 202
-1048.55627397797 386.757131144078 2588.69575886591 190 194 195
-1056.22696838808 387.312033744863 2582.69812420751 197 201 204
-1063.92398595845 387.86472441342 2576.69745066813 192 196 199
-1071.6845669665 387.988004672081 2572.70534982091 183 187 190
-1079.47648316969 387.896309560955 2569.71759175478 190 194 197
-1087.26527236835 388.016717796517 2565.72197825551 186 190 193
-1095.07999559495 387.92249725153 2562.73162092707 190 194 197
-1102.87326469201 388.678628614579 2555.71047264542 202 206 209
-1110.66725231616 390.708522914551 2542.63927715985 201 205 208
-1118.5176583505 393.371192397756 2526.53631330473 203 207 210
-1126.4462604297 394.329292523439 2518.49005729125 207 211 214
-1134.4088614451 395.072367028127 2511.44781177205 205 209 212
-1142.43102028643 396.872894986034 2499.3564329938 210 214 215
-1150.55314972785 399.727946042239 2482.21112566693 211 215 216
-1158.70559301375 401.518862748935 2470.10375373986 207 211 214
-1166.90271210608 403.093954212339 2458.99906200256 198 202 205
-1175.02169216189 402.9749732599 2455.97056015749 192 196 199
-1183.1695906826 403.065937233326 2451.93044974702 206 209 214
-1191.35444304285 403.366446165859 2446.87700825098 212 216 219
-1199.78021249621 405.561665923455 2432.71884765128 205 209 210
-1208.2478908152 407.54135865604 2419.56395202259 206 210 211
-1216.92848477654 410.568257291224 2401.34081197257 210 214 213
-1225.63442815862 413.168299413102 2385.13100677252 211 216 212
-1234.38502897895 415.55269913231 2369.92412384172 210 215 211
-888.987063217925 397.514625626108 2569.27804347208 198 203 199
-897.753604885025 394.641214142621 2579.2768768125 174 179 175
-906.384970050069 391.98557109585 2588.28431879759 182 186 187
-915.034784630527 389.118463579957 2598.2979426558 195 199 202
-923.554750089558 386.46878261217 2607.31927096469 193 196 201
-931.616169461173 385.106654325349 2610.34782926361 192 195 200
-939.526235357632 384.17313639921 2611.37853238617 185 188 193
-947.363149749539 383.453438065351 2611.4103544683 188 192 195
-955.431267533481 381.879337245822 2615.44632216527 200 204 207
-963.358837917453 380.733220604046 2617.48332806937 189 193 196
-971.000381739112 380.653556190437 2614.51454417378 190 194 195
-978.549889143123 380.998840241002 2609.54027205848 144 148 149
-986.217405376431 380.916326791861 2606.5682544623 192 196 197
-994.032532964445 380.194609733607 2606.60256045625 179 183 184
-1001.71245600859 380.110288118251 2603.62875905643 150 154 155
-1009.44301412258 379.812332178476 2601.65712866456 159 163 164
-1017.17834599752 379.513474900808 2599.68490490919 189 193 194
-1024.8485108196 379.63779713626 2595.70408472344 179 183 184
-1032.59882462006 379.336850702296 2593.72999681406 179 183 184
-1040.35384581005 379.035124099177 2591.7550832361 190 194 195
-1048.14053158956 378.521091144497 2590.78470457272 186 190 191
-1055.85396031433 378.640447499927 2586.79849838516 192 196 199
-1063.53989361242 379.180287362604 2580.79924193956 188 192 195
-1071.25206522021 379.717975412937 2574.79647650601 180 184 187
-1078.9421838558 380.885494672369 2565.77174322037 187 191 194
-1086.7014831561 381.628620669607 2558.7548684177 183 187 190
-1094.55666747626 381.10705868856 2557.77596136883 186 190 193
-1102.39501857462 381.005420415501 2554.782674956 199 203 206
-1110.19553417487 382.79271555591 2542.71899079205 199 203 206
-1118.03873909762 385.834499587131 2524.60031274329 201 205 208
-1125.97226852724 387.40225545922 2513.52853475558 205 209 212
-1133.95335554668 388.547177253554 2504.46754984545 202 206 209
-1141.98760318007 390.10732235416 2493.38322286405 209 213 214
-1150.12377226996 392.918120692608 2476.23628001001 210 214 215
-1158.25848588845 394.051401699015 2467.1559137954 207 211 214
-1166.44892727672 395.390229722161 2457.06036468563 199 203 206
-1174.55714651909 395.056927106637 2455.04169750187 189 193 196
-1182.66979277153 394.722864687626 2453.02247985433 202 205 210
-1190.83020959821 394.804548117929 2448.98059140453 212 216 219
-1199.29742006811 397.381039193721 2432.80064068139 203 207 208
-1207.76354740632 399.328282137911 2419.6460240613 202 206 207
-1216.32302622922 401.47855330399 2405.47129569327 206 210 209
-1224.9837959809 403.831349407692 2390.27570637576 208 213 209
-1233.96456377388 407.629821544213 2367.98184556455 203 208 204
-889.796131632134 386.198736357247 2585.33107142356 186 192 188
-898.443574513566 383.569839887061 2594.33643656854 167 173 171
-906.809782442218 381.57957933899 2600.3519147847 169 175 175
-914.992010118898 380.014692389434 2604.37361797727 176 181 184
-923.217115242592 378.239352819207 2609.39845190435 195 200 204
-931.13931767168 377.311096171589 2610.42786687275 191 196 200
-939.179992215421 375.960561666431 2613.45898347173 180 185 189
-946.887976088066 375.666014667735 2611.4901612344 176 181 184
-954.898084109673 374.316292703817 2614.52509021483 179 184 187
-962.829420735519 373.178058348964 2616.56160535649 200 205 208
-970.527937101877 372.882322818989 2614.59396773793 188 192 193
-978.128689107196 373.006408718259 2610.62181048373 139 143 144
-985.745105770711 373.128899466974 2606.64770257357 148 152 153
-993.469077849321 372.829867536759 2604.67665664482 160 164 165
-1001.28432433306 372.110295406973 2604.71118242144 160 164 165
-1008.93148716917 372.229035782264 2600.73324744719 149 153 154
-1016.70776253782 371.71793547381 2599.76416021852 175 179 180
-1024.27251909435 372.461868855082 2592.77156107393 170 174 175
-1032.06372840427 371.948622725014 2591.80061582862 175 179 180
-1039.8245297466 371.643842898253 2589.82522923112 183 187 188
-1047.67124162313 370.712091543491 2590.86383390862 185 189 190
-1055.33597845288 371.240381749331 2584.86725307257 185 189 192
-1063.09196425195 371.141300616022 2581.88399835928 183 187 190
-1070.80113489236 371.665565689257 2575.88188304639 176 180 183
-1078.48779202985 372.811802972889 2566.85739751183 183 187 190
-1086.25751517941 373.331075782105 2560.84773875074 181 185 188
-1094.07512630583 373.432806237235 2556.84857763255 181 185 188
-1101.8918326514 373.948068166055 2550.83282594012 197 201 204
-1109.69078646658 376.11937665382 2536.75295119585 196 200 203
-1117.55630995286 378.492853968331 2521.65654944757 199 203 206
-1125.49738726772 378.584449475335 2517.64200716902 203 207 210
-1133.46944147182 379.915212248771 2507.5737327283 199 203 206
-1141.49972336718 381.655503033158 2495.48173914212 206 210 211
-1149.66035664201 385.249051389155 2474.29869329661 209 213 214
-1157.83166258426 386.978984521945 2462.18912801962 208 212 215
-1165.9408766766 386.850234055978 2459.16187063672 200 204 207
-1174.04394089263 386.514572346568 2457.14385298235 190 194 197
-1182.15146904849 386.178265421529 2455.1250396851 196 199 204
-1190.43509656769 387.485180303566 2445.01818580797 211 215 218
-1198.86286064192 389.609800805516 2430.859962212 202 206 207
-1207.19860768262 390.498605148826 2422.76307940232 200 204 205
-1215.63014710026 391.794422468741 2412.63755595101 204 208 207
-1224.3346568824 394.520221212113 2395.41991138198 206 211 207
-1233.47349947603 399.285784362346 2368.06510121072 200 205 201
-1242.45038728826 402.406393511537 2348.79705155828 196 198 193
-880.439349178858 381.34491631609 2574.41831866605 213 218 214
-890.123214098249 376.225344385065 2595.3941098264 176 182 180
-898.588917347528 374.043955150758 2602.40536204354 172 178 176
-906.707877118272 372.701572309626 2605.42668764189 173 179 179
-914.658748203696 371.778178189591 2606.45251212617 174 179 182
-922.809654792308 370.228248792713 2610.47832488392 186 191 195
-930.933164235254 368.67958446983 2614.50731304321 188 193 197
-938.769269310663 367.966026853798 2614.53897968315 184 189 193
-946.599574541492 367.252244003119 2614.57161097129 177 182 185
-954.304834438742 366.954643035021 2612.60289644377 173 178 181
-962.242630562134 365.824238835631 2614.63858485788 181 186 189
-969.838557695277 365.941047388535 2610.66704888384 194 198 199
-977.604662666348 365.433401935814 2609.69922176242 157 161 160
-985.321461872433 365.132679463713 2607.72931568648 123 127 126
-992.997046024077 365.038421765839 2604.75608192111 152 156 155
-1000.6827976982 364.942802176009 2601.78182316428 145 149 148
-1008.29740508927 365.259813721987 2596.79974167884 142 146 145
-1016.1610133203 364.334570690884 2597.83622065175 172 176 175
-1023.87197355416 364.235732671926 2594.85882449132 168 172 171
-1031.59310871616 364.135646725838 2591.87992157763 172 176 175
-1039.29446749719 364.240602569128 2587.89525957093 178 182 181
-1047.0385387861 364.137923242352 2584.91374146252 182 186 187
-1054.79272235354 364.034179146162 2581.93072393682 182 186 189
-1062.55698860242 363.929135781182 2578.94645157367 181 185 188
-1070.33131545224 363.822916502338 2575.96116707247 173 177 180
-1078.04997563692 364.536859238209 2568.94944064425 180 184 187
-1085.82771558713 364.83786441782 2563.94704333205 176 180 183
-1093.61522328821 365.342026752159 2557.93496468822 175 179 182
-1101.39551250142 366.663028289379 2547.89064709053 193 197 200
-1109.22351184227 367.980276255222 2537.8406257046 193 197 200
-1117.09042915674 369.907221786915 2524.76060013675 196 200 203
-1125.02393202631 369.582839885987 2522.76371303102 200 204 207
-1132.98634856509 371.29830714939 2510.68001374324 196 200 203
-1141.01754587121 373.417195412736 2496.5712944311 198 202 203
-1149.18049214763 377.160449198065 2474.37987859456 207 211 212
-1157.3504511028 378.860726489925 2462.27055951119 207 211 214
-1165.45980703262 378.726651712987 2459.24329844919 200 204 207
-1173.53131827497 377.982032103324 2459.24566959186 196 200 203
-1181.68947709823 378.252232976211 2454.19587937537 184 187 192
-1189.99608201177 379.737514883782 2443.07776096512 205 209 212
-1198.45148628255 382.029278706708 2427.90796077185 205 209 210
-1206.79454930542 382.898565600639 2419.81021636935 201 205 206
-1215.20375301616 383.967418369666 2410.69576508347 203 207 206
-1223.81524614361 386.043306517245 2396.51474152278 205 210 206
-1233.08660963305 391.546334482753 2365.11046277832 198 203 199
-1241.95675446585 394.012651928901 2348.88075863589 198 200 195
-880.624266960725 371.7769171189 2582.48265659719 213 218 214
-889.232972205694 369.407122015141 2590.48424626903 169 174 170
-897.792793629754 367.039846373301 2598.49216998654 178 182 181
-906.607534920783 363.849208468881 2610.50143816846 167 171 172
-914.25277084146 363.757361905037 2607.53198533326 167 171 174
-922.472937440389 362.014945264147 2612.55734885768 164 168 171
-930.388875908245 361.098016827992 2613.58751569896 180 184 187
-938.358776671254 359.975421540518 2615.61917707936 210 214 217
-946.124661202322 359.47017901878 2614.65137113951 195 199 202
-954.069389241226 358.348052656654 2616.68617269216 182 186 187
-961.769195069602 358.047574145666 2614.71814637809 160 164 163
-969.365196574662 358.156315464699 2610.74662236765 149 155 153
-977.028556312567 358.058479315994 2607.77516382931 191 197 193
-984.702190659455 357.959568056494 2604.80218564303 112 118 114
-992.386077360383 357.859229778588 2601.82817205033 126 130 129
-1000.0366099309 357.96216799028 2597.84985816757 121 125 124
-1007.78450846394 357.655042366448 2595.87584767322 147 151 150
-1015.65167161996 356.735010089602 2596.91210955892 168 172 171
-1023.40100858668 356.426720333716 2594.93816289099 165 169 168
-1031.08959201596 356.524965044012 2590.95511284619 168 172 171
-1038.70344794359 357.23208719712 2583.95648333142 173 177 176
-1046.48590339 356.920075104808 2581.97841347566 176 180 181
-1054.24836369494 356.81030929125 2578.99437892003 179 183 184
-1062.02088830364 356.699424546241 2576.00909134546 179 183 186
-1069.80349931558 356.587302521422 2573.02278857447 170 174 177
-1077.57950378157 356.676633567172 2569.02885237493 176 180 183
