ply
format ascii 1.0
comment KinectMotionCapture
element vertex 754
property float x
property float y
property float z
property uchar red
property uchar green
property uchar blue
end_header
-972.706632038939 231.584426548626 2596.32031941477 174 179 175
-978.911991668079 230.684657701688 2587.48556197732 186 191 187
-989.113502268641 229.209887875579 2578.30128637142 180 185 181
-1003.31032827565 227.160279502425 2568.80032377776 162 167 163
-1007.51444490706 226.547500863024 2560.27289965391 166 171 167
-1011.71802491008 225.934474965551 2551.76618333962 169 174 170
-1017.91899237716 225.033891673241 2543.11153711057 169 173 172
-1028.1144770181 223.558625462344 2534.1622439017 184 188 187
-1045.29999429112 221.077912557114 2524.71447195228 186 190 189
-1056.49087625436 219.458966566881 2515.81549271447 177 181 180
-1061.6886144397 218.701507306226 2507.41603590169 178 182 181
-1065.88693797452 218.087390039634 2499.11358874625 176 180 179
-1068.08786785994 217.760198479294 2490.96795977973 172 177 173
-1072.28524533531 217.145582842535 2482.70195279346 168 172 171
-1068.49531202209 217.679063925286 2474.95651442309 166 171 167
-1072.69215964071 217.063839113354 2466.71056198824 166 171 167
-1075.89031447774 216.591851006726 2458.54261780951 166 170 169
-1079.08806404573 216.119610679954 2450.39024213423 159 164 160
-1081.287159167 215.790539968882 2442.30497963132 167 172 168
-1084.48416345533 215.3176877996 2434.18107511767 156 161 157
-1086.68288920664 214.987932042404 2426.11883811098 147 152 148
-1084.88967440559 215.231696216708 2418.23997127518 149 154 150
-1079.10582882896 216.048625352098 2410.51155243265 148 153 149
-1074.32024725454 216.721594804051 2402.71178245149 149 154 150
-1068.5377798619 217.537439934334 2394.91901069528 144 149 145
-1063.75391277857 218.209259585622 2387.06032268386 146 151 147
-1060.9656491504 218.593879893191 2379.11448966472 141 146 142
-1057.18042521272 219.121245663169 2371.17842643227 137 142 138
-1056.38769694171 219.218174594728 2363.14758160503 129 133 132
-1050.60866503172 220.031184492189 2355.21749503096 137 141 140
-1042.83612776134 221.130174951291 2347.29124401831 115 119 118
-1036.06180864754 222.085214797086 2339.30476820013 74 78 77
-1035.27113561181 222.179972916916 2331.20059159596 58 62 61
-1036.47452714025 221.987821351501 2323.06972618779 63 67 66
-1037.67777793414 221.795287120288 2314.94395029681 80 85 81
-1040.87477174055 221.315895665225 2306.81343407121 98 103 99
-1054.03959384193 219.40417098717 2298.67732141896 89 94 90
-1064.2123104141 217.922002169477 2290.61047172303 104 109 105
-1075.38024317645 216.29659191879 2282.60148593123 99 104 100
-1083.55700324593 215.10054606466 2274.63442383005 138 142 141
-1093.72559346683 213.61815538002 2266.72860801277 127 131 132
-1096.91746904035 213.137395677466 2258.79666094021 163 167 168
-1099.11234701378 212.799484528989 2250.86672700327 172 176 175
-1095.32910576979 213.319690344544 2242.84548542535 159 163 162
-1091.54641124442 213.839270455648 2234.80220435628 161 165 164
-1083.77952080867 214.930455566509 2226.64687470313 164 169 165
-1081.9903138437 215.162829464327 2218.59913774764 163 168 164
-1070.24078758995 216.824697207311 2210.26047053913 168 173 169
-1059.48907617268 218.342688567473 2201.88674616321 184 186 181
-1032.80413053868 222.147358485024 2192.91705646386 172 174 169
-794.027487194145 248.562318552399 2675.30164480425 169 174 170
-801.248348324997 247.536951924881 2665.76020020709 143 148 144
-821.465112684021 244.67772206939 2654.76817931824 111 116 112
-893.662915895873 234.484564856683 2638.07609446222 191 196 192
-952.855685749695 226.126261115159 2623.19248624813 190 195 191
-971.058665831162 223.550761352658 2612.98513008565 163 168 164
-973.267709600367 223.231432826773 2604.53082515383 167 172 168
-974.476924248703 223.052915800584 2596.18701176608 173 178 174
-979.68356837334 222.310190954475 2587.45530067337 184 189 185
-992.883595769989 220.439539635826 2577.98734453391 179 184 180
-1002.08484504935 219.132704945592 2568.95957562977 166 171 167
-1007.28862979135 218.389510958004 2560.33911538809 167 172 168
-1010.49352251515 217.928032939263 2551.91911617588 163 168 164
-1016.69501312313 217.043515515247 2543.26127408004 169 173 172
-1023.89453812411 216.01797731538 2534.55353512936 183 187 186
-1044.07819691303 213.160688923629 2524.85747919874 187 191 190
-1056.26869232212 211.430671407645 2515.87904544859 179 183 182
-1061.4668090662 210.686555630907 2507.4791204543 177 181 180
-1063.66829475093 210.364857891605 2499.31766776781 174 178 177
-1066.86778069669 209.902001551009 2491.09817944735 172 177 173
-1069.0686691092 209.579682574926 2482.95940319166 166 171 167
-1066.27700554636 209.961126746512 2475.14304110726 164 169 165
-1071.47282666172 209.215701521894 2466.83143125172 165 170 166
-1075.66950507863 208.610935061315 2458.60332117844 164 169 165
-1077.86933075074 208.28739854074 2450.50477319371 160 165 161
-1078.07248283143 208.245017390197 2442.51938050725 157 162 158
-1079.27366047009 208.061557796891 2434.48437435135 162 167 163
-1081.47265216008 207.737076069911 2426.40808159904 157 162 158
-1081.67562464579 207.693602370726 2418.4285350117 143 148 144
-1079.88299553028 207.931145559621 2410.52942272946 147 152 148
-1073.10150074722 208.87159053424 2402.80772607512 154 159 155
-1067.31865393437 209.670791362245 2395.01191200478 149 154 150
-1061.53664977021 210.469437748421 2387.18256898811 142 147 143
-1058.74830305514 210.845587480622 2379.2308882414 133 138 134
-1054.96292208971 211.361861522224 2371.2890527536 145 150 146
-1054.17050200138 211.455824357139 2363.25230310149 167 171 170
-1054.37553965665 211.408739879539 2355.18816555822 164 168 167
-1048.59662029606 212.204674403165 2347.23534594214 164 168 167
-1042.81853770974 212.999966020323 2339.24913198551 155 159 158
-1037.04129234236 213.794644622155 2331.2295384038 96 100 99
-1034.25623674197 214.167217308758 2323.1453887387 63 67 66
-1031.47159647257 214.539199270037 2315.04437222406 58 63 59
-1029.68451119956 214.770224930156 2306.92158935121 91 96 92
-1037.86646948263 213.596115699537 2298.76559212323 94 99 95
-1052.02834184239 211.579163527416 2290.65647807599 112 117 113
-1068.18187622742 209.281399892475 2282.63044735727 119 124 120
-1079.34983769838 207.685868349973 2274.66174577747 132 136 137
-1090.51602059808 206.090243268067 2266.75313170017 120 124 125
-1094.70482385102 205.477280133306 2258.82400935862 169 173 172
-1096.90023998493 205.14474432844 2250.88813866365 154 158 157
-1097.10244872075 205.092561132401 2242.92909048096 153 157 156
-1094.31559459937 205.46090114111 2234.91068852299 162 166 165
-1090.53294736303 205.969035033652 2226.85326916697 158 163 159
-1086.75060789233 206.476579963585 2218.77386409286 161 166 162
-1077.98850158823 207.684898135345 2210.53262479798 170 175 171
-1064.24695791802 209.59373118406 2202.0884227829 173 178 172
-1046.52365845815 212.062532981664 2193.43363449061 177 182 176
-778.562920131134 241.944122700465 2685.93533710281 208 213 209
-788.785742184212 240.522407798885 2675.97510239741 171 176 172
-793.00774968061 239.930644283731 2666.77100571418 126 131 127
-811.227059797038 237.402170172062 2655.98523252539 105 110 106
-882.431073126141 227.543668675799 2639.37573985728 188 193 189
-954.625096733647 217.54823013516 2623.04367011468 172 177 173
-967.831300739689 215.712996190213 2613.37233913132 161 166 162
-966.042535685645 215.951821389377 2605.32358246474 160 165 161
-967.252311146226 215.775585830503 2596.96030025558 173 178 174
-979.45569327031 214.078355865188 2587.52273857661 191 196 192
-993.655975695452 212.104624803929 2577.95883361418 174 179 175
-1001.85863158304 210.960296482926 2569.02587874873 161 166 162
-1005.06428729816 210.506927972501 2560.58476655815 162 167 163
-1011.26697767088 209.638686404077 2551.89750925999 160 165 161
-1015.4706237633 209.046649578954 2543.41074639251 170 174 173
-1022.67074680169 208.039888174542 2534.69979514525 182 186 185
-1038.86032937907 205.789605600756 2525.3158576982 185 189 188
-1053.0501287867 203.815691338867 2516.17079345702 178 182 181
-1060.24626553558 202.808700788605 2507.61539417392 178 182 181
-1062.44773481209 202.492142181624 2499.45077599345 177 181 180
-1065.64775670327 202.037212583945 2491.22817698354 174 179 175
-1067.84886702462 201.720056186698 2483.0862709413 168 173 169
-1065.05704841902 202.09301893009 2475.26686176091 165 170 166
-1071.25168906919 201.222989179164 2466.89229549339 165 170 166
-1076.44696921516 200.490825273527 2458.60674279007 164 169 165
-1079.64510802929 200.034536414023 2450.45628148427 158 163 159
-1079.84812330143 199.991921600089 2442.47598486026 156 161 157
-1082.04756851196 199.673017807429 2434.39728089846 158 163 159
-1085.24476367734 199.215779793093 2426.28268152542 155 160 156
-1087.44336163557 198.896264431698 2418.22710967498 144 149 145
-1087.64592832179 198.852298577393 2410.2628946992 145 150 146
-1078.86772866925 200.049416341791 2402.63861307737 154 159 155
-1068.09483274698 201.521734468242 2395.03448735494 154 159 155
-1059.31905677027 202.717519897376 2387.3047247383 147 152 148
-1055.53302484935 203.223103793944 2379.37685259161 128 133 129
-1053.74285890241 203.452458826589 2371.37267933674 131 136 132
-1054.94536230486 203.267776001022 2363.2845443271 145 149 148
-1058.14275385066 202.807064618823 2355.15854029204 150 154 153
-1054.35799061496 203.310780269525 2347.17907755331 150 154 153
-1046.58429902678 204.365306965436 2339.24087472664 154 158 157
-1034.82298759518 205.970230054591 2331.31099509948 124 128 127
-1030.04338462823 206.609947782632 2323.24185728726 56 60 59
-1026.26176085239 207.111357153073 2315.13721727562 45 50 46
-1023.47766751275 207.474460734422 2307.00529193062 87 92 88
-1027.67279960344 206.872956854725 2298.8411207507 97 102 98
-1042.8335090769 204.756330255965 2290.70445605643 105 110 106
-1060.98242007675 202.226735222523 2282.65959587214 121 126 122
-1078.13212297205 199.83508236406 2274.70719969063 125 129 128
-1088.30259113601 198.407169166627 2266.78648108328 113 117 118
-1094.4851962685 197.529780260348 2258.87440284566 166 170 169
-1096.68077269507 197.202663514495 2250.93808592667 140 144 143
-1098.87582418161 196.875209505504 2243.01259856714 134 138 137
-1099.07789438676 196.822613047403 2235.05852091404 153 157 156
-1092.30553589556 197.732596785143 2226.94703939392 158 163 159
-1087.52679474558 198.366740242322 2218.84755835469 161 166 162
-1081.75236463111 199.137892114533 2210.6926737464 172 177 173
-1069.00580006889 200.870923359742 2202.28996559821 169 174 168
-1057.25703423528 202.465607398313 2193.84944184919 174 179 173
-1053.47807622683 202.959644951149 2185.63269912343 116 116 108
-783.320698896711 232.492636617222 2685.39604210552 195 200 196
-786.543622891419 232.047184771115 2676.28852603241 172 177 173
-793.766020985464 231.05910092317 2666.72704296662 138 143 139
-812.986217642841 228.443887316121 2655.82885937118 146 151 147
-883.195933414648 218.914618661099 2639.33462748166 191 195 194
-951.39607005494 209.657910514057 2623.43939081539 177 181 180
-964.603461671746 207.857771632371 2613.75932626523 167 171 170
-962.814751037155 208.090730486228 2605.70214386816 167 171 170
-970.022212240422 207.103652320742 2596.72552606258 177 181 180
-984.225129498794 205.167872059596 2587.09939133628 181 185 184
-995.428073796866 203.638651095004 2577.83463887724 167 171 170
-999.633839002612 203.057813835256 2569.27707895062 161 165 164
-1003.83906840301 202.476759107843 2560.74022665302 160 164 163
-1006.04548191001 202.166413461402 2552.39836660415 159 163 162
-1011.24884873899 201.449502174894 2543.81313540274 179 183 182
-1014.4535365768 201.003233512565 2535.41747448074 185 189 188
-1034.64084968788 198.254597029665 2525.69525703197 183 187 186
-1049.83084993083 196.183229234031 2516.46240301438 176 180 179
-1062.02192579262 194.518147843907 2507.53100657302 173 177 176
-1064.22364479085 194.206771285425 2499.37151727543 174 178 177
-1065.42621102787 194.030474398397 2491.28993064776 172 177 173
-1065.63006940862 193.989225629761 2483.27814917263 170 175 171
-1068.82972147879 193.541686803441 2475.0779396901 167 172 168
-1072.02896928241 193.093835471037 2466.89319479999 161 166 162
-1075.22781137232 192.64570202735 2458.72400369786 160 165 161
-1077.42794522759 192.332616802785 2450.62463264427 159 164 160
-1077.63110230124 192.289754170581 2442.63852783779 163 168 164
-1078.83243757334 192.111324220428 2434.60276126464 152 157 153
-1082.03007087353 191.662012114732 2426.4795482957 149 154 150
-1086.22532301445 191.07722158898 2418.32863064899 151 156 152
-1088.42411327643 190.762603467137 2410.280125969 146 151 147
-1081.64070239094 191.664549316035 2402.58265505086 147 152 148
-1070.86700671062 193.106587548553 2394.98659921386 151 156 152
-1061.09259777513 194.412733327004 2387.29720667138 154 159 155
-1056.30845244422 195.042433664112 2379.40416906365 149 154 150
-1054.5178321537 195.266180972027 2371.40240719882 145 150 146
-1052.72749559882 195.489492627147 2363.38908819201 147 151 150
-1055.92525799656 195.036755075726 2355.25715166341 137 141 140
-1053.13773709416 195.394289114509 2347.25320719929 149 153 152
-1047.35864829502 196.156504897029 2339.28013002953 141 145 144
-1038.58814477492 197.323367914102 2331.31324688532 149 153 152
-1028.82170613166 198.62457087863 2323.30704049879 93 98 94
-1021.05090122552 199.655011657009 2315.2301545347 61 66 62
-1014.27849704691 200.549702700486 2307.10403851964 53 58 54
-1014.48640705923 200.498852567234 2298.92359604097 87 92 88
-1031.64298804011 198.153083710791 2290.75164715589 96 101 97
-1052.78503446562 195.267568953078 2282.6856616935 111 116 110
-1072.9271403434 192.517373607533 2274.72862574215 98 102 101
-1085.09212671772 190.846904066805 2266.81111146873 132 136 135
-1091.27540324525 189.985811645074 2258.89029069739 126 130 129
-1092.47478694661 189.798955284972 2250.93107542724 123 127 126
-1095.66677091674 189.342027431505 2243.01115585591 168 172 171
-1095.8690596566 189.289342783721 2235.04844241799 164 168 167
-1091.08933366604 189.910364185509 2226.97336290763 151 156 152
-1086.31005810797 190.530878680811 2218.8708098698 165 170 166
-1080.5354903113 191.285498815077 2210.71288064038 171 176 172
-1073.76512868752 192.174367531279 2202.4913581516 174 179 175
-1061.01928125029 193.871043244973 2194.03091129335 169 174 170
-1057.23951389867 194.354195879164 2185.82478832641 142 143 137
-792.0796944496 222.535929734348 2684.36551431192 192 197 193
-787.301334290105 223.161329017927 2676.24175402437 160 165 161
-787.523843965371 223.122016934578 2667.50309481143 158 163 159
-812.745836532888 219.761127507717 2655.90090711373 145 150 146
-891.960138389573 209.227237668076 2638.39900361448 187 191 190
-952.16613401343 201.218755844201 2623.39879598644 180 184 183
-958.376039755213 200.383494416324 2614.46494860491 165 169 168
-959.58649234589 200.212150195809 2606.08045374833 169 173 172
-965.795125385134 199.37659739755 2597.19603513987 178 182 181
-983.997592652982 196.947590612161 2587.16601438645 177 181 180
-994.201703662455 195.580822981343 2577.99607023125 168 172 171
-995.409773983388 195.408819443989 2569.7132995935 165 169 168
-997.616774236684 195.103812467271 2561.34491493077 159 163 162
-1002.82164088796 194.400303131426 2552.72478024898 158 162 161
-1010.02412340273 193.431265739711 2543.96211763074 176 180 179
-1018.2247288545 192.329406608956 2535.1549010456 182 186 185
-1036.41526307331 189.900542643544 2525.60074332436 185 189 188
-1051.60602006742 187.869969525115 2516.372790244 178 182 181
-1060.80126077226 186.635343764543 2507.66671442281 174 178 177
-1063.00320250236 186.329159575305 2499.50409515812 174 178 177
-1063.2071850535 186.287907758502 2491.48745740118 171 176 172
-1065.4085011407 185.981173039899 2483.33937452434 172 177 173
-1069.6069710333 185.408940114582 2475.07617937945 169 174 170
-1074.803655175 184.70385800507 2466.7741567949 159 164 160
-1075.0069286449 184.661414527739 2458.78395287577 160 165 161
-1076.20859685128 184.486136969662 2450.73855887312 158 163 159
-1077.41037487075 184.310466926643 2442.69777636306 159 164 160
-1079.61002849569 184.001984107506 2434.61279129456 152 157 153
-1084.80440434313 183.295685950611 2426.39967914776 148 153 149
-1088.00165045641 182.854129353866 2418.29992605279 146 151 147
-1088.20415580839 182.809819714188 2410.33773910177 146 151 147
-1078.42633038005 184.089716440487 2402.75369072444 148 153 149
-1070.64569381931 185.104108760797 2395.04382828242 148 153 149
-1063.86423898979 185.985394325637 2387.25704928745 152 157 153
-1062.07277001725 186.204055891003 2379.28299617746 152 157 153
-1058.2862166378 186.686971375966 2371.35116484211 150 155 151
-1054.50022756219 187.169466541467 2363.39682725129 150 154 153
-1052.70988782933 187.386717118682 2355.37712453204 146 150 149
-1049.92235397037 187.735821930454 2347.36463580033 156 160 159
-1042.14798068853 188.746172899956 2339.41496821856 141 146 142
-1034.37472367063 189.755836564412 2331.42093519981 138 143 139
-1024.60781266565 191.029436484332 2323.4035523225 113 118 114
-1010.85303829373 192.83150691941 2315.36181849207 81 86 82
-995.105963296667 194.89724019978 2307.25287195092 75 80 74
-991.326741289607 195.374932826596 2299.02889728247 120 125 119
-1016.46282459344 192.01728552614 2290.79714714945 101 106 100
-1043.58925341713 188.39568562789 2282.70871090043 109 114 108
-1066.72428776546 185.30343317202 2274.74419801317 102 106 105
-1081.88141482489 183.268996096948 2266.83579524993 143 147 146
-1091.05548657732 182.027765363165 2258.940658722 122 126 125
-1091.25807853263 181.975750228917 2250.96681344635 134 138 137
-1093.45403831434 181.65909477568 2243.02674621078 175 180 176
-1093.65647476814 181.606310783192 2235.05815293159 156 161 157
-1091.86580784285 181.817376477699 2227.04459717531 147 152 148
-1087.08633072867 182.424137116373 2218.94447860497 172 177 173
-1082.30730254406 183.030361239154 2210.81691345401 171 176 172
-1075.5365199459 183.900072780636 2202.60059939201 177 182 178
-1068.76670083454 184.769137690692 2194.34593462505 167 172 168
-1061.99784357109 185.637526396118 2186.05295145321 166 167 161
-1069.17505212165 184.657512033394 2178.26629668375 133 133 125
-792.83823163585 213.668546931563 2684.31562728483 186 191 187
-787.059052558123 214.410023293063 2676.31448533406 173 178 174
-789.281907470059 214.109975134277 2667.34109487311 131 136 132
-816.5058625469 210.556820936485 2655.51448652291 80 85 81
-908.725505120862 198.54721294277 2636.56838077331 184 188 187
-952.936094594231 192.784103250875 2623.35775071047 175 179 178
-960.146159206869 191.834804194279 2614.31994694545 156 160 159
-964.355909613912 191.275623170667 2605.62988434519 158 162 161
-970.56464554246 190.45612808554 2596.75868600193 183 187 186
-983.770036015304 188.726234090998 2587.2322566399 179 183 182
-989.976662096572 187.906580478667 2578.44334822298 170 174 173
-992.18451427045 187.606865313694 2570.05667428082 164 168 167
-998.38955441564 186.786916829369 2561.32010834073 157 161 160
-1000.59661585909 186.486751969798 2552.96385603559 165 169 168
-1007.79976603062 185.536472838883 2544.1952402538 179 183 182
-1013.00365743514 184.845977189439 2535.62719468806 188 192 191
-1036.19155390666 181.816295657892 2525.66383074104 189 193 192
-1053.38170989496 179.566531486571 2516.2827366926 183 187 186
-1062.57749286425 178.356279141376 2507.581637594 179 183 182
-1064.77920705786 178.055290292817 2499.42416481234 176 180 179
-1060.98759677753 178.533370106634 2491.68478251029 173 178 174
-1063.18944182064 178.231743096443 2483.53083525642 170 175 171
-1068.38701876631 177.540290832755 2475.1992286901 169 174 170
-1076.5801765198 176.45904727073 2466.71455415206 166 171 167
-1077.78183847289 176.286592272772 2458.67243519755 163 168 164
-1076.98646248855 176.373419536825 2450.74355057476 160 165 161
-1075.19261301645 176.589713906456 2442.85999392156 157 162 158
-1075.3959272136 176.545999186341 2434.8668332782 154 159 155
-1078.59422950509 176.112624090839 2426.73458574578 151 156 152
-1081.79212463571 175.678997278853 2418.61798119688 144 149 145
-1080.99670426089 175.764128953292 2410.67968612603 145 150 146
-1075.21124235829 176.497431722217 2402.92464735048 149 154 150
-1068.42818004472 177.359942284583 2395.17121046063 147 152 148
-1064.64027205408 177.832745081505 2387.28146379778 153 158 154
-1063.84665324929 177.916043562848 2379.28011357621 158 163 159
-1062.0551817892 178.128613856974 2371.29961735025 156 161 157
-1057.27092577377 178.72965455592 2363.38013316467 159 164 160
-1053.48499138388 179.200581495552 2355.41123719662 160 165 161
-1046.70672811134 180.059800643198 2347.47602787939 146 151 147
-1039.92920690542 180.9184952621 2339.50192804097 118 123 119
-1030.16042929856 182.165223438113 2331.52864562223 125 130 126
-1017.40078640519 183.799974209298 2323.53155795779 100 105 101
-991.677478247846 187.11806049355 2315.56345019864 86 91 87
-960.971547770954 191.082495850821 2307.47734924044 104 109 103
-956.197269157068 191.678089395754 2299.16206490463 154 159 153
-1000.28306302163 185.927797369597 2290.84264217236 98 103 97
-1040.37451070472 180.696475070826 2282.7513629103 102 107 101
-1057.52949063042 178.443861891884 2274.74201219959 118 123 119
-1075.67918475642 176.061912160457 2266.83439967459 151 155 154
-1082.86079675583 175.103982855912 2258.89935610442 136 140 139
-1089.04471347493 174.275340350219 2250.98835664925 154 158 157
-1090.24409100252 174.093500359643 2243.02544407473 165 170 166
-1093.43670667885 173.652516307444 2235.10727925066 143 148 144
-1091.64589735261 173.858068151081 2227.09336866816 147 152 148
-1088.85892243885 174.192499545822 2219.04327923663 179 184 180
-1085.07598944644 174.65572523737 2210.94880925048 171 176 172
-1080.29730737663 175.247719593169 2202.80176269451 177 182 178
-1071.53393122105 176.356297206229 2194.49373507607 165 170 166
-1062.77179574556 177.4641243816 2186.13641161984 184 185 180
-1039.06865070442 180.509866497215 2177.14655735085 140 139 134
-794.596935561186 204.678244721308 2684.14261499831 190 195 191
-791.8180016759 205.020648575232 2675.7868145308 182 187 183
-790.039887335045 205.235271469924 2667.29580452614 110 115 111
-819.266173436137 201.500707868524 2655.24202834086 90 95 91
-914.492784954048 189.360202996649 2635.96642290994 181 185 184
-955.706272830255 184.099161852965 2623.0981779863 157 161 160
-959.916854872336 183.550712900922 2614.38713547968 160 164 163
-963.127118327839 183.129338222626 2605.80028934569 162 166 165
-968.336659004603 182.453213614665 2597.026881168 185 189 188
-979.54363937139 181.013069880939 2587.69070464362 183 187 186
-988.74996161438 179.827530415232 2578.60422900572 164 168 167
-992.957045420282 179.278362269358 2570.02913747257 156 160 159
-999.162706138623 178.474480588335 2561.29489346816 155 159 158
-1002.36921347224 178.052185287001 2552.85386109525 164 168 167
-1005.57532437185 177.629695432434 2544.42811384039 181 185 184
-1016.7753387187 176.189215556156 2535.3638325827 185 189 188
-1041.9632512517 172.967727434438 2525.25261386728 175 179 178
-1061.15245465887 170.509852430867 2515.73469193125 168 172 171
-1065.35278814088 169.959960613246 2507.42264941722 171 175 174
-1062.55969557187 170.299978823875 2499.62698262611 171 175 174
-1058.76768280462 170.766795316615 2491.88191243213 178 183 179
-1060.96981950854 170.470372334347 2483.72215374771 177 182 178
-1067.16689382121 169.665115436861 2475.32201962025 170 175 171
-1073.36314628376 168.859717224969 2466.95385451 159 164 160
-1077.56113650976 168.308378591585 2458.7318410793 161 166 162
-1079.76128190331 168.011018421379 2450.63957863382 162 167 163
-1079.96423691788 167.967519363986 2442.66068765174 159 164 160
-1077.17202673809 168.304751847903 2434.82754293449 157 162 158
-1077.37521209973 168.260471236973 2426.83881001886 152 157 153
-1080.57316869873 167.834843738706 2418.7190673315 142 147 143
-1082.77277133329 167.535944397733 2410.655689933 141 146 142
-1075.988367533 168.379662890057 2402.94383030218 147 152 148
-1069.20494637685 169.222789669778 2395.19293019905 146 151 147
-1065.41667047593 169.684496862207 2387.30564913886 152 157 153
-1064.62267184568 169.764898646713 2379.30670877356 157 162 158
-1061.83314922708 170.098747912949 2371.35556742802 153 158 154
-1056.05075419957 170.81283835386 2363.46003583141 162 167 163
-1052.26435288738 171.272639165046 2355.48811763613 164 169 165
-1042.49251951292 172.493172301203 2347.60613898457 114 119 115
-1032.7220841057 173.713033163452 2339.66880109447 98 103 99
-1017.96537402511 175.566351058875 2331.74237416573 103 108 104
-999.220614372732 177.926162051421 2323.77527615561 98 103 99
-966.514694895388 182.060309784335 2315.81224926144 89 94 88
-945.781415535789 184.671406559681 2307.60755284611 98 103 97
-944.996879786882 184.745864834796 2299.24171340242 135 140 134
-1037.15928530368 172.979717409214 2282.79403933432 140 145 139
-1053.31876943304 170.900219560324 2274.76982898704 161 166 162
-1068.47908991981 168.947608544323 2266.82447454105 136 141 137
-1079.6494012007 167.50189229771 2258.91546958737 163 168 164
-1088.82459565317 166.30957515431 2251.03829848705 175 180 176
-1093.01445349347 165.750438431258 2243.12575387342 145 150 146
-1097.203746678 165.191091921342 2235.23505271004 151 156 152
-1094.41593674158 165.517853117904 2227.20936318854 176 181 177
-1093.62179426868 165.590907719084 2219.21748064121 180 184 183
-1088.84154072569 166.169849304494 2211.1085128533 173 177 176
-1083.06584089928 166.874804958812 2202.94150137386 165 169 168
-1072.30874222481 168.211835804837 2194.57470342042 160 164 163
-1060.55717208117 169.674651206001 2186.11151622359 170 170 168
-1052.79190853859 170.630603542321 2177.73807462258 168 169 164
-787.352325286773 196.820002504174 2685.07372341045 138 143 139
-786.574436794378 196.904304776464 2676.45865588092 168 173 169
-791.798208538057 196.240359655879 2667.13280091633 196 201 197
-921.261028555982 180.080397945182 2635.25185905068 187 191 192
-954.476654510549 175.928129160335 2623.27433410405 171 175 176
-957.687672434396 175.514776230838 2614.66661386958 164 168 169
-962.898018294176 174.852034710174 2605.86678129047 168 172 173
-969.107724632395 174.064601532384 2596.99208158241 181 185 186
-979.315744453337 172.778779285957 2587.75628045369 171 175 176
-986.523202405666 171.866605759395 2578.86021653841 159 163 164
-993.729708349934 170.954325570176 2570.00124586989 157 161 162
-998.936238782839 170.29100618464 2561.3592377119 156 160 161
-1005.14153791688 169.503035787117 2552.65620998513 165 169 170
-1009.34703886742 168.963982118837 2544.15384207017 178 182 181
-1016.550151535 168.05119486878 2535.42694796655 185 189 188
-1039.74124988181 165.146760929333 2525.47292485961 177 181 180
-1057.9328637546 162.865019449481 2516.0252145264 168 172 171
-1066.13056440529 161.827880821106 2507.4103443094 164 168 167
-1064.33596210724 162.035012642751 2499.54637266406 161 165 164
-1061.54270033113 162.366196217122 2491.73850833258 171 176 172
-1063.74478040012 162.07497996044 2483.58655371801 177 182 178
-1066.94541172289 161.659050544349 2475.38201140198 176 181 177
-1071.14438797676 161.118582935915 2467.13313305526 161 166 162
-1076.34173684201 160.453536621055 2458.84811812431 158 163 159
-1079.54071156791 160.037031049638 2450.69837793326 157 162 158
-1079.74366705452 159.993231771329 2442.71914614828 155 160 156
-1076.95123152217 160.322031555044 2434.88575460553 155 160 156
-1075.1573846423 160.526141367558 2426.98901380008 152 157 153
-1080.35260607905 159.859894008034 2418.776531767 144 149 145
-1082.55236182612 159.566205570959 2410.71276526836 144 149 145
-1080.75861536166 159.769328345244 2402.81104007501 145 150 146
-1070.97972285442 160.965902622744 2395.17923160954 146 151 147
-1063.19856963022 161.913328061257 2387.42698307345 154 159 155
-1060.40867836356 162.239172900452 2379.48165523388 156 161 157
-1059.61527013817 162.316173338446 2371.46531248581 149 154 150
-1056.82608716128 162.641139391683 2363.49135865578 155 160 156
-1055.03509832686 162.841517368226 2355.47890857503 168 173 169
-1042.26896167745 164.406994426834 2347.66123861505 115 120 116
-1029.50464045596 165.971658062095 2339.77174205122 110 115 111
-1012.75164782489 168.031963714582 2331.86355171557 103 108 104
-989.01810473886 170.959968718111 2323.93534130266 97 102 96
-959.302895575629 174.63120133096 2315.92176268717 89 94 88
-949.540356182689 175.819970848729 2307.64243771461 99 104 98
-951.74732269037 175.519564313319 2299.28031154698 135 140 134
-1039.92691689816 164.501439376691 2282.85589738875 145 150 143
-1051.10156278922 163.085628991469 2274.80959146418 125 130 126
-1060.28066325963 161.917810060384 2266.80606394547 123 128 124
-1068.4615693868 160.873889040375 2258.84029947726 161 166 162
-1075.64425111594 159.953817049116 2250.90409543073 156 161 157
-1081.82915566948 159.15756191656 2242.98926305039 157 162 158
-1086.01952606767 158.608912107724 2235.06794593965 193 198 194
-1085.2255764388 158.67948773212 2227.05653985667 193 197 196
-1090.41198869659 158.006489605488 2219.19042738859 179 183 182
-1091.61115075794 157.828638225881 2211.24021864445 169 173 172
-1086.83124374486 158.39337994332 2203.11178533076 169 173 172
-1073.08367616408 160.071843103205 2194.65566516473 173 177 176
-1060.3348307699 161.625601344986 2186.15893507522 172 172 170
-1055.55792394761 162.188377090078 2177.9018082143 176 177 172
-772.102779984899 189.898120388984 2686.98687027495 164 169 165
-773.326559224433 189.735142016566 2678.09050641833 141 146 142
-780.552410454046 188.840398762471 2668.49428479309 179 184 180
-932.031131062703 170.350295496047 2634.0892635269 184 188 189
-953.246628554158 167.75069606063 2623.45022502315 170 174 175
-956.457937787296 167.345128071759 2614.83947828211 155 159 160
-959.668856706591 166.939393909818 2606.24380793434 165 169 170
-966.879088180386 166.046048202961 2597.25956105488 174 178 179
-975.088405418835 165.030814842344 2588.2141945356 165 169 170
-985.296087923561 163.771880904572 2579.02044748811 161 165 166
-993.502848272204 162.75658115795 2570.06561701163 159 163 164
-996.710339530334 162.350199041675 2561.60321581278 157 161 162
-1004.91550531273 161.334690478668 2552.71980708624 165 169 170
-1008.12161797941 160.92795828936 2544.30158534738 185 189 188
-1018.32394484199 159.668736497753 2535.32617106079 188 192 191
-1036.5196156994 157.435640715426 2525.7721317181 174 178 177
-1055.71227873603 155.081004584687 2516.23917021654 165 169 168
-1065.90906543258 153.822060497235 2507.47125819976 168 172 171
-1067.11185090516 153.658279234275 2499.39454140022 168 172 171
-1067.31548586677 153.61597959376 2491.39036357357 166 171 167
-1067.5191359904 153.573345811917 2483.3852343879 162 167 163
-1068.72169396759 153.408724828964 2475.31650726943 163 168 164
-1067.92648330344 153.487105413188 2467.37209196693 173 178 174
-1073.12441971812 152.835406962023 2459.07844547653 173 178 174
-1075.32514792232 152.548394964652 2450.97451584298 159 164 160
-1077.52584879162 152.261117023607 2442.88069379035 154 159 155
-1074.73308889471 152.581453583167 2435.04156759222 144 149 145
-1073.93794440199 152.658256055391 2427.09287162552 142 147 143
-1078.13521081788 152.126976426148 2418.92068501479 145 150 146
-1082.33192969908 151.595482451927 2410.76966780958 149 154 150
-1082.53480237455 151.549844629773 2402.79169848388 152 157 153
-1075.749840581 152.354369189017 2395.05956373605 155 160 156
-1067.96749750368 153.279787449261 2387.32086438051 161 166 162
-1062.18286619402 153.961702851243 2379.4781873584 156 161 157
-1060.39102164071 154.157237034849 2371.49398084469 149 154 150
-1057.60154647307 154.47384820116 2363.52247600699 152 157 153
-1054.81249396773 154.790016737969 2355.53397680089 149 154 150
-1043.0433930043 156.198320559714 2347.69742443588 134 139 135
-1026.28671652041 158.212795235542 2339.87467726898 118 123 117
-1006.53950113131 160.590504640514 2331.99807823094 109 114 108
-981.806995180604 163.573830326987 2324.06403440275 116 121 115
-960.070472017921 166.192021824919 2315.96903715302 109 114 108
-951.304541082422 167.231987600769 2307.68718907774 97 102 96
-954.509122047916 166.815636877403 2299.32782867438 117 122 116
-1005.58673704815 160.577533313504 2291.00514783739 147 152 145
-1053.66510254304 154.704569625608 2282.95245158192 132 137 130
-1042.90089012527 155.986533139546 2274.81388108795 103 108 102
-1045.10119975953 155.691736937152 2266.72727732606 102 107 101
-1054.28053735772 154.54822574517 2258.73125702237 79 84 78
-1058.47391002599 154.010567254492 2250.71372721543 77 82 78
-1064.66022453295 153.230445126029 2242.7517865602 85 90 86
-1069.84913122916 152.57127750929 2234.80303293363 84 89 85
-1077.03079523289 151.669632227888 2226.9263903038 76 80 79
-1086.20503744777 150.525673865187 2219.13835988145 129 133 132
-1087.40456402969 150.350516325621 2211.17679684889 135 139 138
-1081.6278065251 151.022596174553 2203.00649880066 157 161 160
-1070.86937219599 152.299420253905 2194.63658225651 171 175 176
-1058.1194538599 153.817545877675 2186.13420210446 154 156 153
-1053.34231883119 154.36663801554 2177.87130193776 165 167 162
-1046.57337875018 155.157174052987 2169.49796336398 160 161 156
-762.854176133899 182.177886278744 2688.16352385711 205 210 206
-765.079318039013 181.8978458007 2679.12223248683 179 184 180
-779.309242100019 180.187329337783 2668.68244927421 83 88 84
-935.800862279594 161.513575744991 2633.70889161569 173 177 178
-950.016134230572 159.805129509729 2623.84398647167 167 171 172
-954.22819313622 159.28812434491 2615.11830972596 147 151 152
-959.439496448592 158.651926428598 2606.30955706081 162 166 167
-966.650252490459 157.777347067297 2597.32495810042 169 173 174
-973.8600596175 156.902690229357 2588.37736283017 168 172 173
-981.06915608046 156.027949369417 2579.46677734599 160 164 165
-989.276797596972 155.034141926651 2570.50058455724 155 159 160
-994.484356681602 154.397377199756 2561.84688547365 153 157 158
-1002.6900261424 153.403404555275 2552.95759007285 164 168 169
-1009.89507810107 152.528363154624 2544.1954303417 181 185 184
-1021.09723741662 151.177220762375 2535.14323998664 186 190 189
-1036.29590437201 149.350073885942 2525.8338864374 176 180 179
-1051.49250224999 147.523057723452 2516.60553995165 168 172 171
-1063.68881388343 146.053144808125 2507.67906829348 166 170 169
-1070.88735251958 145.178066877331 2499.17143254654 165 169 168
-1071.09070662829 145.13545188403 2491.17789282253 165 170 166
-1068.29672671643 145.44936110325 2483.37954785165 167 172 168
-1066.50238723395 145.643965867917 2475.50117866271 166 171 167
-1066.70613821766 145.600374938985 2467.4910798046 164 169 165
-1069.90662799365 145.199878092801 2459.30863993198 167 172 168
-1072.10771703335 144.918021697557 2451.19614328545 172 177 173
-1071.31247346765 144.992479793385 2443.24880222342 164 169 165
-1071.51600196841 144.947747714762 2435.24617349129 149 154 150
-1074.71542940183 144.546213275318 2427.10413955854 142 147 143
-1079.91141151344 143.90689201275 2418.89083888618 137 142 138
-1080.11441568087 143.861309212269 2410.90778947733 140 145 141
-1080.31742977948 143.815423672577 2402.92402686517 152 157 153
-1073.53207937232 144.6005154913 2395.18621510321 155 160 156
-1067.74591465208 145.26633702756 2387.37686393699 159 164 160
-1060.96246238295 146.050353326957 2379.56371155575 153 158 154
-1059.17077764649 146.240200036859 2371.57647686261 150 155 151
-1057.37914130872 146.42973690169 2363.57769310539 164 169 165
-1053.59194204504 146.856136347422 2355.6104225927 145 150 146
-1044.81556497365 147.875415733674 2347.71463424362 136 141 137
-1025.06411810001 150.199184202588 2339.94549865763 118 123 117
-1004.31774808726 152.640517961467 2332.07947665171 115 120 114
-977.587969576598 155.792472715522 2324.16117580975 128 133 127
-957.845213549154 158.113030283397 2316.03959944105 110 115 109
-952.071734860848 158.772410330148 2307.73684261273 83 88 82
-955.276480166442 158.364208454991 2299.3798088346 109 114 108
-973.442232173674 156.177640161131 2291.04505943502 141 146 139
-1030.70959980205 149.316559309201 2274.79479428356 95 100 94
-1029.91919929063 149.382435731677 2266.64895554323 85 90 84
-1039.10050957023 148.263244106864 2258.61127328258 78 83 77
-1044.29201737621 147.617821717301 2250.5662930536 88 93 89
-1050.48000623513 146.853755931955 2242.56547777646 90 95 91
-1057.66402999379 145.971198674304 2234.61710299856 85 90 86
-1062.85345411838 145.325277551385 2226.66234954357 91 95 94
-1072.02912509691 144.205759823277 2218.83539577146 116 120 119
-1074.22661650747 143.914654845643 2210.86290130743 107 111 110
-1075.4269840509 143.74167418016 2202.87080794552 125 129 128
-1069.65126353749 144.39663947394 2194.65092918638 150 154 155
-1058.89335881886 145.642565928466 2186.21781335224 153 155 154
-1051.12661822829 146.532857398044 2177.84092311024 162 164 161
-1044.35729753686 147.304198640493 2169.4618502179 166 167 162
-759.608120166984 173.708595142221 2688.60315311119 80 85 81
-764.835367973386 173.084084270141 2679.1931078208 78 83 79
-784.068759194329 170.829163361655 2668.16608952371 95 100 96
-847.31896818552 163.450963869128 2652.19803673792 104 109 105
-936.57005812191 153.047076574526 2633.66354056714 167 171 172
-950.786553110174 151.376503721485 2623.80082519834 156 160 161
-954.998602311911 150.870067628067 2615.07755118169 157 161 162
-958.210033473692 150.479922083497 2606.4785984798 170 174 175
-965.421385150151 149.624060138298 2597.49081737596 171 175 176
-970.63189092793 149.00088548012 2588.73654328538 167 171 172
-979.841240576663 147.912254180267 2579.62647388019 154 158 159
-989.049600128211 146.823523222886 2570.56431868654 152 156 157
-997.256753712473 145.851152444045 2561.64021301912 163 167 168
-1002.46380676325 145.227636600017 2553.0205171214 174 178 179
-1006.67034543368 144.720266804882 2544.51161122092 186 190 189
-1016.87401261429 143.515098585877 2535.5325264378 190 194 193
-1034.0730137775 141.496093564466 2526.05350371494 178 182 181
-1050.27027667187 139.593557290614 2516.74277606868 167 171 170
-1061.4684820302 138.272333581694 2507.88656922501 162 166 165
-1070.66619222928 137.183650034488 2499.23135373436 160 164 163
-1072.86814990767 136.908311390665 2491.1012307267 166 171 167
-1071.07291599498 137.097575641806 2483.24275994801 166 171 167
-1069.27821472923 137.286424866174 2475.37235064634 170 175 171
-1067.48357056458 137.474961928637 2467.4900496722 172 177 173
-1069.68531383832 137.1985400035 2459.36714319715 164 169 165
-1071.88655447707 136.921894915082 2451.25431703455 153 158 154
-1075.08653305573 136.528886497703 2443.09989702232 154 159 155
-1075.28978361738 136.48395832866 2435.10792056666 160 165 161
-1078.48916102704 136.090449750038 2426.97645928735 158 163 159
-1079.69078197032 135.928899127492 2418.94765141675 145 150 146
-1078.8953027262 135.999158615126 2411.00501334148 143 148 144
-1075.10448375661 136.417158757904 2403.17019495102 141 146 142
-1071.31423205147 136.834707783494 2395.31272152546 145 150 146
-1067.52430866963 137.25184243059 2387.43264637239 147 152 148
-1061.73877429578 137.900477614967 2379.58953049268 141 146 142
-1057.95012134259 138.316703856833 2371.65882721111 147 152 148
-1054.16226960996 138.732413560458 2363.7055796236 144 149 145
-1052.37121650808 138.915820120619 2355.6867435265 128 133 129
-1045.59032605423 139.678387800853 2347.7504366542 124 129 125
-1027.8330165997 141.715407245611 2339.95193734604 141 146 142
-1003.09322076308 144.562753067333 2332.14747801881 140 145 139
-974.366032787401 147.872296687131 2324.247741557 142 147 141
-960.608351017711 149.442747395636 2316.07094347928 109 114 110
-952.838816492859 150.317307461018 2307.7863586976 86 91 85
-958.038745963858 149.68560805166 2299.42696530481 101 106 99
-955.258214121398 149.980118857351 2291.0915194609 148 153 146
-1020.51130673385 142.348283101329 2274.78782500702 85 90 84
-1023.71069941877 141.948198370106 2266.64870575118 82 87 81
-1035.8848392003 140.506272107554 2258.62816157367 83 88 82
-1043.07136425668 139.643005267138 2250.60273998056 89 94 90
-1054.24523580309 138.31688943689 2242.68300523237 91 96 92
-1059.43561287675 137.684879107425 2234.70594356507 115 120 116
-1061.6341605515 137.399708029079 2226.68921321309 124 128 127
-1062.83584484619 137.229854776514 2218.65833941373 105 109 108
-1067.02761248092 136.712883155832 2210.71642705708 112 116 115
-1069.22546278404 136.42684426902 2202.73534540693 125 129 128
-1064.44608338038 136.94976542741 2194.53206280569 145 149 150
-1052.69116877068 138.281012314256 2186.04899600225 149 151 148
-1044.92425105605 139.149323948235 2177.65542812759 152 154 149
-1041.14425247621 139.554840347459 2169.38430733912 169 171 166
-761.365323852233 164.653208420587 2688.42821745694 107 112 108
-767.59314316741 163.928237542335 2678.90334228084 154 159 155
-792.831538491866 161.042500293288 2667.17958462159 133 138 134
-861.088570888624 153.267816924364 2650.66127354842 110 115 111
-934.338276452833 144.92627473907 2633.95348423558 164 168 169
-949.556028076745 143.179847346916 2623.97558130495 161 165 166
-953.768682558052 142.683930366333 2615.24927026736 165 169 170
-957.980567722582 142.187891230278 2606.54357084509 169 173 174
-962.191924848008 141.691722587539 2597.85836996597 168 172 173
-969.403061168416 140.854553891034 2588.89907709341 174 178 181
-976.613247750961 140.01727792748 2579.97678809152 155 159 162
-984.822608774775 139.066373330722 2570.99878156073 153 157 160
-994.030696307987 138.001872459675 2561.97327418656 167 171 174
-1002.2375709507 137.050942724536 2553.08309226254 176 180 183
-1009.44367678482 136.213522781833 2544.32013845181 184 188 187
-1016.64883067719 135.376026168344 2535.59430749935 187 191 190
-1035.84842932378 133.176133280287 2525.95642971036 179 183 182
-1050.04758866226 131.544119578169 2516.8033286473 173 177 176
-1060.24698962776 130.366225442971 2508.02026714035 165 170 166
-1064.44856971517 129.869208630655 2499.71627607741 163 168 164
-1067.65035277075 129.485502915194 2491.50131938126 160 165 161
-1066.85474099325 129.555407563166 2483.5634801703 165 170 166
-1069.05688189556 129.284686620996 2475.43115426921 170 175 171
-1067.26208645182 129.46747212001 2467.54859022034 172 177 171
-1069.46398012319 129.196231812022 2459.42536930578 170 175 169
-1069.66755116671 129.151563431115 2451.42114624856 153 158 154
-1073.86673764226 128.653098204434 2443.20915063335 148 153 149
-1075.06883018127 128.494573029769 2435.16515966087 150 155 151
-1078.26843453114 128.109016576274 2427.03336715118 154 159 155
-1077.47286951737 128.176613045778 2419.0912219074 152 157 153
-1075.67865410728 128.357188470891 2411.18361512684 151 156 152
-1070.88925163907 128.877268171252 2403.37834245948 151 156 152
-1069.09582303945 129.057033934535 2395.43911504759 146 151 147
-1065.30597724324 129.46296624293 2387.55330415904 141 146 142
-1060.51817545196 129.981737651844 2379.67474196133 150 155 151
-1053.73465025491 130.726430879961 2371.82221777038 155 160 156
-1048.94863435277 131.244153518116 2363.88205553731 117 123 119
-1049.15392918805 131.195410067072 2355.8060852302 112 118 114
-1045.36697340897 131.599057489671 2347.80486912616 121 127 125
-1029.60441256649 133.360295591675 2339.97421959896 136 140 139
-999.873024038237 136.704710517351 2332.24207495499 149 154 150
-972.141412227109 139.821554336027 2324.32370397698 139 144 140
-959.380778343749 141.240350312118 2316.1334720075 116 120 119
-954.60391785437 141.75353485213 2307.8306118675 92 94 89
-958.806507096256 141.248566935873 2299.47864226855 100 102 97
-975.977201459918 139.273529552931 2291.15315639634 144 147 140
-1019.49611662449 134.254036006243 2266.66583030484 99 101 98
-1033.66592602336 132.618882616802 2258.65645540134 84 86 83
-1041.85053440135 131.661753811757 2250.63918494164 91 93 90
-1055.01975000404 130.139793535745 2242.74985803457 96 98 95
-1060.21020544817 129.521479829857 2234.77511496881 117 119 116
-1061.41188397693 129.354692219137 2226.73843338384 97 99 96
-1062.61365174638 129.187547609953 2218.70720543408 105 107 104
-1064.81185485923 128.907329806777 2210.70926020012 124 126 123
-1069.00374275085 128.401036435297 2202.78343805771 132 134 131
-1062.23039451785 129.135911143918 2194.51329569859 136 138 137
-1053.46502792825 130.095808175506 2186.1327441677 141 143 140
-1043.70412600218 131.167884854648 2177.66412553459 153 155 150
-1040.92037547771 131.449691395244 2169.43151128432 153 154 149
-1036.14398888902 131.956600952143 2161.0940670819 145 146 140
-765.348079344097 155.342793200844 2679.21350121126 97 102 98
-792.589672800543 152.302997587831 2667.24872879428 126 131 127
-882.864657330265 142.272650295787 2648.2061252891 182 187 183
-939.109552094191 136.016921743754 2633.45946054509 170 174 175
-956.329318507306 134.089316051103 2623.27632226946 163 167 168
-959.540996816308 133.714952873184 2614.67533129955 160 164 165
-959.751567103369 133.673147594591 2606.40062773696 163 167 168
-961.962743166192 133.409339192965 2597.92259861727 167 171 172
-970.174742515323 132.479984261426 2588.86461556426 171 175 178
-980.385714878308 131.328898977433 2579.65808903752 143 147 150
-985.595039824395 130.732150111948 2570.96901513279 145 149 152
-992.803713694035 129.913597690393 2562.12595208892 169 173 176
-999.011615748144 129.205824995068 2553.40730334506 175 179 182
-1004.21895374287 128.608791720135 2544.8049057941 188 192 193
-1008.42569553753 128.122404524303 2536.31059059406 189 193 192
-1029.62651351502 125.752564875478 2526.49197671185 178 182 181
-1048.82534172098 123.604553502024 2516.93991678615 170 174 173
-1061.02475202366 122.232153709638 2508.00636526917 162 167 163
-1063.22751718893 121.96730162063 2499.84661774339 160 165 161
-1068.42850299247 121.369993855898 2491.49219110309 163 168 164
-1068.6320085434 121.326183177673 2483.49144865832 163 168 164
-1071.83335538445 120.949975937987 2475.30159202285 164 169 165
-1068.03970889536 121.348415534038 2467.54695549253 167 172 168
-1071.24073960969 120.971692265791 2459.36890011279 169 174 168
-1071.44417160762 120.92680582182 2451.36987729985 163 168 164
-1074.644604724 120.549656465423 2443.2147206176 152 157 153
-1074.84785646178 120.504232826101 2435.22216619634 139 144 140
-1075.05111964422 120.45850604464 2427.22883898771 141 146 142
-1073.25698127459 120.633626100156 2419.32168843167 144 149 145
-1071.46289474209 120.808450399949 2411.40286955314 145 150 146
-1072.66503928671 120.651186784707 2403.35820058668 152 157 153
-1069.87282329546 120.935847263959 2395.45951044349 156 161 157
-1069.07813024663 120.999025262899 2387.47854157591 152 157 153
-1058.29928183084 122.167007883343 2379.78961268159 141 146 142
-1055.50876429398 122.450345909489 2371.82312110876 137 142 138
-1050.72199417706 122.954228018846 2363.88825052033 124 130 126
-1049.92900393777 123.015827324253 2355.83903487727 118 124 120
-1043.1472007548 123.73971564553 2347.89686970393 124 130 128
-1028.38158069517 125.346464754794 2340.0446042613 131 135 134
-1001.64205413863 128.277278705325 2332.26984685832 141 145 144
-975.90416648801 131.096511904522 2324.33592618004 150 154 153
-965.138114392805 132.258852070688 2316.14081431571 119 123 122
-960.36022443703 132.758359390287 2307.85417895457 87 89 86
-961.569717225615 132.595310113719 2299.52542774889 96 98 93
-951.804606095321 133.645550116482 2291.19787285707 144 147 140
-1026.45988093614 125.270843439465 2258.6281194303 103 105 100
-1032.65086428569 124.555901279689 2250.56301425171 106 108 105
-1045.82169875743 123.069356391815 2242.64844265001 105 107 104
-1054.00471780962 122.133945603519 2234.70728289377 120 122 119
-1064.18092199752 120.978162168215 2226.85457258004 125 127 124
-1068.37369743367 120.483351226485 2218.90639107158 136 138 135
-1070.57164127382 120.208694192083 2210.924549838 128 130 127
-1068.7819956142 120.374260507738 2202.83155054129 134 136 133
