ply
format ascii 1.0
comment KinectMotionCapture
element vertex 753
property float x
property float y
property float z
property uchar red
property uchar green
property uchar blue
end_header
-821.199076601085 163.434216372429 2494.14736075094 124 129 125
-821.157805821006 163.06179864768 2501.55164614674 126 131 127
-823.124089825823 162.847977624908 2508.71707787529 113 118 114
-825.090038274936 162.634325385219 2515.88137031207 81 86 82
-815.979388292228 161.553210398262 2524.23599347628 76 81 77
-789.723148588182 159.134373798719 2534.32899767628 136 141 137
-757.376020115402 156.247688384346 2544.89305978329 117 123 119
-743.143257309311 154.782193528112 2553.46920653549 113 119 115
-733.93575920072 153.712135094706 2561.47123211912 112 118 114
-733.806941088431 153.350391437002 2568.55721047637 110 115 111
-731.65212936288 152.832255995404 2575.81683285993 112 117 113
-730.503560802471 152.393321299168 2582.9642636725 116 121 117
-725.299301509239 151.641894085217 2590.44448687594 119 124 120
-728.191978037299 151.5171949931 2597.20844998994 124 126 123
-728.043201681115 151.158171275305 2604.2229735495 131 133 130
-731.950612074951 151.11169110409 2610.90750757229 135 137 134
-734.844839260078 150.987094365655 2617.67822161532 134 136 133
-738.756534510011 150.940378578206 2624.37851571323 137 142 136
-744.704512740389 151.049023583008 2630.94457531938 152 154 149
-740.481252846602 150.380012818537 2638.22184104719 149 151 146
-730.138749002697 149.246179845884 2645.86586926949 165 167 162
-992.956379801455 187.35448548235 2106.55777627371 187 191 190
-994.156480818227 187.026435263901 2114.7027227855 153 157 156
-997.301789053338 186.858748072199 2122.3784465002 148 152 151
-996.551927240061 186.371780216378 2130.97587169807 130 132 131
-999.696927138016 186.204764115754 2138.65087430911 117 119 118
-999.916293451442 185.798815938019 2147.00261379944 105 107 104
-1005.01447411791 185.791623301862 2154.2367281685 110 112 109
-1006.20855281658 185.466132560827 2162.36093091361 118 123 117
-1011.31214289633 185.458935287751 2169.61512644646 112 117 111
-1023.2694613925 186.00726198039 2175.39050031032 104 109 103
-1034.26184839436 186.47497475161 2181.42869763172 94 99 95
-1042.32687790598 186.703846595775 2188.13821787826 85 90 86
-1052.36201941873 187.090446443849 2194.46746024449 68 72 71
-1070.25964863678 188.108389666062 2199.21475449093 168 172 173
-963.767472869995 178.302962393372 2245.7489042859 202 206 209
-960.968583334524 177.67178377702 2254.44214283865 130 134 137
-940.432109634476 175.62603676961 2266.52453546098 143 147 148
-895.218991061422 171.620167602445 2283.16437640682 146 150 151
-865.719467485468 168.878099202844 2296.59877120165 146 150 151
-850.981270437385 167.317543620361 2307.13557271644 145 149 150
-846.097249973563 166.543296856385 2315.78944383659 145 149 150
-842.191417893094 165.848679569144 2324.22909020312 143 147 148
-833.329848605057 164.764492084675 2333.50656135407 142 146 147
-823.462390435592 163.604247001473 2342.89673681272 140 144 145
-814.56780855884 162.524224186166 2352.05426804615 139 143 144
-813.589220574909 162.069638014571 2359.82385092422 139 143 144
-814.590536839898 161.771524654663 2367.24964917867 133 137 136
-816.582975458159 161.551573776457 2374.50831779095 130 134 133
-814.600523852137 161.021150768873 2382.39919276824 126 131 127
-809.628843660477 160.258789723758 2390.73510452044 125 130 126
-808.627098034211 159.807936085889 2398.42106413769 133 138 134
-807.620730728634 159.357804709102 2406.09032036332 141 146 142
-804.616538452598 158.753677506357 2414.03838892499 146 151 147
-802.602252475087 158.227860565179 2421.81397714951 140 145 141
-804.573726381333 158.011807403719 2428.99726870935 133 138 134
-811.538479096716 158.181646879279 2435.47979827444 118 123 119
-814.512200078603 158.042743960185 2442.53662503095 108 113 109
-816.486980268607 157.82692939924 2449.73234281425 97 102 98
-820.463213695085 157.765167609925 2456.66275525462 85 90 86
-820.435495151412 157.396013299875 2464.12034681973 91 96 92
-821.407007700077 157.104163000402 2471.43944388532 99 104 100
-819.367697221304 156.582684427678 2479.12486006005 109 114 110
-820.333213782535 156.291823730619 2486.42324900515 123 128 124
-819.288203155597 155.848313445201 2493.95321036292 126 131 127
-821.254031333927 155.634790648218 2501.11713798121 123 128 124
-822.213703211806 155.345104069402 2508.39363901683 107 112 108
-824.17808594738 155.132066160268 2515.55250612227 81 86 82
-815.061721841515 154.081065597193 2523.90399751536 77 82 78
-789.800410408096 151.814044012339 2533.89143207445 140 145 141
-760.465278073424 149.247277182201 2544.14960615542 142 148 144
-741.179976645318 147.445143916375 2553.23759137246 134 140 136
-731.965806787721 146.405274640807 2561.23390591349 139 145 141
-733.855588318137 146.201182448875 2568.12144122314 145 150 146
-732.710129372058 145.770083801263 2575.28629371764 140 145 141
-730.547769779355 145.263934034734 2582.52453045508 124 129 125
-726.353088530964 144.607431557842 2589.91580016994 124 129 125
-727.218435076194 144.329506229254 2596.84951517038 125 127 124
-726.052934445646 143.90101433454 2603.94160258583 131 133 130
-728.943504035497 143.774544401061 2610.69755405718 138 140 137
-732.851253842622 143.723331455396 2617.38036022896 140 142 139
-737.778111119769 143.747087697685 2623.99792393363 133 138 132
-741.691584276454 143.695458325234 2630.7017168705 138 140 135
-738.480968014747 143.118310031312 2637.90040670205 142 144 139
-983.474715029559 178.417166055098 2108.57396901402 138 142 141
-986.612520068385 178.247472767366 2116.22056828748 147 151 150
-990.725655533466 178.155248233851 2123.64003858316 134 138 137
-993.866779955559 177.985835356408 2131.29913911249 134 136 135
-995.058708147182 177.662398532105 2139.41665418188 131 133 132
-995.272826892751 177.262443978155 2147.75269454154 113 115 112
-1001.34469751036 177.324793646834 2154.74858482508 99 101 98
-1006.44452354539 177.309958850607 2161.98398326536 88 93 87
-1012.52661799467 177.371754375371 2169.01841179712 88 93 87
-1022.52993395797 177.739975548802 2175.21881782537 96 101 95
-1032.54482404496 178.107240735639 2181.46066372404 87 92 88
-1048.45305101078 178.932680287199 2186.49373037123 94 99 95
-1062.41922228385 179.603356702636 2192.01125629014 84 88 87
-977.746090070321 171.384419901357 2242.62488359163 191 195 198
-970.031094298578 170.385681688414 2252.31605627623 134 138 141
-943.578459715686 167.945596384979 2265.56371887091 146 150 151
-899.333138201169 164.144676907724 2282.03080375523 147 151 152
-867.849188860435 161.337012411429 2295.84864144937 143 147 148
-849.154486590815 159.519444095911 2307.11966070523 142 146 147
-845.253610235636 158.840139412955 2315.58737428518 148 152 153
-840.354844532142 158.086574270416 2324.1995565135 148 152 153
-836.435377925651 157.40986733245 2332.59988821412 145 149 150
-826.564176515351 156.281992853219 2341.99753188043 144 148 149
-820.640297887248 155.457633508857 2350.6552953677 144 148 149
-816.688252414153 154.785301026702 2358.93742992429 143 147 148
-818.683050955273 154.565178302821 2366.20475197325 139 143 142
-816.704222093473 154.045008648278 2374.11555092014 137 141 140
-812.73110554167 153.37573413038 2382.32138332986 133 138 134
-806.759620569631 152.55783384302 2390.80647170314 135 140 136
-806.749109907303 152.190530820814 2398.32912156526 143 148 144
-806.735411639351 151.823798643504 2405.84029687404 144 149 145
-802.731026602149 151.158927465529 2413.93188654173 142 147 143
-803.705621403209 150.86828768538 2421.26412068739 129 134 130
-807.673849294515 150.801646253482 2428.16172939383 119 124 120
-812.643636782504 150.809404020963 2434.9285839578 107 112 108
-814.617909062114 150.593821501578 2442.12256246824 97 102 98
-815.591154691061 150.304160931054 2449.45040562397 91 96 92
-820.567822440534 150.311801717069 2456.24273139436 92 97 93
-818.534676770961 149.800224728478 2463.95728763925 115 120 116
-819.503509894483 149.511702612054 2471.26853776498 120 125 121
-816.456742786237 148.927605313663 2479.07118015212 120 125 121
-819.427469894703 148.787987109733 2486.1155106275 122 127 123
-818.379692637575 148.353129601419 2493.64066294011 123 128 124
-817.327267502118 147.918910734642 2501.14896179627 115 120 116
-822.307896532784 147.927436447387 2507.95655372375 98 103 99
-825.278390775843 147.788487910392 2515.00137143066 80 85 81
-819.18066811435 146.987989312571 2523.02875052071 78 83 79
-791.893835732639 144.646737132198 2533.24159824663 145 150 146
-761.537547010375 142.090104220698 2543.61206623415 132 138 134
-741.233662280305 140.271451365509 2552.80507109076 127 133 129
-732.014496441338 139.261613457137 2560.80086774273 126 132 128
-732.892208558041 138.984944125815 2567.78128665739 123 128 124
-733.767918190952 138.708542579483 2574.75536883013 127 132 128
-732.616739759219 138.286604216105 2581.9038402968 139 144 140
-730.447054427692 137.792299069086 2589.12328509698 141 146 142
-733.342479532164 137.66293516914 2595.89450802104 143 145 142
-731.164182809207 137.169842596537 2603.08274596864 142 144 141
-734.058174468239 137.040832222502 2609.84886998849 143 145 142
-735.93677601259 136.839202821307 2616.69645107824 138 140 137
-739.848942491343 136.782749525643 2623.39327602598 137 139 134
-738.674998905919 136.363942384906 2630.4601308514 141 143 138
-732.404243840378 135.583917980115 2637.85800087228 145 147 142
-739.370778732835 135.74489368326 2644.34248021218 122 124 119
-987.380910503416 170.983436461328 2098.90017954384 184 188 187
-979.821008327636 169.988365531074 2109.16949968303 156 160 159
-981.008307978258 169.667189875455 2117.2721864929 140 144 143
-985.117093635206 169.570269443414 2124.67254205902 141 145 144
-994.103468578432 169.845825416793 2130.93506182279 126 128 127
-993.342633968102 169.376481814135 2139.50380322913 118 120 117
-995.506640534814 169.130969372545 2147.38333177464 111 113 110
-1000.60197128383 169.108538300079 2154.59724420786 111 113 110
-1007.65730507653 169.234324904383 2161.3882708829 108 113 109
-1014.71944190529 169.359577515302 2168.20514778452 100 105 101
-1024.72659353853 169.706414756097 2174.40629420786 97 102 98
-1040.62563869188 170.495837341496 2179.38160233553 88 93 89
-1059.48676906548 171.504863140857 2183.80423715318 74 78 77
-969.248638970959 162.32398277251 2252.11478813264 151 154 159
-945.74022759669 160.182070799763 2264.79213530501 146 150 151
-909.369023644686 157.093141738966 2279.77043874804 148 152 153
-875.903137990777 154.230114016923 2293.98835170892 143 147 148
-855.22883586468 152.322613455639 2305.64629596776 142 146 147
-846.38562649422 151.294581543172 2315.02645856011 148 152 153
-839.505000378558 150.414288456926 2323.99394191379 148 152 153
-836.571869559427 149.826977069485 2332.21553534023 145 149 150
-828.676814063154 148.877167014376 2341.26907223584 144 148 149
-823.741825466068 148.147157414403 2349.76163769617 137 141 142
-819.78869827261 147.491095746061 2358.05002857711 135 139 140
-819.798675570863 147.126160033275 2365.65024081658 136 140 139
-817.818131842072 146.617034352358 2373.56164538523 136 140 139
-813.842479293105 145.964213284247 2381.76844998136 132 137 133
-809.857890532315 145.312599032858 2389.94283809535 137 142 138
-808.852058664558 144.878710295048 2397.6243370486 146 151 147
-806.845054476063 144.373468069604 2405.43995092696 141 146 142
-803.834697656572 143.797138961896 2413.38175298645 135 140 136
-804.808774087517 143.509534103191 2420.71397861599 121 126 122
-808.777692417028 143.437888233478 2427.61099124411 113 118 114
-811.749465176362 143.294459350052 2434.65772717519 105 110 106
-814.722339925575 143.151076315176 2441.70858352507 96 101 97
-812.691771514028 142.649743620938 2449.43917633504 92 97 93
-821.673221031556 142.936151662742 2455.69026038644 101 106 102
-817.63374526852 142.292798795436 2463.66515060156 122 127 123
-819.603655963221 142.078890484635 2470.84399240974 124 129 125
-812.538833841508 141.223539869489 2479.14333946489 122 127 123
-816.51049981559 141.15321542616 2486.05231686073 124 129 125
-816.463948936759 140.798276158596 2493.44803326759 124 129 125
-817.420063160421 140.514922095766 2500.71532344947 110 115 111
-820.387637838978 140.373885032392 2507.74798279938 91 96 92
-823.356250426188 140.232958995279 2514.78456579687 82 87 83
-819.269144748329 139.596219631593 2522.58771991594 81 86 82
-788.943538375865 137.12103409902 2533.12259804342 143 148 144
-759.580884765989 134.721672966235 2543.38521123958 147 153 149
-740.27636637315 133.033265822643 2552.47364835294 135 141 137
-734.083975989484 132.265111332132 2560.17089414355 129 135 131
-730.915147808264 131.709680833597 2567.53751738426 118 123 119
-731.788430125659 131.436686540827 2574.50380954926 119 124 120
-731.646607966018 131.093711881254 2581.55428521277 118 123 119
-731.501592204847 130.751193227244 2588.59319155778 124 129 125
-734.397318173614 130.619570524626 2595.36410544224 131 133 130
-732.21734635613 130.137618416957 2602.55315759852 139 141 138
-734.095464293341 129.936420428912 2609.39921552142 144 146 143
-738.006791698717 129.875132286547 2616.08894366256 147 149 146
-742.937972573626 129.883542519599 2622.71287137146 149 151 146
-742.782266434942 129.542809041903 2629.71321350688 147 149 144
-724.283847483444 127.948359863683 2637.95753961106 154 156 151
-986.648063851749 162.771497416734 2098.78824493894 172 176 175
-980.055734934008 161.875610044347 2108.81627386788 158 162 161
-980.268147801501 161.485391375978 2117.15119834255 142 146 145
-982.426745985472 161.239580178546 2125.01045800416 136 141 137
-989.462058549477 161.353175835713 2131.7203820778 135 140 136
-991.623955913605 161.107676268357 2139.59208769563 122 127 123
-994.762450977335 160.934206126508 2147.23886438835 102 107 101
-1000.83516490088 160.975604593988 2154.22465820994 96 101 95
-1007.89145247139 161.088160780362 2161.01180210429 86 90 89
-1017.89204350554 161.414477007653 2167.17470539294 99 103 102
-1027.90374105884 161.739848171837 2173.37917736946 100 104 103
-1047.73152511215 162.776598456339 2177.51106222271 91 95 94
-969.45002719553 154.344660197588 2251.72109697271 154 158 159
-943.957757655204 152.131750395507 2264.78151307851 150 154 155
-907.568560547562 149.148073114807 2279.75946192518 150 154 155
-880.999487739944 146.875271942428 2292.68042665563 150 154 155
-861.307246630841 145.099830798686 2304.17069698793 150 154 155
-847.517447500167 143.749883868062 2314.46536098214 141 145 146
-836.673825266034 142.613328753435 2324.14343660437 136 140 141
-831.754491407445 141.899806110425 2332.70453404203 135 139 140
-827.815986604332 141.257736865885 2341.05604907629 133 137 138
-825.852609623325 140.756821533581 2349.03637399917 124 128 129
-820.905036367653 140.04722923145 2357.4951055017 121 125 126
-818.927148603562 139.548389371404 2365.42379409805 124 128 127
-816.943431311203 139.050519694455 2373.33052229882 123 127 126
-814.953630171065 138.553555827276 2381.21523424605 122 127 123
-811.962253562828 137.987971235843 2389.234289635 130 135 131
-809.959370979395 137.492859764238 2397.07253127527 138 143 139
-806.953680141899 136.929335049688 2405.03974123492 125 130 126
-804.938144575513 136.436170668585 2412.83130509791 111 116 112
-805.911698216568 136.151630125691 2420.16352435964 100 105 101
-808.88219624612 136.005799645203 2427.20308220371 100 105 101
-811.853557095617 135.8601077454 2434.24686004422 92 97 93
-813.825450500254 135.645493551531 2441.43261760817 87 92 88
-814.795736870122 135.362262284251 2448.75260371793 114 119 115
-822.778407798539 135.56129151166 2455.13750162093 123 128 124
-819.739102219343 135.00322864417 2462.98335495726 125 130 126
-818.699096431346 134.583574709283 2470.54695995193 128 133 129
-810.624974745121 133.684310896625 2478.96757143162 130 135 131
-813.590310758017 133.540731075952 2485.99031369086 127 132 128
-814.545547700485 133.260323470036 2493.25620693826 127 132 128
-814.492478953678 132.91190752892 2500.63277128811 100 105 101
-819.471723068001 132.905559709816 2507.42583092328 88 93 89
-823.447178261167 132.830717188972 2514.34509544678 97 102 98
-817.339695899027 132.074289527032 2522.36499178545 104 109 105
-783.97123446298 129.481376844342 2533.21790886102 136 141 137
-756.611737996589 127.302042823491 2543.2631957317 133 137 136
-741.338434178503 125.942389841918 2551.94009007239 138 142 141
-736.15427939081 125.263957516231 2559.54011349314 139 143 142
-730.959758423253 124.586752974225 2567.1024244781 135 139 138
-730.818819414099 124.24925063102 2574.15963404036 133 137 136
-731.688392283862 123.979833622935 2581.11441226361 133 137 136
-734.584524342244 123.845817277962 2587.88625168125 122 127 123
-735.451962670122 123.57687820589 2594.83340651261 126 128 125
-735.301749997676 123.240867214534 2601.85712634214 127 129 126
-735.148294163806 122.905332402188 2608.86910558344 132 134 131
-739.060323685073 122.839168445815 2615.55836220956 141 143 140
-743.992633498237 122.839967363345 2622.18167605876 141 143 140
-747.9104021524 122.773385154762 2628.89197689794 143 145 140
-730.425948087162 121.299658809417 2637.08085358559 144 146 141
-986.664620376562 155.027480173454 2090.06422860338 164 168 167
-985.913425141347 154.571347794915 2098.67709999554 144 148 147
-980.289707919849 153.769274274928 2108.46337405832 150 154 153
-981.474776168961 153.453851636641 2116.56047924319 142 146 145
-979.732751602343 152.931401185703 2125.34997517277 129 134 130
-987.743055261543 153.10110239301 2131.81802279025 117 122 118
-993.808712258596 153.132160977964 2138.77201658885 113 118 114
-998.902808677731 153.093958020047 2145.97138865433 112 117 111
-1003.02315608005 152.986775506346 2153.40819177386 104 109 103
-1011.06091190942 153.154803659316 2159.97710763978 96 100 99
-1021.06582563685 153.459614723835 2166.14341202987 80 84 85
-1035.98286106888 154.106631774355 2171.280052538 84 88 89
-1072.49733542524 156.259938857492 2171.82919184928 100 104 105
-960.777202245491 145.75984745535 2253.06658732598 157 161 162
-931.319857469354 143.351614124915 2266.86834972389 151 155 156
-896.879517858714 140.609696492213 2281.44108908568 147 151 152
-874.242215620809 138.686956523361 2293.59474709383 139 143 144
-860.467750618998 137.377521125398 2303.97192056402 139 143 144
-849.638495431565 136.273675395177 2313.72398920774 139 143 144
-840.770786902303 135.307239798289 2323.05207991421 139 143 144
-830.89582633722 134.275432351283 2332.49641827056 141 145 146
-825.96174723896 133.582591329709 2341.01582681638 139 143 144
-821.017299117192 132.891151719882 2349.4976219882 133 137 138
-819.04180794102 132.402728602635 2357.44085620936 132 136 137
-817.060264483739 131.915207644314 2365.36218907289 135 139 138
-818.056092175902 131.629665130413 2372.77647492875 135 139 138
-815.069382497542 131.076827056115 2380.82090519727 140 145 141
-809.086930074862 130.324438745172 2389.30756343069 143 148 144
-807.079669236676 129.840758626345 2397.13583760438 133 138 134
-805.066328022602 129.358012798943 2404.94212639682 118 123 119
-805.043057216755 129.00945770323 2412.42923680629 106 111 107
-804.017798327653 128.594871325655 2420.05079353664 104 109 105
-806.986412177344 128.446976987371 2427.08205277841 104 109 105
-810.956136657623 128.365583757244 2433.97683353576 97 102 98
-815.92956917553 128.350492155884 2440.74279548609 96 101 97
-817.901722680076 128.136468868909 2447.92989181771 117 122 118
-821.878560276237 128.055011071593 2454.85011239335 121 126 122
-818.835460915055 127.510882731753 2462.6916067145 125 130 126
-815.78506607112 126.967778587179 2470.50573193884 128 133 129
-809.713027400221 126.227917613167 2478.66768309579 128 133 129
-810.666679021262 125.950523910957 2485.92959317646 124 129 125
-812.624518285539 125.739282582078 2493.06529992218 123 128 124
-815.588723293423 125.593941718343 2500.08273115108 98 103 99
-819.561627345004 125.514354131789 2506.98952799981 87 92 88
-820.51242564311 125.238041393766 2514.24152671586 102 107 103
-809.354258926511 124.176481754933 2522.7991085411 109 114 110
-778.993871181335 121.874697237023 2533.31525559417 137 142 138
-752.628600010352 119.839323791181 2543.24647491021 140 144 143
-741.389027900147 118.786991351974 2551.50764003481 137 141 140
-736.201255284484 118.127823732587 2559.10639389641 133 137 136
-731.003086184291 117.469930726563 2566.66735237276 127 131 130
-729.84739471025 117.073260082342 2573.81594953547 127 131 130
-730.715013240447 116.807145163933 2580.7655564455 126 130 129
-733.610027872769 116.671019607053 2587.53191543321 126 130 129
-733.460225374862 116.340586095951 2594.55975046695 128 132 131
-734.322980845925 116.075300867942 2601.49275463715 136 140 139
-733.150487371442 115.681093356559 2608.58052435844 137 141 140
-736.043618937751 115.545683737087 2615.33941487401 132 136 135
-741.992326182163 115.603684390405 2621.87620697413 136 136 134
-753.041324994444 115.983153598596 2628.06888048591 144 145 140
-742.689641958469 115.010727316741 2635.78073190195 142 143 138
-980.095582840224 146.429724206647 2091.41892782716 159 163 162
-979.337286007734 145.982413809037 2100.01100211744 147 151 150
-979.548492188068 145.602667747742 2108.34898727756 129 133 132
-981.706291737439 145.356804500403 2116.20524890384 122 126 125
-980.937463220511 144.911809706215 2124.75968306473 118 123 119
-984.069168353104 144.733384234559 2132.3771925156 123 128 124
-992.08666242379 144.886916856942 2138.86172872355 119 124 120
-1000.11241562044 145.039862614662 2145.37748795435 104 109 103
-1006.19028911839 145.059839566131 2152.36891384066 98 103 97
-1015.21081694036 145.277838373767 2158.72189796813 97 101 100
-1029.14020404396 145.825184841366 2164.02591642513 90 94 95
-1048.9702191011 146.766593612688 2168.10589091807 98 102 103
-948.150690308953 136.968537769404 2255.189581022 158 162 163
-925.579640036439 135.104140673346 2267.6251252057 146 150 151
-894.082257169866 132.657806245055 2281.62214076288 146 150 151
-868.466682050469 130.607624121771 2294.32655613581 147 151 152
-856.659080233798 129.471925583947 2304.32242568496 147 151 152
-845.820861004861 128.403689777411 2314.06369484109 147 151 152
-837.93556092317 127.532266902821 2323.20294124118 147 151 152
-829.044049833546 126.598037915414 2332.46392029589 143 147 148
-823.112861587953 125.859888255285 2341.14897288756 137 141 142
-819.155311170488 125.252428678871 2349.45162602119 136 140 141
-816.182502312831 124.710749278553 2357.55471231508 138 142 143
-814.196114892003 124.234554844453 2365.4661404883 138 142 141
-816.183663178093 124.016700367063 2372.70797581343 141 145 144
-813.192656123008 123.477847759122 2380.74528045574 143 148 144
-809.19758996134 122.875853510631 2388.91209550597 135 140 136
-806.190600801028 122.339217657503 2396.89239028942 112 117 113
-806.169861138156 121.995749234271 2404.39118077288 108 113 109
-808.14286095795 121.78079045398 2411.58082868563 108 113 109
-808.116910368796 121.438350811306 2419.06185056182 104 109 105
-807.087822312461 121.032727839336 2426.67484936979 103 108 104
-809.056253793352 120.818961723804 2433.84828892165 104 109 105
-813.02725289977 120.732806902242 2440.74386687397 113 118 114
-815.998514061779 120.582981792941 2447.78466510228 125 130 126
-816.965260451023 120.306326504788 2455.09565968676 129 134 130
-813.915728542979 119.776459457593 2462.92227505575 134 139 135
-810.858896732407 119.247646000032 2470.72152347623 134 139 135
-808.799461983104 118.78311302635 2478.36817464883 130 135 131
-809.750951033065 118.508908385382 2485.62499795576 127 132 128
-811.707221111911 118.298252905403 2492.75524849785 124 129 125
-813.663164788725 118.087808474635 2499.88442041859 96 101 97
-818.642446696834 118.06640813855 2506.66811700345 88 93 89
-819.591306124585 117.79329460992 2513.91493688721 108 113 109
-808.426363408589 116.767207369562 2522.46975617015 116 121 117
-780.071766535233 114.677216922013 2532.77315750339 136 141 137
-751.673771803388 112.592101237593 2542.91850876407 132 136 135
-739.416027127605 111.512680916848 2551.278617223 129 133 132
-734.222959654329 110.872892615564 2558.87087642548 126 130 129
-729.019712767585 110.234433167342 2566.42525140662 124 128 127
-727.8605747179 109.846450614518 2573.56653731555 126 130 129
-727.711280676064 109.521402780676 2580.59966038171 132 136 135
-729.58873854029 109.321190954093 2587.44389019371 134 138 137
-730.449921315494 109.058990377573 2594.37300273989 136 140 139
-730.293124501768 108.735156875149 2601.37903614981 138 142 141
-731.150249902112 108.473692640135 2608.29262032333 135 139 138
-732.005386392113 108.212509061875 2615.19992627704 129 133 132
-739.989422887846 108.38415063634 2621.57167411103 136 136 134
-746.962389213921 108.493381922187 2628.0464343647 146 146 144
-977.197459328566 138.508155709264 2083.45106938631 196 200 199
-977.41183738697 138.132729019493 2091.80262911059 154 158 157
-975.675443691139 137.629816685333 2100.62536670388 147 151 150
-975.882361114315 137.255917168838 2108.95019072906 138 142 141
-979.011522208366 137.074514989562 2116.55730434858 132 136 135
-980.190346638185 136.765677769274 2124.63538514434 110 115 111
-986.25050962315 136.776055964354 2131.55592423733 105 110 106
-991.339007619993 136.722585850072 2138.72487157482 109 114 110
-1002.30003768836 137.050447923291 2144.55835233851 113 118 114
-1009.35860568574 137.123199269416 2151.32883231855 105 110 106
-1022.3014430022 137.576105767975 2156.80575168372 93 97 96
-1038.20041128588 138.217561485458 2161.68828489765 85 89 90
-1076.68101019144 140.312000678881 2161.70745243787 84 88 89
-943.406726328876 128.754376999003 2255.76903279002 153 157 158
-923.783228406822 127.145432738634 2267.62057954096 144 148 149
-893.258173441605 124.853368145564 2281.42780651585 146 150 151
-867.629526645528 122.878747208529 2294.13232371508 153 157 158
-856.804242599489 121.843357505403 2303.94235598026 154 158 159
-843.979472900515 120.685957138542 2314.04429952741 150 154 155
-835.096663510603 119.779749369667 2323.35527741812 149 153 154
-826.197950878216 118.875676859259 2332.60762875437 143 147 148
-822.245360605815 118.283500492764 2340.93834695312 136 140 141
-818.283828753936 117.69261821338 2349.23668383862 134 138 139
-815.30744066134 117.164841222733 2357.33525838836 136 140 141
-810.334205366562 116.514625748493 2365.73619919003 133 137 136
-812.31802404595 116.297491450724 2372.96464190017 138 142 141
-810.3172915023 115.834343218642 2380.83011711039 134 139 135
-808.310251410147 115.37209064818 2388.67366812563 126 131 127
-804.30249824675 114.787947624901 2396.8037201316 109 114 110
-805.276586498855 114.511764703664 2404.14320086416 107 112 108
-808.247166398829 114.358530655872 2411.17838845224 108 113 109
-811.218606908859 114.205449885948 2418.21779711092 100 105 101
-811.189956333288 113.869156916103 2425.69267515416 98 103 99
-810.1570672045 113.472465217238 2433.29720006338 104 109 105
-811.123251036893 113.198416712982 2440.60775177142 115 120 116
-813.090149627419 112.985665496608 2447.776140756 127 132 128
-814.053533174172 112.71234522414 2455.07675531972 133 138 134
-812.003142430884 112.257337516301 2462.76299886828 135 140 136
-809.946413520302 111.803171244902 2470.42717030534 133 138 134
-810.90011145539 111.531606592152 2477.69293249766 131 136 132
-812.85809118255 111.32092668199 2484.82951520492 127 132 128
-815.822495763585 111.170854775417 2491.84470047704 122 127 123
-817.780472327471 110.960608479068 2498.98154520075 97 102 98
-819.738111125766 110.750545662985 2506.11725170685 97 102 98
-819.677498204241 110.420382623764 2513.4764009188 121 126 122
-809.516185534923 109.489684275124 2521.9214050272 129 134 130
-781.149421022433 107.480616518768 2532.230720652 143 148 144
-751.728189077018 105.416381590285 2542.48649608817 140 144 143
-738.45196061576 104.315086779046 2550.94861286764 142 146 145
-734.267289889229 103.754459637576 2558.4375803558 141 145 144
-729.060447587512 103.135218978683 2565.9907400033 137 141 140
-728.913230023788 102.815440543455 2573.03582847063 137 141 140
-728.763033719709 102.496187050672 2580.06925985753 136 140 139
-728.609372763369 102.177384891567 2587.09104164059 138 142 141
-727.436400487553 101.799667295375 2594.18744453557 139 143 142
-724.225167961265 101.303874730587 2601.43428102335 137 141 140
-727.111861997928 101.164552311706 2608.16772893886 135 139 138
-729.999646660906 101.025248172432 2614.90523767692 137 141 140
-736.964863567178 101.122378278477 2621.34358580227 150 152 151
-739.857689738501 100.982808778753 2628.099645138 148 150 147
-966.73277378171 129.73552544151 2085.817795154 172 176 175
-971.804462641264 129.673832502372 2092.91914199809 154 158 157
-970.061281830068 129.182363031915 2101.72390478737 145 149 148
-970.26221997015 128.814527324128 2110.0303572777 125 130 126
-973.386611300338 128.631106187284 2117.61848703474 110 115 111
-978.464981972391 128.570171272625 2124.74512071601 115 120 116
-983.547526620404 128.509157981562 2131.88720206918 115 120 116
-988.634231433956 128.448067911341 2139.04468082729 108 113 109
-1001.55265793545 128.874011928822 2144.41487394433 83 88 84
-1012.52856407317 129.176931419455 2150.287839197 84 89 85
-1031.35637341792 129.96463755389 2154.44702991512 100 104 105
-1060.0147231479 131.35650480359 2156.52053513984 90 94 95
-949.515631007212 121.232657528442 2254.21884769737 143 147 148
-920.996423229985 119.144018806786 2267.80825480061 152 156 157
-893.420763011905 117.12040072538 2281.0455993048 151 155 156
-871.737036089412 115.460064736862 2293.00904331529 145 149 150
-856.948638956049 114.221123927378 2303.56251248331 143 147 148
-841.14481268589 112.925735889942 2314.20657484469 146 150 151
-832.254566214991 112.049675818983 2323.50897398953 149 153 154
-823.348420921391 111.175721612125 2332.75274443162 146 150 151
-820.383217757818 110.659525797629 2340.90108720147 142 146 147
-818.404290058357 110.203704896772 2348.85214561788 140 144 145
-816.41929334657 109.748845856284 2356.7812782493 141 145 146
-809.452942297368 108.99964674228 2365.51324759759 139 143 142
-808.447910029297 108.606029795395 2373.22314080829 137 141 140
-807.438252924145 108.213207682799 2380.91636472212 129 134 130
-808.418455180537 107.938808738475 2388.27874284141 123 128 124
-804.407207132123 107.371150720102 2396.40715581589 114 119 115
-806.378855261297 107.156723751152 2403.59212092414 113 118 114
-808.350191823894 106.942563882014 2410.77609787959 108 113 109
-812.321440785194 106.845722263578 2417.66585641002 107 112 108
-811.291142526415 106.456760446584 2425.28488095454 107 112 108
-808.253092279333 105.951820314548 2433.16986302963 116 121 117
-808.214473381488 105.622723956321 2440.61134518733 124 129 125
-806.166629277436 105.177906317656 2448.31347738446 135 140 136
-809.130919638644 105.024468287059 2455.32611338626 138 143 139
-807.074490656303 104.581047897217 2462.99725376266 139 144 140
-809.03234948443 104.37029532004 2470.13334171736 136 141 137
-809.983861173436 104.101922466666 2477.39393096401 134 139 135
-813.953453799306 104.00738088512 2484.27899196851 126 131 127
-815.910958439244 103.797333585121 2491.41421016696 116 121 117
-817.868108582373 103.587529466831 2498.54826572045 98 103 99
-818.816275031392 103.320417140158 2505.79630155474 106 111 107
-818.753092919537 102.996147443905 2513.15056163728 129 134 130
-806.565301059313 101.983357562757 2521.81245816142 133 138 134
-778.183526331075 100.05539683979 2532.11725053194 146 151 147
-751.781344961813 98.2467795137377 2542.05459145918 138 142 141
-736.473847893943 97.0718322027808 2550.72114645608 134 138 137
-731.271614987966 96.470774756279 2558.30289981494 131 135 134
-725.045104444909 95.8139686028527 2565.94376365198 127 131 130
-727.936941259514 95.6712857461042 2572.69325506698 128 132 131
-726.769084239588 95.3010638403395 2579.81338229105 132 136 135
-726.612399110193 94.9882436654835 2586.82771262397 133 137 136
-724.419484964195 94.5624569912415 2594.00324334297 132 136 135
-722.220493285952 94.1374309803575 2601.15668961893 131 135 134
-725.10532934177 93.9961283232266 2607.88198899695 132 136 135
-727.991268335346 93.8548136386246 2614.61137577318 136 140 139
-733.936908603211 93.8827765747024 2621.11688752582 143 145 144
-733.76669114794 93.5721280280805 2628.08234603741 149 151 148
-967.728195169415 122.099148346375 2076.89975017231 198 202 201
-963.069548798443 121.44047914371 2086.46336074874 158 162 161
-964.243543191341 121.13612865619 2094.52634125226 140 144 143
-964.44128776245 120.773594190337 2102.82521259605 131 135 134
-967.561775681812 120.587678416299 2110.39727477041 129 134 130
-975.56353750211 120.69470896247 2116.79404123961 120 125 121
-981.620578208384 120.684197368314 2123.68887018194 112 117 113
-986.705420267924 120.615083886529 2130.83529635996 108 113 109
-989.83852975358 120.429304078228 2138.45337675535 106 111 107
-999.824666159367 120.651225816909 2144.49763264943 93 98 94
-1013.74068249484 121.104753499272 2149.69184677294 91 96 92
-1036.49637636629 122.079173664026 2152.96617379884 91 95 96
-949.703457655267 113.341697426326 2253.83059250133 141 145 146
-924.135409668658 111.508036555489 2266.84909600951 148 152 153
-896.548980532443 109.565063863415 2280.09737290829 146 150 151
-874.857146686227 107.969244536061 2292.07052091978 138 142 143
-860.063211123697 106.7760598282 2302.63231499301 134 138 139
-844.253220524169 105.529092631598 2313.28498981417 136 140 141
-833.376337326067 104.569134718346 2322.95106822412 139 143 144
-823.473147473675 103.668291883004 2332.3723519467 142 146 147
-819.511877138537 103.109295291231 2340.69179074653 140 144 145
-818.523701991476 102.721151715875 2348.46772674389 140 144 145
-817.530917790669 102.333801149385 2356.22705089232 140 144 145
-812.551794739048 101.721814780493 2364.63026746259 140 144 143
-806.565956439511 101.054965729598 2373.15835960962 142 146 145
-806.549867250889 100.726931864051 2380.68416096422 132 137 133
-805.532807000779 100.343428739042 2388.3557819727 125 130 126
-803.512886318642 99.9045953571763 2396.16536650902 123 128 124
-802.485851308795 99.5227079941184 2403.80097329711 128 133 129
-803.453541534451 99.2533882744872 2411.12103247765 124 129 125
-808.421549477968 99.2078457316529 2417.84762891614 122 127 123
-810.389944961403 98.9948347425434 2425.0214115638 127 132 128
-810.354326076832 98.6708503421389 2432.47725960536 141 146 142
-810.315265267124 98.3473724133018 2439.92157723561 137 142 138
-808.266409916538 97.9135606958382 2447.62690343504 143 148 144
-810.227702568128 97.7023532134297 2454.7754532999 140 145 141
-807.164610262139 97.2146065034015 2462.57831414494 143 148 144
-806.105080174063 96.838470299095 2470.09690405699 142 147 143
-807.053440409859 96.5734729166337 2477.34699464866 136 141 137
-812.027721248529 96.5294288883542 2484.09782720104 116 121 117
-817.005960860895 96.4851003073072 2490.86317825254 96 101 97
-818.963001777173 96.2757131864148 2497.99709153847 110 115 111
-818.901407070019 95.9567188232226 2505.36057591266 130 135 131
-815.807377089426 95.4738570907534 2513.05072633212 139 144 140
-801.589833784194 94.3898027100962 2521.92513067819 131 136 132
-776.225360261348 92.7071266829673 2531.89754079023 132 137 133
-752.845576615946 91.1380056393683 2541.51776733197 145 149 148
-738.543781234847 90.0634932497621 2550.08538454693 148 152 151
-731.312709650338 89.3726742779465 2557.87042757448 147 151 150
-726.096194853022 88.7921799608781 2565.41306657591 139 143 142
-728.988353682912 88.6471492056465 2572.16227123036 136 140 139
-727.819192201266 88.2853965282999 2579.28290227119 134 138 137
-726.645405254288 87.9242365755194 2586.38673408106 134 138 137
-723.432929327228 87.455586468924 2593.64701941516 132 136 135
-724.283905718567 87.2038160719664 2600.54389370529 132 136 135
-727.169765200243 87.0601421611112 2607.27149577747 133 137 136
-730.056994250633 86.9164902890366 2614.00326768149 133 137 136
-734.984826902781 86.8803310637384 2620.58662527274 135 137 136
-735.834203279891 86.6291429441264 2627.47885566557 139 141 138
-964.067517134564 113.812912825566 2077.55940572816 169 174 170
-962.322571356567 113.34203901983 2086.37061856615 159 164 160
-960.571957945231 112.87228997242 2095.16056968338 149 154 150
-963.690211790135 112.683693631159 2102.72171578483 140 145 141
-970.712103105459 112.719095014252 2109.33244162149 125 130 126
-979.693917059211 112.865781763674 2115.49666604365 115 120 116
-984.777352131794 112.788635315903 2122.63186773816 106 111 107
-988.887213259369 112.655746452111 2130.01350773111 109 113 112
-993.978266304578 112.578527677285 2137.17694780139 106 110 109
-1003.96967166593 112.778841950293 2143.22712447211 97 101 100
-1018.87246715331 113.255535363133 2148.20336142847 92 96 95
-1065.17650579996 115.502090925148 2146.19211554499 167 171 172
-939.022987588699 104.857055859505 2255.57890265183 169 173 174
-929.253146204364 103.9714285433 2265.50581840546 148 152 153
-903.636205412506 102.217688207667 2278.39232113001 146 150 151
-880.948675711218 100.631700973763 2290.57210245855 134 138 139
-859.215785595532 99.1043463429279 2302.43604161351 142 146 147
-847.363263712681 98.122735918686 2312.36241492932 151 155 156
-836.482455777036 97.1977762252453 2322.03601760182 138 142 143
-826.575527577523 96.3292456614951 2331.46475087345 141 145 146
-819.632095420948 95.6246776575163 2340.30999132449 141 145 146
-817.647529268342 95.1911423869204 2348.25418524976 148 152 153
-816.651971179434 94.8122865793626 2356.00857364142 145 149 150
-814.65602902208 94.3805580149009 2363.91167135037 138 142 141
-806.674597624447 93.62816083337 2372.76914760712 143 147 146
-804.662192808375 93.1988561551806 2380.61265300574 137 142 138
-802.64373129142 92.7704830302836 2388.43425919504 134 139 135
-801.617832560657 92.396407130209 2396.07901651345 132 137 133
-799.587939797277 91.9698471004219 2403.85932541858 132 137 133
-802.552645352705 91.8102955790471 2410.86964321711 124 129 125
-806.519281104246 91.7039578947444 2417.73720750752 127 132 128
-807.483871007215 91.438498746885 2425.04726413798 130 135 131
-808.446684965252 91.1735049447065 2432.35102082788 134 139 135
-808.404528957475 90.8560172145158 2439.78762849219 137 142 138
-808.359412516693 90.5391389590274 2447.21270041689 141 146 142
-808.310840891449 90.2228553582058 2454.62624837521 141 146 142
-803.233227916702 89.6437778231043 2462.68456807928 133 138 134
-802.168787822507 89.2764700800409 2470.19050192919 138 143 139
-801.099688800547 88.9098744644317 2477.67958769343 121 126 122
-807.077314141144 88.9110822383449 2484.28789096597 104 109 105
-811.044333598121 88.8072490350376 2491.15753205515 102 107 103
-815.01366762783 88.7032854187615 2498.03661338582 129 134 130
-813.938374473733 88.3382798184611 2505.50277638137 141 146 142
-809.827540927287 87.8175212774293 2513.29105779466 138 143 139
-801.664066372836 87.0896731632428 2521.4881424856 121 126 122
-781.346038017982 85.7397551602265 2530.92456948254 152 157 153
-755.934424896037 84.1338725612378 2540.77044285258 153 157 156
-736.562001698366 82.8433360690328 2549.85888645757 135 139 138
-728.311092830079 82.1255135204047 2557.73767429516 129 133 132
-721.060184381146 81.461106251032 2565.46574189927 133 137 136
-724.963238484656 81.365876917616 2572.10425322343 138 142 141
-724.80532260853 81.0644417856854 2579.12027293255 137 141 140
-726.677372762392 80.8664150804885 2585.9458045471 136 140 139
-725.496929854905 80.5144010500883 2593.03069833674 136 140 139
-727.366151000097 80.3169325994563 2599.84607884928 138 142 141
-728.216047555005 80.0683704560587 2606.74189846423 141 145 144
-731.103553794686 79.9224625194442 2613.47327515671 143 147 146
-739.093268179194 80.0318973236595 2619.82682978072 140 142 141
-940.752919856665 104.834700121517 2074.95037408176 184 188 187
-960.402397870526 105.554593972545 2078.22112601559 160 165 161
-959.626157826991 105.148466646451 2086.77258151543 152 157 153
-959.820237953525 104.79670331371 2095.0637188018 138 143 139
-962.937094487596 104.605690836783 2102.61908056291 126 131 127
-970.935661537511 104.681146057581 2108.98405046838 118 123 119
-980.896161814971 104.862390231014 2114.90744275732 112 117 113
-985.980684163084 104.777290687852 2122.04166012471 105 109 108
-990.091225946938 104.639153010393 2129.42251343484 104 108 107
-998.120213062445 104.712794107306 2135.89928173883 92 96 95
-1012.0354903129 105.102914863196 2141.05164899307 87 91 90
-1032.83082647799 105.860798978072 2144.70348331733 90 94 93
-937.227580625842 96.9048170991122 2255.58217141586 170 174 175
-926.461659240865 96.0000169450012 2265.6950530116 151 155 156
-908.748431636014 94.7357001868922 2277.06306901995 152 156 157
-881.101297841281 92.9585769953205 2290.19067011173 152 156 157
-861.340168825307 91.599071110925 2301.68870191824 156 160 161
-846.506799745538 90.5007937283533 2312.16400658745 155 159 160
-837.604592638212 89.713900139257 2321.47736425968 152 156 157
-831.666105449583 89.0831087339787 2330.20402671075 135 139 140
-824.722057269955 88.4026499335909 2339.06127225544 133 137 138
-821.743675032513 87.92861700382 2347.18730314521 125 129 130
-817.762344210115 87.4046362872701 2355.4543684781 120 124 125
-815.76465340921 86.9839700444612 2363.35795798704 124 128 127
-809.773101730714 86.3605360438634 2371.89131844523 125 129 128
-806.762564087407 85.8912329593204 2379.90094879198 114 119 115
-802.746190456534 85.3722582641383 2388.04106758503 112 117 113
-801.718255234688 85.0066207225439 2395.68359134899 120 125 121
-798.686144494065 84.5405707746641 2403.61424985129 123 128 124
-802.65042187183 84.4293428927605 2410.46904152483 123 128 124
-805.61578057297 84.2676651247929 2417.48044192459 127 132 128
-808.582267463004 84.1061168249225 2424.49611280798 127 132 128
-807.53905332163 83.7434883441894 2432.08380870182 126 131 127
-807.494759741633 83.4319160786886 2439.51528567164 136 141 137
-807.447059275064 83.1208751155676 2446.93537799837 138 143 139
-807.396122904983 82.8104683496302 2454.34385644848 128 133 129
-804.325416198513 82.3506729762473 2462.13516450511 136 141 137
-800.240717101278 81.8419688847545 2470.02808855448 137 142 138
-802.189247327553 81.6335371844763 2477.13100651904 113 118 114
-808.16835298398 81.6244357501177 2483.73829721971 107 112 108
-813.144461129311 81.5652477715445 2490.48635310617 116 121 117
-813.078749220699 81.2578567513952 2497.84094783915 141 146 142
-811.999775374554 80.9014436493736 2505.29979902262 140 145 141
-808.894803133212 80.4468460967012 2512.96809651852 121 126 122
-804.771028265523 79.9438744075532 2520.71955902959 103 108 104
-785.457730063291 78.7024537050586 2530.05760227034 122 127 123
-758.011691998387 77.0706738425933 2540.12727417823 140 144 143
-737.618063735524 75.7875545737208 2549.32518675769 151 155 154
-730.377406828254 75.1459924827348 2557.10573957643 151 155 154
-724.13809754383 74.555018331896 2564.74064707534 140 144 143
-723.981062294179 74.2589691586555 2571.76333679032 139 143 142
-721.787765170773 73.865742121084 2578.95893106184 136 140 139
-724.674106011641 73.7171672984981 2585.68429712476 134 138 137
-727.561290103099 73.5686033455011 2592.41372989683 124 128 127
-729.431128054896 73.3714679228701 2599.23161074785 118 122 121
-729.262104512279 73.0773757824889 2606.21195487129 119 123 122
-732.149939711033 72.9291769107029 2612.94310654781 131 135 134
-740.141942282219 73.0229812135846 2619.2952884802 131 135 136
-746.099367586836 73.01939107276 2625.82556382606 158 160 159
-948.754316063876 97.264022318402 2072.60215959837 194 198 197
-955.759550624654 97.2734200862998 2079.13462484871 148 153 149
-956.926322840873 96.9775589269493 2087.17615054311 149 154 148
-961.991540300681 96.8852472849429 2094.23413930222 143 148 142
-964.133741736776 96.6408414389493 2102.03340831797 127 132 128
-968.228813029632 96.4980520479923 2109.35388587878 114 119 115
-975.257962232233 96.5067924415274 2115.9747264753 105 110 106
-981.316349447735 96.464721944022 2122.85555912554 80 84 83
-987.380583486035 96.4224733836711 2129.75705844082 112 116 115
-998.346801320559 96.6311628026834 2135.53549001088 90 94 93
-1017.1665254721 97.2400638915403 2139.55177384604 87 91 90
-1059.54973209382 99.0484413775496 2138.29281497745 109 113 114
-925.542312581347 88.4778582488591 2257.53260184114 166 170 171
-914.761660241315 87.6092194580015 2267.61362067963 152 156 157
-896.040796346526 86.3508083929829 2279.14052956449 155 159 160
-879.271014481378 85.1940401178941 2290.18295479171 156 160 161
-860.490527293363 83.9428713829412 2301.49306650273 151 155 156
-848.625761301469 83.0369935184541 2311.42179341502 143 147 148
-838.726487051054 82.2311207719404 2320.91850316515 136 140 141
-833.778614322291 81.6706292880953 2329.47025723393 129 133 134
-824.842210534269 80.9174332723947 2338.67885323936 131 135 136
-820.866067977433 80.4087165195474 2346.97388943051 122 126 127
-817.876625832036 79.949653359033 2355.06830817835 118 122 123
-815.876489396783 79.5400433987516 2362.96979788427 126 130 129
-812.872754801369 79.0831531290323 2371.01252341594 123 127 126
-810.859761251794 78.6756078221983 2378.86758069041 112 117 113
-805.844278839765 78.1247264942003 2387.17438060566 111 116 112
-803.817001679723 77.7192952894284 2394.97774036734 118 123 119
-800.783251268354 77.2668296442811 2402.91181653364 119 124 120
-803.748024024715 77.1026561762277 2409.91853675839 116 121 117
-803.708620787423 76.7952769087073 2417.37174687412 119 124 120
-805.670900845394 76.5838974614233 2424.52385421572 118 123 119
-804.623475584461 76.2299877290142 2432.10141960925 125 130 126
-804.57517053465 75.924360080518 2439.52268492036 139 144 140
-801.510191085212 75.4770152929531 2447.34311780793 134 139 135
-800.44811635344 75.1254352753711 2454.86776344743 130 135 131
-798.375451653661 74.7273329565177 2462.50723524468 135 140 136
-799.316632025211 74.4717660170431 2469.73755131813 132 137 133
-800.256255732777 74.2167039657659 2476.96147754079 117 122 118
-804.218568437868 74.1032771194741 2483.80758645876 120 125 121
-806.165558829992 73.8958033550422 2490.90539211146 135 140 136
-808.112221872203 73.6885985158435 2498.0021521634 137 142 138
-807.027596203148 73.3410996698825 2505.44564723074 133 138 134
-805.938344120879 72.9942514245101 2512.87237608772 115 120 116
-803.832746520617 72.60145988638 2520.39292742908 101 106 102
-786.534223780984 71.5101178478599 2529.5135481204 115 120 116
-757.050273968233 69.8633068429044 2539.80000402041 147 151 150
-736.646282425231 68.6396724318699 2548.99699539704 145 149 148
-730.414742951233 68.0691732298547 2556.67367749003 139 143 142
-724.171656281188 67.500074422197 2564.30744222047 129 133 132
-722.996794745145 67.1636472353506 2571.42289926539 131 135 134
-719.783962338599 66.7354819710634 2578.70649204854 122 126 125
-723.685590089091 66.6309150304943 2585.33381232718 124 128 127
-727.58997886588 66.5262958492785 2591.97042175079 127 131 130
-728.439952353628 66.2836169805208 2598.8702413939 127 131 130
-729.288374545048 66.0413557295717 2605.76363601732 129 133 132
-731.155306775879 65.8451340320371 2612.57130537409 138 142 141
-738.12724078012 65.8776842886869 2618.99382043159 137 141 142
-747.149356269652 66.0009070025535 2625.29286259351 185 189 188
-951.894791781311 89.4154896727478 2071.51433701558 179 183 182
-956.955553501612 89.3149706336028 2078.55060076631 150 155 151
-957.147177269497 88.9737160429542 2086.83925274407 149 154 148
-959.28648767678 88.7293268437106 2094.62779844635 139 144 138
-961.425670627018 88.4853856334747 2102.41615376241 126 131 127
-965.518305554071 88.3376141413746 2109.72536915917 118 123 119
-973.524196071378 88.3812018123812 2116.09741016105 109 114 110
-980.560378888796 88.3764561465474 2122.73492177645 116 120 119
-989.56152423191 88.4666355959662 2128.93524410743 100 104 103
-999.552284547538 88.6036547362365 2134.94306461656 95 99 98
-1030.14446651523 89.7367694574525 2136.23957732747 85 89 88
