ply
format ascii 1.0
comment KinectMotionCapture
element vertex 752
property float x
property float y
property float z
property uchar red
property uchar green
property uchar blue
end_header
-755.286528852572 249.247760706177 2285.03322842816 179 183 184
-762.785779148549 250.329372571055 2273.00923905365 179 183 184
-770.782078294131 250.81171301949 2264.95578774268 167 171 170
-779.349595418909 250.548117461906 2261.87169196054 152 157 153
-787.927803964293 250.283183855352 2258.78626547603 151 156 152
-796.21287599775 250.461728220768 2252.71319151716 150 155 151
-804.623390132174 250.489923558712 2247.6325461627 159 163 162
-812.575988307978 251.255610104853 2237.56818782742 166 170 169
-819.831772846237 253.199258422644 2219.52570827117 182 186 187
-826.274696638271 256.611777218689 2191.50296865545 177 181 184
-833.565434100534 258.835405793903 2171.4400156665 176 180 183
-840.278259459088 262.229506006155 2143.38364243561 162 166 167
-846.148756232995 267.377670794718 2103.33504184987 162 166 167
-853.344679369252 270.455923785224 2077.23482710991 126 130 129
-861.983163959811 271.031499179323 2068.09330222287 126 130 129
-871.406693161252 270.138866274305 2068.93502640323 131 135 134
-880.175192533833 270.563174251886 2060.78536189558 155 159 158
-889.118675818864 270.692278906585 2054.63025230272 144 148 147
-897.890259309697 271.256804578679 2045.47190629011 172 176 175
-907.21172672248 270.651745833006 2044.31023566562 178 183 179
-424.127984411896 255.004387018797 2370.68605292877 169 175 165
-434.245662988131 253.407618317954 2376.48192171592 166 171 167
-443.896521790099 252.117838733318 2380.3198642098 152 156 155
-453.521354075859 250.829328992889 2384.16105131494 161 162 164
-462.071936829683 250.303420287082 2383.09537409965 155 156 158
-470.209549328137 250.081306558946 2380.06481863238 147 149 146
-477.542025608787 250.46587799252 2373.10215305989 160 165 161
-484.504741057049 251.151494219414 2364.16946446615 156 161 157
-491.113904761973 252.137209707025 2353.26449227396 122 127 123
-497.189607757774 253.573439169763 2339.40160484863 133 137 136
-504.110058944855 254.399564127848 2329.46589319315 121 125 124
-511.46141943595 254.91994503831 2321.49282623522 99 103 102
-517.911283309485 256.192220242216 2308.59136461027 164 169 165
-524.797450239078 257.158288341152 2297.65187579396 96 101 97
-534.294970303331 256.011644266037 2300.50064974658 118 123 119
-545.03091216103 253.812483206437 2310.25217824042 130 135 131
-555.176476106711 252.067250542897 2317.05264517108 125 129 128
-565.977394657809 249.723772309338 2327.80413211006 125 129 130
-575.8550735003 248.133483945626 2333.62993437938 126 130 131
-585.357282276807 246.84463144339 2337.48618480745 128 132 133
-594.16754529456 246.155285585965 2337.39645880328 134 138 139
-603.136566142316 245.316332459257 2338.29476157537 136 140 141
-611.77332820323 244.776094752521 2337.21836742696 134 138 139
-621.201974574797 243.489601936071 2341.08403206285 136 140 141
-630.915119130844 241.906391185771 2346.93034859976 142 146 147
-640.437961676246 240.473719746756 2351.79233016444 148 152 153
-649.628412609494 239.33976968556 2354.67939109999 157 161 162
-658.502699416286 238.503420138809 2355.58974953264 154 158 159
-667.655978073515 237.370673582192 2358.48144617909 155 159 160
-676.361801689815 236.683081390404 2358.40450870783 162 166 167
-684.644514227239 236.438886189557 2355.35614403304 168 172 173
-692.255117954292 236.932327791562 2347.35055572687 172 176 177
-699.76994950702 237.57031897672 2338.34909172622 175 179 180
-706.803381629895 238.794577955937 2325.37493068279 180 184 185
-714.54446519797 239.278037525702 2317.35332581991 181 185 186
-722.700968955155 239.317308535098 2312.30435029145 172 176 177
-731.617786229331 238.473173167135 2313.20942167689 168 172 173
-739.801474367521 238.509605010996 2308.1568209065 167 171 172
-747.418478068245 239.276815726266 2298.13457903259 171 175 174
-754.854200412881 240.333088863783 2286.11834403073 180 184 183
-762.237193515743 241.531169502612 2273.10086905205 184 188 187
-770.23288579939 241.994467371212 2265.04754362182 173 177 176
-778.586909088807 242.017091639807 2259.97372239332 156 160 159
-787.379096143927 241.455097613739 2258.87798941898 155 159 158
-795.765332353368 241.474477794489 2253.80039702044 156 160 161
-803.975552844569 241.78267703331 2246.7283952831 160 164 165
-811.929936426718 242.523676660599 2236.66411942052 168 172 173
-819.092812547897 244.565999638929 2217.62504706231 183 187 188
-825.990312301047 247.180741423043 2194.58659599989 182 186 187
-833.182394969697 249.497976016467 2173.52778067088 180 184 185
-839.971096908875 252.674564431887 2146.47043866782 174 178 179
-845.084979738753 259.016004433424 2097.44321189148 160 164 165
-852.612734475403 261.448864795159 2075.33427480959 104 108 107
-861.641375356091 261.282693022367 2071.18468984858 139 143 142
-871.132097432577 260.252293149318 2073.02631892672 149 153 152
-879.88922269595 260.658393787994 2064.87812178904 167 171 170
-888.752645314046 260.918022666967 2057.72473219627 160 164 163
-897.780498768528 260.888555234066 2052.56719839719 170 174 173
-907.083633977778 260.28484352155 2051.40781197596 185 190 186
-415.198768058976 246.737084820561 2372.83006535365 193 195 190
-424.230209131404 245.909772520561 2373.72054779502 171 176 170
-433.905636861673 244.632402747167 2377.5553915511 158 162 163
-443.339798988658 243.506099094773 2380.41201863393 152 156 157
-452.540902444234 242.5303710997 2382.2896464273 139 143 144
-461.516947548398 241.704738956744 2383.18727780212 146 148 147
-469.654705412713 241.476882637512 2380.15671931697 128 133 129
-476.986538926818 241.844981832849 2373.194177337 116 121 117
-483.544873528497 242.806791689689 2362.29561127101 142 147 143
-489.760120919021 244.062599436992 2349.42347176257 155 160 156
-496.041163662657 245.313859813413 2336.54337362711 128 133 129
-502.968609532219 246.114844043585 2326.60685528382 126 131 127
-510.900050147279 246.170125088238 2321.58592414308 118 123 119
-517.160162980851 247.557847576587 2307.70015120161 190 195 191
-524.604226665472 248.052106799488 2299.71558422373 107 112 108
-534.097541321736 246.91642090541 2302.56485412841 124 129 125
-544.830467560759 244.747280689167 2312.31643962608 133 138 134
-555.327247137562 242.728853130791 2321.08941083649 134 138 137
-566.119945471851 240.418417305899 2331.84183659393 131 135 136
-575.300682840102 239.436611056735 2333.72202196146 129 133 134
-584.804287666688 238.161107111351 2337.57806301778 128 132 133
-593.448616884908 237.621283166148 2336.50072344324 131 135 136
-602.912811901818 236.347217356255 2340.36191909228 132 136 137
-611.222411840812 236.100231770264 2337.30996610837 137 141 142
-620.493992229787 234.973597739173 2340.18712356971 137 141 142
-629.900099951908 233.701527836976 2344.05532264484 144 148 149
-639.738664665029 231.99242569488 2350.89400611632 149 153 154
-649.384059734219 230.431360554004 2356.74895933773 155 159 160
-658.401428045978 229.455004909418 2358.64951784371 153 157 158
-667.402876689536 228.479123435447 2360.55182151271 159 163 164
-675.961790502879 227.939754138712 2359.48514007843 164 168 169
-683.823484334244 228.125830551949 2353.46488138082 167 171 172
-691.575675136723 228.454728359444 2346.44998453185 169 173 174
-699.092390876668 229.070681466509 2337.44834343226 171 175 176
-706.389812984662 229.972775963641 2326.45770087321 179 183 184
-713.870184846734 230.726292585234 2316.45230563917 181 185 186
-721.399403232058 231.476219625411 2306.44082410084 174 178 179
-730.456612525332 230.492339078587 2308.33643050443 169 173 174
-738.774290884032 230.372922892631 2304.27544633383 167 171 172
-746.754683607828 230.683430846603 2297.23211966322 169 173 172
-754.076699781073 231.853205804198 2284.22232878687 177 181 180
-761.576046448161 232.874907666974 2272.19824488793 184 188 187
-769.354368791945 233.605474110938 2262.15596790246 175 179 178
-777.609394136048 233.759921104304 2256.08646678362 156 160 159
-786.308654496439 233.3401428852 2253.99426889295 153 157 156
-794.911536567521 233.06223049473 2250.90579747746 152 156 157
-803.426171672929 232.925758008087 2246.82027918642 155 159 160
-811.475798621438 233.49984842212 2237.75224416246 163 167 168
-818.727017003247 235.351158510112 2219.71057760498 179 183 184
-824.980455793325 238.901184792953 2189.69574827983 180 184 185
-832.359446287065 240.879364376232 2170.62987504493 179 183 184
-838.640219161772 244.835312545569 2137.5875043122 167 171 172
-844.432359559418 249.912208638209 2096.54070218688 145 149 150
-851.640036087132 252.853429331407 2070.43962183157 145 149 148
-860.682309644371 252.678386305114 2066.28835895526 147 151 150
-870.038525923321 251.937505512712 2066.13039665841 156 160 159
-879.029567247198 251.900767950857 2060.97747594124 173 177 176
-888.387402658447 251.158529844397 2060.81931516069 173 177 176
-897.473500804321 250.978246330401 2056.66259703545 164 168 167
-906.51144755891 250.936728957635 2051.50383538528 195 200 196
-913.495268098098 255.659328454557 2012.32510638478 75 80 76
-412.627708518338 239.424245931667 2364.10027179535 174 176 173
-423.008852185531 237.71542629531 2370.87124387708 172 174 173
-431.821376734249 237.040239830425 2370.78119835897 161 165 166
-440.844822854456 236.217766713705 2371.6726657793 143 147 148
-450.283814577604 235.101427605383 2374.52866391581 129 133 134
-460.542137876024 233.398374419684 2381.31518833646 145 147 146
-469.307207728238 232.724387060575 2381.23082145737 141 146 142
-476.840388271343 232.929480545582 2375.2515091952 114 119 115
-483.392027233558 233.864244744651 2364.35384992922 113 118 114
-489.799375455332 234.941359016214 2352.46589505382 163 168 164
-495.874154468398 236.306279322222 2338.60331072621 168 173 169
-503.182661619844 236.79119789443 2330.63568500053 183 188 184
-509.765566103203 237.855996006782 2318.72609444448 136 141 137
-515.466902470953 239.64421539406 2301.88569724485 189 194 190
-523.112151689129 239.972878775567 2294.88414669072 123 128 124
-533.352008036832 238.266164543045 2301.67298531887 124 129 125
-544.090038901334 236.126590090081 2311.42385592907 136 141 137
-554.769307724324 233.990072311206 2321.18205164501 133 137 136
-565.739404290837 231.567335173215 2332.92032199154 128 132 133
-574.918460596176 230.593728374456 2334.80069555282 126 130 131
-584.081879441936 229.620490688603 2336.68301960457 126 130 131
-593.062941020972 228.791911190948 2337.58003271474 127 131 132
-602.525748514727 227.531458346899 2341.44112540046 129 133 134
-611.316804642464 226.847486770965 2341.35378214964 136 140 141
-620.261522017759 226.019607604602 2342.25508868853 139 143 144
-629.81952369887 224.617812282451 2347.11260128978 150 154 155
-639.651883952313 222.930844278023 2353.95200075168 152 156 157
-649.441359232726 221.246013574475 2360.79698664491 148 152 153
-658.596740125473 220.135319887809 2363.68836286935 154 158 159
-667.440656623765 219.311117598889 2364.60247934758 157 161 162
-675.704514493386 219.057639799969 2361.55625180051 156 160 161
-683.281119416245 219.515415816033 2353.5552405369 157 161 162
-691.16977675607 219.685558113385 2347.53141864602 172 176 177
-698.5487051753 220.422009224652 2337.53896816408 179 183 184
-705.84496751549 221.296794980506 2326.54854225379 184 188 189
-713.582057416304 221.742256905663 2318.52753584242 183 187 188
-721.357139780925 222.184698767012 2310.50155588067 173 177 178
-730.157735401881 221.492445168905 2310.4130439679 168 172 173
-738.107856627666 221.789055210095 2303.37353160094 166 170 171
-746.090492619492 222.083056374344 2296.32996845378 171 175 174
-753.529043474957 223.079101159073 2284.31377934845 177 181 180
-761.13970774016 223.930005626435 2273.28418082717 187 191 190
-768.584629395343 225.058145534731 2260.25892144896 182 186 185
-776.951997848927 225.058183265687 2255.18373457245 160 164 165
-785.340887757948 225.056222873392 2250.10586720753 153 157 158
-794.361951322661 224.211893911289 2250.99768951329 151 155 156
-802.678493983569 224.347016076793 2244.92080255698 155 159 160
-811.021848633244 224.479920022207 2238.84033519586 161 165 166
-818.080731834581 226.564322867948 2218.80644262522 178 182 183
-824.423526154867 229.895948806411 2189.78896477463 182 186 189
-831.094069151029 232.938970945481 2162.74672005114 184 188 191
-837.220598167854 237.08467553501 2127.70748385808 176 180 181
-843.365047778913 241.495676276482 2090.64969816772 170 174 175
-850.425047422615 244.645343633578 2062.55064334374 81 85 84
-859.256765045513 244.87626773869 2055.40152620867 111 115 114
-868.419324878864 244.551234001655 2052.24333440962 118 122 121
-877.664188800222 244.086753959289 2050.08316614077 132 136 135
-886.983247702395 243.483461148755 2048.92179143364 152 156 155
-896.035276403866 243.43089390247 2043.7613015392 169 173 172
-904.72485031795 244.202133967869 2032.59703099681 173 178 174
-912.733504666071 246.618883061364 2009.42067608545 191 196 192
-410.724605148676 231.626166614603 2358.31170068255 175 175 177
-421.344794417314 229.792909076365 2366.06109635616 166 167 171
-430.607866649178 228.830134694987 2367.93095669973 152 156 159
-438.993453324202 228.44574511164 2365.87756996712 155 159 162
-448.449812984811 227.338962481224 2368.73161578981 159 163 164
-458.726187268729 225.656406134949 2375.51559330774 127 129 126
-468.130390494265 224.551928387636 2378.37590160662 137 142 138
-475.875975256041 224.598833554763 2373.37818623518 172 177 173
-482.431689561378 225.505836061557 2362.48009149989 161 166 162
-488.244993956597 226.982889526192 2347.64215526189 122 127 121
-494.134838875715 228.454738448102 2332.79468092499 113 118 112
-501.458737870591 228.919443421753 2324.8249473513 101 106 100
-507.482726492159 230.38202995361 2309.96075706556 181 186 180
-513.58317813874 231.839357157675 2295.08703849659 204 209 203
-522.175959375628 231.437052542273 2293.00808255492 97 102 98
-532.972446449632 229.32418255021 2302.75158785051 114 119 115
-543.890642506118 227.072013572432 2313.48819879049 132 137 133
-554.744599784158 224.823456692105 2324.23257656916 127 131 132
-565.359351674141 222.720285529141 2333.99897606853 123 127 128
-574.19206952737 222.038435133673 2333.90618782588 121 125 126
-582.850386914457 221.497929089502 2332.82710440685 122 126 127
-591.342381654285 221.098342376494 2330.76071886667 125 129 130
-600.825507786156 219.850092334029 2334.61924377084 126 130 131
-610.120629065135 218.744083181474 2337.49316888466 136 140 141
-619.87096945821 217.216075036199 2343.33469822691 141 145 146
-629.427826322819 215.83059708172 2348.19231072328 150 154 155
-639.259407248908 214.165330523494 2355.03199055938 151 155 156
-648.897381102021 212.642748828151 2360.88752829116 147 151 152
-658.201916652465 211.402591310147 2364.76831893269 145 149 150
-666.898748914708 210.723935530019 2364.69272026428 153 157 158
-675.162789135443 210.464951672599 2361.64648446088 155 159 160
-683.298091729863 210.344462903698 2357.60826253208 166 170 171
-691.038467702164 210.641206455758 2350.59492478115 175 179 180
-698.677119333231 211.074783917229 2342.5862341812 179 183 184
-705.431788263575 212.48022123065 2327.63100981309 182 186 187
-713.294527568057 212.767557036971 2320.60242661668 181 185 186
-720.937273615569 213.330182007292 2311.58519811754 174 178 179
-729.612252203909 212.779536775755 2310.50406218028 170 174 175
-737.561896717414 213.059753583386 2303.46465247519 169 173 174
-745.307663849977 213.614170655139 2294.43434890016 171 175 174
-752.519331547125 214.856408402174 2280.43021066615 175 179 178
-759.914143429385 215.955552832872 2267.41152131865 186 190 189
-767.593977178362 216.774190404445 2256.37337582844 183 187 186
-776.294119261012 216.349516013113 2254.2808405292 162 166 167
-784.371625266592 216.749163712956 2246.21747285061 153 157 158
-793.302486715043 216.046879490419 2246.11273094799 150 154 155
-801.830753134224 215.893204591275 2242.02555685153 155 159 160
-810.568092007623 215.463920968676 2239.92839175095 161 165 166
-818.653789141361 215.991608665917 2230.85597758102 177 181 182
-824.50434718562 219.932658112488 2196.85940698405 182 186 189
-830.179513714478 224.407606329731 2158.85232954637 184 188 191
-835.625999942721 229.55076646109 2115.83311431754 170 174 175
-842.378498919266 232.908824826162 2085.75651077221 165 169 170
-849.608733038479 235.712352289708 2059.65297797306 76 80 79
-858.215315607181 236.333922855768 2049.50738577616 77 81 80
-867.394368381204 236.002523148644 2046.34715252017 94 98 97
-876.367131664695 236.076131970757 2040.18853510291 124 128 127
-885.713808924789 235.471199156697 2039.02371810687 122 126 125
-894.859535119974 235.270872557441 2034.85961153634 101 105 104
-904.020876224904 235.069103282374 2030.69356011662 97 102 98
-912.584144083074 236.213172458987 2016.52100869653 115 120 116
-409.715017574306 223.22500143209 2356.44444121631 174 173 178
-420.563675412688 221.27350160849 2365.17332384816 159 160 164
-430.0487941494 220.176470461275 2368.02351475925 142 145 150
-437.787448575914 220.214410885255 2363.02668786101 138 142 145
-447.252996891084 219.117641070042 2365.8793203568 144 148 149
-456.697919866731 218.021797013084 2368.73452433508 145 147 144
-465.291691248403 217.491852916674 2367.66346806142 141 146 142
-472.24699976362 218.090119524018 2358.73193384124 118 123 119
-479.246386416196 218.685306847278 2349.79466677056 98 103 99
-485.890866337845 219.558883655461 2338.88558263652 104 109 103
-492.196666995283 220.709724078625 2326.00241904342 94 99 93
-498.762311852253 221.715660647224 2314.09513739648 109 114 107
-501.368527219428 225.662926004066 2281.51111231407 199 204 198
-509.99866015287 225.255882844624 2279.42750758027 193 198 192
-522.169178419799 222.189237272675 2296.05658413379 95 100 96
-533.143260295089 219.966740943587 2306.78590244337 108 113 109
-543.872614679302 217.887324483962 2316.53793767182 119 124 120
-553.831562146033 216.368781026067 2322.35340915963 123 127 128
-563.928480392544 214.71273691288 2329.15971191108 120 124 125
-572.430441151607 214.310693780385 2327.09208913951 119 123 124
-581.617542458432 213.352042516649 2328.97141934731 124 128 129
-590.454811684473 212.671425088513 2328.87805987326 128 132 133
-599.780361389646 211.574854548192 2331.74816284313 130 134 135
-609.569792166501 210.063795694692 2337.58476930123 141 145 146
-619.957708556613 208.001651630511 2347.37936848655 144 148 149
-629.661537267353 206.494941259367 2353.22664612486 144 148 149
-639.020770887387 205.265901236401 2357.10058149315 144 148 149
-648.202568555049 204.175743808961 2359.98884724749 148 152 153
-657.511195221419 202.948793017742 2363.8690925625 153 157 158
-666.065967890161 202.410016007744 2362.80292635882 157 161 162
-674.621046566224 201.870682003592 2361.73672343405 156 160 161
-683.1764054473 201.330852371236 2360.67048684658 169 173 174
-691.045498779911 201.474771303588 2354.64941575518 176 180 181
-698.268802235243 202.30003442689 2343.66798482974 178 182 183
-704.75512365923 203.940542758142 2326.73025539643 177 181 182
-712.620081305782 204.211313640474 2319.70143898717 178 182 183
-720.264672804569 204.751930357612 2310.68379787584 175 179 180
-728.942898013342 204.201108158817 2309.60225724559 171 175 176
-736.652648168696 204.736471538892 2300.57673882234 166 170 171
-744.524099809022 205.132882203749 2292.53909403497 169 173 172
-751.739516029746 206.339376305028 2278.53458213699 172 176 175
-759.138217655226 207.405453088232 2265.51525418628 184 188 187
-766.822326097514 208.196644739836 2254.47664751746 186 190 191
-775.528288880624 207.768824958426 2252.38363438123 168 172 173
-783.820209998002 207.879474277858 2246.30964422763 159 163 164
-792.649651683745 207.314569418271 2245.20926976121 149 153 154
-801.180663502575 207.152537681074 2241.12177506254 156 160 163
-810.114549033876 206.451822611775 2241.01665163995 162 166 169
-818.290738197361 206.823832944352 2232.94104166868 175 179 182
-824.861204800563 209.603903497634 2206.91966545922 180 184 187
-829.352011209876 215.719111218204 2155.95517624612 183 187 190
-834.113082779986 221.816384830574 2104.95700676757 166 170 171
-841.057391405179 224.826923831965 2076.87275588832 153 157 158
-848.549770231114 227.161209224997 2053.76104627516 99 103 102
-857.171654085522 227.757318912518 2043.61361161859 112 116 115
-866.292113369038 227.552390852558 2039.45267032704 126 130 129
-875.645308069061 226.947669923187 2038.28703943504 100 104 103
-884.858646931487 226.607516554305 2035.12255053037 95 99 98
-894.082238239924 226.266175049926 2031.95702557871 106 110 109
-902.994807385806 226.584584865738 2023.78966089412 97 102 98
-397.56896662447 216.879110830295 2344.87601489371 33 33 33
-408.704816537822 214.811629777335 2354.57705018309 162 162 164
-419.561055270528 212.886641438153 2363.30491694709 147 148 152
-429.271249732789 211.66068484914 2367.13504635702 137 141 144
-436.796451444255 211.826242901614 2361.15683392103 130 134 135
-445.202452434594 211.434224760727 2359.10115996083 116 120 121
-453.404351786863 211.180065605066 2356.06266626476 116 118 115
-461.825823642196 210.786195909498 2354.00506650808 122 127 123
-468.612854855046 211.498569158162 2344.08630443768 139 144 140
-475.854231281225 211.931028260225 2336.12719437979 117 122 118
-483.134365796805 212.360630055296 2328.1632550661 127 132 125
-490.65024496523 212.649458686718 2321.17795403274 105 110 103
-498.199394358651 212.935809480704 2314.1885075973 143 149 139
-497.351842441412 219.27174646428 2263.88963266064 193 198 191
-509.242026877497 216.523200323755 2278.53724105028 190 195 188
-521.418808188431 213.505155314806 2295.16516775634 113 118 114
-532.398187555431 211.314842742656 2305.89398048423 119 124 120
-543.313381614248 209.128051782195 2316.63079388508 121 126 122
-553.095938081935 207.765011695258 2321.45994104724 126 130 131
-563.022072365441 206.266953060673 2327.27945348028 124 128 129
-571.357104248559 205.998014411306 2324.22462482144 125 129 130
-580.553323133524 205.04681494037 2326.10279758535 119 123 124
-589.566607936244 204.232215543155 2326.99551234287 125 129 130
-599.227858286011 202.87427807958 2331.84002462255 135 139 140
-609.18086315515 201.246396235525 2338.6644530171 143 147 148
-619.568436856463 199.214132594823 2348.45877601018 145 149 150
-629.584125232713 197.455756047961 2356.28341262497 144 148 149
-638.936607055682 196.240673229762 2360.15815382182 145 149 150
-648.413493232106 194.891733601319 2365.02564996491 153 157 158
-657.116704753644 194.218551557809 2364.94900051902 153 157 158
-665.232484823127 194.083778715809 2360.91325250251 159 163 164
-673.650607830295 193.678506394698 2358.85610069069 164 168 169
-682.635165885092 192.735027741893 2360.76066714238 170 174 175
-690.916314376363 192.462800523328 2357.71233120388 171 175 176
-698.265144471851 193.12726285766 2347.72382639468 172 176 177
-704.870457975589 194.591104879892 2331.77915952718 179 183 184
-712.46267859249 195.113620159653 2322.76834193053 180 184 185
-719.971669225472 195.766383789833 2312.75964057249 174 178 179
-727.90132732244 196.015683585286 2305.72280647287 170 174 175
-735.499816957703 196.661670615892 2295.70295401439 168 172 173
-743.384144352015 197.03809019761 2287.66375505485 173 177 178
-750.843085233038 197.94277495478 2275.64526198826 174 178 179
-758.248416571459 198.975761348061 2262.62519383093 180 184 185
-766.38111900101 199.209319111147 2255.56306245507 181 185 186
-775.084747260784 198.778990414717 2253.47034726068 169 173 174
-783.37367843277 198.876096610503 2247.39700616866 162 166 167
-791.894093459729 198.70724481464 2243.31085184735 154 158 161
-800.729306904221 198.14146462226 2242.20975940472 150 154 157
-809.564298805073 197.575220765944 2241.10869583047 159 163 166
-817.928164920876 197.665370811824 2235.02578135051 175 179 182
-823.940811499588 201.165241296564 2203.02575935691 181 185 188
-828.345804691991 207.27487450258 2151.06406643931 186 190 193
-832.338107983013 214.413278955582 2091.08918822613 184 188 189
-839.983120356805 216.302319592235 2070.98290494809 146 150 151
-847.972418129866 217.792640421796 2053.85776819662 99 103 102
-856.983007752258 217.712553375599 2048.70252212668 94 98 97
-865.939535197577 217.760796800926 2042.54575737616 92 96 95
-875.357721573924 217.026718152254 2042.38004366432 112 116 115
-884.560473716514 216.681926446964 2039.21712840334 122 126 125
-893.773435870353 216.335974162837 2036.05270178091 168 172 171
-902.416959184394 217.154056031414 2023.88660789548 178 183 179
-397.231257613309 208.013295881921 2345.94919388809 64 64 64
-407.469982695896 206.522885211081 2351.72967669678 158 158 160
-417.671956315818 205.034248458517 2357.51474119919 144 145 147
-426.743355285736 204.229954213282 2358.4004167827 133 137 140
-434.724474486248 204.107552400712 2354.38144106786 129 133 134
-443.576352942359 203.439053579778 2354.28622653435 118 122 123
-451.791858195915 203.178326684644 2351.24629246689 106 108 107
-459.81112087927 203.05224074726 2347.22256637291 113 117 116
-466.000059250799 204.145727390165 2334.35413754135 130 135 131
-473.267714714831 204.557222098597 2326.39180322388 147 152 146
-480.773910544079 204.830482900202 2319.40775161133 126 131 124
-489.102131411761 204.560661759492 2316.35353498223 126 132 122
-497.442122872567 204.289525907506 2313.29809318367 191 197 185
-508.674215951639 207.649031083343 2278.6314703058 193 198 191
-521.227323151644 204.410688012433 2297.22862837795 129 134 130
-531.652877887799 202.656061722193 2305.00210621796 130 135 131
-541.849502604679 201.038158767815 2311.79586574798 116 120 119
-551.647115939254 199.690376551122 2316.62333398985 119 123 124
-561.588477846913 198.210309625519 2322.44089872489 127 131 132
-570.45562745522 197.533910170243 2322.34379924791 122 126 127
-579.488145110161 196.723851225397 2323.23434217079 124 128 129
-589.180082352264 195.380681044484 2328.07498601862 134 138 139
-599.334256039533 193.639638004807 2335.88205456939 142 146 147
-609.926338713905 191.50215746846 2346.65906050356 144 148 149
-619.02024373233 190.563388475073 2348.54996869792 146 150 151
-628.724753001514 189.094647923814 2354.39706141439 150 154 155
-637.93013583112 188.025112554532 2357.28208930375 152 156 157
-647.416640840957 186.691894170774 2362.14834367196 157 161 162
-655.831734196795 186.284963467881 2360.09157431 161 165 166
-664.106777165334 186.009153680371 2357.04400973921 158 162 163
-672.249926838029 185.863887936399 2353.00487379072 157 161 162
-681.532472424644 184.664162261818 2356.88854244266 164 168 169
-690.099941261576 184.122874350559 2355.82079844461 171 175 176
-697.588053923084 184.631206216708 2346.82276998809 177 181 182
-704.458506536165 185.791712624893 2332.86142861589 181 185 186
-711.917652465506 186.423586109184 2322.85924286438 180 184 185
-719.806101970131 186.659475719863 2315.82758666871 176 180 181
-727.354785653201 187.284627354196 2305.81400456789 172 176 177
-734.830869080805 188.036545725089 2294.80146161587 164 168 169
-742.479825527234 188.654234409433 2284.7753857204 168 172 173
-750.061530886916 189.398319196492 2273.74968240515 170 174 175
-757.697353194467 190.138448784742 2262.71723603061 180 184 185
-765.940173552138 190.225980704771 2256.64967450913 183 187 188
-774.425699519748 190.052155018065 2252.56788723473 174 178 179
-783.137690245273 189.618068586189 2250.47413834992 168 172 173
-791.854908544125 189.183138985369 2248.37949904658 148 152 155
-800.47762485334 188.87625444678 2245.28886900129 148 152 155
-808.431619779097 189.470240292517 2235.22478852755 157 161 164
-815.96240251664 190.703923652299 2220.17316205256 176 180 183
-822.01094135178 194.116908605103 2188.16864945877 181 185 188
-826.537443927897 199.956911856416 2137.20043031626 185 189 192
-830.989360641257 206.291604496225 2082.20922764007 179 183 184
-838.990122673392 207.615575547125 2066.09078539125 128 132 133
-847.152437940674 208.806010689456 2050.96046128278 77 81 80
-856.171045834411 208.714573255461 2045.80424447082 83 87 86
-865.210800764749 208.621308352439 2040.64515317755 93 97 96
-874.707788219028 207.762399608612 2041.4778616596 169 173 172
-884.053423370325 207.157861654921 2040.31317367273 173 177 176
-893.12934784139 207.060622827069 2035.14981936853 165 169 168
-901.709719050546 207.975573291604 2021.98342402551 152 157 153
-398.256510403915 198.345962896809 2352.90099720321 157 159 158
-406.907385899371 197.814172606377 2351.82281953563 149 151 150
-415.559353252075 197.281834980834 2350.7445070521 147 148 150
-424.21242174283 196.74909873442 2349.66605820281 120 124 125
-432.433944275188 196.483178363727 2346.62514662262 117 121 122
-440.880925881621 196.082607164263 2344.56438104799 122 126 127
-449.966915829447 195.281354915777 2345.44822775272 107 109 108
-458.418567794169 194.879647573106 2343.38664206823 99 103 102
-465.233061716592 195.540644651685 2333.4648283801 98 103 99
-471.488788093391 196.596581393157 2320.58816368665 108 113 107
-478.410469665762 197.250120416338 2310.65275298527 142 148 138
-485.776401111255 197.635287724114 2302.67822373859 153 159 147
-511.512731134591 196.398529153356 2296.44643729966 188 194 184
-520.663530018818 195.589266261163 2297.32221732802 129 134 128
-530.72345452285 194.12210106854 2303.12495217572 132 137 133
-540.565126731817 192.788264123604 2307.94688540616 120 124 123
-550.375094479286 191.455879574002 2312.77277134113 120 124 125
-560.856070535504 189.60063440363 2321.54728500248 127 131 132
-570.245584071795 188.533791760966 2324.40932737702 122 126 127
-579.614086722257 187.467869576973 2327.2739893619 131 135 136
-589.46431965296 186.01089766488 2333.10286563462 140 144 145
-599.936826684738 184.034082701349 2342.8866836968 144 148 149
-610.025926104779 182.321014420685 2350.70179946088 146 150 151
-618.631558871537 181.781236912748 2349.62928885242 146 150 151
-628.648605304769 180.07168632531 2357.4536274083 151 155 156
-637.847045290745 179.013402971811 2360.33949209172 154 158 159
-647.175612060564 177.826422559193 2364.21738400788 156 160 161
-654.842341050822 178.06398496209 2357.21339281636 158 162 163
-663.271618609535 177.652865923492 2355.15486437957 154 158 159
-671.420155194984 177.498955617538 2351.11507894136 153 157 158
-680.428404991649 176.57021210109 2353.01664999927 161 165 166
-689.007196354257 176.028143157769 2351.94749507378 171 175 176
-697.045723327531 175.999737221488 2346.91318030657 178 182 183
-704.311691590682 176.739689063677 2335.9268899983 181 185 186
-712.021067247465 177.091062426688 2327.90958993963 179 183 184
-720.022485709514 177.183402204935 2321.87214128624 179 183 184
-727.678184292448 177.657169009153 2312.85329012334 176 180 181
-734.890987247023 178.638371018182 2299.85762501117 168 172 173
-742.04991408796 179.742456925933 2285.86043234216 166 170 171
-749.395395276929 180.714218649881 2272.84799436263 169 173 174
-757.146199833934 181.299798204565 2262.80929298333 179 183 184
-765.610177642187 181.119700818675 2258.73021130812 181 185 186
-773.982269556936 181.064851554333 2253.65457951454 175 179 182
-782.58658555327 180.754898945631 2250.56625379917 171 175 178
-791.201541333114 180.443668795844 2247.47636339733 153 157 160
-799.627304998717 180.383847555932 2242.39404678007 147 151 154
-807.491213008569 181.07892873564 2231.33325529169 151 155 158
-814.652953357016 182.777742297227 2212.29522929103 174 178 181
-820.443082927931 186.482418666532 2177.29913519217 182 185 190
-824.902362530496 192.310138795308 2125.33141005958 184 188 191
-829.982932924669 197.617809765238 2077.31874997042 179 183 184
-837.744236156063 199.275981624074 2058.20624936376 119 123 124
-846.331246276556 199.801511616251 2048.06335261212 99 103 102
-855.749182543552 199.0742273698 2047.89765221964 121 125 124
-864.632284947226 199.219966478909 2040.74210663063 147 151 150
-873.838731744259 198.86481649134 2037.57875757678 123 127 126
-882.704720137579 199.130532685262 2029.41734466151 105 109 108
-891.877711000407 198.896308769672 2025.24992488902 92 96 95
-900.807345370201 199.156746044664 2017.08058323401 166 171 167
-398.602681130171 189.109993039417 2356.91310840251 162 166 165
-405.222318257108 189.761065010436 2347.01539755914 143 148 142
-413.888114976613 189.227637347183 2345.93536212298 134 139 133
-422.335960868324 188.824771505577 2343.87449473351 124 128 127
-431.439505129448 188.028462749096 2344.75613774521 117 121 120
-439.464620304232 187.885998426896 2340.73172442679 110 111 113
-448.351102695254 187.219774301122 2340.63218553645 117 119 118
-456.191539123401 187.205423705982 2335.62279455268 119 121 120
-463.026392276229 187.840336571065 2325.69826857606 105 110 106
-468.89622825344 189.122140134557 2310.8537917145 91 96 89
-476.04405598053 189.619275541105 2301.89849856026 91 97 87
-482.248443570791 190.761954422062 2288.02032511334 142 148 136
-511.137751431084 187.441177918578 2297.52474878239 191 197 187
-519.913231668911 186.895417649488 2296.43105796906 140 145 139
-529.793469309891 185.575813714035 2301.24790071072 141 146 140
-539.460771762948 184.386424717976 2305.08352675911 129 133 132
-549.28032140456 183.069644321918 2309.90817583736 128 132 133
-559.243985098912 181.625960792195 2315.72286162689 126 130 131
-569.170404862748 180.184231859257 2321.54219009141 129 133 134
-578.889154077715 178.872320251909 2326.3794056452 145 149 150
-589.750367288104 176.666801447519 2338.1306919541 145 149 150
-599.716487176362 175.103776009057 2344.95307260602 142 146 147
-609.802246076673 173.415289696996 2352.76878078021 143 147 148
-618.402940619969 172.875677476754 2351.69688599757 144 148 149
-628.259625197111 171.318041057605 2358.53290933755 147 151 152
-637.610785271401 170.143626175902 2362.407948652 148 152 153
-646.935254694905 168.970401499319 2366.28607539877 150 154 155
-655.191328576468 168.685142244092 2363.24114321147 149 153 154
-663.458540369844 168.398752880725 2360.19458378598 155 159 160
-671.306720273918 168.490074978908 2354.17626107872 155 159 160
-680.026431098804 167.822261970746 2354.09753847815 164 168 169
-688.051037865419 167.784174507383 2349.06522663513 173 177 178
-696.232815263746 167.618471575723 2345.02132399545 180 184 185
-703.370377122083 168.456462977681 2333.04287249675 179 183 184
-710.827460171781 169.039137348451 2323.04107374454 179 183 184
-718.714876942784 169.242275405551 2316.00963267797 181 185 186
-726.759333362846 169.317776477605 2309.96661721726 179 183 184
-734.343970652688 169.890772134198 2299.94892593852 172 176 177
-741.739265290508 170.709925730094 2287.93836052134 170 174 175
-749.543162902264 171.150812949039 2278.90134185174 172 176 177
-757.049469578858 171.961762223161 2266.87718466295 180 184 185
-764.615254825529 172.768412228478 2254.84537595347 182 186 189
-772.889822702715 172.826180691006 2248.77393091025 178 182 185
-781.507820281562 172.509829680304 2245.68367439549 176 180 183
-790.444879603877 171.821033523439 2245.57788324577 160 164 167
-798.675741360635 171.997158559144 2238.50389368197 151 155 158
-806.549288326214 172.664419719595 2227.4417323032 149 153 156
-813.435336179896 174.683288919422 2205.41420694629 172 175 180
-819.791016134785 177.555815726815 2176.3963300659 181 184 189
-825.22680403111 181.892850707349 2135.39594702392 182 186 189
-829.580530312338 188.056284225255 2079.40976183977 172 176 177
-836.830813920203 190.401079985449 2054.31238186603 105 109 110
-845.021994622706 191.513351272198 2039.17866136363 105 109 108
-854.308147608989 191.031728386707 2037.01338560864 112 116 115
-863.296265872335 191.037288482696 2030.85279091583 107 111 110
-872.603010419375 190.553248936045 2028.68495181999 92 96 95
-881.633323103555 190.554988787493 2022.51934184213 82 86 85
-890.757700448738 190.433130879279 2017.34976547043 94 98 97
-899.903051382096 190.309282392895 2012.17781722977 95 100 96
-394.629706044176 182.342469592476 2342.31046668953 162 168 166
-402.187443266472 182.451515664059 2336.32810256768 143 148 141
-411.993429774702 181.273388215416 2340.146392009 133 138 131
-421.115561167627 180.481476873048 2341.02546360736 131 136 132
-430.661135140136 179.433448520474 2343.86798101532 123 127 126
-438.047112319562 179.666323940279 2336.89927860175 112 114 113
-447.156151659537 178.874022331883 2337.77998503868 119 120 122
-454.378832418213 179.23101902152 2329.82340681714 120 122 121
-461.228791207384 179.84018486109 2319.89706355029 118 123 119
-466.097353422635 181.719230568378 2300.13729115912 103 108 101
-472.672628551401 182.574170649431 2288.22896508633 80 86 76
-479.506107635549 183.297808584333 2277.29668983285 137 143 131
-520.844553416483 177.057788760045 2304.40271888943 142 147 141
-530.336322057341 176.007962424084 2307.25195561961 141 146 140
-539.807203347388 174.958899371425 2310.10379695761 131 135 134
-548.542144601652 174.414049446873 2309.0151627724 129 133 134
-558.510191160495 172.989080864549 2314.82949258995 128 132 133
-568.267625722142 171.691424488528 2319.66160263179 135 139 140
-578.334576321826 170.144672491984 2326.47159762024 144 148 149
-589.030531375061 168.099501996508 2337.23515753166 142 146 147
-599.001243598023 166.557835798544 2344.0571491073 141 145 146
-608.929157562678 165.018385952747 2350.88423554713 143 147 148
-618.015195177035 164.104305646012 2352.77606053023 146 150 151
-628.185281796994 162.319480474967 2361.5891859067 148 152 153
-637.529645802278 161.159025618408 2365.46503656715 149 153 154
-646.543943852297 160.248022478855 2367.36580612015 153 157 158
-655.244390568088 159.585497814078 2367.28947363985 149 153 154
-664.086082106314 158.799002526807 2368.20376847989 157 161 162
-672.05576013658 158.754408368117 2363.17808828484 159 163 164
-679.906555847736 158.831379803717 2357.15947693228 163 167 168
-687.370155473178 159.276026795924 2348.16467526959 169 173 174
-695.283711813977 159.348014603038 2342.13824488569 175 179 180
-702.428037533619 160.155447766111 2330.15927003986 179 183 184
-709.632071149648 160.958596912073 2318.17261501463 180 184 185
-717.659854089453 161.021904357724 2312.1319526859 178 182 183
-725.714781080567 161.083032151187 2306.08766841133 175 179 180
-733.553042867185 161.386419747967 2298.05441049443 172 176 177
-740.952404432806 162.175097331832 2286.04365807493 164 168 169
-748.8773567435 162.471946967412 2277.99959891062 166 170 171
-756.840163214172 162.765904794316 2269.95058311766 172 176 177
-764.729764916892 163.17845857115 2260.9029436993 174 178 181
-772.662595195146 163.587720939887 2251.84991827809 179 183 186
-781.061284127032 163.508928272404 2246.77079011936 180 184 187
-789.584455383563 163.307143266452 2242.68437856533 168 172 175
-797.822931159575 163.466449225852 2235.60948310938 159 162 167
-806.386304659123 163.261147551209 2231.51806381412 151 154 159
-813.63786539315 164.741531154463 2213.4773313548 168 171 176
-820.428348442609 166.937579697532 2189.44565085987 180 183 188
-824.928445635212 172.369777408309 2138.48156062575 187 191 194
-829.005146071127 178.744057390842 2079.50608980936 185 189 190
-835.411778745445 182.221928786586 2044.43341678202 118 122 123
-843.790838547299 183.055106494539 2031.29259952687 102 106 105
-853.020382373944 182.688897177878 2028.12615695588 89 93 92
-862.412033236247 182.082890953005 2026.95573034696 100 104 103
-872.095911913614 180.999923337843 2029.7810801567 136 140 139
-881.123218144399 180.988387363276 2023.61588032786 136 140 139
-890.244719160845 180.855815897513 2018.4469313875 130 134 133
-899.32218141002 180.840066915555 2012.27524321015 137 142 138
-382.391255435542 175.77614813175 2330.75415179491 82 83 88
-392.699998041266 174.356915099309 2336.52570938688 177 175 176
-400.048495030032 174.577036142749 2329.56147759898 136 134 135
-410.541154185936 173.033619882033 2336.31809762309 131 131 131
-419.674822262245 172.246142060237 2337.1959581048 123 126 131
-429.449118556143 171.082515398308 2341.0181641102 120 123 128
-436.842473513355 171.298285676896 2334.04834577062 115 120 124
-445.326208278714 170.885994202198 2331.98278421522 115 120 123
-452.146956593697 171.472477599498 2322.060386245 115 119 118
-459.017305993551 172.055589591453 2312.13156696236 120 122 117
-464.10779828483 173.756726523669 2293.35201435562 111 114 107
-470.299441385824 174.829090674661 2279.47585678569 103 109 99
-463.305092104516 184.22374753778 2199.70299515747 117 125 112
-509.440350747999 170.157758822359 2294.75878805842 186 192 182
-521.591751400743 167.385893084249 2311.38923381622 149 151 146
-530.881387548672 166.471294459481 2313.25565227097 144 146 143
-539.7922085537 165.803818435267 2313.15307936232 143 145 144
-548.877379758996 165.012950284638 2314.03700089513 126 130 131
-558.833515233248 163.607699798914 2319.85252494997 134 138 139
-568.405425116601 162.449769788742 2323.69997258099 140 144 145
-577.609246558207 161.538246661712 2325.5768518358 141 145 146
-587.97426271502 159.770210016292 2334.36584721523 139 143 144
-597.789498245991 158.371845388904 2340.19893661634 142 146 147
-607.56736993178 156.975413136457 2346.0366837156 146 150 151
-616.827910477117 155.946558326374 2348.91472111733 150 154 155
-627.011005062363 154.188078070754 2357.72615379823 151 155 156
-636.522089631138 152.918838934009 2362.58917229573 152 156 157
-645.545473934495 152.015379166114 2364.48878807282 158 162 163
-654.702172052521 150.991198743393 2367.37977208574 155 159 160
-663.398207159347 150.331105122348 2367.30398374608 162 166 167
-671.514142653411 150.154427261051 2363.26832668888 163 167 168
-679.082461237559 150.459125685995 2355.26875263574 164 168 169
-686.827260634087 150.640383331704 2348.25516699564 170 174 175
-694.333557455538 151.05988708817 2339.25534345786 175 179 180
-701.617523851691 151.716574331652 2328.26702636336 181 185 186
-708.8256041502 152.489368199711 2316.28018654436 182 186 187
-717.113426204042 152.298903373904 2312.22311536816 176 180 181
-724.544018869166 152.944816349896 2301.21652855579 171 175 176
-732.395117671823 153.228215331368 2293.18172129448 169 173 174
-740.164760392391 153.62804341241 2284.14884529183 168 172 173
-748.327791543786 153.667087556375 2278.09136868242 169 173 174
-756.175947184579 154.060958358708 2269.04871041977 173 177 178
-764.067392964566 154.451506473778 2260.00089882259 175 179 182
-772.219163824526 154.601552287493 2252.9366077451 180 184 187
-780.720828899306 154.39352276924 2248.85289648011 182 186 189
-789.135451324557 154.302250889758 2243.77205304791 168 172 175
-797.169826922761 154.681750079945 2234.70619348262 161 164 169
-805.442730539962 154.82198876507 2227.62681157988 153 156 161
-812.987800450611 155.902082165451 2212.57380662384 167 170 175
-820.423739551364 157.212028143268 2195.518200774 178 181 186
-824.899705779881 162.509210846275 2144.5577177675 189 193 194
-827.560663079706 170.603107206705 2069.6301998614 170 174 175
-834.662675450788 173.049967555675 2042.5356802816 88 92 93
-843.127086464498 173.733287336368 2030.39205317477 97 101 100
-852.359570505153 173.361607801074 2027.22549835683 98 102 101
-861.602303260515 172.988675638022 2024.05742758988 134 138 137
-871.368854933329 171.79971250476 2027.88066680091 131 135 134
-880.471896164557 171.658134399486 2022.71404525127 142 146 145
-889.731859341613 171.282581643778 2019.5438311308 139 143 142
-898.806269009292 171.253529913334 2013.37255892989 134 139 135
-379.750486580674 168.10980516704 2322.03398848731 143 142 147
-390.312834703051 166.58434514128 2328.7818644533 168 164 165
-399.7078122157 165.677339132029 2330.63511693362 137 133 134
-409.532456700131 164.524689022055 2334.45101087614 128 126 129
-418.672203091063 163.742017303569 2335.32785989467 116 119 126
-427.58531081183 163.082221713511 2335.22522166001 114 117 124
-435.208431945791 163.157808719362 2329.23478612579 111 116 120
-443.917494332183 162.619206036024 2328.14936501841 114 120 120
-451.16553720225 162.935797449741 2320.18972816117 116 120 119
-458.040123431179 163.4937353772 2310.26044644231 114 116 111
-463.336737281693 165.02338049377 2292.46355006808 116 119 112
-464.510569634807 169.103251064431 2254.01156584865 117 123 113
-521.967075088166 157.992571991823 2316.40604864413 144 146 141
-531.244159509755 157.08671603563 2318.27401045661 144 146 143
-539.596594361416 156.784207201912 2315.21685814733 148 150 149
-548.318875513047 156.239715882117 2314.12980292372 134 138 139
-558.453057203435 154.733022103085 2320.93106210888 138 142 143
-567.849892173873 153.70871552535 2323.79231906325 143 147 148
-577.054670399336 152.805164080554 2325.66905792395 143 147 148
-587.085266252667 151.303578762941 2332.48347082497 144 148 149
-597.073137634257 149.804205096868 2339.30296939444 143 147 148
-606.692534787632 148.545773456839 2344.15244266055 146 150 151
-616.279941614044 147.288961728895 2349.00590386437 147 151 152
-626.150283344129 145.795612182459 2355.84005357521 148 152 153
-635.668265832179 144.542178044957 2360.70216963126 153 157 158
-644.39397742903 143.8837498355 2360.62291372404 155 159 160
-653.413282412624 142.98816201931 2362.52277757688 158 160 159
-662.123522454709 142.329793742709 2362.44545227039 162 164 163
-670.972537565563 141.553101615007 2363.35856708686 163 165 164
-678.257699677493 142.07464365019 2353.37838404112 169 171 170
-686.145864893421 142.121281944001 2347.3549488078 175 177 176
-693.382357710925 142.754058818209 2336.37261910236 179 181 180
-701.072482628733 143.030453046475 2328.35791887698 179 180 182
-708.539907929267 143.538589700814 2318.35478549669 179 180 182
-716.566951661705 143.57450189088 2312.3142875611 180 181 183
-724.371227547287 143.842220575827 2304.28536481653 177 178 180
-731.724426494454 144.574233731684 2292.28028217392 177 178 180
-739.735018730568 144.718850524587 2285.23362365118 176 180 179
-747.894976121648 144.744384241605 2279.17656620811 176 180 179
-755.853705555796 145.000292516698 2271.12839967609 177 181 182
-763.738843417417 145.369471239411 2262.08119127663 180 184 185
-771.884668135835 145.503472253601 2255.01768449586 182 186 187
-780.16889161902 145.519148536096 2248.94514533835 181 185 186
-788.376715120778 145.648214455782 2241.87391447234 176 180 181
-796.415658913553 146.005536946186 2232.80778349367 169 173 176
-804.595584002933 146.244397540002 2224.73205794604 162 166 169
-812.432429873824 146.940702391226 2212.66671306319 164 168 171
-819.958660732432 148.092239045893 2196.60818386801 174 178 181
-825.411407101951 151.991527569176 2156.61476466548 192 193 195
-826.112644424653 162.406332987213 2059.75489815398 187 189 188
-833.237855635787 164.780735611441 2032.65767431092 98 100 99
-842.381191364171 164.518838412955 2028.4940282005 119 121 120
-851.461366263864 164.36946008444 2023.33028077546 124 126 125
-860.867601156049 163.762823384121 2022.15803582616 122 124 123
-870.420308219192 162.928312463497 2022.98348631089 141 143 140
-879.749174472326 162.434562252482 2020.81291212961 142 144 141
-889.014724935488 162.053338279472 2017.64201568382 141 143 140
-377.106789273308 160.39321337021 2313.31432296178 161 165 168
-389.062827100137 158.163565908559 2325.93673227125 157 157 155
-399.142526110554 156.902267329558 2330.72877013686 142 141 137
-409.190968947354 155.64248217067 2335.52470460263 131 131 129
-418.32873432264 154.865105127767 2336.4020271656 113 117 118
-425.936781141236 154.928005933096 2330.41350622548 113 117 116
-433.144082940497 155.228499740679 2322.45899600549 112 118 114
-440.390264599986 155.526188205961 2314.49964119656 112 117 110
-447.884306691487 155.701562208827 2307.51736408003 108 110 105
-455.20550321115 155.993814852864 2299.54866217509 124 127 120
-462.3618839936 156.402464452616 2290.59253467433 127 130 121
-471.370781517806 155.736802887186 2290.4777176176 148 154 140
-509.452381886713 151.771190438406 2300.85206987474 185 191 181
-520.470249562247 149.806833464345 2311.57548444324 143 145 140
-530.131195876899 148.672047280244 2315.41175990557 147 149 146
-538.855838290635 148.12764442327 2314.32440977744 152 154 153
