ply
format ascii 1.0
comment KinectMotionCapture
element vertex 751
property float x
property float y
property float z
property uchar red
property uchar green
property uchar blue
end_header
-1338.60528176284 396.88614071267 2709.61843645943 201 205 206
-1337.79114216583 397.0911293017 2702.54977135089 198 202 203
-1338.97378957857 396.844391332419 2695.17104716957 207 211 212
-1345.14802325333 395.469062399712 2687.05150485009 201 205 206
-1347.32849893206 394.996398432001 2679.54910007122 220 224 225
-1349.50847640307 394.523630160449 2672.05673019458 172 176 177
-1350.69039448707 394.276242957265 2664.71513839786 204 208 209
-1354.8660948435 393.351728197055 2656.9636025021 207 211 212
-1355.04942455927 393.329629086462 2649.77471379771 220 224 225
-1357.22843040191 392.856099166195 2642.31950072394 208 212 213
-1356.41389506552 393.059152464634 2635.26422451511 233 237 238
-1352.60620664737 393.938868851677 2628.58447795644 156 160 161
-1345.80598945151 395.495082119813 2622.25568262129 155 159 160
-1344.99230650283 395.697251414126 2615.15681818421 210 214 215
-1346.17421780782 395.447825368036 2607.81330218259 184 188 189
-1344.36329335433 395.874981065335 2600.82350160646 189 193 194
-1341.55531799889 396.527372516965 2593.93558320602 204 208 209
-1336.75322623533 397.630479441504 2587.2522618895 198 202 203
-1327.96255334595 399.63547642664 2580.97359127128 202 206 205
-1304.21518015023 405.023292940819 2576.22706560733 190 194 193
-1164.92213651944 427.982452844246 2882.2831698443 227 231 232
-1185.11475909135 423.498482509215 2870.49017243342 228 232 233
-1195.30683055256 421.246188077378 2860.83996505375 217 221 222
-1196.50007181733 421.002271513836 2853.05022584402 214 218 219
-1204.69065891613 419.196535306275 2843.87879220406 218 222 223
-1217.8781420848 416.275439161341 2833.77322119746 216 220 221
-1232.06351298873 413.131342118977 2823.5447860766 205 209 210
-1236.25239120194 412.218443838682 2815.29068676837 204 208 209
-1239.44144264053 411.528699433703 2807.24472499444 217 221 222
-1256.62018215592 407.715927610475 2796.63158901788 223 227 228
-1278.79283159801 402.787870617577 2785.20110477442 212 216 217
-1295.96654883013 398.97547556429 2774.7846615726 209 213 214
-1308.14237702711 396.278644784939 2765.34138366082 206 210 211
-1316.32077949447 394.473988651965 2756.6566521169 202 206 207
-1324.49784894585 392.66939044581 2748.01475686387 204 208 209
-1324.68289769934 392.649114402325 2740.76063967919 187 191 192
-1327.86441718755 391.959574645402 2733.00927235345 190 194 195
-1332.04420997284 391.04699449785 2725.11060462884 188 192 193
-1337.22230429329 389.91124326851 2717.07271732533 187 191 192
-1340.40242793053 389.221534955395 2709.37572370838 195 199 200
-1339.58783712949 389.423705869646 2702.31234302614 192 196 197
-1339.77202990202 389.402577369765 2695.09076524043 202 206 207
-1345.94664925765 388.043470939224 2686.97356764997 196 200 201
-1347.12895411707 387.799101755977 2679.6200998475 203 207 206
-1350.30750488273 387.108611805054 2671.98374023817 170 174 173
-1351.4891920644 386.863870029038 2664.64468857214 215 219 218
-1356.66317320526 385.727236351811 2656.75728628283 218 222 221
-1359.84052647746 385.036224941036 2649.16716896294 206 210 209
-1363.0174819348 384.3450793637 2641.59245556812 221 225 224
-1361.2046213994 384.76824593713 2634.68336535456 206 210 209
-1357.39604892005 385.637037278544 2628.01711570893 144 148 147
-1348.59956693433 387.619870150716 2621.95101137023 194 198 197
-1348.78347049518 387.596357866198 2614.73817745484 160 164 163
-1346.97203479593 388.018307976288 2607.76276877566 166 170 169
-1345.16089431591 388.439879395371 2600.77541529699 201 205 206
-1342.35262810374 389.084005633496 2593.88999003529 195 199 200
-1338.54744412816 389.950571304415 2587.09824095871 200 204 205
-1334.74283019822 390.816745136767 2580.28379179789 193 197 196
-1317.97410869231 394.579297203998 2574.81808147686 201 205 204
-1148.5125036889 423.85076491389 2893.41496507458 213 217 218
-1166.70902020377 419.861676737 2881.94242511701 223 227 228
-1184.90329952678 415.872820914675 2870.56689664021 223 227 228
-1194.09610041781 413.868083207111 2861.11996550919 209 213 214
-1197.28914833708 413.185917568332 2852.92594492124 212 216 217
-1201.4814478282 412.2834520468 2844.54933211346 215 219 220
-1214.67011584593 409.397571738469 2834.43526515413 207 211 212
-1227.85700349906 406.511925337663 2824.39103216288 212 216 217
-1233.04613410836 405.389381058401 2815.9359890649 209 213 214
-1240.23332855885 403.826173911318 2807.13286323708 219 223 224
-1261.41071189561 399.178098169661 2795.783961844 222 226 227
-1280.58674420119 394.970900229805 2784.91184873231 205 209 210
-1293.76472772217 392.08606386709 2775.21648982773 210 214 215
-1303.94341643221 389.862360247981 2766.12002533628 207 211 210
-1316.11902010512 387.197996394631 2756.72970787631 202 206 205
-1326.29483796051 384.974456888238 2747.74562254163 203 207 206
-1329.4766312595 384.293006825787 2739.99223983295 188 192 191
-1332.65803105774 383.611661524434 2732.25434898107 190 194 193
-1335.83903353264 382.93006188757 2724.53171381628 186 190 189
-1338.02072641981 382.468780714212 2716.98463349466 186 190 189
-1341.20100871192 381.787132734301 2709.29009366071 188 192 191
-1342.38358103558 381.545816470301 2701.92012563044 196 200 199
-1341.56910291509 381.744953298042 2694.85840802173 196 200 199
-1347.74403592941 380.40202852497 2686.7463261804 198 202 201
-1346.92938737262 380.60079059436 2679.69086742613 185 189 188
-1352.10468069243 379.477852035275 2671.76688540122 167 171 170
-1351.28993056197 379.676221013122 2664.71497442645 222 226 225
-1355.46617066742 378.773229433131 2656.96545320202 190 194 193
-1359.64187042715 377.870021594256 2649.2368183588 197 201 200
-1365.8132329842 376.52624680704 2641.26336967659 218 222 221
-1364.99792907416 376.723802911983 2634.23222952583 157 161 160
-1359.19309701578 378.021913327377 2627.83136570236 193 197 196
-1353.38911690526 379.319736910959 2621.39689682755 201 205 204
-1353.57267321969 379.296016978072 2614.1974115481 163 167 166
-1351.76098264805 379.712390016538 2607.23530072318 204 208 207
-1348.95178502481 380.348601632101 2600.37778012049 198 202 203
-1343.15029787119 381.644861233873 2593.84419857063 197 201 202
-1340.3421738794 382.280366884847 2586.94395872129 198 202 203
-1336.53712362122 383.135493337037 2580.13470095354 190 194 193
-1323.75636442875 385.971295280889 2574.25250765647 187 191 190
-1297.01545917965 391.887988839411 2569.73764189379 213 215 214
-1161.30014869671 413.296300554138 2890.74033162208 217 221 222
-1172.49665124716 410.880065629972 2880.76561291252 221 225 226
-1190.69163359968 406.940241396828 2869.40592916296 215 219 220
-1197.88521248416 405.395257720792 2860.38216928584 206 210 211
-1203.07778483674 404.285784725275 2851.79732108725 211 215 216
-1206.27024665378 403.611817676186 2843.63501041911 206 210 211
-1219.45954545998 400.761240692104 2833.53419605172 199 203 204
-1227.64867535787 398.999166167384 2824.4665954237 206 210 211
-1235.8369563086 397.237134464129 2815.44154535813 203 207 208
-1248.02192524142 394.604731381611 2805.71019332356 215 219 220
-1270.1999479287 389.796002204969 2794.19782906264 210 214 215
-1287.37793943292 386.075738821306 2783.71325639122 205 209 210
-1295.55999917135 384.314283038924 2774.93197123361 209 213 214
-1305.73930352889 382.117664165279 2765.84052661903 203 207 206
-1316.91633754458 379.703491328541 2756.62891980165 197 201 200
-1325.09478278687 377.942157561202 2747.98903268464 197 201 200
-1331.27374595376 376.616108677824 2739.72823376201 181 185 184
-1334.45523300882 375.94272267977 2731.99547869822 186 190 189
-1336.63750312279 375.486806449463 2724.4409236049 183 187 186
-1337.82052943842 375.248430291392 2717.05636885504 185 189 188
-1342.99863473838 374.139564673043 2709.04692013234 186 190 189
-1345.17975581598 373.683357293704 2701.52763595917 193 197 196
-1342.36767254759 374.314755378548 2694.77772796686 191 195 194
-1345.54733473924 373.640654830079 2687.11552765744 194 198 197
-1349.72524098074 372.748890247054 2679.32226753789 162 166 165
-1356.89761119676 371.204424428685 2671.11864714239 188 192 191
-1357.08070343123 371.182448561421 2663.93917235911 186 190 189
-1359.26020274224 370.725262494842 2656.48222160321 196 200 199
-1363.43593022217 369.832880714444 2648.76412754599 213 217 216
-1367.61135705426 368.940245735005 2641.06683677037 140 144 143
-1368.79181234537 368.699973237711 2633.78073042227 122 126 125
-1364.98232553568 369.546767806864 2627.13592232217 188 192 191
-1360.17532488379 370.610671894226 2620.59303959118 170 174 173
-1361.35641461021 370.369447109277 2613.29043960845 188 192 191
-1359.54378242575 370.780372157476 2606.34995585385 200 204 203
-1355.73616722952 371.625738154603 2599.63046472574 198 202 203
-1345.94323222427 373.775342236746 2593.57077573282 200 204 205
-1337.1492026401 375.706989305669 2587.34453888445 199 203 204
-1330.35153730404 377.203344413572 2580.85173694597 191 195 194
-1321.55989971143 379.133994551974 2574.53094235364 189 193 192
-1303.79343401454 383.020534753612 2569.08549844832 193 195 194
-1160.89114022752 405.628281963939 2898.49247168836 210 214 215
-1163.08721072777 405.17673736595 2890.39391882568 217 221 222
-1172.28425604786 403.220262212816 2880.84224610595 217 221 222
-1189.48058432711 399.544272659133 2869.6885465733 211 215 216
-1199.67456050767 397.373337119941 2860.05125307572 206 210 211
-1206.86733917465 395.847475620364 2851.06997560309 212 216 217
-1209.05994809032 395.396489345123 2843.11663772943 201 205 206
-1220.25032364012 393.011114879866 2833.41451901472 196 200 201
-1230.43953838374 390.840726742096 2823.96390672465 205 209 210
-1243.62639307129 388.025791557652 2813.99688640063 201 205 206
-1260.80978152658 384.35132634377 2803.35055673304 212 216 217
-1275.99193405396 381.106784820966 2793.16475503228 202 206 207
-1288.17365060557 378.507234632835 2783.60511701791 205 209 210
-1301.35303645568 375.69296744638 2773.9307219792 208 212 213
-1311.53267386808 373.523358504781 2764.85526161211 200 204 203
-1319.71236593874 371.783722922593 2756.18061717497 194 198 197
-1325.89276162508 370.473854784078 2747.89052885574 193 197 196
-1332.07234625446 369.163932486284 2739.63208129973 178 182 181
-1331.25765444281 369.358087739839 2732.564041863 184 188 187
-1332.44138803055 369.122251017264 2725.1638959075 181 185 184
-1334.6235920572 368.671607183368 2717.60826004027 183 187 186
-1340.80103926542 367.361383651701 2709.43302686634 187 191 190
-1344.98006236256 366.480818513128 2701.5988164719 195 199 198
-1347.16131484642 366.029704643128 2694.08919029271 188 192 191
-1351.33940445597 365.148847854074 2686.29115067532 190 194 193
-1356.51567528658 364.053074624007 2678.36745696791 154 158 157
-1359.69421428348 363.386715464051 2670.75746710745 190 194 193
-1361.87377814197 362.935093984674 2663.30396843758 177 181 180
-1362.05654253983 362.912785263499 2656.13694925146 211 215 214
-1364.23596502314 362.460688125019 2648.69779007546 174 178 177
-1367.41325769788 361.793640447653 2641.13577152561 118 122 121
-1368.59379051458 361.555898120432 2633.84935191068 174 178 177
-1364.78400372106 362.391669029712 2627.20443186081 160 164 163
-1358.97870676592 363.656562632012 2620.78607215797 177 181 180
-1359.16185453863 363.632651369311 2613.60234866908 204 208 207
-1361.3408223627 363.179024750206 2606.17931691264 202 206 205
-1358.53048435872 363.798764643316 2599.34868027281 202 206 207
-1349.73423512737 365.706274797204 2593.18327856503 197 201 202
-1340.93925164378 367.61332793492 2586.96791634127 188 192 193
-1334.14078364845 369.090480571137 2580.48586697229 184 188 187
-1327.34330430428 370.567189943134 2573.96470174817 189 193 192
-1314.56213767503 373.331377594428 2568.02153858008 185 187 186
-1152.6748906075 399.636336353409 2900.28501058877 212 216 217
-1161.87390358294 397.704065202706 2890.6824234752 213 217 218
-1175.0725252859 394.922909019169 2880.29177671525 210 214 215
-1188.26936675687 392.1420467269 2869.97102314634 205 209 210
-1196.46390349069 390.422706768817 2860.73798972595 203 207 208
-1209.65753397535 387.642279199138 2850.54319939726 208 212 213
-1214.84993659378 386.559916847604 2842.00341910726 193 197 198
-1227.04052422023 383.992098882138 2832.12181558555 193 197 198
-1231.23136834286 383.122247915268 2823.84642740518 199 203 204
-1247.41812188525 379.705921319946 2813.31172539323 201 205 206
-1265.60234510057 375.865348933079 2802.48843977361 206 210 211
-1276.78670320432 373.510385626829 2793.05415685626 193 197 198
-1288.96925247929 370.943294116347 2783.49682475683 204 208 209
-1302.14954525882 368.164226728038 2773.82477860679 205 209 210
-1313.32918541827 365.809619187087 2764.57527129016 197 201 200
-1319.51084265617 364.515890416658 2756.25320637602 191 195 194
-1326.69086845944 363.010019359427 2747.79181919258 190 194 193
-1333.86994327661 361.504161405563 2739.36761390983 176 180 179
-1332.05623562209 361.907537153296 2732.47038218189 183 187 186
-1331.24155905874 362.098657385332 2725.39848801622 180 184 183
-1333.42422110739 361.653230173047 2717.83987705746 180 184 183
-1338.60312076355 360.571344839051 2709.81902670588 182 186 185
-1343.78158286965 359.489272762807 2701.82440160525 189 193 192
-1347.96044088026 358.619314927629 2694.00803266964 182 186 185
-1354.13624758781 357.324983049101 2685.91397917807 188 192 191
-1359.31268831799 356.242698882535 2677.9981287245 149 154 150
-1361.49252475901 355.796556595984 2670.53985972028 185 190 186
-1365.66916907848 354.92604774645 2662.80941786661 188 193 189
-1364.85331232239 355.115678472623 2655.79137519317 209 214 210
-1369.02923049888 354.244822771569 2648.08894109971 131 136 132
-1369.21154525363 354.221883520073 2640.93881850958 140 145 141
-1371.39039098913 353.774681433162 2633.52745656531 193 198 194
-1366.58179103154 354.811462557618 2627.01795769256 173 178 174
-1362.77213953519 355.635823837112 2620.35549897895 195 200 196
-1361.95708255559 355.823831192369 2613.30445521943 200 205 201
-1363.13790114763 355.587603288424 2606.00849258517 205 210 206
-1360.32720006583 356.198947147716 2599.18303126972 199 203 204
-1354.52353380541 357.445911059827 2592.68168684775 190 194 195
-1344.72987700065 359.540279713582 2586.59090073122 182 186 187
-1336.93302649457 361.210252215409 2580.22797173783 183 187 186
-1328.13955374942 363.091695150885 2573.92606635964 183 187 186
-1320.34502623965 364.760629071639 2567.47123147426 192 194 193
-1135.45367137182 395.485986511882 2904.00821444541 209 213 214
-1161.66071800151 390.015543026038 2890.7591115479 212 216 217
-1176.86076249798 386.850628070385 2879.95020180072 208 212 213
-1189.05828693929 384.314570859685 2869.84091056468 201 205 206
-1196.25326893058 382.826354906829 2860.81394043377 203 207 208
-1209.4478752736 380.081138793976 2850.61881753029 207 211 212
-1217.64073174315 378.38378987345 2841.48439172917 193 197 198
-1226.83214013979 376.476983852036 2832.1970356052 194 198 199
-1230.02323454915 375.827358455949 2824.11430415836 198 202 203
-1246.21149953642 372.454350213065 2813.57636634312 201 205 206
-1266.39648662413 368.243638744662 2802.37519443104 202 206 207
-1278.58144039419 365.708947575758 2792.75867532531 191 195 196
-1291.76428534421 362.965032099422 2783.02462492706 199 203 204
-1306.9442716126 359.802246195763 2773.00194623077 194 198 199
-1315.12621534486 358.105791918309 2764.29498860571 188 192 191
-1319.30930073631 357.247162586763 2756.32556265722 183 187 186
-1323.49185299045 356.388495134394 2748.37693263054 186 190 189
-1327.67387059381 355.529789964129 2740.44915810976 172 176 175
-1325.86042674727 355.927483697564 2733.53551494231 171 175 174
-1327.04441957624 355.696802750159 2726.12144802752 174 178 177
-1330.22648478213 355.047240442067 2718.39167687 178 182 181
-1334.40706135687 354.188138666989 2710.51979689603 175 179 178
-1341.58385479487 352.700773757852 2702.20461222153 178 182 181
-1350.75746913469 350.79459058059 2693.62270303031 168 172 171
-1355.93482340592 349.725837575198 2685.68567694676 178 182 181
-1357.11650831111 349.494450643699 2678.36105365701 143 148 144
-1356.30095499727 349.681599822942 2671.32848691557 155 160 156
-1364.47244901017 347.984389569532 2663.0198040258 202 207 203
-1364.65500842728 347.961835324821 2655.86053257354 183 188 184
-1368.83122888516 347.101672567195 2648.15776553539 140 145 141
-1368.01526468151 347.28791081316 2641.1402797009 176 181 177
-1368.19767020518 347.264587282099 2633.98619693703 146 151 147
-1366.38357047802 347.659697888637 2627.08608950553 200 205 201
-1361.57554462237 348.682278578021 2620.54823019501 193 198 194
-1365.75074264558 347.820977573945 2612.88420128456 201 206 202
-1365.93342590575 347.796559777686 2605.71808867825 193 198 194
-1366.11612590769 347.771837429042 2598.55099474034 184 188 189
-1359.31379770341 349.211605571233 2592.17967511942 184 188 189
-1351.51473276097 350.860140627969 2585.88027609232 184 188 189
-1343.71655765659 352.508291872148 2579.53636221466 184 188 187
-1333.92433662747 354.574309404631 2573.359019762 182 186 185
-1325.13103780648 356.430648083495 2567.02336180787 185 187 186
-1308.35894781134 359.960052655968 2561.43896789139 183 185 182
-1108.02542679554 393.333290167336 2917.69266126802 205 209 210
-1138.24006711965 387.105645597173 2903.44186171893 207 211 212
-1165.44922864029 381.499006867152 2889.98856325558 212 216 217
-1183.65149969797 377.754221557545 2878.56275422156 207 211 212
-1195.84920171875 375.250770568195 2868.47220782579 198 202 203
-1203.04421887129 373.781541283493 2859.46424989331 199 203 204
-1215.23922732437 371.278414139415 2849.48864996229 203 207 208
-1221.43197965842 370.016272501478 2840.76686608533 189 193 194
-1229.62383344514 368.340650469036 2831.68563247381 192 196 197
-1229.81505102486 368.319392317998 2824.18936167858 194 198 199
-1248.00438693159 364.576190123155 2813.2708029804 200 204 205
-1268.19074192393 360.419791833457 2802.07448592514 199 203 204
-1285.3750779977 356.883868387899 2791.53987552529 190 194 195
-1294.55975046428 355.002139918574 2782.55203401467 196 200 201
-1309.7406595798 351.880041318319 2772.53697414868 190 194 195
-1313.92464402176 351.032156119951 2764.54394641443 185 189 188
-1319.10773701961 349.977480255018 2756.39774596373 181 185 184
-1321.29192989649 349.542929073947 2748.79098277913 185 189 188
-1326.4736481918 348.488292224462 2740.68922756959 171 175 174
-1326.65850001178 348.46695825787 2733.44167131227 169 173 172
-1328.84185721845 348.032179413123 2725.86732456701 172 176 175
-1332.02400892442 347.390576609793 2718.14271898961 171 175 174
-1334.20654509129 346.955569341614 2710.59089127194 172 176 175
-1341.38386480975 345.487060350723 2702.2753837669 175 180 176
-1349.55931574497 343.811840831606 2693.84498739019 157 162 158
-1355.73588914125 342.549895182449 2685.75574288591 161 165 164
-1356.91765012487 342.321068815823 2678.43089552488 142 147 143
-1358.09929252782 342.092033942551 2671.11045882901 140 145 141
-1364.27412049021 340.829682701351 2663.08899643407 191 196 192
-1366.45391009498 340.393632948934 2655.65271932696 186 191 187
-1367.63477676953 340.164084368045 2648.36204920449 166 171 167
-1365.82021291292 340.554066872244 2641.47457539839 156 161 157
-1364.00618341563 340.943723922358 2634.57519231969 158 163 159
-1366.18532325573 340.506829967229 2627.15407903859 186 191 187
-1367.36629096305 340.276171010375 2619.86759275737 201 206 202
-1369.54498086744 339.838856669493 2612.46361314469 194 199 195
-1367.73136821277 340.227322401354 2605.54665926663 187 192 188
-1367.91393242812 340.202486155343 2598.38475004508 183 187 186
-1362.10881077477 341.416526962148 2591.9049371255 186 190 191
-1352.31309535622 343.456166133142 2585.83584446386 186 190 191
-1343.51651950688 345.288889478128 2579.60290780336 181 185 184
-1333.72354746887 347.327558206956 2573.42555234073 187 191 190
-1325.92740332957 348.95262846217 2566.98680351201 186 188 187
-1311.14901309672 352.022665703522 2561.20480677488 183 185 184
-1118.81535034505 383.254031650015 2915.38049383279 201 205 206
-1144.0286786375 378.12845494578 2902.23147552072 202 206 207
-1170.2390095337 372.799292212815 2889.00570850189 213 217 218
-1184.44030763563 369.919813363371 2878.42958515546 201 205 206
-1199.63999740906 366.836588742506 2867.7222520034 200 204 205
-1209.83620751386 364.77399304345 2858.11397598405 197 201 202
-1221.03146292059 362.5075044322 2848.35811081781 205 209 210
-1224.22371599329 361.873715691199 2840.24709897409 181 185 186
-1230.41590315472 360.627869642539 2831.56490094982 194 198 199
-1231.6070082666 360.402377450831 2823.87843266665 194 198 199
-1249.79732100729 356.708073931585 2812.96487475704 204 208 209
-1266.98557824548 353.218038321686 2802.33560728026 193 197 198
-1281.17177065061 350.340270305206 2792.35170385398 184 188 189
-1291.3570784524 348.278836557043 2783.17077521765 191 195 196
-1311.53786373793 344.177278016557 2772.25102429786 186 190 191
-1318.72087923557 342.728079257237 2763.73363985041 173 177 176
-1324.90347215243 341.48289686946 2755.42713072789 169 173 172
-1321.09049239726 342.277594530114 2748.86290138951 176 181 177
-1324.27391401147 341.644266374638 2741.09754807898 180 185 181
-1325.4581713915 341.418856691592 2733.67880146977 166 171 167
-1329.64013825491 340.581381763647 2725.7758054412 164 169 165
-1333.82157336186 339.743808328207 2717.89348652742 166 171 167
-1336.00435856002 339.314013301862 2710.34684709615 157 162 156
-1340.18486422827 338.476267176111 2702.50066844521 157 162 156
-1347.3618304402 337.026638261121 2694.21924917077 139 144 138
-1352.54014496467 335.984668190666 2686.27345051697 149 154 148
-1354.7209698706 335.554437880393 2678.79363393461 131 136 132
-1357.90048608776 334.920138814602 2671.17987458107 132 137 133
-1364.07576688126 333.673902169688 2663.15801658984 169 174 170
-1367.25428068189 333.039299794736 2655.58310947681 138 143 139
-1365.43940887525 333.423902550516 2648.70189506503 155 160 156
-1362.62640179671 334.012122797796 2641.94173173696 141 146 142
-1361.81079444018 334.192294145508 2634.90378491312 171 176 172
-1367.9838758152 332.94511256263 2626.96687321386 201 206 202
-1369.16454616037 332.71717674549 2619.68560798514 181 186 182
-1371.34348572017 332.285014461234 2612.28672764386 183 188 184
-1367.5331772381 333.075579867163 2605.61365880183 189 194 190
-1367.7157431932 333.050503081785 2598.4514233123 187 189 186
-1360.91222600571 334.451815459342 2592.08528243558 188 190 187
-1354.10945928494 335.85272110991 2585.68004921927 188 190 189
-1347.30791939977 337.253146959025 2579.2356766323 188 190 189
-1338.51189476513 339.060632457113 2572.96342292341 188 190 189
-1329.71689831794 340.867637291053 2566.64114319908 188 189 191
-1315.93493702794 343.69288496834 2560.7699020163 184 186 185
-1111.39483723643 376.881906583079 2924.78217250661 205 209 210
-1123.6027237268 374.442122131256 2914.37126677083 193 197 198
-1148.81734756275 369.384595358343 2901.23535611757 201 205 206
-1177.03056578629 363.723227304505 2887.59876596994 208 212 213
-1191.23243033446 360.881799775782 2877.04136051961 201 205 206
-1203.43161517696 358.443311626416 2866.97193719664 197 201 202
-1211.62743583189 356.810507425749 2857.78163912333 197 201 202
-1222.82313899147 354.573822241265 2848.03095006041 201 205 206
-1226.01547504583 353.948113979832 2839.92537120292 181 185 186
-1232.20797125925 352.718420805551 2831.24843806848 191 195 196
-1235.39931559657 352.092796510265 2823.18170910439 193 197 198
-1255.59087318518 348.044637934793 2811.89827603289 206 210 211
-1271.77986041101 344.802068872087 2801.47216617826 188 192 193
-1282.96704040627 342.566242348839 2792.05551386719 179 183 184
-1289.15368910049 341.336965588643 2783.60756915379 191 195 196
-1309.33612090071 337.289706071983 2772.6817688459 185 189 190
-1319.51889557569 335.255505143543 2763.62908408461 175 179 178
-1324.70231915928 334.227749839431 2755.49886842304 168 172 171
-1324.88719423904 334.206319651851 2748.25029977825 178 183 179
-1328.07056235787 333.580988271912 2740.49562357382 181 186 182
-1330.25395533087 333.156796402618 2732.92192164718 162 167 163
-1334.43611607675 332.330070151221 2725.03221390917 163 168 164
-1338.61750214242 331.503193162726 2717.16329671923 163 168 164
-1340.79985272469 331.078768645589 2709.63008523378 153 158 152
-1339.98475404059 331.257844265434 2702.57108122061 152 157 151
-1345.16425933532 330.229451587944 2694.59332149894 133 138 132
-1350.34285077741 329.20097523454 2686.64186367077 145 150 144
-1355.52100769638 328.172311333033 2678.71651192541 129 134 130
-1361.69704065429 326.942532861989 2670.67360347479 127 132 128
-1365.87506190765 326.114777985056 2662.94457698581 172 177 173
-1369.05366372183 325.488134711938 2655.37477586884 129 134 130
-1366.23992392126 326.068237392357 2648.63453383786 149 154 150
-1363.42662206972 326.648133449707 2641.87695338572 145 150 146
-1363.60930955033 326.624254701289 2634.71125461801 177 182 178
-1367.78573054443 325.795548556059 2627.03442561774 190 195 191
-1370.9633138402 325.167826012917 2619.50327289128 163 168 164
-1370.14733861497 325.344284088117 2612.47571662416 188 193 189
-1366.33656240704 326.123873627154 2605.79981830038 185 190 186
-1364.52301812557 326.500797498671 2598.8677994 183 185 182
-1359.71522590003 327.480645580354 2592.26560124437 185 187 184
-1352.91224135409 328.862249943526 2585.85748194271 186 188 187
-1350.10201456229 329.439136637169 2578.9764862807 185 187 186
-1343.30073097879 330.819868022387 2572.50095013761 186 188 187
-1335.50269248925 332.40114854922 2566.08922104139 191 192 194
-1323.71460865367 334.786097655862 2560.03390678026 188 190 189
-1105.17260922215 370.24954738885 2926.17946109489 185 189 190
-1129.39133021687 365.458093782072 2913.14441049442 180 184 185
-1149.60409323873 361.461724811635 2901.0971281091 201 205 206
-1175.81768285876 356.273822757494 2887.88634892341 200 204 205
-1191.02143122305 353.27159053878 2877.11668017305 197 201 202
-1203.22151551394 350.865603322006 2867.04700028914 191 195 196
-1209.41692037965 349.651704174579 2858.26402056882 200 204 205
-1219.61350677842 347.643322399627 2848.70857320191 193 197 198
-1225.80701859273 346.429717169682 2839.99989607397 182 186 187
-1234.00055925364 344.818883614551 2830.93162324059 186 190 191
-1241.19266643312 343.40678693471 2822.09874172685 197 201 202
-1256.38463293257 340.406074004652 2811.78185557587 206 210 211
-1269.5745983562 337.802568021319 2801.92027330199 181 185 186
-1275.76299166235 336.589422062889 2793.42146312302 173 177 178
-1286.9502190856 334.383379235619 2784.04426138868 188 192 193
-1304.13476449981 330.985984042338 2773.65021020766 180 184 185
-1314.31863692701 328.97876951889 2764.58359741015 164 168 167
-1316.50342991985 328.56005678177 2756.96106092791 151 155 154
-1317.68865184096 328.339848908643 2749.5195268035 166 171 167
-1319.87300457563 327.920983295055 2741.91403298867 172 177 173
-1324.05641246884 327.104908503556 2733.98701913005 166 171 167
-1330.23774456564 325.89175497523 2725.75485255757 158 163 159
-1335.41922526825 324.877030893087 2717.71456333744 153 158 154
-1338.60137974336 324.259284924603 2710.01546516492 146 151 145
-1337.78610448271 324.435439746493 2702.95090145883 141 146 140
-1343.96519441047 323.221979726354 2694.81536232054 121 126 120
-1350.1434715689 322.008375974246 2686.7114346951 139 144 138
-1355.32200579837 320.993175927071 2678.78579279822 117 122 118
-1361.49848918459 319.77945267296 2670.74251890443 98 103 99
-1362.68019834741 319.557779234083 2663.43670193091 127 132 128
-1365.85923420068 318.939092969529 2655.8584806857 128 133 129
-1366.04167551704 318.915519833236 2648.7027310124 123 128 124
-1367.2227203773 318.693276147769 2641.41294020889 181 186 182
-1368.4036443867 318.470824560046 2634.12764944663 194 199 195
-1369.58468635378 318.248068347628 2626.84674619509 152 157 153
-1369.7669953241 318.223540131307 2619.69514357233 170 175 171
-1368.95077775293 318.397124927762 2612.66464913059 184 189 185
-1367.13671824311 318.768754243772 2605.74708225286 188 193 189
-1364.32455079734 319.338445146904 2598.93420778525 188 190 187
-1361.51281636236 319.907750684518 2592.10399597976 190 192 189
-1358.70151576121 320.476700647021 2585.25644665586 191 193 192
-1356.88860826612 320.847006075372 2578.28310877523 187 189 188
-1349.08842199896 322.406861420184 2571.93231755795 187 189 188
-1341.28912770745 323.966272364305 2565.53686289104 194 195 197
-1329.49996149433 326.318285951625 2559.49781285798 188 190 189
-1314.71896519547 329.264747560496 2553.6849842121 173 175 172
-1098.94945858179 363.583793146851 2927.57695207645 169 173 174
-1127.17411338478 358.073539278035 2913.65563555876 176 180 181
-1158.39713455993 351.975956322538 2899.2416311256 195 199 200
-1174.60486906126 348.818124680178 2888.17379731605 197 201 202
-1184.80632765877 346.836237742344 2878.44705087198 196 200 201
-1195.00642360785 344.854473504101 2868.77369319415 191 195 196
-1205.20515812938 342.87304170709 2859.15390177095 201 205 206
-1215.40253220638 340.891702013407 2849.58738012642 188 192 193
-1224.59821817479 339.106372962942 2840.27259908315 181 185 186
-1233.79268251219 337.321249107318 2831.00578393407 182 186 187
-1241.9854984099 335.732158478726 2821.9798584489 199 203 204
-1257.17876030771 332.771910494953 2811.6651165735 199 203 204
-1270.36963443945 330.203723874327 2801.80594205017 180 184 185
-1278.55836225928 328.614941360766 2792.94012364079 174 178 179
-1286.74624264541 327.026201265742 2784.1167962098 183 187 188
-1301.93215269398 324.066683298227 2774.08084911803 169 173 174
-1311.11714399658 322.282250853046 2765.1850153685 154 158 157
-1310.30319029988 322.456250130249 2758.07581069587 144 148 147
-1313.48792501073 321.84685323177 2750.27550777198 164 169 165
-1316.6725032507 321.237344807388 2742.49052531247 172 177 173
-1322.85540174224 320.040306372987 2734.22376654218 168 173 169
-1328.03806916623 319.03904072364 2726.1515467684 140 145 141
-1332.22047316938 318.233529598465 2718.26578607389 146 151 147
-1335.40306086053 317.623710848136 2710.55826795368 142 147 141
-1335.58736843429 317.601081318197 2703.33059164815 138 143 137
-1342.76619436785 316.208005398674 2695.0372102611 117 122 116
-1348.94499328634 315.010527901531 2686.9302055759 138 143 137
-1356.12198551357 313.617189928701 2678.70821041192 120 125 121
-1358.30310427168 313.202513213659 2671.24293410943 98 103 99
-1362.48170026995 312.396245325798 2663.50519088365 105 110 106
-1365.66096179573 311.785451504822 2655.92662387314 126 131 127
-1369.83855613421 310.978880106335 2648.22770309584 137 142 138
-1370.02073972484 310.954835412523 2641.08151991476 193 198 194
-1369.20435215948 311.126301645216 2634.06471947228 155 160 156
-1368.38788485931 311.297552164668 2627.04147893815 166 171 167
-1369.5689515407 311.077070096469 2619.76205156663 187 192 188
-1368.75266087909 311.247733418268 2612.73127689818 183 188 184
-1368.93507482468 311.2223970069 2605.57470370026 187 192 188
-1364.12605907053 312.174988938319 2599.00038451449 185 187 184
-1365.30702895958 311.953425421864 2591.71425415891 186 188 185
-1361.49712314317 312.709672768678 2584.98859965933 187 189 188
-1360.68212862077 312.878667466971 2577.91470052922 186 188 187
-1354.87699129481 314.025341063517 2571.36316642766 186 188 187
-1347.07667931946 315.562815895822 2564.98393306303 191 192 194
-1337.28184323191 317.490915637095 2558.76071065073 186 188 187
-1316.51239084025 321.569772359077 2553.55507401485 175 177 174
-1133.96501689624 348.938199279732 2912.21055938486 188 192 193
-1160.18556828774 343.890955901011 2898.88804329387 184 188 189
-1171.39015772964 341.742653737717 2888.88494641551 197 201 202
-1178.59030120318 340.367369930649 2879.77750551825 194 198 199
-1188.79156080648 338.412604561934 2870.08765750888 188 192 193
-1199.9922375188 336.264920809979 2860.24747244783 207 211 212
-1212.19164242316 333.924148240348 2850.26504302036 185 189 190
-1224.38965050625 331.583564351864 2840.34673358672 183 187 188
-1234.58511869378 329.629590584724 2830.88408412934 181 185 186
-1240.77793930651 328.448336447412 2822.24648245322 205 209 210
-1252.97158481685 326.108223780879 2812.49918343756 191 195 196
-1264.16322686746 323.961447972024 2803.00375434457 170 174 175
-1271.35291711171 322.587356607264 2794.3061422126 162 166 167
-1282.54183524633 320.440765810921 2784.91737184509 174 178 179
-1295.72931979673 317.907992546614 2775.22869803768 166 170 171
-1302.91547368718 316.534092421756 2766.66950420144 149 153 152
-1307.10135357091 315.739506545196 2758.66894953149 140 144 143
-1312.28617050479 314.751776246994 2750.51792789421 154 159 155
-1320.46970348022 313.184750080776 2741.88782707808 165 170 166
-1323.65383501666 312.583133048461 2734.12877650904 174 179 175
-1325.83783495628 312.174564597325 2726.5481274472 129 134 130
-1327.02214945225 311.95889280389 2719.13760434516 130 135 131
-1328.2065905615 311.743064129021 2711.73128909892 131 136 130
-1332.38878209658 310.947962854883 2703.86500968885 128 133 127
-1340.567563382 309.38064436377 2695.41098271501 107 112 106
-1344.74864870834 308.585324296681 2687.59702763999 131 136 130
-1350.92712591035 307.40387064247 2679.51047712953 98 103 99
-1353.10874216042 306.994343157239 2672.0312859637 97 102 98
-1359.28611170652 305.812701104877 2663.99714898385 100 105 101
-1361.4666955233 305.402881437085 2656.54867037668 117 122 118
-1367.64271738406 304.220937967369 2648.56688196961 162 167 163
-1369.82274582683 303.810722849218 2641.14900948649 175 180 176
-1373.00118329335 303.207350702174 2633.61061838828 137 142 138
-1372.18459931757 303.375598186729 2626.59803830198 181 186 182
-1374.36375357774 302.964748659931 2619.20432593588 187 192 188
-1371.55012569244 303.518413163662 2612.43132259065 181 186 182
-1368.73693391117 304.071721487891 2605.64089235089 178 183 179
-1364.9258594213 304.817536559027 2598.94971228447 179 181 178
-1367.1053228156 304.405521253759 2591.55199095075 180 182 179
-1365.29133570359 304.764920554177 2584.60913807916 183 185 184
-1363.47764160691 305.123971759852 2577.65445939567 185 187 186
-1356.67380751474 306.447013637691 2571.2166634172 187 189 188
-1350.86916912899 307.576655904517 2564.63666686172 190 191 193
-1340.07516661071 309.670298623942 2558.52459052428 186 188 187
-1319.3039221939 313.691714051513 2553.32731640097 177 179 176
-1135.75191909475 340.792687259924 2911.85185632978 181 185 186
-1158.97137626713 336.387579497004 2899.17816410499 194 198 199
-1172.17873890974 333.887986329416 2888.74821182483 192 196 197
-1178.37834383717 332.722034578774 2879.85256136419 195 199 200
-1190.58195516133 330.413359548953 2869.74951913359 185 189 190
-1202.7839297674 328.104820164821 2859.71059116196 198 202 203
-1218.98668276711 325.034652142265 2848.93157813612 184 188 189
-1230.18439153043 322.917080983618 2839.23039859842 179 183 184
-1239.37978713901 321.180564703173 2829.97937721612 184 188 189
-1245.57247120837 320.015525186638 2821.35519735075 191 195 196
-1260.76770978141 317.136646948335 2811.05056872584 184 188 189
-1270.95942610544 315.21005040616 2801.76395064657 172 176 177
-1277.14902491242 314.0452289485 2793.26991244626 162 166 167
-1283.33781513156 312.880442702784 2784.80751446753 172 176 177
-1292.52576837562 311.144470469666 2775.83862584031 160 164 165
-1299.71289407559 309.789334524783 2767.27092264116 148 152 151
-1303.89904237397 309.005423733697 2759.26201469333 132 136 135
-1317.08341292615 306.508050476685 2749.73305652505 141 146 142
-1323.26753599571 305.34330637802 2741.453112174 162 167 163
-1327.45132554822 304.559333333143 2733.53632534262 173 178 174
-1326.63623610584 304.727066027558 2726.45545618343 129 134 130
-1326.82105062386 304.704271525102 2719.20778960478 122 127 123
-1329.00499673034 304.300575813588 2711.64380128944 120 125 119
-1331.18868893368 303.896767641164 2704.08961563601 125 130 124
-1336.3700142094 302.921910712523 2696.088882528 105 110 104
-1336.55429357357 302.898508445139 2688.86147904499 123 128 122
-1341.73485853347 301.923370646532 2680.89948492476 88 93 89
-1345.91542414576 301.138425325288 2673.10765689021 102 107 103
-1356.09004538296 299.211698495876 2664.48903413245 90 95 91
-1359.27017561104 298.616758506819 2656.89353785046 97 102 98
-1367.44454804626 297.070420063339 2648.6343507749 136 141 137
-1368.62591666276 296.855679459195 2641.34928747518 159 164 160
-1369.80692913827 296.640706700427 2634.06856934115 170 175 171
-1370.98782316573 296.425585418757 2626.79232109526 170 175 171
-1374.16603719208 295.829715119947 2619.27071771962 172 177 173
-1375.34655159361 295.614124724533 2612.00880287165 180 185 181
-1373.53155660593 295.96880763377 2605.1096019632 179 184 180
-1370.71822830236 296.513449541983 2598.31520215775 162 164 161
-1368.90365621003 296.867512837806 2591.38948295281 158 160 157
-1367.08961758767 297.221190897263 2584.45182504435 180 182 181
-1363.2790285114 297.954936081967 2577.71938882982 191 193 192
-1361.46571900842 298.307909867179 2570.75247821494 191 193 192
-1352.66567125558 299.991539918142 2564.49515067391 190 191 193
-1342.86891401427 301.864753542782 2558.28808112068 176 178 177
-1321.09773327952 306.018906437318 2553.19681890025 185 187 184
-1139.54117952149 332.281713314869 2911.05797600315 170 174 175
-1157.75677783071 328.878012427564 2899.46819720583 195 199 200
-1169.96428730673 326.601280066335 2889.24709927421 194 198 199
-1185.17264220126 323.761556559742 2878.46255591485 192 196 197
-1199.37842479883 321.109823337924 2867.96502344641 182 186 187
-1210.5797474016 319.021629701757 2858.15414586488 201 205 206
-1221.77957045373 316.933625221973 2848.40207901893 186 190 191
-1229.97623856802 315.408896642554 2839.30402736492 176 180 181
-1236.17062511131 314.259875972743 2830.63983351296 183 187 188
-1245.36543869386 312.547675446782 2821.42834332023 176 180 181
-1262.56272967337 309.33396326246 2810.7427007508 182 186 187
-1274.75560403365 307.058999644556 2801.08616819303 170 174 175
-1279.94516895498 306.097971038634 2792.78757376709 161 165 166
-1287.13433324412 304.761681651481 2784.15110663506 169 173 174
-1293.32248827344 303.613029578466 2775.73085770708 159 163 164
-1298.50959886165 302.652087340179 2767.51895506849 145 149 148
-1302.69611445408 301.878822174775 2759.5071224497 133 137 136
-1311.88186111452 300.167201805224 2750.65994669833 133 138 134
-1320.06659713428 298.643279136483 2742.02910795804 157 162 158
-1324.25089239653 297.869884857568 2734.10391490231 170 175 171
-1324.43581933613 297.846910377669 2726.85166125342 122 127 123
-1324.62077035854 297.823869467188 2719.59839503653 120 125 121
-1325.80525450989 297.613014049652 2712.18641266832 115 120 114
-1329.98818599651 296.839232608505 2704.31410498359 119 124 118
-1332.17183863825 296.440476568643 2696.76689012584 104 109 103
-1336.35384275744 295.666431857178 2688.9305444934 118 123 117
-1340.53531209324 294.892289444073 2681.11499514388 88 93 89
-1346.71481456124 293.742819938555 2673.03204059044 99 104 100
-1350.89507805216 292.968488393754 2665.26341676109 85 90 86
-1353.07675737836 292.568997306609 2657.79253667306 93 98 94
-1362.2513422082 290.856567333903 2649.3807346386 135 140 136
-1365.43090708577 290.269280238394 2641.81555130075 147 152 148
-1369.60888913854 289.494235658271 2634.13532837529 161 166 162
-1368.79236316695 289.656525814586 2627.11408476388 183 188 184
-1371.97094381692 289.068600462732 2619.58668313939 183 188 184
-1373.15167340299 288.855473579135 2612.31900326324 165 170 166
-1372.33520555559 289.016998023022 2605.29466579415 159 164 160
-1369.52172000537 289.553189099305 2598.49733788028 153 155 152
-1367.70706720895 289.901572071175 2591.56867377607 164 166 163
-1366.89127951961 290.062165199514 2584.51675339874 184 186 185
-1364.07888723693 290.597284969224 2577.67554651553 188 190 189
-1361.2669311246 291.132078551306 2570.81694234928 189 191 190
-1352.46620548067 292.790951161214 2564.55952650662 185 186 188
-1342.66869627483 294.636726208046 2558.352384901 172 174 173
-1321.89407755517 298.543263225109 2553.16364263285 184 186 183
-1134.12299104793 325.481325331127 2919.95835947439 166 170 171
-1151.34039539806 322.311207065087 2908.52409970835 170 174 175
-1164.55106513107 319.881705981627 2898.04015436025 195 199 200
-1177.7599597303 317.452407403575 2887.62580482451 193 197 198
-1192.96912502415 314.653307973337 2876.86253204493 190 194 195
-1208.17599858863 311.854551716232 2866.17987167262 181 185 186
-1219.37775909322 309.796037820799 2856.39307197916 195 199 200
-1226.57475952019 308.477948669396 2847.46988344659 184 188 189
-1230.76869764312 307.71492129166 2839.17894517063 176 180 181
-1238.96481321033 306.211856645144 2830.12575003313 178 182 183
-1250.16130558623 304.154058191703 2820.53629045716 153 157 158
-1269.36036592799 300.616423989453 2809.48308789132 187 191 192
-1279.55295514854 298.743882287409 2800.22039391667 172 176 177
-1283.74202700766 297.981250161847 2792.12007047977 165 169 170
-1286.93035797429 297.403663103334 2784.22269316646 165 169 170
-1290.11829711361 296.825910274679 2776.34045183049 157 161 162
-1296.30629919044 295.693354017637 2767.94346326314 143 147 146
-1301.49325306248 294.745777730579 2759.75203696393 136 140 139
-1308.67964153374 293.428323088483 2751.24428170966 124 129 125
-1314.86521675879 292.295722709378 2742.94209554166 152 157 153
-1318.05036472662 291.717872703316 2735.16883851516 157 162 158
-1321.23511784022 291.139857732967 2727.41083663411 139 144 140
-1321.42027347291 291.116552282734 2720.14928949607 113 118 114
-1323.60486413002 290.723218316639 2712.57123555352 110 115 109
-1325.7889612524 290.329838821665 2705.00309698397 111 116 110
-1326.97335558626 290.121168001869 2697.59697064673 104 109 103
-1332.15562059091 289.172826251318 2689.59730442109 108 113 107
-1336.33766910579 288.409273054073 2681.77048863156 85 90 86
-1343.51713836925 287.091079682879 2673.53236679665 75 80 76
-1345.69957238271 286.696969448088 2666.03776846118 79 84 80
-1350.87904800921 285.7482030732 2658.13734007941 81 86 82
-1359.05542027418 284.244842893537 2649.8554642673 121 126 122
-1363.2343795861 283.480641663324 2642.14868942271 181 186 182
-1364.41588991248 283.270637981671 2634.85384896441 168 173 169
-1366.59634113179 282.875615165928 2627.43576523414 158 163 159
-1370.77403994256 282.11081922173 2619.77761658323 134 139 135
-1372.95383677584 281.715370431676 2612.38465114714 144 149 145
-1373.13590737972 281.689195132381 2605.24059619974 160 165 161
-1370.32212692388 282.21700203499 2598.44579193884 190 192 189
-1368.50725405204 282.559681768474 2591.51960544631 198 200 197
-1369.68837016523 282.347859292738 2584.24754411274 189 191 190
-1367.87388065245 282.689956812737 2577.30574948404 184 186 185
-1366.05968704933 283.031645448393 2570.35195065234 186 188 187
-1355.26154322603 285.035188620489 2564.31431369464 172 173 175
-1344.46494356163 287.038170645918 2558.21572314159 164 166 165
-1327.68107005366 290.14856834212 2552.64197241377 180 182 179
-1154.13025008171 314.046352229198 2907.94655984436 176 180 181
-1168.34304190152 311.469637355007 2897.25563161312 195 199 200
-1178.54924851295 309.622579554863 2887.48808548065 191 195 196
-1197.76338418227 306.134802103367 2875.88989444128 187 191 192
-1207.96624731294 304.288184290079 2866.2534955432 181 185 186
-1222.17159310254 301.712521465768 2855.85471357763 188 192 193
-1223.36380246252 301.507021730429 2848.14655381325 182 186 187
-1229.55988538689 300.389989731804 2839.45040648345 178 182 183
-1233.75366013569 299.637659230152 2831.17733891672 172 176 177
-1248.95405424869 296.880327453203 2820.80172115878 161 165 166
-1266.15338461952 293.758774881682 2810.12600121773 188 192 193
-1277.34735519961 291.730937098071 2800.66727161771 171 175 176
-1281.53686163564 290.978902676055 2792.56134240749 165 169 170
-1285.72607799072 290.226942346562 2784.47615490879 158 162 163
-1291.91495712013 289.110480909831 2776.05284467836 152 156 157
-1299.10365458565 287.811794565371 2767.48432266996 139 143 142
-1303.29069495245 287.059786481145 2759.47480426775 132 136 135
-1308.47721267523 286.125560509786 2751.31475873337 121 126 122
-1317.66329679835 284.462465727938 2742.50649681023 145 150 146
-1318.84847792639 284.256916498378 2735.07297155458 143 148 144
-1321.03358338663 283.869027248613 2727.48064343883 159 164 160
-1319.21903393624 284.209700268529 2720.53966186127 114 119 115
-1319.40434817854 284.185872439514 2713.27135482065 109 114 108
-1321.58910908777 283.797624776166 2705.69210811529 110 115 109
-1320.77480643118 283.95557183218 2698.57930636498 104 109 103
-1329.95568070977 282.292156651584 2689.96499440624 103 108 102
-1333.13878248424 281.721363467263 2682.27928677597 93 98 94
-1340.31898757668 280.421940217012 2674.03256010609 84 89 85
-1340.50304960293 280.397155353984 2666.81216641693 60 65 61
-1343.68489877511 279.825915400402 2659.17493511744 94 99 95
-1350.86301405419 278.526148232197 2651.00951632011 163 168 164
-1362.03680329047 276.497948342144 2642.34847953439 143 148 144
-1368.21377089509 275.380063499745 2634.39850940182 137 142 138
-1367.39692563714 275.536529918106 2627.37416673776 147 152 148
-1369.57720081781 275.146475530894 2619.96829792305 134 139 135
-1369.75946073735 275.120309849431 2612.81685419055 166 171 167
-1371.93935622579 274.729756356603 2605.42528916228 183 188 184
-1371.12265923683 274.885132968177 2598.39398148181 196 198 195
-1369.30780618639 275.222162498734 2591.47027833582 187 189 186
-1370.48869037528 275.012865684142 2584.20066847903 182 184 183
-1368.67398147751 275.34922977242 2577.2612920585 190 192 191
-1366.85980680645 275.685208422868 2570.30994714241 191 193 192
-1355.06225176372 277.840495342461 2564.37820689854 168 169 171
-1344.26482441524 279.813298072513 2558.27956090344 162 164 163
-1328.47780217296 282.695152096487 2552.60817868978 181 183 180
-1159.92456545795 305.258233539193 2906.71625801124 169 173 174
-1168.13035580339 303.79709731639 2897.32995853758 197 201 202
-1179.33843266968 301.797374153096 2887.35009371979 187 191 192
-1192.54735994011 299.438679288452 2877.01027611002 181 185 186
-1200.74910941652 297.978201861914 2867.77329037285 177 181 182
-1217.95897279786 294.901587121625 2856.74347946284 185 189 190
-1222.15430633504 294.159765093104 2848.42077223523 181 185 186
-1231.35323731559 292.520111772021 2839.12625546642 172 176 177
-1236.54811397088 291.598872108654 2830.66278237885 171 175 176
-1251.7494285945 288.882198247628 2820.29484321582 175 179 180
-1267.94901802764 285.986210605962 2809.81717002079 193 197 198
-1279.14391575638 283.988102368801 2800.3634503249 174 178 179
-1280.33204839684 283.785308486544 2792.81752821886 169 173 174
-1285.52199041718 282.86436223959 2784.54723280732 154 158 159
-1289.71073374932 282.123004301635 2776.482591927 150 154 155
-1297.90007630121 280.663639256179 2767.73170616874 136 140 139
-1302.08748313902 279.922247007228 2759.71926327612 138 142 141
-1308.27476573725 278.821812430051 2751.38488421075 121 126 122
-1316.46150789319 277.362446329655 2742.7449545904 135 140 136
-1319.64696026737 276.800360310954 2734.97672646459 137 142 138
-1321.8319057392 276.41773844722 2727.38698217545 178 183 179
-1319.01732564999 276.93216392034 2720.6090624086 149 154 150
-1317.20316188155 277.26690927769 2713.65596716503 105 110 104
-1316.38872762715 277.422073608755 2706.53599604932 105 110 104
-1315.57469398938 277.577038120416 2699.40947768519 103 108 102
-1322.75753280674 276.29656993626 2691.08016841156 95 100 94
-1326.94080482503 275.554207836734 2683.22828723875 102 107 103
-1333.12256271295 274.452933361266 2675.1089311726 82 87 83
-1331.30846617685 274.786580476568 2668.15202904859 78 83 79
-1335.49041755324 274.043819731382 2660.35133510094 94 99 95
-1344.66821900454 272.404056737808 2651.89184056289 102 107 103
-1358.84059239732 269.867514868514 2642.8144143679 108 113 109
